# .PCD v0.7 - Point Cloud Data file format
VERSION 0.7
FIELDS x y z
SIZE 4 4 4
TYPE F F F
COUNT 1 1 1
WIDTH 576
HEIGHT 1
VIEWPOINT 0 0 0 1 0 0 0
POINTS 576
DATA ascii
13.612823 24.345695 -1.7738394
13.668241 24.409588 -1.7099594
13.596164 24.277208 -0.55861628
13.658743 24.241783 -1.9388072
13.649081 24.58522 2.5131993
13.772165 24.106379 -0.16845372
13.763341 24.119467 1.1390264
13.756714 24.224678 0.3665764
13.717318 24.549606 -0.85064191
13.70995 24.484104 -0.17437252
13.755891 24.087076 -0.6443606
13.915483 23.664505 -0.52676749
13.601492 24.355631 0.70014578
13.858184 24.010979 -0.2519871
13.68624 24.095367 -0.42743975
13.799756 23.875408 -0.161652
13.72366 24.480785 -1.7217103
13.794605 23.964926 -2.0699255
13.874398 24.000694 -0.56465137
13.934191 23.604294 -0.38967878
13.54038 24.682068 -0.01911938
13.729716 24.577431 0.20887884
13.616763 24.304991 0.15375187
13.709271 24.228241 2.647759
13.688052 24.324547 2.5630958
13.584499 24.304014 0.9436928
13.588309 24.373699 -1.4356992
13.671496 24.065317 1.3843113
13.614799 24.353041 0.4752897
13.946039 23.817829 -0.93708998
13.755958 24.322145 -1.5164744
13.615814 24.52035 0.70597887
13.61293 24.353191 -1.8054805
13.554361 24.558159 -0.90858245
13.582376 24.55574 -0.85607433
13.566586 24.670279 0.58258998
13.578508 24.522799 0.43974134
13.738002 24.200623 -1.1566708
13.619026 24.485451 -1.1325685
13.671868 24.468302 -0.22892667
13.576033 24.504303 -0.36887807
13.608189 24.33679 -0.26211989
13.581944 24.331297 -0.14056814
13.597548 24.382946 -1.0624555
13.52696 24.412033 -0.38124883
13.606408 24.378658 -1.1352901
13.578451 24.309782 -0.8525933
13.611617 24.392824 -0.25346413
13.609051 24.28747 -1.0481195
13.551399 24.716545 0.95516926
13.617172 24.363735 0.06336917
13.524566 24.662817 0.75473076
13.607222 24.291479 0.095348664
13.59129 24.514648 2.6865044
13.600334 24.386192 -1.5128388
13.604112 24.301983 -1.6321834
13.584309 24.309032 -1.8256197
14.029098 23.942574 -0.90635937
13.568156 24.219208 -0.44919235
13.733382 24.447512 -1.6759197
13.609618 24.367878 -0.94875509
13.581085 24.388311 -1.2197707
13.634399 24.278553 -1.9160671
13.67466 24.307337 -2.0399549
13.590427 24.313965 2.1445835
13.740074 24.199183 1.1993616
13.736344 24.333914 1.451002
13.609203 24.330669 2.0929937
13.732688 24.311846 -1.7353033
13.702261 24.526205 -0.62551898
13.74648 24.387383 2.0572689
13.535194 24.704472 -0.32673869
13.547837 24.724724 1.1515245
13.616105 24.31933 2.2593553
13.595952 24.191654 2.021805
13.737988 24.162468 1.0776284
13.747441 24.161516 1.343909
13.81095 24.008682 -0.20908558
13.840084 24.118063 0.48066893
13.807619 23.860191 -0.95872211
13.77603 24.173904 2.3903053
13.677795 24.234945 -0.73949683
13.739089 24.306227 2.0729601
13.559541 24.542236 -0.49291798
13.617458 24.331747 -0.46258232
13.869385 24.184235 1.2325851
13.753326 24.285477 -1.8738389
13.611621 24.209299 -1.5914662
13.673609 24.216827 -0.1229939
13.682713 24.171181 0.68776631
13.597004 24.498783 2.7889228
13.644034 24.194365 -1.1505947
13.545898 24.699615 -0.41969553
13.743299 24.323338 1.6493536
13.766969 24.554794 0.071752913
13.771315 24.546356 0.28651732
13.947178 23.972765 -1.0434912
13.730522 24.487442 -0.88235116
13.933829 23.99493 -0.83684182
13.916574 23.955841 -0.82843882
13.59497 24.33288 2.3838184
13.753757 24.520472 0.16363132
13.667176 24.482613 -0.4288708
13.945483 23.979725 -0.53883588
13.943879 23.98192 -0.45310801
13.894101 23.968239 -1.0300113
13.943314 24.008774 -0.65943003
13.759114 24.511328 0.74574685
13.743987 24.46863 -0.46937326
13.726142 24.460258 -0.7849673
13.881984 23.952574 -0.44739455
13.754562 24.498808 0.5652377
13.718568 24.452887 -0.078307904
13.725116 24.462017 -1.1981915
13.750306 24.465216 0.021219177
13.723712 24.465456 -0.89260334
13.911242 23.957684 0.27978107
13.752808 24.481392 0.25647628
13.740324 24.4856 -0.3324731
13.963323 24.005011 0.34499332
13.740363 24.466002 0.36105305
13.74259 24.338722 2.1479943
13.964073 23.968651 0.47267666
13.82296 24.350431 2.3336375
13.773621 24.311686 1.7725626
13.726722 24.322857 1.9826025
13.724909 24.325779 1.8798795
13.759241 24.498325 1.1624892
13.755357 24.466408 0.92527533
13.743664 24.48406 1.9668181
13.753209 24.495218 1.2641282
13.691304 24.461245 2.139225
13.731952 24.500605 1.8430505
13.763433 24.475737 0.86810875
13.683904 24.490097 2.8525562
13.740533 24.490482 2.0596657
13.737939 24.48513 2.2494056
13.700213 24.46084 0.1788124
13.6936 24.46521 2.5611172
13.773093 24.499256 0.66310048
13.755116 24.46302 -0.135772
13.747268 24.498545 1.6807336
13.775133 24.572287 0.62588441
13.748856 24.50477 1.0666451
13.744915 24.386843 1.861758
13.732791 24.480309 2.3589778
13.673698 24.492445 2.7769182
13.70323 24.474594 2.3914461
13.677959 24.477077 2.6385746
13.73994 24.386913 1.4632952
13.730117 24.479256 2.1549218
13.634309 24.472494 -0.78800237
13.923286 23.730839 -0.82683498
13.714979 24.160242 -0.58336258
13.677855 24.223282 0.076172143
13.654976 24.468826 0.67898571
13.530221 24.69553 0.81345153
13.938969 23.871853 0.36038458
13.884912 23.866642 -0.63791883
13.934937 23.869633 0.46161368
13.881631 23.872988 -0.73987556
13.746564 24.389727 1.9555197
13.734178 24.323051 1.3607078
13.680837 24.473127 2.259464
13.754814 24.557398 1.7685406
13.612016 24.31715 -1.5233313
13.675873 24.659412 2.6473613
13.547441 24.820467 -0.43988264
13.597717 24.400188 2.3816016
13.61015 24.394665 -0.58953542
13.741533 24.318117 -1.3286041
13.672961 24.389851 1.9603338
13.682938 24.392103 1.560784
13.600364 24.410791 2.7490146
13.671771 24.381836 -1.3338872
13.800876 24.10251 0.30703926
13.696192 24.324114 0.46159878
13.88934 23.869823 -0.33943236
13.689997 24.370762 -0.33581239
13.938035 23.868425 -0.84171885
13.879305 23.872353 -0.83882821
13.88993 23.864899 -0.14573234
13.681446 24.377569 -0.93418092
13.942747 23.865721 0.26174375
13.734076 24.374889 0.36434725
13.672206 24.392477 2.4633355
13.680885 24.391043 1.6589547
13.676922 24.400864 2.3549526
13.741043 24.326534 -0.84000325
13.903082 23.964224 -0.94792831
13.735748 24.325653 -0.042961422
13.738157 24.37336 0.46045569
13.532543 24.596033 -0.56664705
13.891032 23.866158 -0.43864393
13.830759 24.451805 2.1867979
13.879388 23.818331 -0.9367469
13.884274 23.869341 -0.54042423
13.673406 24.400858 2.6588221
13.861681 23.722437 -0.8626169
13.593484 24.298752 -0.71979702
13.534629 24.567366 2.6848099
13.667717 24.306391 -1.845831
13.69278 24.376162 -0.23706011
13.82624 24.13904 -0.94026637
13.912175 23.677813 -0.42459401
13.791927 24.48012 1.38588
13.688385 24.372984 -0.5432508
13.885542 23.820492 -0.7367273
13.69628 24.379131 0.86198163
13.942676 23.868683 -0.74106586
13.738824 24.313398 -1.1477056
13.590579 24.398077 0.2843667
13.748148 24.377182 -1.3297157
13.692478 24.378464 0.66182882
13.675936 24.39212 2.0625265
13.69194 24.325153 -0.037153978
13.667693 24.409906 2.5734324
13.686885 24.317766 1.7665828
13.6847 24.320168 -0.74186873
13.741174 24.388029 1.3511885
13.666229 24.396576 2.7396786
13.939477 23.864628 -0.54473418
13.739879 24.328924 0.15164524
13.690571 24.325689 0.15610692
13.738496 24.313553 -1.4287032
13.692257 24.324854 -0.24231592
13.554233 24.589064 0.1440758
13.741939 24.331411 0.66604567
13.939833 23.818462 -0.44453841
13.71784 24.187012 0.002992329
13.748283 24.473808 0.459171
13.693714 24.378279 0.56058091
13.741784 24.326864 0.26758012
13.694856 24.330893 0.56091738
13.697767 24.317627 0.057428416
13.677155 24.401672 2.2577446
13.649696 24.190504 -0.41487718
13.676784 24.376362 -1.1365032
13.744009 24.319504 -0.94320017
14.042707 23.768921 -0.71293223
13.597412 24.389959 -1.3495725
13.763769 23.997452 0.47032803
13.688254 24.383265 1.2609189
13.806683 23.912287 0.54446393
13.679171 24.320816 1.9700212
13.679318 24.315235 -0.94345552
13.659118 24.368477 -1.526796
13.730183 24.378483 -1.4313582
13.693297 24.327564 0.95778716
13.796156 23.933258 0.44111133
13.744031 24.319275 -1.0370191
13.741986 24.321558 0.36071569
13.741849 24.328424 0.45013732
13.743394 24.325075 -0.14430843
13.672431 24.31455 1.6591315
13.675053 24.391705 1.7545077
13.738781 24.379316 0.96319091
13.736753 24.32436 1.0540916
13.738752 24.328251 -0.25687483
13.738971 24.3864 1.2612017
13.879638 23.871389 -0.93144751
13.679707 24.329924 1.4673023
13.99243 24.075193 0.446601
13.684083 24.38648 1.4566908
13.683372 24.390053 2.1616807
13.737853 24.329809 0.96567833
13.789575 24.306269 -1.6709743
13.692585 24.375502 0.0585461
13.757544 24.094883 1.6440227
13.803867 23.994473 -0.01386116
13.739992 24.36894 -1.2352529
13.737247 24.377567 0.76007593
13.678802 24.319679 -1.0349141
13.608843 24.39135 -0.82823455
13.942549 23.870825 -0.63788575
13.942382 23.814714 -0.7386815
13.695784 24.325779 0.65426368
13.677197 24.380569 -1.2369438
13.740375 24.369593 -0.93284273
13.666449 24.380074 -1.6099172
13.665274 24.326588 2.3446596
13.650109 24.308315 2.455982
13.778269 23.96418 0.15328489
13.689872 24.319622 -0.43932778
13.63758 24.646765 1.5694406
13.740151 24.323845 0.052112214
13.695506 24.326132 0.25821474
13.608065 24.309584 -1.9244086
13.93983 23.870663 -0.43265191
13.736952 24.36701 -0.44132245
13.689149 24.324629 1.2576345
13.836417 24.420031 -0.86586148
13.674127 24.311157 2.2645388
13.683517 24.314651 -1.2351077
13.698119 24.328941 0.35717574
13.733083 24.375547 0.25868547
13.742926 24.386023 1.7580198
13.806427 23.908024 0.14306064
13.641682 24.192015 -1.4461765
13.741679 24.391121 2.1629825
13.680091 24.317087 1.5544055
13.741269 24.37326 -1.0448923
13.674538 24.317602 -1.1414491
13.640451 24.363644 -1.8115557
13.647862 24.21339 -1.0369902
13.746047 24.323816 -0.44199798
13.880862 23.820997 -0.64037311
13.885771 23.820847 -0.5383426
13.669254 24.377739 -1.438267
13.883183 23.822657 -0.84142029
13.662376 24.303509 -1.5150621
13.684878 24.38905 1.3657715
13.692242 24.380276 0.259509
13.739326 24.370565 -0.73263979
13.943851 23.869999 -0.94052845
13.682531 24.374521 -1.0369527
13.739665 24.380428 1.0592151
13.838264 24.420967 -0.33768487
13.697437 24.327995 0.75582814
13.693858 24.375605 -0.43608838
13.743042 24.323872 -0.74190849
13.73942 24.393545 2.2708311
13.738554 24.324318 -0.53317255
13.545513 24.690262 -0.12783416
13.73531 24.332182 1.165952
13.738179 24.326807 -0.63731116
13.735395 24.36784 -0.84197664
13.72643 24.242407 0.66502422
13.681166 24.319019 -0.83861619
13.666636 24.312334 -1.6348705
13.793922 23.947937 -0.15408058
13.736489 24.324657 -0.33936304
13.884203 23.82251 -0.44200304
13.693063 24.373329 0.16068445
13.685723 24.375824 -0.83612841
13.618393 24.466354 0.35544562
13.696268 24.377665 0.36149928
13.743276 24.326651 0.86026049
13.694076 24.379608 0.95984495
13.696146 24.375347 0.46779016
13.748095 24.323652 1.2624676
13.6951 24.330658 0.85665256
13.790722 24.000668 -0.47234255
13.4949 24.696798 0.071497522
13.493355 24.723969 -0.44219464
13.507362 24.708788 0.88200366
13.6923 24.383816 1.0559843
13.758234 24.22945 -0.31055933
13.797872 24.565277 2.0972984
13.66076 24.467686 1.2948036
13.688317 24.20323 0.4233816
13.732637 24.204044 -0.76774579
13.666756 24.323053 2.1526344
13.766792 24.17021 -0.21921918
13.769418 24.117075 -0.29638171
13.69227 24.21291 1.9273745
13.750272 24.374615 -1.5405084
13.740067 24.32383 0.56429672
13.780316 23.795313 -0.75032532
13.688832 24.481833 2.4773383
13.693161 24.328003 1.0537473
13.576307 24.606293 0.081174836
13.6826 24.194889 2.0249283
13.93667 23.818361 -0.54817951
13.755095 24.209862 0.45704362
13.942597 23.821276 -0.64298481
13.738538 24.382114 1.1620123
13.732824 24.373589 0.066317506
13.77865 24.078661 0.028063381
13.717271 24.190765 1.2730455
13.626223 24.525537 -1.5415986
13.494878 24.697546 0.25784603
13.560311 24.715918 0.50195229
13.740781 24.373676 -0.040061582
13.739688 24.375858 -0.13921116
13.763867 24.100492 -0.036590934
13.499548 24.699091 -0.029864462
13.663033 24.469666 1.1707481
13.687713 24.375271 -0.73836315
13.693701 24.372364 -0.044334974
13.658587 24.58569 -0.040815786
13.629625 24.550526 0.69521487
13.693838 24.325565 1.1614095
13.737445 24.374352 -0.23381767
13.690542 24.324516 1.3618236
13.739243 24.373869 -0.63813001
13.73791 24.374487 0.1647836
13.75071 24.21727 -0.46824777
13.696409 24.168545 0.97631943
13.695813 24.380297 0.7597633
13.740445 24.394993 1.5617865
13.723975 24.340143 2.2166111
13.737568 24.321341 0.76158392
13.696301 24.323662 -0.14370328
13.666306 24.4212 2.8297634
13.750889 24.36438 -1.6333364
13.653036 24.32085 2.6623614
13.655733 24.252876 2.8024354
13.661091 24.462517 0.48624554
13.740768 24.215219 2.2005956
13.605126 24.409512 2.6614461
13.5438 24.612286 0.52352554
13.676476 24.46242 1.55819
13.691229 24.379026 -0.63856685
13.68396 24.468845 2.069973
13.736555 24.370604 0.5606361
13.730655 24.128345 0.20024991
13.758169 24.232164 0.061882801
13.735298 24.379368 0.86368692
13.705874 24.314821 1.8774045
13.678765 24.484098 -1.0602295
13.573774 24.592871 -0.44247687
13.773453 24.495932 1.766461
13.581212 24.603647 -0.32955283
13.948347 23.738886 -0.72989392
13.735852 24.366423 -1.1438162
13.974537 23.982504 0.55051029
13.742707 24.46851 1.5669222
13.750982 24.488209 1.4448578
13.890231 23.865839 -0.047332704
13.641792 24.224344 -1.2499995
13.689454 24.324629 -0.3363004
13.896201 23.868895 0.061223738
13.764724 24.143381 -0.83611572
13.651903 24.305775 -1.7336233
13.555569 24.604486 -0.24154252
13.747065 24.410336 2.7359235
13.737914 24.380972 0.66263163
13.687525 24.323626 -0.63825947
13.745458 24.394817 2.3595903
13.687522 24.478729 1.8457408
13.66368 24.510508 1.3453135
13.689322 24.323441 -0.54276562
13.770709 24.173353 1.2565125
13.486779 24.707447 0.16392592
13.676402 24.471581 1.6675159
13.633276 24.575647 -0.94485438
13.795307 24.054237 1.2390001
13.796165 23.894705 -1.0191331
13.664533 24.517122 -0.96456116
13.669991 24.320862 2.0593901
13.740526 24.376301 -0.53491956
13.690105 24.37339 -0.13195835
13.77677 24.118267 1.1044528
13.783513 24.554668 0.56805432
13.56858 24.466932 0.51872194
13.822996 24.31559 -0.1089901
13.663973 24.469503 -1.1520007
13.742743 24.376423 -0.34092212
13.672863 24.312929 -1.4421608
13.758776 24.334312 2.3699484
13.546334 24.685339 0.053906247
13.629175 24.682716 1.7477337
13.74383 24.386063 1.6588122
13.690448 24.383383 1.1654674
13.664753 24.313828 -1.3342946
13.66413 24.467716 1.9735864
13.84461 24.323511 -0.45578414
13.61889 24.363855 -1.6339413
13.740192 24.206337 -0.043165352
13.624947 24.770267 -0.59999508
13.834658 23.967794 0.02395791
13.60306 24.529861 -0.057496596
13.958344 23.743519 -0.5003075
13.554945 24.497103 -1.4297634
13.892529 23.707747 -0.66449004
13.669293 24.492184 1.4549378
13.646189 24.182711 -1.5173962
13.882791 23.745441 -0.70322061
13.864151 23.985798 -0.13424203
13.577978 24.493153 -0.21430087
14.04434 23.962965 -0.94481707
13.569305 24.601269 -0.080928184
13.607953 24.443275 -0.021695405
13.592175 24.468124 -0.13170031
13.835504 24.373808 -0.25040609
13.610945 24.482937 2.8877082
13.615344 24.46137 -0.90128642
13.775128 24.166037 2.2477283
13.651299 24.474499 1.0450075
13.89863 24.093935 0.17273489
13.761593 23.989971 1.2410405
13.856134 24.012217 0.46602321
13.574811 24.569031 -0.64312041
13.734968 24.33494 1.5625582
13.773893 24.120972 0.34227708
13.687615 24.47047 0.37496495
13.660348 24.584221 0.97898936
13.577711 24.675316 -0.72736764
13.63928 24.450232 -1.4106474
13.844612 24.117302 0.58790475
13.623055 24.515896 -1.3618833
13.851308 23.992014 0.55564755
13.594737 24.613771 -0.68918586
13.80992 24.010324 -0.87240481
13.76789 24.236395 -1.0476376
13.61832 24.314388 -0.31641656
13.813144 23.83168 -0.25930995
13.745842 24.118229 0.59646112
13.608796 24.371202 0.57780278
13.673872 24.48802 2.9398575
13.60533 24.389093 0.7787472
13.83117 23.981846 -0.7456733
13.811411 23.821327 -0.52547503
13.727165 24.463219 2.9313405
13.741803 24.404339 2.6638186
13.74199 24.411261 2.5598774
13.727402 24.454937 2.4592886
13.514302 24.606777 0.22455785
13.616369 24.385971 0.8562234
13.792768 23.82057 -0.63788342
13.797424 23.88335 -0.73389852
13.693089 24.192919 0.17581119
13.746579 24.399746 2.4553595
13.544413 24.562292 -0.15290804
13.509099 24.529903 0.23633866
13.514956 24.625977 0.090753309
13.657646 24.479504 0.29471669
13.81895 23.987715 -0.71870738
13.804703 23.874655 -0.63278186
13.707713 24.139812 0.13290811
13.758192 24.192837 1.6694862
13.762226 24.330853 2.4525723
13.589169 24.495148 0.055921238
13.74328 24.086386 1.5576199
13.544214 24.546335 -1.3508426
13.607672 24.465723 -1.0525321
13.590408 24.471264 -0.61355019
13.725945 24.4496 -1.077772
13.74725 24.467321 -1.3705496
13.552775 24.568237 -1.4207978
13.615059 24.3295 0.3266966
13.612789 24.177723 -1.2607516
13.615534 24.383284 -0.46375349
13.603838 24.328981 -1.2250417
13.518711 24.497339 0.10872862
13.550638 24.318584 -0.90633309
13.487617 24.590691 -1.3512193
13.513023 24.543972 -1.4115671
13.589412 24.216488 -1.4375603
13.698553 24.18107 0.24193282
13.594789 24.497213 0.12613888
13.598117 24.315079 -1.353253
13.59093 24.183764 -1.3415855
13.517503 24.490482 -1.2605804
13.648499 24.642448 -1.4265282
13.815936 23.797176 -0.93836063
13.81719 23.803923 -0.39909935
13.66347 24.22131 1.0844518
13.799685 23.807926 -0.83721441
13.61477 24.294689 0.25904623
13.654814 24.611599 1.0527017
13.490594 24.592253 -0.082838528
13.714577 24.456268 0.78852987
13.737802 24.551767 1.5994669
13.752851 24.38258 -1.7193298
13.67947 24.068785 -2.0020332
13.596292 24.211536 -1.8635173
13.650999 24.194567 -1.7989069
13.604665 24.233757 -1.5298882
13.82705 23.952427 0.40309969
13.681652 24.035816 1.3658168
13.627256 24.492907 -1.6563795
13.797226 23.93783 0.30573291
13.4915 24.622063 -0.16691904
13.525588 24.604496 0.42252219
13.62309 24.470345 0.59746528
13.615505 24.380636 0.38596326
13.722613 24.496679 2.7682934
13.733521 24.24258 1.8639346
13.809477 23.897533 -0.56928968
13.77148 23.8841 -0.84353864
13.816487 23.869112 -0.44569719
13.616557 24.410149 -0.69687283
13.640927 24.465023 0.981453
13.624787 24.558783 -0.12094992
