# .PCD v0.7 - Point Cloud Data file format
VERSION 0.7
FIELDS x y z
SIZE 4 4 4
TYPE F F F
COUNT 1 1 1
WIDTH 994
HEIGHT 1
VIEWPOINT 0 0 0 1 0 0 0
POINTS 994
DATA ascii
-7.6809077 24.478506 -0.5604586
-7.7057648 24.468063 -0.48300502
-9.8177233 23.695818 -0.66815829
-9.8397942 23.69425 -1.0742866
-9.8285809 23.691181 -0.73790336
-9.2326746 24.039623 -1.2859836
-9.7318087 23.971985 -2.9315021
-9.7086782 23.954845 -1.9337522
-9.8256311 23.917702 -2.2467577
-9.747551 23.986769 -3.06761
-9.7137022 23.952713 -2.4444063
-9.4006157 23.863892 -0.85218978
-9.6163826 23.952579 -1.341361
-9.7241564 23.967327 -2.3385234
-7.3767886 24.607643 -0.43133104
-9.2336969 24.037012 -0.94106197
-9.7404356 23.965996 -2.8406491
-9.7421913 23.965967 -2.5435774
-7.8267069 24.616005 -1.2203944
-9.1864281 24.154932 -1.9029025
-7.8193164 24.609865 -1.8429012
-8.7286558 24.290594 -1.6344937
-9.9108276 23.862434 -1.7295946
-7.2591076 24.869026 -1.9180617
-9.50947 24.063816 -2.3253198
-7.7305059 24.69421 -1.9390429
-9.6381426 23.909597 -1.4530641
-9.6608133 23.973688 -3.8482704
-9.6575966 23.972191 -3.7537961
-9.6772642 23.945539 -3.2047532
-9.6559896 23.959681 -3.31951
-9.122613 24.215548 -2.6071506
-9.3505011 23.877115 -0.78453422
-8.3332348 24.455923 -1.7379836
-9.6978931 23.833191 -1.6226047
-9.7311687 23.934801 -2.2161865
-9.7198544 23.920532 -2.1357977
-9.7302704 23.963287 -2.1539521
-8.722744 24.121906 -0.030828968
-9.8348188 23.813229 -1.6197039
-8.0172167 24.579243 -1.6289088
-9.784812 23.813154 -2.463505
-8.528738 24.412714 -2.5114312
-9.7004852 23.977175 -2.251457
-9.0850372 23.964056 -0.83492798
-9.2275362 23.908504 -0.84628052
-9.248683 23.896299 -0.68411011
-8.3303871 24.4674 -2.0441506
-9.7987814 23.801535 -2.2782702
-9.8284855 23.921032 -2.4931102
-9.789607 23.955864 -2.8313425
-9.5092258 23.929354 -1.352302
-8.7160044 24.309433 -1.8274436
-8.0490084 24.50939 -1.3440597
-8.1717873 24.526011 -2.3636992
-8.6323471 24.3335 -1.9169734
-9.8301916 23.814285 -1.8377926
-8.4151936 24.450005 -1.8206652
-9.8474855 23.798576 -1.7072754
-7.5461283 24.541973 -0.41405809
-9.2647572 24.043657 -2.336381
-7.4845386 24.759731 -1.1950101
-8.1580801 24.348312 -0.41572136
-9.213376 24.0958 -1.1482199
-9.9589233 23.742655 -0.93601072
-9.9699821 23.73786 -1.1854247
-9.8686409 23.77795 -0.91074812
-9.9545021 23.758528 -0.98476535
-9.9555721 23.734503 -1.2105343
-9.7372112 23.836039 -0.84663647
-9.9404259 23.743544 -1.4342766
-9.5777941 23.906271 -1.0732412
-9.8625803 23.80949 -0.74544346
-9.4740438 23.938515 -1.2043079
-9.4327755 23.983437 -0.50342888
-9.4827175 23.969923 -0.55060905
-9.527072 23.959438 -0.45630977
-9.474411 23.944103 -1.3034778
-9.6982718 23.872326 -0.90154862
-9.1638651 24.07486 -0.87941724
-9.4388142 23.944098 -2.1191022
-9.0227985 24.103252 -0.96803409
-9.1576567 24.04459 -1.3022321
-9.4158955 23.90313 -0.95207453
-9.0484953 24.108583 -0.66163123
-9.1238451 24.076948 -0.74054968
-9.2125206 24.00227 -1.6032736
-9.4621868 23.899666 -2.0446267
-9.51122 23.881264 -1.9470316
-9.1426201 24.041807 -1.6947365
-9.248517 24.027153 -0.72360617
-9.5934048 23.897163 -0.66415793
-8.7736158 24.17709 -2.1543367
-8.8209009 24.201189 -0.81111813
-9.5509672 23.869862 -2.0739355
-9.8216419 23.80345 -1.0407518
-9.4798908 23.91325 -2.697727
-9.111105 24.075848 -0.9628762
-9.4238148 23.945108 -1.624802
-9.9382496 23.73011 -2.1590805
-8.6532116 24.225008 -1.6446934
-9.2520981 24.041405 -0.81699634
-9.1724224 24.037016 -1.6401463
-9.4555779 23.932026 -1.5422156
-9.7012243 23.868971 -0.73539388
-9.7319164 23.860411 -0.80872542
-9.9386091 23.772627 -0.85167867
-9.8372602 23.789049 -2.055784
-9.9697418 23.743914 -1.6687107
-9.3368139 24.003883 -0.64980221
-9.8092165 23.786421 -2.1567936
-9.7248077 23.794994 -2.4596567
-9.4378872 23.96909 -0.73636508
-8.6773233 24.261402 -2.8367405
-8.7805624 24.250277 -0.85596609
-8.4048843 24.340937 -1.1014495
-8.7517405 24.240067 -2.3269851
-9.720026 23.830795 -2.7254019
-9.7585173 23.828789 -1.4641687
-9.8322659 23.810987 -1.1456817
-9.4735374 23.934788 -2.2971117
-9.5382404 23.913891 -2.3430178
-9.7121258 23.794697 -2.5093226
-9.429678 23.959906 -2.2656245
-9.5358696 23.945917 -3.328584
-9.9310846 23.760891 -2.1770744
-9.4208422 23.978283 -0.64828688
-8.0196075 24.520735 -1.9252555
-8.1642866 24.442904 -1.1516349
-9.6968861 23.797842 -2.6594591
-9.4473429 23.941126 -2.2696006
-8.9956875 24.11068 -1.2300793
-8.4631701 24.330473 -1.3752906
-7.9111567 24.541683 -1.8010947
-7.948853 24.516449 -1.7137533
-8.1061792 24.434952 -1.6820151
-8.7520523 24.255005 -2.8446975
-9.5389166 23.926678 -3.3590207
-9.6495047 23.850784 -3.0364649
-9.2333536 24.028181 -1.5268568
-8.5150166 24.3255 -1.9129187
-7.9510717 24.521807 -1.354737
-7.7307415 24.676546 -1.7273595
-9.0548515 24.130157 -1.9445615
-8.237195 24.41651 -1.3458161
-9.8532143 23.798954 -1.9375045
-9.7473049 23.83408 -1.1408751
-9.0288372 24.112406 -1.8359343
-9.0245972 24.118221 -1.5370318
-8.5368452 24.321861 -1.6170686
-8.44487 24.337809 -1.242359
-8.2432156 24.418659 -1.6140326
-8.2205248 24.431849 -1.2293334
-9.8359394 23.826595 -2.8283668
-9.1519165 24.097942 -2.3359833
-8.8092117 24.21114 -1.0320338
-8.2760944 24.442278 -2.0598845
-8.2917099 24.415405 -0.95838314
-8.0245266 24.545429 -2.1840301
-7.7687597 24.635956 -2.1483855
-9.4919167 24.076935 -3.0844972
-8.8299513 24.209219 -1.7293962
-7.8847466 24.651161 -1.9074801
-7.7700663 24.664505 -1.1610554
-9.6436586 23.978134 -2.9513826
-9.6610537 23.875341 -3.2795863
-8.2533827 24.470222 -0.91914821
-8.00527 24.562851 -1.2528986
-7.5681252 24.743916 -1.0252883
-9.6302776 23.905922 -1.5374962
-8.3342619 24.41498 -1.9366086
-7.4850116 24.772236 -0.91332376
-9.4026346 24.051178 -1.7877312
-8.3042936 24.45034 -1.362067
-7.4970951 24.762743 -0.83907962
-9.0309372 24.219296 -2.5252252
-9.4975882 24.047434 -1.9578274
-9.3839979 24.045979 -1.2349271
-8.8853436 24.255531 -1.5055984
-7.3757706 24.817539 -1.2030057
-9.6236 23.96615 -1.6328143
-8.318841 24.467932 -1.8445662
-9.2146797 24.154606 -2.0427835
-9.4273243 24.002928 -1.8365991
-8.8100662 24.267979 -1.5363716
-8.0410109 24.527428 -1.2295181
-9.6267042 23.892918 -1.735734
-9.2155905 24.103266 -1.8162861
-9.2272635 24.091488 -1.7326045
-9.6089211 23.967894 -1.5409679
-9.9407692 23.803772 -1.7272322
-8.9319811 24.138741 -0.926054
-9.3885508 24.056005 -1.4582167
-9.2242966 23.997339 -2.040025
-7.3261852 24.875202 -2.2535169
-7.4246082 24.58131 -0.40345794
-9.2788572 24.003958 -2.2328727
-9.4600286 24.049774 -1.9159509
-7.3991642 24.863379 -2.3109088
-8.612278 24.356125 -2.0287232
-9.4403667 24.001532 -1.6474698
-9.2422581 24.001339 -2.744957
-8.5337934 24.414429 -2.3200064
-8.2103453 24.570089 -2.626807
-9.4012632 24.055464 -1.647909
-9.8170872 23.913267 -2.0422573
-9.7279148 23.880993 -1.2551501
-6.9777207 25.01458 -2.4024014
-7.7500391 24.631451 -1.8217254
-8.4107409 24.456396 -2.1438227
-9.9102459 23.808054 -1.6540222
-9.3483744 24.02656 -2.8528891
-7.9123745 24.660421 -2.2113008
-9.9237471 23.790846 -1.8300209
-9.7131653 23.872669 -1.1519432
-7.8135471 24.613487 -1.1384995
-9.6130791 23.955479 -1.4436955
-9.2190313 24.162663 -2.2413478
-8.3072357 24.457951 -1.257143
-9.7130013 23.916241 -2.6096389
-9.8479128 23.864601 -1.6746837
-9.6683426 23.862316 -3.3538888
-9.9259386 23.801538 -1.9062438
-8.0552654 24.524187 -1.5423554
-8.6352901 24.323109 -1.8469355
-9.5370207 23.919399 -1.1192888
-8.931551 24.20369 -1.726426
-9.9404078 23.786737 -1.3396902
-7.7453599 24.68512 -2.0375576
-8.9521952 24.035069 -0.066455632
-9.6405659 23.889458 -0.84207541
-7.854331 24.641747 -2.1283226
-9.6446466 23.82914 -3.6605244
-9.8151045 23.937729 -2.7430687
-8.9593792 24.139019 -1.2390089
-9.7461681 23.93718 -2.3175952
-9.8307247 23.907089 -2.1521654
-8.6033115 24.394688 -2.4375019
-8.2111921 24.455339 -1.1323829
-8.9696255 24.135832 -2.1523674
-9.7329502 23.831532 -1.8276384
-9.6411972 23.96998 -2.0514159
-7.1223707 24.917408 -2.6361077
-9.2467375 24.022585 -1.8899772
-7.5398798 24.743271 -1.9218868
-9.4822884 23.92708 -2.1317365
-9.3243866 24.054962 -1.2444482
-9.6476612 23.909174 -1.6285285
-9.5298901 23.925985 -0.85215902
-9.8451233 23.916286 -2.3342245
-8.3395329 24.497772 -2.4202533
-7.5285459 24.762352 -1.4302557
-7.5425749 24.780964 -2.141125
-9.6951637 23.942179 -3.0030324
-9.2268581 24.024626 -1.8420655
-7.031343 24.973261 -2.3302596
-8.9195213 24.266792 -2.0483694
-7.5607281 24.740433 -1.5294957
-9.6696186 23.967136 -1.7046124
-9.4051542 24.065458 -1.8453124
-9.6448593 23.830238 -3.4087875
-8.9356699 24.200764 -1.5410004
-9.6194315 23.980562 -2.117404
-9.6609907 23.867502 -3.1079566
-8.5381546 24.41412 -2.4369342
-9.8171387 23.958065 -2.4507816
-9.713563 23.86105 -1.0483609
-9.2179565 24.158926 -2.1419594
-7.0970626 24.94492 -2.5542591
-9.618144 23.981407 -1.8373663
-9.7499275 23.830526 -1.7846421
-7.9119167 24.664976 -2.3048258
-8.324316 24.493879 -2.2426624
-8.5345945 24.424959 -2.6339092
-9.4741955 23.988073 -2.9792094
-7.8466673 24.60779 -2.0378113
-9.9286375 23.800667 -1.4453617
-9.3272552 24.107513 -2.1350973
-7.9184527 24.6586 -2.1354465
-8.3454933 24.414148 -1.5106537
-8.2425594 24.43615 -1.7676176
-7.9271426 24.67462 -2.4331892
-9.6682577 23.831085 -3.4972751
-8.3157845 24.480019 -2.1308024
-8.1221256 24.59004 -2.3475926
-8.3381672 24.402082 -1.2462674
-9.9388504 23.808054 -1.5315573
-9.5427656 23.916248 -0.95956707
-9.7295923 23.890821 -1.6476086
-9.375453 23.977325 -0.73175651
-8.524478 24.324467 -1.4208299
-7.7534199 24.461784 -0.60540205
-8.1352158 24.542929 -2.5935042
-9.7308664 23.910461 -3.1071908
-9.7269735 23.978764 -3.155267
-7.5676312 24.741333 -1.7759043
-8.0288229 24.51572 -1.1737696
-8.708787 24.231863 -1.4501958
-9.6696272 23.843513 -3.3229592
-8.5345669 24.316849 -2.2944791
-9.7525892 23.834866 -1.2455084
-9.2337132 24.078188 -1.3530202
-9.3205233 24.063139 -1.3418583
-7.0473351 25.001446 -2.5015831
-9.6228561 23.880898 -2.8197861
-8.659296 24.274044 -0.78218907
-8.1418581 24.530504 -2.033354
-8.7295227 24.272951 -1.1448025
-7.2242608 24.916365 -2.3218324
-8.5370245 24.32107 -1.8358923
-9.618351 24.02211 -2.4294107
-9.268137 24.041925 -1.3599526
-7.0679145 24.967226 -2.1832757
-9.2192039 24.106005 -2.2395902
-9.6584759 23.86215 -2.7156758
-8.1339893 24.504715 -1.433159
-7.9254146 24.658815 -2.5012577
-9.7057695 23.894417 -2.5666778
-9.2602835 23.996931 -2.6716034
-8.1274509 24.474659 -0.95203108
-7.3541346 24.824532 -1.9490653
-8.561758 24.284698 -1.1706091
-9.5569038 23.92844 -1.5413549
-9.7076941 23.964819 -2.6433768
-8.5335827 24.318439 -1.3525463
-7.6085181 24.762962 -2.1279294
-8.6287546 24.411869 -2.7176776
-7.3243942 24.893852 -2.6335015
-9.3285465 24.09626 -2.0617185
-9.7028217 23.998575 -3.8493905
-9.7170067 23.987211 -3.5261559
-7.8672643 24.585051 -1.0290301
-9.2343769 24.118149 -1.9093585
-8.1469593 24.499422 -1.3453754
-7.8440495 24.624483 -1.3335191
-9.3310461 23.949518 -2.6512012
-9.4114151 24.024687 -2.1216524
-9.2705708 24.163589 -2.5850987
-8.402544 24.33477 -2.7408054
-7.0318894 25.000822 -2.4591069
-7.0213423 25.062014 -2.7378404
-9.4709339 24.03513 -2.3407803
-8.9300413 24.136213 -1.3602028
-8.4618473 24.343792 -1.6667336
-6.9839983 25.022091 -2.7367346
-9.3183746 24.090965 -1.8276938
-9.3175945 24.061628 -1.135149
-8.8321877 24.265427 -1.6225349
-9.342577 24.126522 -2.4339497
-9.6615009 23.846605 -2.5761807
-9.7186804 23.897316 -1.3359009
-8.140255 24.482183 -1.0501492
-9.8300266 23.814091 -1.2401327
-7.5665107 24.729355 -1.6233859
-9.6844959 23.952623 -1.8205522
-9.6696529 23.957764 -2.8416383
-8.881918 24.260426 -1.7620039
-9.7284756 23.892071 -1.7394917
-8.9019661 24.268345 -1.9246441
-9.433939 23.996365 -1.533236
-9.2748737 24.131886 -2.3161054
-9.0193787 24.121941 -1.025468
-9.7387962 23.886112 -2.4346983
-8.1461239 24.517044 -1.6249514
-9.4513969 24.030434 -2.0670505
-8.4430485 24.333227 -1.5252919
-9.7384472 23.919062 -1.833872
-9.0266123 24.125097 -1.6302804
-9.0250082 24.221315 -2.0373309
-8.4363842 24.474176 -2.5272176
-9.4587021 24.039774 -2.4074614
-8.5392094 24.317461 -1.5344272
-9.1155853 24.178358 -2.0294106
-8.6382294 24.272673 -0.9871459
-8.553524 24.324314 -1.2465292
-9.7711229 23.809364 -1.9583051
-7.7365952 24.680864 -1.6382899
-9.1347179 24.197233 -2.3264241
-9.7159739 23.996134 -3.4433916
-9.5340729 23.926304 -0.76597428
-9.1422005 24.177185 -2.2329621
-7.5293226 24.740379 -1.2186247
-9.1300383 24.21689 -2.5680535
-8.6121082 24.383911 -2.2198639
-8.1371489 24.532856 -1.9386082
-9.6504326 23.937044 -2.118367
-8.4658747 24.487314 -2.6931109
-9.6258249 23.999786 -2.2440028
-8.3006859 24.471872 -1.4227751
-8.3375664 24.504 -2.3334408
-9.7417326 23.913006 -3.4061151
-9.7934904 23.964384 -2.5338995
-7.7271137 24.661453 -1.3495467
-9.5485601 23.918818 -1.4476886
-7.0671911 24.929804 -2.1330683
-8.0901041 24.548096 -1.6416365
-9.9388361 23.775738 -1.0438513
-8.1282768 24.591755 -2.5338202
-9.1249542 24.176146 -2.1458943
-8.4906912 24.451963 -2.2821825
-9.0084639 24.253803 -2.4039509
-8.9153547 24.202457 -1.6354171
-9.7379189 23.826542 -2.0408063
-9.0231981 24.112226 -0.85673648
-8.1127872 24.55924 -1.8475279
-8.3533125 24.441488 -1.8098528
-9.3949404 24.113556 -2.5556903
-9.9185791 23.784306 -1.1397465
-9.4296665 23.998367 -1.4487221
-8.3343029 24.461329 -1.9459969
-9.4069557 24.073072 -2.0212209
-9.9175625 23.791012 -1.2463627
-9.6228228 23.889585 -0.95390624
-8.5339336 24.340921 -0.99673474
-8.6430616 24.394949 -2.5390892
-8.1704044 24.585434 -2.6291873
-9.2115107 24.142479 -2.4966202
-9.4311466 24.054482 -2.6301246
-9.1216984 24.146244 -1.2871319
-9.1344166 24.172586 -1.9323976
-8.4393253 24.46377 -2.6083941
-8.5350132 24.404694 -2.2246037
-8.2314072 24.434378 -1.4632673
-7.1431484 24.918047 -2.1214392
-9.2649164 24.021465 -1.1527691
-9.0594616 24.213024 -2.3308947
-9.1150684 24.209597 -2.444402
-8.9008474 24.262291 -1.8446525
-9.3108635 24.092653 -1.9326574
-9.4312229 24.005026 -1.7434459
-8.9493303 24.142382 -1.5181051
-9.4396582 24.011175 -1.9497898
-9.235445 24.029711 -1.7498465
-9.1068106 24.152786 -1.3676112
-9.6725025 23.942953 -2.0515075
-8.5371141 24.398779 -2.1381297
-9.3307285 24.06531 -1.5457321
-7.5720267 24.743816 -2.0491717
-8.0996017 24.548149 -1.5277768
-8.3516312 24.411045 -1.1590736
-8.318058 24.463238 -1.6393812
-9.7109652 23.917522 -2.9209604
-8.9282913 24.192333 -1.3381977
-9.6979694 23.841957 -3.3437858
-9.6264648 23.895752 -1.0230643
-9.7013569 23.939878 -3.222168
-9.4644833 23.926754 -1.4708103
-9.7209721 23.918333 -2.8234069
-8.4934711 24.450268 -2.3157306
-8.9766703 24.123177 -1.1252296
-8.9320278 24.269312 -2.1469719
-7.3983617 24.855604 -2.2857747
-9.9225397 23.868086 -1.9141017
-7.5090022 24.770279 -1.8140565
-8.7324991 24.211226 -1.703723
-7.5320611 24.804298 -2.5537226
-9.7483978 23.903482 -2.0411122
-9.7042274 23.896139 -2.7463181
-7.640996 24.692781 -1.2261996
-7.5298691 24.761024 -1.525409
-9.5449905 23.894722 -1.7444191
-7.7339396 24.727695 -2.4281344
-8.4201603 24.467615 -2.3365707
-8.5492859 24.390516 -2.0768542
-9.6335602 23.96665 -1.9386874
-7.1120582 24.950748 -2.0031965
-7.5587354 24.738707 -1.4279209
-7.7489934 24.630997 -1.4687434
-8.3879585 24.3515 -2.7971032
-8.1281137 24.500904 -1.2263327
-9.541769 24.016537 -1.9535898
-8.8324404 24.220371 -1.440691
-8.5332556 24.448021 -2.6854815
-7.2349191 24.899054 -2.2297597
-8.2424841 24.564356 -2.5196092
-7.2281461 24.904331 -2.1387644
-7.2577481 24.86705 -1.8449699
-9.2871351 24.027153 -1.8019369
-7.2038765 24.961578 -2.6310992
-7.6792302 24.512262 -0.30919325
-9.3216801 24.074495 -1.6375215
-9.2788916 24.144033 -2.4216266
-9.6449327 23.973082 -3.6643534
-8.5073509 24.457706 -2.5425169
-7.3916855 24.87249 -2.4100707
-9.6302223 23.998398 -2.3393507
-7.4376192 24.808516 -2.606252
-9.3363266 24.018085 -1.5484633
-8.030303 24.562426 -1.5273587
-7.4294562 24.809629 -2.1627786
-8.2333097 24.500126 -1.751937
-9.318409 24.020638 -0.84853995
-7.3991013 24.809191 -1.8562912
-7.985085 24.569239 -1.0312088
-9.6709452 23.814816 -2.5206132
-7.4575491 24.797565 -1.6515151
-7.4428611 24.811983 -2.3284011
-8.7414999 24.307568 -1.952778
-7.4574366 24.79221 -1.4543711
-7.2705145 24.922045 -2.6226764
-9.80054 23.965584 -2.7690616
-6.9490051 24.990652 -2.7434573
-7.4242439 24.814358 -2.24808
-9.5497942 23.915857 -1.2071449
-7.412477 24.896374 -2.7053642
-9.8428202 23.801733 -0.83158785
-7.8040795 24.662779 -1.7574139
-8.0605984 24.544403 -1.8032813
-8.1271582 24.515739 -1.5267092
-7.3280597 24.895002 -2.471257
-9.6787958 24.00914 -3.0693595
-7.1125698 24.965584 -2.3237309
-9.7343855 23.984755 -3.2430618
-8.8089657 24.252779 -1.3444365
-7.6266589 24.789415 -2.6622727
-9.0924892 24.088375 -0.6788792
-7.8213234 24.665461 -1.8191104
-9.8278942 23.883978 -1.8310578
-7.2321424 24.898098 -2.0366497
-7.8471308 24.661158 -1.93927
-7.3399887 24.869295 -2.3257282
-8.3820496 24.449709 -1.7284093
-7.7197762 24.719151 -2.3416302
-9.4213753 24.063454 -2.1394179
-8.4082165 24.46011 -2.0444543
-9.2844257 24.158413 -2.4093099
-8.5114431 24.369799 -1.3356558
-9.0492077 24.121155 -1.1153715
-8.4552917 24.376625 -1.127764
-9.0401211 24.254177 -2.6460121
-7.5683579 24.740267 -1.8822619
-8.0418997 24.605078 -2.3315287
-9.1071014 24.161888 -1.6277057
-8.6928635 24.220707 -2.7990334
-8.4441032 24.373636 -1.0708392
-9.1190205 23.949869 -0.67672485
-9.533083 23.935848 -1.6476864
-9.1327744 24.091116 -0.55068731
-8.3451185 24.417633 -1.6368804
-8.7910213 24.263016 -1.2865202
-7.1078072 24.992159 -2.7294469
-8.7292824 24.227024 -1.645014
-8.5295057 24.364288 -1.5447241
-8.0916328 24.553778 -1.7588478
-9.7302713 23.894136 -1.5389577
-9.7292929 23.890167 -1.9230932
-8.3033733 24.459461 -1.5245284
-7.4116054 24.875086 -2.5200353
-8.7745914 24.229393 -1.5450993
-8.4729824 24.412758 -2.4494696
-9.0133781 24.178852 -1.2336872
-9.0344095 24.140335 -1.3339545
-7.3471904 24.838947 -2.2342086
-8.7106533 24.153336 0.060841136
-8.3699665 24.445187 -2.1299956
-8.7513952 24.107124 0.14618988
-8.9492798 24.120523 -1.0194803
-8.3047485 24.53071 -2.5170979
-9.2358913 24.130816 -2.1348591
-8.9299326 24.190107 -1.2463217
-8.8168182 24.136105 -2.1337626
-7.4074697 24.790588 -1.5319724
-9.2331247 24.091002 -1.4556451
-8.7101164 24.232094 -1.0468435
-7.7542691 24.618164 -1.9572387
-7.5664568 24.715929 -1.1146412
-9.4619617 24.087229 -3.0518095
-8.4285297 24.390547 -1.4453416
-8.727788 24.331961 -2.2468543
-8.7470474 24.219271 -0.98149151
-8.6324825 24.310425 -1.6408061
-8.5280428 24.334129 -1.7403448
-9.237484 24.122173 -2.0465755
-8.7480049 24.137518 0.24071173
-9.3441086 24.10788 -2.3356645
-7.7329321 24.666586 -1.4310946
-8.8203115 24.312143 -2.5262167
-7.6151505 24.758726 -2.0305202
-7.2724466 24.866985 -1.7057688
-7.738296 24.640675 -1.5187716
-9.4389048 24.090878 -2.4589467
-9.4356165 24.086559 -2.3387029
-8.7625875 24.220819 -1.7987753
-8.8123274 24.206245 -2.3251266
-9.4186201 23.970142 -1.0563135
-9.2348976 24.163881 -2.3424795
-8.0173073 24.553059 -1.151772
-8.5291214 24.368343 -1.4413998
-7.1410046 24.956774 -2.2532563
-7.4560061 24.816448 -2.4482388
-9.2317924 24.095646 -1.5429357
-8.9182243 24.298285 -2.6734436
-9.4201012 23.963776 -0.94581437
-7.8254032 24.677298 -2.0269711
-9.3841438 24.047716 -1.3388633
-8.4363489 24.433319 -2.26018
-8.81639 24.311621 -2.3367436
-9.0318775 24.096008 -0.68996412
-7.6456966 24.727903 -2.0573342
-7.9295621 24.617569 -2.0444515
-7.6328182 24.719683 -1.6481856
-7.6473236 24.721909 -1.9478258
-9.8071604 23.890411 -2.6195626
-7.1500888 24.940012 -2.3427432
-7.608386 24.738632 -2.2757161
-7.6411438 24.703876 -1.533453
-8.5210199 24.369045 -1.1504518
-7.8159432 24.691002 -2.3443863
-7.6471634 24.724892 -2.1396689
-9.2445278 24.034969 -1.441816
-7.6329651 24.727682 -1.8338192
-9.6471272 23.964439 -3.4356833
-9.8180962 23.821716 -1.3471627
-9.6525669 23.97209 -2.6309481
-7.8255267 24.708244 -2.5392246
-7.9776955 24.623568 -2.3556278
-7.5258994 24.775822 -2.0368249
-9.8431168 23.860231 -1.233052
-8.2292233 24.474442 -1.2347003
-8.8911486 24.056004 -0.14317682
-9.7393408 23.775923 -2.15095
-9.7184696 23.809122 -2.3494415
-9.744175 23.805941 -2.2130928
-8.2221384 24.477388 -1.4298992
-8.330637 24.421925 -1.3343105
-8.4183388 24.389582 -1.2426593
-8.2336483 24.476707 -1.3626065
-8.2463007 24.47398 -1.5459117
-8.4217606 24.394564 -1.3554933
-8.7228308 24.271299 -1.2394285
-8.9346132 24.19244 -1.1458918
-9.035533 24.157335 -1.149382
-8.1192312 24.519663 -1.7213788
-8.729598 24.279346 -1.5264703
-9.0328932 24.170805 -1.4408669
-9.1146517 24.121359 -1.127079
-9.3473291 24.028757 -1.2482898
-9.4323053 23.985716 -1.1474645
-7.8251977 24.665392 -2.130306
-8.0263729 24.54137 -1.0303651
-8.059803 24.537109 -1.6102505
-8.1173115 24.503029 -1.1459516
-8.2145538 24.483364 -1.6339333
-8.722105 24.288342 -1.4382395
-8.9308405 24.197802 -1.4467475
-9.0220871 24.172977 -1.353307
-9.025609 24.185299 -1.6452134
-9.4366388 24.004601 -1.3564153
-9.6342411 23.916166 -1.3456188
-7.7267346 24.700911 -2.1470129
-7.8078184 24.680136 -2.2439601
-8.0218792 24.608995 -2.2229221
-7.9471297 24.586882 -1.4307863
-8.021925 24.579519 -1.955498
-8.0392246 24.590612 -2.1494527
-8.1268406 24.532398 -1.8547188
-8.220315 24.494709 -1.8398994
-8.2424355 24.507769 -2.1585875
-8.4261646 24.398861 -1.6235994
-8.4221249 24.422209 -1.957849
-8.7149801 24.28965 -1.3420002
-9.0311632 24.174908 -1.5493662
-9.1306667 24.105083 -1.4259006
-9.3232737 24.059633 -1.4420682
-7.5492363 24.791073 -2.3427336
-7.7281485 24.693565 -1.8287581
-7.914278 24.588037 -1.2300276
-8.0316353 24.582851 -2.0496075
-8.4296923 24.409443 -1.8513643
-9.1402817 24.101519 -1.5336217
-9.4254608 23.999096 -1.2549371
-9.8329973 23.823547 -1.4415666
-7.5321121 24.797661 -2.4347353
-7.6223011 24.761345 -2.2450998
-7.8372617 24.623722 -1.5297976
-7.9535851 24.631613 -2.246623
-8.0523081 24.523823 -1.4237037
-8.1301498 24.563753 -2.1506605
-8.3446608 24.424387 -1.7129625
-8.3408899 24.411242 -1.4311593
-8.5332136 24.385525 -1.9531163
-8.6300678 24.372549 -2.1340907
-8.7339382 24.317362 -2.1349189
-8.7173214 24.298445 -1.7373501
-8.81633 24.276939 -1.8338804
-8.8322182 24.266329 -1.7510899
-9.0261478 24.181828 -1.7372093
-9.067462 24.118931 -1.7464454
-9.8368855 23.818779 -1.5422338
-9.3176107 24.086033 -1.7418376
-7.8476982 24.624725 -2.2498415
-8.0142756 24.587292 -1.8326918
-8.1447477 24.530575 -2.2201231
-8.2394285 24.517992 -2.2308073
-8.4279785 24.42635 -2.331939
-8.5282927 24.371126 -1.7353106
-8.6597357 24.33186 -2.1378615
-8.8176413 24.288692 -2.0433438
-8.9361248 24.226662 -1.9561721
-8.9408884 24.217407 -1.8407609
-9.0325508 24.208723 -2.1537189
-9.0239601 24.200415 -1.8470567
-9.118742 24.159386 -1.8451841
-9.158762 24.133434 -1.9113413
-9.1559048 24.078943 -1.0386167
-7.3573627 24.829998 -2.1429
-7.9362049 24.588379 -1.7603705
-8.4392109 24.428574 -2.0354016
-8.436903 24.411837 -1.7594625
-8.4481277 24.425753 -2.1321504
-8.8350811 24.292475 -2.2483075
-7.324296 24.869953 -2.0604458
-7.3420215 24.82646 -2.0363693
-7.8784566 24.645313 -2.3805971
-7.9323773 24.58058 -1.3482217
-7.9168096 24.622585 -1.9289151
-7.9356933 24.60677 -1.6314499
-8.2167473 24.50699 -1.9410834
-8.6742449 24.335121 -2.2270541
-8.8287077 24.285437 -2.1581173
-8.8043098 24.216393 -1.1828432
-8.9204388 24.266424 -2.2502782
-9.0339251 24.197134 -1.9253197
-9.0427608 24.111872 -1.4316918
-9.1488705 24.105289 -1.7407585
-9.169302 24.142664 -2.2730312
-9.3424826 24.103115 -2.2366664
-8.9960346 24.158224 -0.87011433
-8.9706221 24.027859 -0.88707328
-7.3039355 24.868954 -2.1375608
-7.3412704 24.813831 -1.5640148
-7.5762715 24.742451 -2.3228056
-8.2431593 24.509235 -2.4548683
-8.4381809 24.386106 -1.5424316
-8.7424707 24.307598 -2.0355392
-8.9213524 24.271421 -2.339221
-9.0527048 24.224735 -2.4137926
-9.0336981 24.215502 -2.234463
-9.4300842 24.078993 -2.2476447
-8.7434139 24.307451 -2.5888226
-7.7278838 24.729038 -2.5414903
-7.2461982 24.92709 -2.5620036
-7.4407854 24.792742 -1.9198841
-7.6060486 24.69754 -1.3431711
-8.239192 24.52597 -2.3092904
-8.7571974 24.303902 -2.3510807
-8.8598843 24.237942 -1.9329821
-9.6038151 24.026911 -3.1290622
-9.3135767 24.088751 -2.6127858
-7.5395422 24.760248 -1.6254619
-7.608902 24.757851 -1.9509337
-7.7128344 24.746513 -2.3673217
-7.7235723 24.682407 -1.5264767
-8.02104 24.606821 -2.4358685
-8.1370668 24.559229 -2.0426195
-8.1996031 24.56131 -2.4470108
-8.4967699 24.450253 -2.4783406
-8.7249413 24.371304 -2.5285082
-8.7102928 24.36084 -2.4443243
-8.7945576 24.350235 -2.6238933
-8.8456087 24.313601 -2.444761
-9.0293283 24.256544 -2.5222123
-9.1095858 24.155928 -1.5448769
-7.3207636 24.852057 -1.8312699
-7.6277709 24.778736 -2.4226987
-7.8079739 24.658716 -1.4036485
-7.8131499 24.658943 -1.6392796
-7.8174076 24.70352 -2.4325213
-8.059495 24.625443 -2.5333006
-8.0227785 24.566885 -1.4330008
-8.2178249 24.554955 -2.2202818
-8.4201565 24.467964 -2.263041
-8.554348 24.431744 -2.7257237
-8.5999088 24.363522 -1.7615178
-8.6381216 24.321028 -1.749565
-8.8402987 24.334393 -2.6490977
-8.9082804 24.303728 -2.5337434
-8.920373 24.282942 -2.4521914
-9.9097052 23.858664 -1.6621629
-8.5066528 24.457939 -2.7115622
-8.912488 24.16263 -0.76469076
-7.7208595 24.758713 -2.540086
-7.903883 24.658598 -2.0732992
-8.132762 24.558844 -1.9640827
-8.2373428 24.547819 -2.3632669
-8.406148 24.478384 -2.4504917
-8.9874687 24.257797 -2.2608604
-9.2193842 24.175856 -2.4519396
-7.165535 24.918976 -2.0204258
-8.2604704 24.557142 -2.7327423
-7.1407766 24.969177 -2.5940611
-7.5367041 24.771332 -1.7164197
-7.6427841 24.766539 -2.3692324
-7.7857161 24.657612 -1.5433717
-7.8657413 24.624533 -1.7406012
-8.7114983 24.368544 -2.3496108
-8.7148609 24.354156 -2.2426958
-9.1218958 24.150782 -1.4385985
-8.3246784 24.528719 -2.7125034
-7.5240426 24.790756 -1.9450537
-7.5238686 24.799524 -2.2508245
-8.6153574 24.368481 -1.8649083
-8.6193275 24.370062 -1.9392556
-8.7706232 24.352682 -2.6934366
-9.652524 23.990747 -2.5449793
-9.9033356 23.856312 -1.550845
-7.1265149 24.959276 -2.1423407
-7.3221951 24.842319 -1.4232749
-7.3246088 24.838373 -1.7085125
-7.5979929 24.750408 -1.5523642
-8.3985319 24.455065 -1.6533774
-8.7871761 24.348328 -2.4606895
-8.8246784 24.26005 -1.4382595
-9.020565 24.247536 -2.1664391
-7.3368607 24.845716 -1.514014
-7.6970248 24.747713 -2.4247806
-7.7631178 24.731804 -2.6573856
-8.0382442 24.636854 -2.6367557
-9.0040665 24.253359 -2.3256991
-9.3268414 24.141853 -2.5716922
-9.9140549 23.875811 -1.8765033
-7.2963495 24.860493 -1.6996658
-8.710495 24.352671 -2.1357629
-7.2932029 24.851839 -1.6489226
-7.7839432 24.656237 -1.3603483
-9.911418 23.8494 -1.428672
-7.6978498 24.754692 -2.2881086
-7.7856822 24.651609 -1.2779156
-7.9172087 24.595194 -1.1667364
-8.6920509 24.346981 -1.9821784
-9.8992338 23.848478 -1.1556622
-7.5602312 24.732176 -1.2954582
-8.2217264 24.519215 -2.0469794
-7.3400283 24.82279 -1.6757931
-7.9300504 24.566498 -1.0644039
-8.0149908 24.52339 -0.96919298
-8.7346354 24.323868 -2.4426997
-8.9913206 24.165695 -1.0153316
-9.3607283 24.004553 -1.0388122
-7.6368537 24.686401 -1.1578143
-8.0353622 24.564592 -1.7331017
-8.6384325 24.343647 -2.0467913
-9.1344233 24.111645 -1.6357033
-8.7805452 24.218153 -2.7859445
-7.6391311 24.512598 -0.59105879
-7.7093463 24.705462 -2.2478523
-8.3617706 24.239332 -0.30068609
-7.2301269 24.923779 -2.4097776
-9.5410357 23.921089 -2.8452094
-7.4271593 24.811043 -2.0489516
-8.7722092 24.212572 -1.970467
-7.2716331 24.931385 -2.6946568
-8.9000063 24.168119 -0.83100379
-7.992887 24.654224 -2.5160484
-9.0285101 24.002134 -0.5629766
-7.9231124 24.610872 -1.8322864
-8.0454664 24.362494 -1.0127791
-9.3342981 23.890182 -0.96562552
-9.3306847 23.982239 -2.7867253
-8.2179146 24.434814 -1.0445639
-7.6190777 24.73624 -1.7462785
-7.3195734 24.915958 -2.5656905
-8.8469477 24.206444 -1.3327653
-8.9206486 24.177839 -1.0346025
-8.5842876 24.359516 -1.6152097
-7.1516876 24.888294 -1.8659792
-9.3381386 24.015867 -1.3472445
-9.3285408 24.027599 -1.1482748
-9.3287811 24.01804 -1.6479143
-8.7281094 24.2367 -0.82264143
-9.3294945 23.981842 -1.8978248
-8.8366804 24.216551 -1.2334422
-8.6345701 24.34549 -2.3013294
-8.6331615 24.395195 -2.6320586
-7.1254778 24.957672 -2.4298828
-8.8479013 24.208755 -0.98868126
-8.6258659 24.316975 -1.1538663
-8.5141716 24.379589 -1.6177387
-8.8448944 24.209223 -1.5347185
-9.3369045 24.009089 -1.4430813
-8.6137962 24.346918 -1.3912448
-8.5893974 24.358528 -1.3720796
-9.6617174 23.838047 -2.0101178
-9.627306 23.875099 -2.6670384
-9.6522837 23.834602 -3.0298576
-9.5256739 23.979979 -1.7409283
-9.5394459 23.979946 -2.9322257
-7.7647042 24.633257 -1.2998775
-7.1366782 24.925097 -2.2506261
-9.314168 23.992294 -0.95113015
-9.1119986 24.172401 -1.7259161
-9.5050859 23.918793 -2.2816217
-7.1345811 24.983383 -2.5831463
-9.5223112 23.981762 -1.4520773
-9.6442671 23.878859 -1.8246118
-9.6581945 23.837721 -2.3421595
-9.6474667 23.905924 -1.9237087
-7.6489682 24.700373 -1.4368623
-9.5399075 23.975157 -1.5326535
-9.1144772 24.100647 -1.2411616
-9.5313969 24.023859 -2.2309914
-9.6191654 23.838331 -2.1733868
-9.6471958 23.893419 -0.72681898
-8.8608894 24.06226 -0.11979526
-9.5248566 23.98418 -1.6256063
-7.4149127 24.799623 -1.7405843
-9.5071049 23.958008 -2.4012492
-9.5628424 23.917933 -3.4440901
-7.348433 24.839041 -2.4412348
-7.9262881 24.603359 -1.534009
-8.7853508 24.101963 0.012829037
-9.5704002 23.849337 -3.6423852
-9.7261791 23.972771 -2.7567747
-9.8164492 23.87204 -1.4492906
-9.5248356 23.97891 -1.3349797
-9.8210802 23.872423 -1.5449992
-9.6428137 23.841812 -3.2784669
-9.6751032 23.84177 -2.7178354
-9.6481581 23.878059 -2.4047992
-9.6795349 23.831465 -3.1301985
-8.947897 24.229042 -2.1285801
-8.1568689 24.533234 -2.1425903
-8.5645227 24.278936 -2.7442641
-8.952857 24.235966 -2.3206606
-8.931613 24.219402 -2.2137151
-8.2470341 24.307869 -0.29381162
-8.9409733 24.236938 -2.0267448
-8.7513809 24.22304 -1.3326033
-9.5135059 23.945684 -2.7602868
-9.5399218 24.02914 -2.3328943
-9.4938393 23.955536 -2.8565812
-9.7511215 23.827616 -1.0414206
-7.041048 24.969095 -2.2650228
-9.8366385 23.87818 -1.7420533
-8.0240355 24.560022 -1.3393824
-9.4834642 24.048326 -2.0344718
-9.5438881 24.016151 -2.0325692
-8.3254776 24.394627 -0.73017943
-9.7321186 23.889071 -1.4401853
-8.5126257 24.363125 -1.2160456
-8.1394138 24.586905 -2.4642813
-7.8419342 24.629482 -1.6575005
-7.8320851 24.623201 -1.9474713
-9.2331762 24.075346 -1.2270854
-9.5216446 24.003117 -1.834192
-9.8131485 23.866068 -1.3395476
-8.3370895 24.404472 -1.0446315
-7.60888 24.786556 -2.5457437
-9.7065296 23.838032 -3.1985664
-9.5393686 23.947216 -0.81102169
-9.8552942 23.68033 -0.87304831
-9.826848 23.895885 -1.9353677
-7.4060607 24.781528 -1.1081927
-7.4143333 24.796623 -1.2711167
-8.8386297 24.211969 -1.6461129
-9.6220617 23.895931 -1.1330758
-8.6578569 24.329746 -2.4883621
-8.6588211 24.259371 -1.0249898
-8.6206026 24.306908 -1.2418585
-8.6254902 24.308979 -1.3444802
-8.635108 24.39064 -2.3431861
-8.6839485 24.393738 -2.5989749
-9.5283175 23.98135 -3.4057834
-9.526062 23.959835 -1.1356066
-9.5297956 23.967808 -1.2276011
-9.5321617 24.06382 -2.4615643
-9.5136461 24.055523 -2.2667463
-9.3403864 24.020456 -1.7207627
-8.6350365 24.311932 -1.5496532
-9.1354895 24.113878 -1.3474542
-8.6119413 24.357357 -1.5547907
-9.6055813 23.894255 -2.3628602
-9.7901707 23.898748 -1.1535259
-9.4917316 23.953072 -1.0857409
-9.544714 24.059647 -2.5442872
-8.6241722 24.304953 -1.4380188
-8.8224821 24.231571 -0.73002595
-9.2305651 24.089176 -1.6328434
-8.6395645 24.181637 0.058826976
-9.2083969 24.048893 -0.8047421
-8.8559523 24.220659 -0.65977448
-9.6231527 23.894684 -1.2343438
-8.1180382 24.575668 -2.239028
-9.4913692 23.98074 -0.89925218
-9.7523479 23.832869 -1.5234964
-9.7185383 23.832886 -3.0565712
-9.5373354 24.021311 -2.1362026
-9.7474165 23.823135 -1.3438604
-7.9519348 24.621313 -2.1409411
-8.5354099 24.382164 -1.8302099
-8.8219128 24.289835 -1.9631447
-9.2003059 24.061356 -0.68864566
-9.2127743 24.059971 -0.72136629
-7.8313298 24.619907 -1.4353586
