# .PCD v0.7 - Point Cloud Data file format
VERSION 0.7
FIELDS x y z
SIZE 4 4 4
TYPE F F F
COUNT 1 1 1
WIDTH 1613
HEIGHT 1
VIEWPOINT 0 0 0 1 0 0 0
POINTS 1613
DATA ascii
5.2857318 15.904295 2.1698499
6.460433 13.502448 2.1573505
5.5664668 15.791862 2.1748118
6.054966 14.594465 2.1628344
6.1444635 13.675365 2.1489756
6.5444288 12.595437 2.1657479
5.343194 15.776092 2.2757242
5.8813934 14.597216 2.2511559
6.9474401 12.085369 2.2692959
5.7813935 14.602515 2.2673898
6.5477986 12.582668 2.2688494
6.6277194 12.809866 1.8932928
6.3340712 13.783451 2.2564731
4.9518833 16.787281 2.2618065
5.4603472 16.087439 2.2392817
5.6520405 15.399151 2.2524352
6.3420796 13.674703 2.2580433
6.7385798 12.58225 2.2564676
5.669549 14.900946 2.2549579
5.7598243 15.100286 2.2570343
4.8386412 17.578526 2.267066
5.2422719 16.714615 2.2462997
5.959734 14.588861 2.2486007
6.8455672 11.786883 2.2710686
6.954309 11.995785 2.2622788
5.2575903 15.995733 2.2710989
6.8698211 12.411493 2.1535749
4.3864074 18.306091 2.1898878
5.2350826 16.090603 2.1695628
5.8424954 14.493444 2.1682978
5.9588733 14.698951 2.0798893
5.7797403 14.587347 2.1726015
6.7604427 11.990464 2.1696045
5.4684148 15.398849 2.1752965
6.4319744 13.568882 2.1699007
5.1043434 16.387627 2.1902857
6.697278 12.191269 2.260828
6.8495336 12.384612 2.2429018
4.9862022 16.698456 2.1656983
5.1492243 16.885311 2.2410696
5.6578045 15.562437 2.2313471
6.031589 14.588891 2.2670152
5.5761189 15.101978 2.2711666
4.5569601 18.301371 2.2569804
4.7605233 17.28607 2.2590125
5.9411955 14.180591 2.2568161
5.811501 14.502473 2.2611094
6.3435946 13.101501 2.2616386
6.655786 12.780273 1.9894719
5.4643555 16.101738 2.1666443
6.0037632 14.403922 2.0623188
6.0494342 14.386954 2.1622241
6.605032 12.395785 2.2738349
4.3386078 19.072399 2.2127736
4.8381705 17.100584 2.2607951
5.5637183 15.789609 2.2604785
6.5703449 13.205596 2.1596036
4.2767448 18.579659 2.3585126
5.5028715 15.29441 2.0824254
5.6464229 15.487235 2.0754886
4.4631495 18.09096 2.557013
4.9490113 16.798361 2.1886139
5.764791 15.291918 2.0680938
6.98841 12.080887 2.087399
6.345695 13.163655 2.5654342
4.9337559 17.488251 2.1808374
5.1328812 16.795473 2.3671751
4.4239359 18.855616 2.2183659
5.7518125 15.370863 2.2210717
4.5418849 17.884768 2.464632
5.1695409 16.19628 2.3648143
6.2928095 13.688136 2.0657008
5.5962048 15.09099 2.172209
5.7835312 15.288866 2.1610634
4.6422496 18.301943 2.1626928
4.4849925 18.005665 2.2772686
6.9476714 11.132242 2.6444693
6.2029929 13.913123 2.0796432
6.385725 12.978213 2.1659884
5.2888346 15.834098 2.1730356
5.456315 16.000658 2.1572528
5.9605556 14.794834 2.1657987
4.6681681 17.993801 2.1601665
5.3548894 16.384844 2.1798437
4.5157876 17.83532 2.2888722
5.6624885 14.904537 2.1538029
6.2939267 13.200864 2.1610062
6.0960927 14.198871 2.1638045
6.9546432 11.989573 2.1682289
6.0014334 13.935007 2.1589167
7.0613022 11.786644 2.166286
4.6512923 17.580013 2.557317
4.60184 17.59367 2.2833564
5.4982095 15.29586 2.1716769
5.6585059 15.595542 2.1606169
4.4002919 18.198381 2.1742435
5.6905642 14.558538 2.0342307
5.2934828 15.802651 2.0818572
5.4610004 16.094511 2.0673356
5.8368068 14.36381 2.0514381
5.9732003 14.60184 2.0647166
4.2944183 18.491644 2.2720129
4.5661769 18.293665 2.0841737
5.2766638 16.397188 2.0747664
6.6436553 13.01383 2.0573721
5.4343257 16.206818 2.1815176
5.3511539 16.184231 2.257843
5.1764531 16.197386 2.2661283
6.4822268 12.708776 2.0521097
6.6713653 12.180886 2.0629089
6.8667836 11.705159 2.1640654
5.2648692 16.579847 2.5647845
5.049212 17.173525 2.2431924
5.1060462 16.359903 2.0083692
5.0694842 17.077389 2.082593
5.5448999 15.875971 2.0715015
5.4507937 16.167734 2.2453043
5.3523769 16.196136 2.1619232
5.2378502 16.072201 2.2598684
5.2167726 16.031637 2.1745062
5.250927 15.993641 2.455266
4.5643954 17.796576 2.188067
4.6463318 17.587431 2.2703435
6.1041241 13.693892 1.990221
6.2546825 13.885314 2.0683732
4.6816187 17.474838 2.1909781
4.7520947 17.299143 2.3573756
5.0654755 16.51638 2.1772149
5.2840457 15.901003 2.2718637
5.7291164 15.366362 2.0360065
4.311883 18.408741 2.2342424
4.3762484 18.291815 2.2601504
4.5118189 17.83577 2.3598785
5.1719379 16.188217 2.1829269
5.553112 15.194527 2.3591096
5.5701489 15.119078 2.0754826
6.3425303 13.084552 2.0082803
5.463088 15.992615 2.0730157
7.1640491 11.612559 2.0839295
4.4935455 17.916121 2.2572958
4.9456029 16.787247 2.4571056
4.5602274 18.372932 2.1759527
5.9577732 14.687708 2.1760876
6.7863646 11.900554 2.1834702
5.2574978 16.584969 2.1629
4.3588142 18.99209 2.1631079
4.3578753 18.892286 2.1690147
4.6607056 18.093256 2.1588719
5.6871395 15.48653 2.1722021
6.4049988 12.884109 2.2675252
4.4501553 18.780193 2.1766686
5.6918244 14.805859 2.1803842
4.6007538 17.702297 2.368387
6.6517167 12.294476 2.1730323
6.7967291 11.886874 2.2593114
5.1675735 16.784994 1.8987381
4.963655 16.733799 2.0302846
5.453331 16.072107 1.9705794
5.0564075 16.497971 2.3610308
5.1580834 16.85466 2.3750873
6.9817753 11.800313 2.4372153
5.243063 16.605417 1.9493946
4.5663996 18.391994 1.9866426
4.5566335 18.388294 2.0547559
6.2769928 13.699523 1.951623
5.3650761 15.693777 2.0313168
5.5962515 15.778379 2.0612001
6.3447013 13.77855 1.9882575
4.3577137 18.797346 2.1733387
5.8568487 14.892734 2.1663227
6.6865063 12.182023 2.1585455
5.1662011 16.19697 2.4637358
4.8513422 17.590569 2.1702952
4.6178141 17.478916 2.1886115
5.9794016 13.921608 2.2202528
5.371367 16.288349 2.1626425
6.0734358 14.297993 2.1622334
6.6899986 11.994243 2.0090921
4.7160435 17.291269 2.3835278
5.287015 15.89174 2.3700612
5.1824584 16.101133 2.1728308
5.6010714 14.997215 2.1913953
5.7536306 15.191584 2.168014
6.7583461 12.588749 2.1654053
5.1065955 16.315575 2.3654613
5.7943282 15.001035 2.2599411
6.7070246 12.096811 2.2623832
5.6954913 14.790769 2.2758639
4.4515896 18.668558 2.2414975
4.9354076 17.394285 2.2556329
5.5478024 15.683238 2.2630584
6.4995527 13.107599 2.3381097
4.342967 18.887686 2.2631669
5.4520512 15.989294 2.2590609
6.3500023 13.589396 2.2558835
5.4169068 15.244394 2.8205674
4.6965785 17.90806 2.0563719
5.2943773 16.205845 2.0535517
6.1840501 13.889415 1.9669077
4.6877708 17.392607 2.1749578
4.4737206 18.509443 2.1615357
5.793273 15.000286 2.1665809
5.7653494 15.09447 2.1602962
5.6022892 15.017778 2.2761703
5.8008866 14.420975 2.4679759
4.4630327 18.691343 2.0855632
5.6642804 14.786378 2.0406437
5.7995815 14.991817 2.0782094
5.6486001 14.991756 2.168874
6.2277308 14.007311 1.9739122
6.124651 14.285892 1.9661336
6.1006861 14.107112 2.0566933
4.8749733 16.993824 2.0651898
4.9521246 16.781988 2.655683
4.4535518 18.680471 2.1623716
4.8673329 16.988113 2.173141
5.0494919 17.173645 2.1658785
4.8470273 17.081409 2.5617461
4.6388874 18.07987 2.2631826
5.1938725 16.10343 2.259613
6.2920041 13.703546 2.2666376
4.8701344 17.15888 2.646898
4.6636748 18.190456 2.1539288
5.0930796 16.240147 2.1809356
5.2641511 16.395845 2.167645
6.0992532 13.703621 2.165329
4.6615434 17.985723 2.2623246
4.4765453 18.487743 2.2573137
4.5418253 18.391319 2.2680907
5.2556505 16.574089 2.2721984
5.3616939 16.386297 2.2404463
6.4404554 13.474493 2.3351138
6.1713033 14.185145 1.9651856
5.0958505 16.814955 1.9634293
5.3386955 16.454344 2.0591798
4.7064352 17.254723 2.1402266
4.8601441 17.492186 2.1686661
5.7456636 15.188575 2.065037
5.8998375 14.186758 2.1799448
5.6791153 15.304834 2.0709815
5.2686586 16.590799 2.0675168
5.2352605 16.58444 2.3626456
5.1320639 16.77375 2.0735736
5.1419306 16.923784 2.09691
5.0392027 17.212305 2.0570586
4.6695142 17.997129 2.0819185
5.5579228 15.702291 2.0579419
5.5958705 14.808311 2.1478913
5.3955708 15.893191 2.1566041
6.3281841 13.881732 2.1743181
4.4019804 18.601553 2.1578357
5.1797452 16.59277 2.0696859
6.2328711 14.083044 2.0214224
4.8804379 17.391174 2.2644124
5.5609899 14.805738 2.0802007
6.2235503 14.089957 2.6145437
6.0884924 13.790935 2.2618093
5.3167582 16.059837 2.1001413
5.8782787 14.606449 2.0705314
5.3104267 16.216526 2.348505
5.8060174 14.907015 2.0783277
5.3018064 16.22843 2.4467912
5.2429872 15.999785 1.9186991
4.5576296 18.288347 2.1674156
5.2702198 15.592742 2.1198845
6.2343931 14.089231 2.1627934
6.0988703 13.815263 1.9507563
6.1613584 13.600545 2.15957
6.2526488 14.098074 2.0068276
6.3549728 13.493011 1.9801567
5.5273857 15.281127 2.0695407
5.1736016 15.998315 1.9484499
4.7540679 17.155413 2.0399344
6.0978994 14.038765 2.0525696
6.3072004 13.709278 1.9005147
4.6477532 18.087606 2.0503435
5.6643038 15.099428 2.0680943
5.5453372 14.890041 2.1079137
5.4465837 16.181168 1.9596094
5.2045622 16.506802 2.2535233
6.7001996 12.603822 2.2655764
6.2377863 14.068369 2.3200598
5.7083659 14.465079 2.173681
5.8701963 14.619646 2.1696329
6.1852908 13.273911 2.0397637
4.8568234 17.07299 2.0470376
6.1096191 13.410128 2.2221746
5.9663177 13.790491 2.0505452
4.750473 17.783548 2.2609651
6.306356 13.624795 2.0513923
5.8243661 14.140084 2.2354722
6.003026 14.416369 2.2585769
5.9600329 13.904624 1.9881306
5.2897162 15.598401 2.0489163
4.3853474 18.694607 2.1641879
6.8452187 12.223549 1.9577537
4.4103775 17.989256 2.0190568
5.6123543 14.992693 1.9296316
4.5717258 17.515957 2.2627728
6.0891881 13.717928 2.0425107
5.2640443 16.482454 2.2552581
7.1522365 11.888777 2.2303808
7.0450854 11.977415 2.1071115
6.9592986 11.492771 2.168072
6.4849505 12.69494 2.1647618
6.1890345 13.495085 2.2626016
5.0444937 17.744656 2.1530943
6.323473 14.290944 2.247582
6.7264237 12.793847 2.2258019
4.7931714 17.605541 2.1768048
6.3446517 13.581614 2.0680177
5.6821804 15.303163 2.2564666
6.1882792 13.501332 2.166455
6.3550982 12.971242 2.0926185
6.2904053 13.207254 2.2598617
6.2709556 13.299726 2.2712572
5.3820314 16.088398 2.2613578
6.4584084 12.801108 2.169132
6.1872525 13.4918 2.0509634
5.3473997 16.305653 1.9756684
4.4974999 18.399994 2.1650543
5.9541054 14.687551 2.2566113
6.5130215 12.81416 2.0795755
6.0316286 13.980661 2.3713949
6.1409321 14.235253 1.8826919
6.1963568 13.41701 2.2967625
5.6813216 14.63119 2.2150335
4.6050911 18.098301 2.1586363
6.204196 13.914506 2.1700404
6.2568755 13.978322 2.1667588
6.1662731 14.183363 2.1601641
4.983892 17.679287 2.1443174
6.297473 13.599653 1.9725409
4.8109331 17.526684 2.1727219
4.9596558 16.928669 1.9320334
4.75173 17.187159 1.9790297
4.5801673 18.200518 2.2653234
6.2514024 13.97312 2.0626755
5.9887233 14.687539 2.5613155
5.0346003 17.529484 2.2643569
5.4160399 15.925019 2.3915529
5.5761595 16.109547 2.3974783
5.1709609 16.502535 2.3449476
6.2425737 13.387501 2.2677772
6.3318601 13.883053 2.242588
4.9206209 17.727987 2.3441186
5.8841443 14.794775 2.0760853
5.6806908 15.09417 2.1416736
5.8823318 15.28239 2.1309404
6.1345525 14.251961 2.3672872
5.9772758 14.491869 2.0678639
6.086978 14.748695 2.0658863
6.1448855 14.180306 2.2584059
6.1387286 14.309225 2.2342207
5.5076051 15.706526 2.3447847
5.5956607 15.967349 2.2866216
5.5947909 15.500592 2.3675399
6.7700906 12.398815 1.974493
5.0726619 16.897411 1.9698466
4.491478 18.32873 2.4280972
4.6534648 18.460218 2.4194634
6.392065 13.484827 2.5165701
6.4489021 13.492911 2.4961348
5.1449213 16.2827 2.5607488
6.5755014 12.509892 2.0832191
6.2706451 13.321174 2.0602484
5.5302658 16.163183 2.4385951
5.5621428 15.516655 2.6470189
6.426115 13.573656 2.2644057
4.9863205 17.614229 2.5505762
6.1946483 13.426999 2.1521494
6.1560316 14.09487 1.96552
5.6572256 15.0843 2.7655258
5.7679901 15.446913 2.7333317
5.6767759 14.717858 2.0421684
6.7036614 11.843617 2.0081542
6.3461609 13.602189 1.976348
5.168458 16.091656 2.0859888
4.8669224 17.110771 2.6621945
6.5567746 12.910195 1.9566892
4.8686337 17.288038 2.6677873
6.4119544 12.64214 1.9111295
6.1468391 14.144062 2.7163851
4.8425798 17.079161 2.4564114
4.8101778 16.796989 2.144428
4.8057585 16.715668 2.1544988
5.2833667 15.678741 1.9576128
5.6330342 15.250894 2.7191641
5.7260804 15.508169 2.7042027
6.4223313 13.588039 2.5423048
6.7886176 12.391028 2.3549626
5.1716852 16.614159 1.9552709
6.5864487 12.895459 2.1583965
6.789474 12.39183 2.2667797
6.7779727 12.396613 2.0651863
4.80024 17.527224 2.2345805
4.9117231 17.276535 1.9562529
6.341589 13.44782 2.9121747
6.6047392 12.802211 2.1660335
6.516912 12.397003 2.0102015
6.5114627 13.010893 1.9558259
4.9217849 16.816895 2.8300526
6.4840627 12.335258 2.2743165
6.5917683 12.905165 2.2614448
6.5655165 12.893189 1.8469799
7.1062927 11.556005 1.8831091
6.3584557 13.599452 2.1587236
6.3192635 13.536441 2.0145555
4.9010625 16.810631 2.2532234
6.7857804 12.399746 2.1705432
6.5060329 12.41086 1.8980702
7.0869942 11.598627 2.1617959
6.9977365 11.744791 1.9370518
6.3481827 13.88633 2.5666375
5.436244 15.665679 2.8786275
6.0509238 13.977922 2.5546846
6.1917653 13.377359 2.0625446
6.5900803 12.897449 2.0598156
6.6094227 12.811696 2.256037
6.8079672 12.231359 2.3643804
4.8580661 17.69239 2.6244404
7.112782 11.513333 2.2625775
6.7785516 12.388063 2.5374672
4.7872486 17.194603 2.2603095
6.2076387 13.413641 2.3642776
6.5041151 13.01327 2.0511651
6.6042533 12.810122 2.0737436
4.764564 17.303799 2.1684308
6.9371533 11.57384 2.2519779
4.6933942 17.806511 2.1701717
7.0252223 11.386616 2.5452237
7.0313148 12.068892 2.0752568
6.1421409 13.708252 2.7163053
6.2379384 13.362528 1.9767278
4.6647143 17.40321 2.2820656
5.6190281 14.68335 2.0534928
5.2920198 15.603322 1.9640741
5.6638722 14.692769 2.1660042
6.347219 13.343452 2.8585536
5.0664396 16.903521 2.1667831
6.494801 13.009764 2.2543664
6.9610825 11.484978 2.2701271
6.960855 11.483479 2.6515141
4.9417987 16.876505 2.4472394
6.2518783 13.400158 2.1650338
6.2403064 13.394468 2.3690343
6.4344444 12.955144 2.3581173
6.492135 12.99641 2.1640992
6.4256859 12.962709 2.5626206
6.4449387 12.896021 2.1661005
6.814487 12.881921 2.1360297
6.735096 12.788512 2.16488
7.1098833 11.515341 2.3401389
4.6360621 18.387156 2.0575712
4.9410515 16.89785 2.5672467
4.9562402 16.883787 2.6679983
6.4181828 13.327025 2.3327167
6.8074369 12.243028 1.9364649
4.974669 17.608385 2.4679892
6.4273782 13.386467 2.6616795
6.1378827 13.681964 2.5658562
4.3512163 18.478718 2.2335281
5.3491182 16.286268 2.2459517
6.6240573 13.067839 2.3689942
6.8848329 11.677505 2.7626224
6.8656888 11.703843 2.2804692
6.9369822 11.576845 2.5483384
6.9851217 11.399908 2.5525758
6.7817206 12.969217 2.1694603
6.5333729 13.275297 2.2534001
6.8598127 12.591728 2.1748457
6.4297209 12.968618 2.4673805
6.5430174 13.295148 2.6345277
6.4509583 12.929797 2.0936749
5.3867707 15.9951 2.4769845
6.8797183 11.696608 2.4599974
6.9492311 11.698317 2.1440992
7.0181756 11.676987 2.631202
6.9375639 11.576443 2.4701178
6.9363136 11.575707 2.1845529
6.8761907 11.695965 2.3676779
6.9267077 11.659167 2.3221323
6.9285579 11.566971 2.3789067
6.9440427 11.59763 2.1061015
6.9519277 11.493609 2.5495479
6.9570217 11.49221 2.3628354
7.1038566 11.513426 2.0846848
6.9386473 12.311279 1.9938358
6.595428 12.813347 1.9621128
6.5928354 12.819391 2.446384
6.4537497 13.385218 2.161752
5.4065223 15.992381 1.9793745
5.2962608 15.8165 2.2581372
5.1263199 16.998182 2.5854397
6.4551396 13.297791 2.1585553
5.0645313 16.477118 1.936866
5.9476891 14.201378 1.8739228
6.7341647 12.279704 2.8171909
4.8420515 17.655029 2.398339
4.6662502 18.385347 2.2233117
4.6410141 18.361008 2.1625931
6.4665408 13.375084 2.4753742
4.5885987 17.680996 2.2661872
6.332746 13.505979 2.904418
4.9477105 16.783804 2.5521936
4.6291866 18.287392 2.7419426
4.7928314 17.462414 2.5119903
6.4453607 13.436166 2.7281435
5.3044457 15.814775 2.3714442
5.1544433 16.691246 2.0628834
5.0063372 16.526489 2.2739768
4.7815928 16.818226 2.5736272
6.6161962 12.140444 1.9591732
5.1155519 16.701113 1.9420869
4.74651 17.375359 2.6659331
5.4019194 16.021265 2.5294065
6.893837 12.090661 2.166347
4.875947 17.391321 2.3600988
6.8399754 11.909705 2.0875769
5.3995147 15.590425 2.1865487
6.8973212 12.110078 2.2505982
6.395134 13.419919 2.4705539
4.9628477 17.19932 2.1578705
5.4379163 15.610439 2.8116205
5.856153 14.991526 2.0731428
4.323298 18.383017 2.8480754
6.398993 12.804368 2.564162
4.5382309 17.776468 2.775074
4.3148851 18.034426 3.227186
6.3445163 14.207337 2.2612901
5.8101993 14.960196 2.5187244
4.7928796 17.508369 2.4368649
5.1414232 16.250189 1.9013219
5.7482147 14.693419 2.4538274
4.8806581 17.390135 1.9720652
5.3930812 15.610289 2.2750311
7.0584927 11.693757 2.3499889
5.6931701 14.604574 2.6637375
5.4570031 15.890671 2.3471935
4.2078595 19.103556 2.3393285
5.6274328 15.685863 2.5582373
5.8807025 15.00204 2.1642382
4.5898814 18.197556 2.369216
6.2552428 13.617845 2.5476565
6.1315422 14.262215 2.4552493
5.180645 16.594604 2.1597195
5.8862834 14.781439 2.4637046
6.4417186 12.672969 1.9648774
4.9926739 16.998013 1.9864923
6.8314509 12.299124 1.9945476
4.4592381 18.087631 2.2578175
5.9328103 14.978217 2.1019101
4.5972748 18.098484 2.7490306
4.5602074 18.295549 2.3503547
6.1642323 14.271303 2.5589414
5.235342 15.731266 3.1311927
6.1367006 13.683481 2.357398
4.5854478 18.290051 2.6287417
4.279696 18.314993 1.953858
5.8630724 14.394161 2.1540663
6.3955498 13.318239 2.0616546
5.9614596 14.804744 2.2253826
4.3835979 18.702284 2.4437692
5.6226935 15.719193 2.249712
4.1429572 18.680508 2.9550972
6.482945 12.60162 2.6638951
5.0835071 16.335371 2.1604366
4.3380542 18.878523 2.3578093
5.2017498 16.026545 2.3778975
6.6523423 12.792154 2.3535597
4.9940896 17.099018 2.0603809
5.4615321 15.301503 2.7483346
5.1299286 15.8838 3.3327148
4.5487003 18.321228 2.5443044
5.8576779 14.399084 2.2574379
6.2775583 13.900043 2.6353645
6.6791172 12.69609 2.1673462
4.1393323 18.595016 3.0499449
6.9427166 12.085649 2.3763537
6.1240435 14.45011 2.1644621
4.8476954 17.493607 2.3503497
4.7799087 17.785816 2.7404022
7.1290669 11.589445 2.4497931
6.446939 13.309346 1.9705343
5.4652753 15.898133 2.1694748
6.1848288 13.995781 2.4458485
7.0314698 11.347336 2.3560095
5.5546012 14.992869 2.7589295
4.3857965 18.699121 2.5634925
4.5749111 17.590607 2.7524433
6.4805498 12.596558 2.8566501
6.0304117 14.090238 2.6643481
4.1082048 18.703758 2.9646287
4.4769602 18.40226 2.5847902
4.999392 17.013767 2.1520753
5.9028053 14.097807 2.5700152
7.0569205 11.688196 2.0735855
6.0676098 14.486541 2.156127
5.0976677 16.135044 2.0169911
5.4948888 15.123298 2.0580864
6.0116386 13.818163 2.6790903
6.296638 13.003046 1.9650786
6.0976505 14.12051 2.26879
6.2746019 13.782651 1.9864781
5.0328298 17.000374 1.9740266
4.208014 18.513557 2.600214
4.5802174 18.191984 2.5431988
6.0905046 14.104498 2.4699998
6.2599678 13.7943 2.2581673
6.2786112 13.781935 1.8466436
6.8583927 12.287381 2.1651077
6.0563402 14.084849 2.5663004
4.6991072 17.106171 3.0714002
6.2600083 13.800177 2.0724249
4.2320886 18.570742 2.7960229
4.3863974 18.019339 2.8433118
5.0320234 16.594357 2.2674813
5.0747995 16.90547 2.4444916
5.8559213 14.905286 2.457943
4.746943 17.78978 2.1722362
6.3605967 13.403282 1.8737366
4.8324213 17.189121 1.8902391
5.852828 14.888759 2.3669934
4.7317095 17.856827 2.5641737
4.9463038 16.790136 2.3669329
4.26898 19.001261 2.3633995
6.307725 13.015312 3.0667257
6.3963337 13.403246 2.1666591
4.7571831 18.001591 2.0761347
4.4116449 18.03364 2.4639359
4.941412 17.128372 2.6822457
7.0623698 11.648298 1.9901648
5.3448267 16.300407 2.4534285
5.3037214 16.290077 2.5380061
6.8672528 12.203126 2.1646478
4.6827722 17.995314 2.5432663
5.1452179 16.094059 2.8828354
5.4434242 15.551988 2.0953119
6.0259385 13.914153 2.8222816
4.8900118 17.206072 2.1465304
4.7387829 17.883022 2.3591931
6.7906976 12.386228 2.4486625
6.3018641 13.002716 2.7587264
6.4193015 13.264648 1.8678451
4.6086664 17.426414 2.7147534
4.6529417 17.291697 3.0506642
5.1726365 16.888861 2.1768353
4.9740257 17.110195 1.9597306
4.7922673 17.595268 2.3579552
4.5735431 17.441639 2.9730115
4.2143283 19.032385 2.5365863
4.9891958 17.101009 2.164988
6.2516432 14.093256 2.2592137
4.7284017 17.151966 2.9420671
4.9739819 17.010168 2.5744967
4.9613256 17.183681 2.0725346
4.3832769 18.114574 2.5596662
7.0574293 11.700997 2.1631961
5.3568063 16.173643 2.4686306
6.0649023 14.493181 2.0787606
5.6285315 14.889271 2.957819
6.3507118 13.583302 2.348181
4.2915144 18.3092 2.7693887
4.9335861 16.86985 2.3696492
6.7983446 12.314053 2.1575601
4.1549296 18.794121 2.6595857
6.7120347 11.84663 2.0269086
5.5670042 15.595272 2.3559253
4.3634658 18.790815 2.3537917
5.4005952 15.597817 2.366122
5.1000824 16.12175 2.92556
6.0054893 13.5307 2.6290679
5.8989563 14.126136 2.7388401
5.1066737 16.19137 2.5922129
5.1580334 16.191059 2.7355659
6.0378356 13.880173 2.7541244
5.9317718 14.683056 2.4567266
4.8953543 17.303463 2.086849
4.6728177 17.477982 2.6508546
4.4999199 17.806389 2.5923862
4.125916 18.802845 2.9229388
6.0761409 14.305083 2.361145
5.3478026 16.198029 2.3654046
5.141264 15.907271 3.2513239
4.7660451 17.095055 2.7501678
4.9065986 17.307785 2.1693745
4.845891 17.085911 2.3615613
4.6393614 17.466356 2.9009314
5.4478951 15.834813 2.7665708
6.0607481 14.485168 2.4472175
5.7376451 15.19273 2.4538231
5.4446259 16.086775 2.4564066
5.2899208 15.678032 2.9718418
7.0283051 11.366903 2.4450989
5.5384927 15.799921 2.5660164
4.3558731 18.809181 2.5486495
4.9166203 16.611729 2.7425203
4.602529 17.533676 2.5406663
4.5213218 17.75423 2.8226483
4.1434321 18.698063 2.7404506
4.0616903 18.868462 3.0375819
4.1385937 18.780577 2.7700102
5.7514277 15.301512 2.458149
4.9596119 17.195433 2.2623782
5.1413946 16.146471 2.83709
5.1655884 16.19268 2.5532904
4.76018 17.288706 2.5596876
4.7668514 17.278145 2.7239475
4.459321 18.093723 2.4547873
4.4528174 18.078602 2.6755276
4.3207064 18.360064 2.9240651
5.2031159 15.919885 2.651243
6.3999634 12.781602 2.6639478
4.5138884 18.3353 2.1444497
4.2790599 18.501095 2.5666654
5.0127516 16.427723 2.6661658
5.4885626 15.789102 2.4621768
6.2655797 13.288822 2.7518432
4.3874249 18.019669 2.5529416
6.1499405 14.076074 2.5357351
5.5625286 14.963558 3.1046951
5.5328946 15.052301 2.9295721
4.501863 17.797447 2.7560849
4.4025202 18.008953 2.7761774
4.4706173 17.994318 2.5613194
4.4608002 17.892693 2.9702771
4.0016999 19.027296 2.7571905
4.7937584 17.611971 2.4510646
4.2768497 19.000154 2.4623749
4.5919271 17.411879 2.6953015
5.2211113 15.867895 2.9335768
4.5121136 17.739084 2.7042677
4.4526191 17.904469 2.7663765
4.0869718 18.892601 2.474762
5.5718293 15.008615 2.0819519
6.2646413 13.79508 2.463676
5.2944202 16.29072 2.4407341
5.2714319 15.605335 2.6014929
4.5124626 17.709373 2.7708647
4.1975222 18.597527 2.4564984
4.1790905 18.589066 2.877218
4.1978283 18.52352 2.6681008
4.1520414 18.697397 2.864954
6.8668833 12.192807 2.2599156
6.1467919 14.185105 2.461581
5.7086844 14.367477 2.9210773
5.5072131 15.13451 2.520932
4.2781997 18.317581 2.6752777
4.4506969 18.596529 2.3506784
4.6848207 17.904972 2.3492851
4.6670289 17.995266 2.3597889
4.0192442 18.965054 2.5258546
5.3079486 15.707272 2.4550738
5.3868923 15.594638 2.5619681
5.4331374 15.483146 2.8118439
5.2782197 15.801548 2.5685694
6.1130629 14.115987 2.351943
6.045506 14.493353 2.3497093
5.6529193 15.397116 2.3566163
5.2671213 16.389759 2.3638651
5.9663386 14.096072 2.5534658
6.5405736 13.099582 2.4498603
5.8874125 14.784621 2.3593194
5.0769777 16.88962 2.2618248
6.0530491 14.408843 2.436029
5.9372478 14.181616 2.4655054
4.6662087 17.574387 2.0850599
5.8127313 14.402901 2.8448358
5.5981865 14.904395 2.5572062
5.2859287 15.711705 2.329711
4.4261417 18.677231 2.3559656
5.6009712 15.008974 2.4665849
5.1023798 16.203415 2.6575675
5.0325541 16.462673 2.76826
4.6862769 17.297634 2.6488318
4.1645174 18.77861 2.4460168
4.148088 18.756243 2.8543637
4.1564198 18.691046 2.6616082
4.0700841 18.906118 2.6783583
5.8948083 14.722599 2.4732175
5.5414958 15.700295 2.3581641
6.5956459 12.31254 2.478991
4.7686677 17.697481 2.1578631
5.7854881 14.394912 2.6682708
5.8950109 14.121599 2.6670239
5.2805715 15.897367 2.4653485
5.0907745 16.205269 2.9503355
5.1788826 15.997953 2.8486111
5.2400069 15.891865 2.8362792
4.881125 16.788937 2.7630026
4.902297 16.806042 2.3816144
4.16958 18.602325 2.6632516
4.2711511 18.498806 2.4540825
4.2522364 18.403526 2.8484385
5.491333 15.804763 2.0716784
5.9218597 14.864779 1.9967387
5.4949107 15.306945 2.364887
5.9666924 14.576043 2.4624963
5.649435 15.487974 2.4547634
6.0937934 14.29058 2.5601199
4.669301 17.981668 2.4509392
3.984628 18.989202 2.8813124
5.9031982 14.216358 2.2868624
5.5862966 15.003464 2.6526093
5.7377834 15.177394 2.5380292
5.3511186 16.199423 2.5532129
6.6555033 12.292611 2.5540006
5.660111 14.691251 3.0157602
5.7827635 14.39954 2.7452335
5.8031502 14.402911 2.5506556
5.0782232 16.396864 2.5634131
5.3455501 15.565078 3.0216196
4.5938087 17.505585 2.7397437
6.2280011 13.572119 2.6116896
5.8321562 14.47631 2.3610187
5.5876384 15.482597 2.5600502
5.1741762 16.515051 2.5732682
4.6935577 17.885544 2.6466651
4.6723847 17.393295 2.6731749
5.5434027 14.998543 2.9568746
5.588953 14.890826 2.84828
5.6732092 14.69017 2.8251195
5.1833315 15.909989 2.9594731
5.2385311 15.77936 3.085469
4.8326988 16.879429 2.9667077
4.3662519 18.007835 3.0489402
4.4949188 17.81065 2.84531
4.7475386 17.79073 2.3625927
5.6908846 15.283817 2.4517131
6.248868 13.991302 2.5486178
6.1469646 14.177634 2.3638055
4.8991776 17.304039 2.274894
4.4552379 17.990276 2.6584232
6.8205643 12.322163 2.5174694
6.5190902 12.417746 2.6691699
5.0014691 17.00765 2.4612267
4.4683213 18.510706 2.4529805
4.2534685 18.485083 2.7542553
4.1642075 18.794758 2.5537763
4.1740422 18.70672 2.4627004
4.6771655 17.303795 2.9579253
5.2925529 15.804652 2.4620445
5.9499731 14.779655 2.3581586
5.5841942 15.098887 2.3661115
5.0096855 16.433571 2.8072491
5.4637227 15.889458 2.4613786
5.035253 17.081438 2.45262
4.1543665 18.585623 2.9433713
4.6400709 17.364597 2.9683385
4.6903148 17.287474 2.5581174
4.7136626 17.205744 2.5375702
4.7344294 17.184855 2.7661951
5.1502523 16.084921 2.9426026
5.442976 15.276882 2.8517187
5.5042624 15.110379 2.785533
6.2694254 13.599407 2.4519405
5.6731853 14.689777 2.7498741
5.5681973 15.602423 2.4427609
5.0933056 16.801756 2.4615316
6.1660948 13.582881 2.5660112
6.6476293 12.779636 2.4530408
5.6572347 15.403855 2.4443059
4.2018356 19.111313 2.4810445
6.1824884 13.995527 2.1621282
6.1705923 13.997858 1.9764808
4.6359262 18.194784 2.4396229
4.3730116 18.295086 2.4634652
4.4151034 18.027266 2.4000146
5.2932749 15.712343 2.5663035
5.5851679 14.912917 2.7704155
6.1839404 13.9952 2.2558804
4.7522254 17.790707 2.4514339
6.2915177 13.104104 2.8569
4.4365091 17.998011 2.9501431
4.4797897 17.996284 2.4633241
4.4648604 17.890106 2.6686056
4.7378731 17.138451 2.0138328
4.4871154 17.791563 2.9543438
5.3788142 16.1 2.3549571
6.5158634 12.444622 2.5977206
5.5114555 15.129775 2.4882846
5.0991802 16.228067 2.4598095
5.1599698 16.194809 2.6612113
5.1923513 16.088408 2.5538728
5.4812517 15.198255 2.8510737
5.5095596 15.103554 2.8396864
4.5169554 17.720367 2.8812232
4.5978994 17.500177 2.8679998
4.6005945 17.604364 2.4659932
4.605794 17.535641 2.426194
5.384089 15.397913 2.9396141
5.7136002 14.530265 2.6599936
5.2932739 15.696398 2.6742125
5.2825089 15.702503 2.8790233
5.3123713 15.628403 2.6785729
4.9937158 16.49831 2.7529721
4.9772077 16.695799 2.5699189
4.3491683 18.312984 2.6502936
5.6108608 15.012833 2.3858185
6.707602 12.618883 2.4532013
4.867209 17.393959 2.4625702
5.4268589 15.520549 2.7165954
5.3864918 15.596937 2.4643388
5.2678747 15.891967 2.5630012
5.2563314 15.79108 2.93031
4.8570027 16.984653 2.6577239
4.9656172 16.707998 2.6470621
4.7741947 17.192556 2.5529337
4.2424774 18.493103 2.6755667
6.264894 13.309038 2.1743748
6.9472752 11.916616 2.5121956
5.359951 15.598006 2.6537077
5.3512836 15.586336 2.7624328
5.0740452 16.318003 2.8418
4.9497199 16.678276 2.7388091
4.3772368 18.202034 2.5717924
4.3804431 18.099596 2.758848
4.3695073 18.09782 2.9556231
4.0734224 18.900171 2.7443964
4.9158759 16.740948 2.2676868
6.614502 12.171983 2.4715254
5.0958028 16.190517 2.7606001
5.2656569 15.795418 2.6715097
4.6921964 17.309101 2.472482
4.7544904 17.286213 2.662746
4.0589867 18.989277 2.6751583
6.6776814 12.66987 2.5130327
4.3787675 18.285954 2.3514349
5.9668078 14.191467 2.0787406
5.2514925 15.793959 2.8606796
5.2884159 15.697793 2.7586277
4.7792687 16.998737 2.9575994
4.815186 16.91951 2.9706397
4.7830677 17.106354 2.5711699
4.8804669 16.901773 2.5613782
4.2020001 18.599169 2.5677774
4.1928673 18.510559 2.7709546
4.4553795 18.591385 2.1696854
5.222034 16.548044 2.4827247
6.8682032 12.193933 2.5405135
6.5717936 12.940773 2.5600247
6.1840115 13.504073 2.5575299
6.5241728 12.395738 2.9580388
6.5965033 12.171944 2.8412147
6.4137373 12.718383 2.7564199
5.0875525 16.207676 2.8494573
4.6007462 17.504652 2.6786826
4.6284742 17.437304 3.0515206
4.6622162 17.387747 2.7770813
5.1551843 16.79129 2.4586449
6.9407945 11.995403 2.460979
5.5854559 14.886116 2.9589157
5.3098192 15.603497 2.3664193
4.8494229 16.910898 2.0433524
4.6039696 17.386089 2.899219
4.0801945 18.890472 2.5846815
5.2557025 15.892167 2.6585922
4.8062458 17.023647 2.3638258
6.3043036 13.614785 2.241786
4.5642614 17.79656 2.467746
6.6068106 12.203412 2.5780306
5.4570065 15.192118 2.0398469
5.0406075 17.092535 2.3445959
5.4903145 15.14696 2.1129124
5.2726474 16.397961 2.4477522
4.949327 17.280378 2.3535182
5.6944823 14.80467 2.4753768
4.876967 16.904699 2.1723204
4.2855749 18.199894 2.9632692
4.3841262 18.108662 2.6567099
4.4045963 18.033955 2.6776495
4.482017 17.913792 2.5747881
6.399437 12.716502 2.9872508
6.4706545 12.516355 2.963438
6.4104915 12.734491 2.6942041
4.9802752 16.698957 2.3656397
6.4444036 13.239555 1.7856125
4.9063358 16.731937 2.6603181
6.408072 12.73363 2.8582296
6.4551821 13.290152 2.0681324
5.3494468 16.189842 2.0713603
5.6675577 14.785131 2.85938
4.3932219 18.102243 2.4706011
4.4666314 17.911524 2.8536737
5.0818634 16.40242 2.4551008
6.2171879 13.242615 2.5701971
6.6047454 12.19425 2.7768791
6.6784077 12.02833 2.5898199
4.4419351 18.589331 2.4679561
5.0664234 16.896345 2.3554835
4.8244333 17.521362 2.5303907
4.5004272 17.802454 2.4466856
4.5028181 17.804766 2.656513
4.596981 17.583536 2.5712965
6.2384787 13.165798 2.9452209
6.3066773 13.018475 2.6477919
4.6502819 18.202286 2.2611165
5.9408288 14.781173 2.063663
5.3898692 15.359303 1.9718491
4.9927073 17.101383 2.3538928
5.6875811 14.798933 2.5550175
4.6881032 17.399359 2.4520082
4.6705203 17.296629 2.8632014
4.7647305 17.18976 2.6587679
4.789567 17.016756 2.75981
4.3512926 18.279552 2.7428715
7.1004214 11.59987 2.4507039
6.7268 12.671516 2.4409647
6.2801514 13.893738 2.7757688
5.3959937 15.417185 2.669312
6.2931042 13.123191 2.0570388
6.5607281 13.088943 2.1669221
5.0878448 15.979215 3.3366821
4.776875 17.19195 2.4589736
5.257576 15.884274 2.7815914
4.6646447 17.83312 2.8018057
6.3660569 12.895126 2.8729074
5.4819822 15.429671 2.0766258
5.2572322 15.796443 2.7490854
5.4574451 15.39958 2.6659532
5.1596489 16.704855 2.4424787
6.1915174 13.498002 2.4569933
6.2546067 13.403073 2.0339921
6.4928722 12.698502 2.3686054
6.4334927 13.588449 2.0699227
5.9649949 14.094874 2.465246
4.9566474 17.402287 2.1685846
6.595026 12.403525 2.4615097
4.6446018 18.09021 2.5409622
5.978127 14.093853 2.077836
4.8348536 17.577766 2.3572452
6.1420155 13.677967 2.2757137
5.0448208 16.986279 2.0622487
6.1053987 13.71195 2.3662055
4.5327692 18.369862 2.4472511
4.9299879 16.73897 2.9299746
6.2990594 13.103314 2.7507329
6.366796 13.087038 2.8586683
5.5697956 14.987179 2.8474238
5.6758375 15.093349 2.8564103
4.6059451 17.595066 2.3728037
6.3416667 13.089999 2.6466007
6.4095044 13.313807 2.1550782
5.2007313 16.641272 2.5349975
6.2663379 13.299406 2.3620157
6.6051202 12.714529 1.8676391
5.9797568 14.495377 2.4540036
6.2351971 14.003212 2.3706434
6.6531982 12.786593 2.062103
6.5704827 12.481306 2.5547218
4.7040682 17.138868 2.8623574
4.3424573 18.264492 2.8608599
6.5430431 13.323799 2.0605986
6.0739937 13.787939 2.6590924
4.2313013 18.474951 3.0448787
6.8482723 12.297612 2.0848472
6.694644 11.973358 2.5002921
5.5443945 15.101445 2.7500706
5.3649597 15.40486 2.8689325
6.8926697 12.113776 2.4503355
6.5788879 12.401594 2.5614233
5.7964468 14.388003 2.9370582
4.6392932 17.38908 2.8574893
5.6184831 14.79987 2.7587082
5.2578568 16.667593 2.1761541
5.0469246 16.996241 2.262749
5.4305725 16.358242 2.7462232
6.3093324 13.615217 2.3595757
5.6302299 15.707619 2.1794276
5.5460563 15.799948 2.3555501
4.5520482 17.679268 2.7696033
4.2599454 18.390127 2.7631824
4.8495398 17.682632 2.2383575
4.2546058 18.376377 3.0477014
6.5492516 13.364008 1.9546885
5.1302309 17.052214 2.0982726
6.7388277 12.709661 2.3828907
6.0010996 14.002873 2.3590157
4.9264741 16.608505 2.06231
5.9926715 14.00051 2.4571812
4.9062481 16.698423 2.865855
6.3221025 13.152565 2.7659869
6.475481 12.686087 2.7419982
4.9529743 16.582506 2.8719916
5.744204 14.680273 2.7439895
6.1253543 14.352022 2.5964453
5.7326093 15.445056 2.4405308
4.5881376 17.699242 2.4615114
6.487422 12.702383 2.472239
4.677032 17.490959 2.4645932
6.4629974 12.699637 2.6616049
6.4902344 13.47147 1.9592447
4.869791 17.180016 2.2789271
4.6887045 17.292439 2.7731445
5.7787123 14.592742 2.4561815
6.1729431 13.816994 2.2594171
6.0506601 13.88724 2.3676121
6.3477712 13.091116 2.4617693
6.1793547 13.395171 2.7644801
4.2956657 18.208078 2.768311
6.1132884 13.706346 2.2703974
5.8942485 13.973808 1.9364307
5.6549525 14.972034 2.8692877
5.6972113 14.708738 2.5550907
5.0019703 16.595175 2.1830804
5.5339541 15.92236 2.1702168
6.3681893 12.990681 2.5566897
6.8588252 12.38758 2.0679023
4.2756429 18.40107 2.6758904
6.162816 13.486532 2.8612781
5.6053491 14.835831 2.6624534
6.2660093 13.79642 2.3632965
5.7783484 14.59034 2.562712
6.8929749 12.121626 2.5315113
6.5608602 12.988867 2.2541909
5.3811369 15.317354 2.6852355
6.0091267 13.815607 2.858223
6.3738375 13.494093 2.0617645
6.0083494 13.813 2.5698674
5.2496457 16.698673 2.0875883
6.4561052 13.507985 2.0996854
6.3735266 13.495851 2.1677909
5.5614195 15.081219 2.876368
4.9760671 17.379875 2.0721979
5.1394649 16.370993 2.4637666
6.4512501 13.294191 2.2605903
5.1528254 16.693825 2.3699734
6.0819464 13.790478 2.5636301
5.9473991 14.898801 2.162539
4.2726641 18.438908 2.359319
5.1019616 16.307526 2.2551613
6.3507109 13.090089 2.3748207
6.6275311 13.066038 2.1496267
7.1112595 11.49658 2.1768959
5.3961492 15.411803 2.4615016
5.9856038 13.988534 2.7536833
6.0474887 13.89447 2.4623499
4.483758 18.001381 2.3649681
5.4150548 15.341047 2.882951
6.1872268 13.907003 2.4527359
4.5784888 18.462578 2.4260902
4.7410264 17.225361 2.8887298
6.0927868 13.795255 2.1775558
5.3039713 15.581198 2.9478669
4.7828064 17.197063 2.3671145
6.3348055 13.791571 2.3494534
4.4550343 18.092796 2.3730969
4.9463477 17.786234 2.1632597
6.9802995 11.896238 2.2549045
4.1861844 18.50046 2.8654821
4.9628201 17.376974 2.4641392
6.3090782 13.100252 2.3664398
4.0238953 19.07338 2.9601798
4.1005502 18.806072 2.6511941
5.4182968 15.323412 2.7438149
5.1901908 16.278479 3.0141354
6.8939886 12.097378 2.0689783
5.4480128 15.980103 2.355566
6.6546016 12.088873 2.7491119
6.3074765 13.123249 2.4699962
6.0998635 13.702837 2.5625575
6.3941941 13.399797 2.2615914
6.6495013 12.990714 2.2579882
6.2400956 13.39519 2.6685102
6.5004163 12.509902 2.6372499
5.4066401 15.990206 2.2648723
6.6679478 12.689 1.979702
5.432004 15.570569 2.3654518
4.5459609 17.688053 2.9537065
6.7489376 12.590439 2.0729437
4.2081041 18.31745 3.0578744
6.3549514 12.986301 2.6496997
5.1473536 16.695694 2.2601662
5.4019303 15.998132 2.3634534
6.4899011 12.992147 2.8752766
5.6616697 14.879694 2.0834246
6.3860745 12.999356 2.3614814
4.8439293 16.989571 2.7561314
5.7485647 14.698359 2.1680155
4.7863975 16.9687 3.0459685
5.4454603 15.576273 2.2555978
6.3988543 13.409123 2.0834355
5.4165306 15.267722 3.017617
4.7725492 17.698513 2.3603096
5.4749575 15.398406 2.2735386
5.8728871 14.293848 2.6644173
4.6623259 17.509842 2.7412572
4.8433309 17.09844 2.1682599
4.7615333 17.378229 2.2616537
6.5732536 12.501752 2.3685462
4.8587904 17.000036 2.3601179
4.7893505 17.610056 2.0532863
6.5718713 12.497609 2.4662099
5.1810107 16.104263 2.6646419
6.5271063 12.678088 2.3692417
6.0057602 13.90007 2.3704345
6.0770674 13.796905 2.453552
5.0365133 17.270784 2.1517713
7.033268 11.96659 2.2502508
5.4521327 15.628171 1.9843868
6.2909999 13.110204 2.5723231
5.1736603 15.803127 3.1059082
6.0510726 13.892839 2.2691629
4.5607944 18.275351 2.4649503
6.1581283 13.601076 2.4619055
5.6709547 14.790618 2.6632469
6.5501604 12.976468 1.7461838
4.4414845 18.179062 2.3344347
4.0790005 18.813097 2.7531879
6.0718775 13.791715 2.0581028
6.5304661 12.997041 1.8447216
4.8694592 16.784246 2.9525876
6.7255955 12.158165 2.5558956
4.9829922 16.516073 2.8570435
6.5524201 13.194643 2.3583322
4.108315 18.708803 2.5747678
5.025187 16.960844 2.5372429
6.4124327 12.808926 2.9450336
5.196775 16.100187 2.4686172
6.8043861 12.317591 2.2669256
6.6601834 12.698318 2.0663903
5.5058117 15.298441 2.2594693
6.4985328 12.619263 2.4550855
6.3391619 13.669853 1.9326727
5.9874878 13.998544 2.5573661
5.4741869 15.392431 2.4624379
6.1561604 14.278975 2.1577475
6.0850697 13.702576 2.6563356
5.5400281 15.188127 2.7283034
6.5007119 12.509475 2.7487252
4.0218763 18.998997 3.038198
6.6752176 12.691514 2.4316847
4.4898391 17.907421 2.464623
4.1197367 18.765814 2.4997861
6.6763597 12.701117 2.3578053
4.9451432 17.289162 2.2613873
5.7141352 14.61474 2.4823928
4.9301858 17.482809 2.2391241
6.0144086 13.802677 2.4958799
6.3998299 13.299516 2.2537374
5.6400328 14.988218 2.4566455
6.0079956 13.922425 2.4611723
4.3548908 18.284691 2.5567882
6.4689951 12.578985 2.9464786
6.4393158 12.881908 2.4660301
4.473177 17.960697 2.7694979
6.7370329 12.182729 2.4733088
6.7561641 12.192984 2.6815729
6.1548438 13.79767 2.3192301
6.6814537 11.919248 1.931066
6.1218438 14.364073 2.3517008
6.1624975 13.596383 2.6594963
5.0091476 16.414986 2.5674534
5.0863481 16.402321 2.3674705
4.4990516 17.769451 3.0141182
6.1424584 13.686808 2.6517351
6.7417231 12.768552 2.0931766
5.8439178 14.405351 2.7491405
6.632462 13.093059 2.0496933
4.7151823 16.968885 3.2285469
5.8901124 14.299706 2.3680944
6.0755925 13.706609 2.7558692
6.4498701 12.805585 2.7270975
6.0556579 13.891751 2.5437894
6.3946352 13.398324 1.9945514
5.1439743 16.379538 2.3667228
4.9474239 17.295952 2.4400265
4.3113832 18.223953 2.6683903
6.2054582 13.417888 2.4454288
4.8350091 17.606583 2.4548225
4.3832941 18.00573 2.9224946
5.5868201 15.086823 2.5467825
4.2039509 18.384312 3.1247697
6.5489583 12.502405 2.7492597
6.1651087 13.489281 2.7622979
4.842875 16.895754 2.8681016
4.9062452 16.717205 2.4439547
6.2410078 13.385274 2.4565852
6.743814 12.578484 2.3591161
4.949439 17.876654 2.0953846
6.546823 13.084135 2.0677979
4.8323798 17.557514 2.5226464
6.5652061 12.988391 2.1633134
5.1885004 15.804028 3.172425
4.8782063 17.306858 2.5709994
6.4491749 13.37672 1.8605156
7.0296326 11.792492 2.4856029
5.272583 15.597115 3.0711751
4.3414268 18.88299 2.4548383
4.0327497 18.998383 2.8762758
5.6650777 15.237982 2.7855079
4.6780314 17.482367 2.2726233
6.6348677 12.595778 2.7474012
5.3998098 15.396876 2.7606778
6.748261 12.582718 1.9545302
5.3093867 15.610274 2.7600183
7.0245047 11.722273 2.5153823
4.3850813 18.092669 2.859755
5.7075992 14.714535 2.283874
6.2304397 13.466265 2.2691307
6.2977099 13.206552 2.3613417
6.8667283 12.194118 2.3535054
5.0468292 16.982689 2.4477794
4.9435978 17.34873 2.373601
4.6697416 17.494303 2.5561035
5.1626487 16.786898 2.1709826
5.3032346 16.216286 2.1471522
4.2971516 18.114422 3.0547204
6.527523 12.678869 2.1367898
4.9596939 16.674257 2.8771863
5.4688187 15.401981 2.5521448
4.8880062 16.801205 2.6704099
5.6340976 14.948561 2.0658205
5.8942428 14.119261 2.4432855
6.6414366 12.695178 1.8895342
4.882803 16.705086 2.9536967
6.2919784 13.111814 3.0654745
6.2471185 13.481162 2.3497787
4.7337351 17.395704 2.4659803
5.787107 14.503174 2.5656705
4.8830075 17.402065 2.0565581
4.6756306 17.497869 2.3711824
5.911346 14.212589 2.3593154
4.767622 17.698608 2.266866
4.3476419 18.384922 2.2722752
6.558547 12.501894 2.659549
7.0248475 11.967392 2.4250705
4.4167757 18.088346 2.3355498
6.6861916 12.200236 2.4568384
4.3379111 18.253872 2.9296694
4.8785672 16.784214 2.8363376
5.9532323 14.110868 1.9628963
4.9172344 16.721626 2.0426636
6.0836072 13.795279 2.3659279
4.5449739 17.702387 2.844697
7.1442437 11.695223 2.1811678
6.6947513 12.11082 2.5538075
6.8701668 12.196909 2.4511795
6.1824126 13.504864 2.6588955
4.974988 16.690292 2.4666457
4.542974 17.883593 2.3526611
4.1746478 18.604059 2.74353
4.5739164 17.886303 2.7541468
6.5109835 12.448792 1.9865696
4.7734513 17.103136 2.6607146
6.4841762 12.701722 2.558548
5.3407259 15.597024 2.843884
4.2744427 18.304731 2.8563006
5.8961525 14.5889 2.8843191
6.6205707 13.019944 2.3487933
6.2817993 12.999495 2.0348067
6.2585735 13.194733 2.8561952
5.4097733 15.397732 2.5925272
5.9923224 13.836967 2.7476115
6.9915919 11.885299 2.4685802
6.346045 13.090037 2.5494518
4.350368 18.208033 2.6683695
4.8063927 16.982288 2.4800973
6.8505182 12.289382 2.4469998
5.808742 14.288777 2.7621226
7.1037579 11.672498 2.8044426
6.5987039 12.412665 2.3615868
4.6945148 17.217949 2.7484372
5.3755136 16.113867 2.4443805
6.5679035 12.990006 2.4574525
5.8769302 14.084338 1.8818231
4.4455719 18.692066 2.4422727
4.2671728 18.288752 2.9624858
5.8054943 14.50136 2.167465
6.573338 13.030782 2.5249596
6.2875161 13.099112 2.6568244
6.4478269 12.800278 2.6591148
4.3218184 18.811411 2.6959212
6.527009 12.502039 2.8293614
6.337759 13.574327 1.9061403
4.6981592 17.198904 2.6473937
6.3813233 12.993772 2.465416
6.0279503 14.091926 2.7570353
5.0518494 16.99012 2.1630917
4.9988184 16.245441 2.9546211
5.9307151 13.931654 2.9951704
6.6875334 12.014993 2.6778636
5.5478501 15.684625 2.1538947
5.6574693 14.793566 2.7480283
6.8913689 12.097385 2.3556488
5.0871053 16.686903 2.2304142
6.8022413 12.311806 2.0471075
7.0539684 11.699526 2.4630358
4.68326 17.413977 2.5665965
4.3039284 18.324234 2.459826
6.5486059 12.676255 2.2512295
5.8535852 15.090475 2.1582236
4.9551225 16.598423 2.9207044
5.773406 14.600656 2.6507218
4.996716 17.067814 2.5412843
5.8936391 13.987329 2.0666173
4.8716598 16.903042 2.6545918
5.9624238 14.090212 2.6590338
4.6732349 17.196484 2.8868489
5.8321638 14.972713 2.3520093
4.011158 18.937496 2.667382
5.3834443 15.49123 2.759506
4.4851928 17.732063 2.9525068
6.7716732 12.290337 1.9561477
6.3995767 13.369813 1.8040756
5.7003107 14.585866 2.7749596
6.2021122 13.907681 2.3595567
4.5330677 18.492737 2.3499293
6.4899745 12.488738 2.8801324
5.9441085 14.867274 2.3799438
5.4565606 15.591063 2.1802332
4.9158421 16.637093 2.8733053
6.79953 12.335396 2.5638125
7.08602 11.599197 1.9723481
5.769278 14.605828 2.8514752
4.5684862 18.480209 2.1702213
6.4445262 12.692046 2.841902
4.8803539 16.891781 2.4653211
4.3957987 18.29541 1.9814864
6.4234085 13.389334 1.9613355
5.8925538 14.715157 2.0775957
6.5540924 12.977873 1.9690881
6.4340196 12.888621 2.5564671
4.7819037 17.68923 2.5576472
6.4570079 13.373432 2.0883284
6.4511037 13.390269 2.2511206
6.2418208 13.27564 2.8583498
5.8063192 14.310034 2.5612473
5.9722362 14.093969 2.2704539
6.4776468 13.294765 2.4575944
4.2558465 18.884808 2.655396
5.0670176 16.940319 2.5303419
6.1062331 13.617639 2.8599966
6.4086905 13.311443 1.9716495
5.1348767 16.781628 1.9589679
6.2487993 13.885005 2.2538657
5.4748077 15.401 2.373282
6.5442801 12.507911 2.9909792
6.000597 13.894052 2.7716184
6.0282197 13.974857 2.2768359
6.4606009 13.288014 2.3533833
4.8850513 16.598873 3.0675416
6.0948725 13.601095 2.7615368
5.7017598 14.606819 2.826695
6.4549389 13.397782 2.5359082
4.1394777 18.518921 3.2790046
6.6030188 12.169263 1.9592701
5.5444183 15.174896 2.9033346
4.8475084 17.197592 2.0839021
5.0426531 16.993425 2.3564436
5.061728 16.687817 2.4568214
6.3604708 13.691826 2.0737174
6.6494112 13.002825 2.582068
4.8829546 17.384295 2.5399456
6.4359632 12.877797 2.3595788
6.6714921 12.695222 2.258683
4.5665994 17.794556 2.3634224
4.5396504 18.567848 2.1854472
6.5675912 12.99703 2.3622537
5.9413524 14.187325 2.3644888
6.376575 12.907351 2.6619976
6.1127501 13.578547 2.591583
6.3365378 13.089931 2.7498188
6.5568004 12.995864 2.077739
4.688561 17.88876 2.4553981
5.9400234 14.794418 2.4232564
5.2868176 15.593038 2.8678355
4.6532612 18.179214 2.3443975
4.8441582 16.622192 3.1808078
5.7671928 14.967174 2.8611736
4.5751204 17.694578 2.5686712
5.188931 16.517817 2.6437852
7.0564041 11.697014 2.259367
5.9031677 13.884366 2.2727184
5.1978087 15.90822 2.7663274
4.47649 18.363712 2.7421813
6.0971317 13.597914 2.4399567
6.5124493 12.502831 2.5782356
5.3714428 15.497862 2.6564646
5.3513613 15.505006 2.8407733
4.4271755 18.086599 2.851243
4.9608536 17.195511 2.3538401
5.6004825 15.003416 2.5672948
5.3097219 16.195095 2.5374935
5.4022932 15.525454 2.2694597
4.8990383 16.895325 2.265476
5.5964355 14.894178 2.68065
4.9903517 16.604912 2.4543114
5.7770286 14.596569 2.3627489
6.098443 13.606859 2.2507904
4.7974849 16.769234 3.0738814
5.6552815 14.485999 2.9246783
6.2709613 13.18311 3.0619955
6.0678811 14.385768 2.5263257
5.6471906 14.981199 2.5563874
5.7446566 14.763246 2.5429289
4.2876639 18.420145 2.5510206
4.3516564 18.801203 2.4473836
5.1585374 16.000965 2.9588065
4.9365387 16.879343 2.2804914
5.8504677 14.386352 2.6554992
5.807085 14.500929 2.3679187
5.6787601 14.710677 2.6498501
5.4661989 15.301949 2.9293051
5.3944302 15.527128 2.4838264
4.7500935 17.789331 2.0631933
5.9351315 14.2052 2.1666367
5.9399371 14.18202 2.648221
5.8866286 14.29712 2.4586582
5.4482827 15.486436 2.3628833
4.6397052 18.088581 2.3620329
4.5464172 18.399378 2.3527122
6.6397219 12.884081 2.3538766
4.812396 17.525673 1.9811351
6.7684927 11.998181 2.362679
6.2589407 13.288274 2.6561713
4.6574621 18.084843 2.4579263
6.5501704 13.280181 2.1610501
4.8005786 17.108433 2.3789082
5.6650362 14.898848 2.5617025
4.5857921 17.596455 2.8638933
5.8525181 14.308278 2.8648171
6.9510884 12.18007 2.1594472
5.7566147 15.290085 2.372354
5.6438689 14.977756 2.6560962
4.1744647 18.79858 2.3651755
6.1592865 13.597138 2.2552302
6.5558672 12.709054 1.9722507
4.8940959 16.900656 2.3609984
6.1179533 13.529467 2.6449356
4.9082808 16.688805 2.761431
4.9551978 17.294285 2.1617308
6.574748 12.32684 2.9613905
6.3655405 12.876888 3.0479579
6.3014889 13.198656 2.4643819
4.171587 18.49159 3.0712271
6.1828432 13.998825 2.3528094
5.389926 15.505866 2.056077
5.2531466 15.943634 1.8879248
4.7787991 17.0254 2.0465508
6.7667007 11.993308 2.6547446
4.0626259 18.984221 2.4502115
4.4719744 17.870794 3.0620282
5.8234787 15.078163 2.3622537
7.0471487 11.7615 2.0679407
6.5375094 12.584076 2.7425435
5.9791665 13.995424 2.8495629
4.9582958 17.21314 1.9672927
5.5812321 15.088114 2.657882
5.0748944 16.299641 2.6669636
5.3530097 16.702085 2.4215345
4.2537866 18.217892 3.083539
6.1607399 14.074471 2.6629896
6.1000643 13.706644 2.4629183
6.2422452 13.99008 2.6570721
6.0891867 13.480098 2.7441249
4.759882 17.079437 2.9549012
4.8053222 17.008923 2.5629506
5.1347852 16.366684 2.5493562
4.970139 16.59947 2.6643016
5.0005598 16.610945 2.3574903
5.8564105 14.388043 2.4596472
5.7885814 14.496465 2.641587
5.7466989 14.69723 2.6666749
5.6722703 14.700577 2.9402447
5.2481103 15.993586 2.570106
4.9636497 17.198803 2.4532268
4.2542009 18.578972 2.457381
5.9574714 14.094681 2.8677304
5.8684754 14.286461 2.7359459
5.8554664 14.395506 2.5566297
4.9829502 16.600107 2.5553346
6.2401857 13.901831 2.4421721
4.0507793 18.977489 2.7654927
5.6661687 14.895867 2.3675411
5.639863 14.991496 2.3675542
5.5807548 15.104319 2.4572406
6.5875096 12.894578 2.4515674
4.9974308 16.381895 1.9587764
3.9801846 19.002216 3.032207
6.6550827 12.291447 2.4679465
5.6965375 14.802193 2.3664513
5.6721373 14.877678 2.6457796
4.6185617 17.33597 2.0143507
5.3248582 16.586529 2.5087166
6.4251313 13.278163 1.7920212
5.0348439 16.57605 2.3685622
4.9970188 17.009462 2.3744831
5.6961751 14.712729 2.4658906
6.1760688 13.371807 2.9751348
4.385993 18.194687 2.4534383
5.9766288 13.994427 2.6708152
6.121223 13.777468 2.4643939
5.0455842 16.283274 2.9584992
6.7310667 12.577008 2.4747601
5.0052896 17.033556 2.0798352
5.4935598 15.205226 2.4794059
5.2491612 16.487516 2.462394
7.1146202 11.620399 2.7870998
6.2650604 13.29705 2.4617119
6.9773135 11.903086 2.3489249
6.1979842 13.403209 2.6589899
6.0035434 13.990746 2.2705829
5.8912864 14.292017 2.26791
6.1572504 13.589545 2.3652375
6.4508753 12.570662 1.9370356
5.073554 16.293024 2.7550981
4.2589073 18.372707 2.9466176
6.2767696 13.195881 2.6595607
6.2686729 13.290599 2.5567749
6.2386746 14.007697 2.4500451
6.2499986 13.993751 2.2481365
6.9639983 12.149233 2.2438705
