# .PCD v0.7 - Point Cloud Data file format
VERSION 0.7
FIELDS x y z
SIZE 4 4 4
TYPE F F F
COUNT 1 1 1
WIDTH 508
HEIGHT 1
VIEWPOINT 0 0 0 1 0 0 0
POINTS 508
DATA ascii
-9.4432049 21.898771 -1.2368442
-9.3248892 21.768362 0.089702673
-9.5115728 22.068699 -0.24480151
-9.2823124 21.641726 0.45131835
-9.5101585 21.969347 -0.7600767
-9.1408253 21.310661 0.26988038
-9.2973003 21.677837 -0.35387316
-9.2796221 21.897375 -1.4463823
-9.3887825 21.933496 -1.0237881
-9.4877529 22.018026 -0.40500411
-9.193882 21.497576 -0.84757572
-9.2898455 21.711269 0.28780705
-9.3061018 21.646082 -1.0166898
-9.0033264 21.51783 -0.91513443
-9.3446712 22.037941 -1.8519013
-9.2074814 21.919746 0.86856115
-9.1457272 21.783207 -1.7489727
-9.2675266 21.997505 -0.9750309
-9.3089809 22.007566 -1.0134635
-9.3553352 22.005005 -0.92175072
-9.3775406 22.037605 -1.5583321
-9.3090639 21.683823 -0.84565192
-9.1583929 21.684565 -1.540634
-9.0627937 21.348581 -1.8753154
-9.045125 21.501297 -0.03027642
-9.0292187 21.363033 -0.61844486
-9.1397991 21.584852 -1.6678439
-9.0876551 21.291201 0.98871267
-9.0181036 21.37709 -0.44273034
-9.4850779 22.001204 -0.19608128
-9.0992651 21.243093 -1.6688329
-9.486434 21.87022 0.39881492
-9.0544224 21.236626 -1.7344701
-9.2403145 21.7796 -1.2263474
-8.9655724 21.291267 1.1579661
-9.2992878 21.885828 0.57250607
-9.1323452 21.572363 -1.7680831
-9.2838621 21.644127 -0.50343728
-9.109045 21.211559 -0.54548919
-9.3011045 21.673368 -1.4180516
-8.9505548 21.381136 -1.9419707
-9.2805033 21.653208 -1.1437013
-9.2893314 21.868568 0.43153125
-9.3436995 22.005447 -1.135816
-9.1478634 21.695639 -1.8256304
-9.1224174 21.695803 -2.0036983
-9.0840311 21.539635 -1.6313134
-9.0223656 21.209843 1.3448626
-9.1321869 21.600945 -0.043728441
-8.968605 21.354378 1.3219713
-9.4848795 21.968302 0.33021155
-9.4659758 21.938208 -1.3216337
-9.1562109 21.692404 -0.14262645
-9.1549864 21.577137 0.24965158
-9.1592817 21.593248 0.3575401
-9.2693672 22.006887 -2.0848515
-9.2347708 21.904964 -1.8207762
-9.1583204 21.694853 -0.24071434
-9.1050568 21.472214 1.1444824
-9.1600828 21.718843 0.053318821
-9.1528988 21.713127 -0.033764813
-9.2132149 21.647413 0.85334092
-9.1802845 21.728254 1.2672806
-9.1946592 21.580336 1.0615861
-9.037241 21.370407 -0.74259925
-9.1164207 21.616402 0.75187021
-9.2289963 21.722807 1.1588327
-9.2122231 21.690273 -0.13839294
-9.1974306 21.530491 -0.11789098
-8.9778557 21.323189 1.4294647
-9.3086863 21.634649 -0.81822699
-9.2641706 21.920681 -1.0111741
-9.2254715 21.812393 -1.7591223
-9.3234396 21.683706 -0.72785902
-9.0976124 21.219267 -0.72197866
-9.0102272 21.213121 1.2186503
-8.9790277 21.383808 1.2728211
-9.3132582 21.898762 0.37276649
-8.9768143 21.191833 1.2780187
-9.077034 21.45837 -0.43631491
-8.9520521 21.24081 1.1987433
-9.0974436 21.441154 0.055961482
-9.2396049 21.873037 1.4157852
-9.1158142 21.526857 -1.2583233
-9.263546 21.888292 1.3716743
-9.23318 21.900282 0.771541
-9.1285648 21.605726 1.2669394
-9.2319155 21.795097 0.27871653
-9.0393991 21.516129 0.7505669
-9.1460867 21.678036 -1.6465881
-9.1488733 21.474976 -0.52722448
-9.1103411 21.470213 -1.3541954
-9.0295744 21.373014 -0.85355389
-9.1296415 21.508081 -1.0547516
-9.1634617 21.854021 0.65420502
-9.1370544 21.502157 -0.94214106
-9.256959 21.881926 0.52237403
-9.2100325 21.516579 -0.0055308845
-9.1292286 21.463001 -0.61847258
-9.3073149 21.704823 -0.54676718
-9.2419786 21.777489 -0.23212077
-8.9655676 21.213556 1.0889996
-9.2480755 21.783237 -0.93505323
-9.4045506 22.033892 -0.43395376
-9.2118301 21.688736 -0.03660477
-9.2400284 21.905693 -1.7247416
-9.2341757 21.779533 -0.73239183
-9.2427387 21.787674 -0.53140932
-9.1960602 21.79948 -1.0259633
-9.3131514 21.793671 0.57509947
-9.0269766 21.366756 -0.53215683
-9.1540079 21.749971 0.82739478
-9.1788797 21.531601 -1.1314582
-9.2256365 21.634296 -0.016142271
-9.1595469 21.762897 -1.5575458
-9.2184801 21.370058 -0.57318687
-9.0305424 21.525185 0.12560667
-9.3187609 22.010868 -1.2428213
-9.514349 22.083529 -0.45824146
-8.9418068 21.455605 1.1479782
-9.1869221 21.61042 1.483181
-9.3921671 21.85424 -0.88066185
-9.1545763 21.771538 -0.3223806
-9.2333488 21.808765 1.1658081
-9.2208576 21.782049 -0.34774312
-9.2530241 21.759506 -0.81472933
-9.233551 21.628628 -0.23386949
-9.2792988 21.974733 -0.15137231
-9.1006641 21.45472 -1.7903554
-9.3505344 22.007982 -0.35190818
-9.0492611 21.75968 -1.0600759
-9.2265797 21.931454 0.04628969
-9.3476639 22.008568 1.1447773
-9.0404243 21.591574 -0.029203096
-9.1053629 21.35775 0.61663175
-9.1254482 21.761492 -0.87207425
-9.1392355 21.764194 -0.73247027
-9.1350803 21.771887 -0.25615707
-9.058548 21.747078 -1.1284366
-9.3528109 22.00495 0.36153489
-9.1333923 21.768703 -0.6501596
-9.2448511 21.990793 0.44505066
-9.1471558 21.774914 -0.90299284
-9.1539125 21.772449 0.1701097
-9.1707764 21.684643 0.38192284
-9.362627 21.986706 -0.42427897
-9.2039089 21.749859 0.075079866
-9.406415 22.016567 -0.94026732
-9.0299358 21.371956 0.34642601
-9.4134073 22.018736 -0.042340983
-9.0248327 21.365028 0.55509204
-9.3566036 22.029392 -0.24796665
-9.0020046 21.292257 1.1597701
-9.1744957 21.782875 0.6418336
-9.2284632 21.895292 -0.0056733107
-9.0052767 21.28455 0.9594512
-8.9609623 21.294676 1.3668658
-8.9642105 21.289658 0.86101776
-9.2347622 21.616987 -1.046519
-9.1377859 21.677982 -1.1368499
-9.2512379 21.802818 1.0292747
-9.0065784 21.288975 0.85948801
-9.3262091 21.909967 -0.036214117
-9.1666374 21.785688 -0.053260785
-9.3141241 21.907385 1.2244986
-9.0055923 21.28303 0.66201568
-9.2213211 21.625208 0.05714396
-9.007926 21.285818 0.75740552
-9.3648262 21.912804 1.6024339
-9.0345488 21.402081 1.2607471
-9.0098591 21.393677 0.75245178
-9.1566381 21.78476 0.34838656
-9.0066957 21.287331 1.057146
-9.4247208 22.017027 -1.1202612
-9.1682491 21.699038 0.16169524
-8.9634199 21.392569 0.86133069
-8.962719 21.293591 0.9603942
-9.0042667 21.454075 1.3218982
-9.1155519 21.388119 -0.83101678
-9.2912149 21.847248 0.14049006
-9.0569572 21.488735 0.65197563
-9.1563101 21.696718 -1.3253855
-9.1145229 21.403355 -1.2890149
-9.0785007 21.704266 -0.99561727
-9.1534166 21.696743 -1.7501779
-9.3557596 22.002493 -0.63913244
-9.2187881 21.779736 0.47437012
-9.1586533 21.799192 0.48279244
-9.1412916 21.77232 0.049068376
-9.0355988 21.371822 1.1659812
-9.1482353 21.695637 0.44423166
-9.3041954 21.788399 -0.23390523
-9.3008423 21.801718 -0.92911601
-9.0292015 21.390778 0.66786736
-9.0306683 21.389679 1.0530456
-9.0935888 21.369335 -1.5336584
-9.4656134 22.014618 -1.4171706
-9.0553761 21.389526 0.96739781
-9.2166891 21.614994 -0.93756652
-9.1046944 21.363127 -0.016714282
-9.0364199 21.378746 0.1661897
-9.3312216 22.002445 0.8691901
-9.4966164 22.116335 -0.7521528
-9.2747011 21.96328 0.99729031
-9.2413139 21.784748 -0.12935011
-9.4887543 22.012144 -0.29981768
-9.2279148 21.799023 0.34694037
-9.2098818 21.629356 -0.41542825
-9.2074022 21.626078 0.2666668
-9.2994938 21.78521 -0.84417015
-9.2453947 21.911222 0.45984173
-9.2839165 21.812996 0.99336863
-9.4069233 22.004848 -0.83418483
-9.2267237 21.789089 0.67311674
-9.4418411 21.893307 -0.44937581
-9.1677685 21.643671 -0.27623427
-9.0772457 21.513962 -0.10883467
-9.1287308 21.558916 0.55923462
-9.1970291 21.634157 0.14922883
-9.2686281 21.910612 1.2728083
-8.9975204 21.291485 1.2482284
-9.1828804 21.557545 -1.3328359
-9.3176441 22.010357 1.4418135
-9.1338634 21.573957 0.96761096
-9.2249146 21.611198 -0.75523925
-9.1210279 21.589195 -1.5651081
-9.1051989 21.279236 -0.54663646
-9.3502712 22.008999 -1.9851335
-9.2261543 21.547623 -1.71103
-9.4076309 22.029964 1.0424222
-9.2672758 21.873199 0.99141061
-9.174881 21.880207 0.78691638
-9.2404947 21.760313 -1.1411463
-9.0609665 21.510088 -0.83199435
-9.011898 21.359802 -0.027018484
-9.2051411 21.717173 1.4611502
-9.1160936 21.275328 -0.82664382
-9.5235662 22.069218 -0.79603511
-9.2490044 21.778017 -0.45664656
-9.1579666 21.770025 -1.0498588
-9.0429945 21.381235 0.47013146
-9.0274401 21.566853 0.72395349
-9.1134768 21.419062 0.5598523
-9.2487774 21.785419 -0.64416897
-9.1877909 21.992855 0.018555166
-9.4145107 22.023888 -1.0303408
-9.2304821 21.895279 0.37927872
-9.1238937 21.511818 0.88454932
-9.0586653 21.770695 -0.87067032
-9.0379267 21.36759 0.84914482
-9.2189617 21.885258 0.64647645
-9.2188807 21.602505 -0.85049963
-9.1366358 21.578987 0.63931942
-9.2531576 21.80287 0.97191048
-9.0342226 21.372894 0.252758
-9.0827608 21.342714 1.039277
-9.0924158 21.36693 1.4900509
-9.0148678 21.229162 1.0647827
-9.1482239 21.694979 -0.63787401
-9.119668 21.499582 0.075117886
-9.2527199 21.629725 -0.6538294
-9.1424389 21.686327 -0.83451319
-9.0831642 21.528082 -2.0499315
-9.4160891 22.026762 -0.3652879
-9.1211061 21.405558 -0.92708361
-9.2036219 21.769392 1.3121146
-9.3370056 21.99399 1.0548838
-9.2210617 21.798851 -1.3529748
-9.0264673 21.382401 1.3589067
-9.0734329 21.612032 -0.30229312
-9.1902122 21.639334 1.0091296
-9.1540422 21.699528 -0.43018579
-9.3395777 21.893801 -0.83731294
-9.1323795 21.303547 0.54015946
-9.1507044 21.685907 -0.94307983
-9.1993656 21.816868 0.8657912
-9.1292295 21.510508 0.27367243
-9.4393768 21.932489 0.41125759
-9.3016796 21.788105 -0.65357816
-9.0948601 21.433504 1.0547168
-9.2735968 21.892939 1.0578816
-9.4349957 21.900637 -0.57107532
-9.2006378 21.690264 -1.2298276
-9.1186333 21.413517 0.16657206
-9.4122133 21.916035 -1.6739628
-9.2854891 21.835588 -0.12106941
-9.3305349 21.889874 -0.94465601
-9.356101 21.935003 0.024389924
-9.154686 21.704269 0.64231431
-9.2146025 21.614937 0.35961616
-9.0865879 21.408096 1.1385568
-9.1570425 21.690138 -0.33986187
-9.309 21.997753 1.3406632
-9.2262468 21.607599 -0.14805412
-9.0273371 21.224331 0.98222566
-9.0960293 21.438412 -1.0229033
-9.148551 21.689106 -0.5424636
-9.1448698 21.687916 -0.73907405
-9.0942259 21.348928 -0.13771527
-9.0899668 21.412945 0.86962992
-9.3013363 21.913666 1.0487703
-9.1408653 21.688765 -1.0365338
-9.4724064 21.899992 0.42342687
-9.2368193 21.680714 -1.3240507
-9.1709728 21.610287 -0.61888325
-9.2352505 21.808872 0.5725013
-9.2390833 21.754314 -0.056259759
-8.9672146 21.295019 1.0602084
-9.0043182 21.298738 1.3625498
-8.9659014 21.285437 1.2612345
-9.0730524 21.50441 -1.8008331
-9.2870598 21.826069 1.0709853
-9.3210592 21.906082 -1.0221626
-9.1916914 21.642914 1.1392636
-9.0421638 21.417463 1.4416487
-9.0639248 21.503422 1.2941322
-9.263895 22.008945 0.16026738
-9.4331989 22.011837 -0.73841047
-9.1327047 21.585827 0.082111292
-9.2937193 21.829243 -0.45633993
-9.1262035 21.632374 -0.15747866
-9.1449089 21.602386 0.17342998
-9.1728582 21.848671 -0.026726386
-9.0719681 21.754089 -0.90521246
-9.1877117 21.581171 0.43266588
-9.350852 21.918959 0.89180005
-9.3071041 21.906809 0.96343017
-9.023201 21.206268 0.85818917
-9.1258926 21.528175 0.52983409
-9.1469097 21.798298 0.73229384
-9.310071 21.897137 -0.23244633
-9.2938042 21.908331 -0.31451356
-9.1685696 21.769148 0.57144666
-9.1478996 21.582712 1.0500392
-9.3408937 21.984791 0.96357685
-9.3429432 21.997204 1.2386522
-9.2003269 21.71294 0.46416408
-9.3253403 22.114418 -2.0480297
-9.3091984 21.891907 -0.13501167
-9.2433414 21.877876 -1.2966754
-9.2032404 21.720665 -1.9243717
-9.0951986 21.496035 -0.40528288
-9.1481094 21.766706 -0.44499388
-9.1223612 21.486889 1.0585709
-9.1205091 21.503845 0.9712311
-9.3164854 21.895096 -0.43044469
-9.1114664 21.378979 0.37799695
-9.1623383 21.362717 -1.2868787
-9.3426676 21.97698 -0.54553688
-9.3175383 21.890675 -0.5464862
-9.4224653 22.018435 -0.6617322
-9.0546942 21.748926 -0.33611038
-9.3560581 22.034077 0.46009415
-9.1455822 21.603628 0.45998615
-9.2280874 21.630938 -0.34569445
-9.248558 21.873772 1.1685236
-9.1703911 21.616375 -1.2337596
-9.347724 22.002014 0.061448961
-9.1592932 21.672489 -1.2312427
-9.0878143 21.470169 -0.0063613756
-9.1189318 21.617128 -0.74177212
-9.1401796 21.610176 -0.86545545
-9.1115465 21.288177 -0.71436149
-9.3201675 21.894394 -0.75284719
-9.3533812 22.007586 0.26347435
-9.1350651 21.604195 1.1639017
-9.2828369 21.832104 1.1422119
-9.3398037 21.992895 -0.13797304
-9.3488665 22.011911 0.56371981
-9.0834799 21.313366 0.47054029
-9.348341 22.009201 -0.75883764
-9.0930853 21.290377 0.39318192
-9.129571 21.488182 0.16285539
-9.4184198 22.023027 -1.559113
-9.0558882 21.127136 0.93768388
-9.4131804 21.859606 -0.63313556
-9.1030912 21.277313 -0.66252929
-9.3010492 21.893934 -0.61949492
-9.1022568 21.545061 -0.15497394
-9.115283 21.516697 0.74792659
-9.4113827 22.012213 0.35072723
-9.0942698 21.438562 -0.77301288
-9.1417856 21.637993 -1.1414118
-9.1080484 21.418371 -0.3260957
-9.1295128 21.52779 -0.36985335
-9.1249352 21.49922 0.35489413
-9.2123232 21.693888 0.25672266
-9.4255295 22.000143 -1.3242667
-9.4133415 22.006344 -0.24786541
-9.4005156 22.022928 0.44230297
-9.2021523 21.695688 1.0660769
-9.0883865 21.366987 -0.62175483
-9.3100615 21.714828 -0.64421833
-9.2319546 21.696434 0.55548418
-9.105361 21.540508 1.3728662
-9.3089886 21.812624 -0.048695326
-9.2121744 21.693886 0.059318546
-9.1644497 21.674706 1.3635077
-9.2143641 21.688412 -0.23832685
-9.2096014 21.702803 0.96898472
-9.2144489 21.701637 -1.1457852
-9.2953835 21.566162 0.062182255
-9.2048616 21.606049 0.56636631
-9.2032728 21.581547 1.3528587
-9.1521368 21.617115 -0.5344494
-9.2059612 21.597549 0.80955803
-9.2087479 21.687506 -0.93265146
-9.4003811 22.012913 0.2654492
-9.2143526 21.671896 0.77966768
-9.1536779 21.579168 -0.91587234
-9.1231337 21.504339 -0.75314164
-9.1351662 21.516182 -0.84906787
-9.2038708 21.619459 -1.2398591
-9.1309834 21.702309 -1.4083465
-9.2155161 21.691038 -0.5389657
-9.1984587 21.601139 -1.1473775
-9.1985397 21.642992 -1.4032282
-9.1107454 21.345543 -1.4444925
-9.2106171 21.690874 -0.33951071
-9.1993637 21.694027 -1.4216999
-8.9899139 21.262074 1.4625552
-9.3629837 22.010651 -0.032686166
-9.3660765 22.003794 -0.87540245
-9.1179762 21.713451 -1.949769
-9.0571823 21.516413 -0.76561522
-9.1161165 21.429382 -1.6105762
-9.2640371 21.924034 -1.1698041
-9.2194567 21.714836 -1.8475798
-9.0506535 21.580875 -2.0213423
-9.3353519 21.999237 -1.3615485
-9.1231642 21.482279 -1.5321155
-9.5155821 22.073816 -1.1026926
-9.3337955 21.942993 -1.2592829
-9.2228127 21.867596 -0.25465626
-9.3556147 22.039978 -1.7728541
-9.2923861 21.707951 -0.91949475
-9.2105732 21.770542 -1.4418304
-9.177887 21.763744 -1.4451056
-9.4413223 22.014393 -1.2225317
-9.2966089 21.700777 -0.44608501
-9.2995472 21.872366 0.26112533
-9.0598783 21.525919 0.8942852
-9.3996773 22.028234 -0.52277404
-9.0157614 21.22179 1.1543182
-9.0466442 21.476681 1.0470759
-9.0580645 21.526724 1.424358
-9.0847511 21.285595 0.66783762
-9.3009806 21.695805 -0.15927972
-9.198987 21.537113 -0.57066387
-9.409234 22.012211 0.067215972
-9.4028282 22.019798 0.56049782
-9.4454708 22.017193 -0.095283702
-9.2053194 21.412132 -0.83722079
-9.1668434 21.678516 1.4321886
-9.0960932 21.263121 1.3251579
-9.1069431 21.429886 0.99234533
-9.2957058 21.670832 0.54053915
-9.4028797 22.030647 0.84595203
-9.0953255 21.420242 0.25650561
-9.1329994 21.604486 0.83104694
-9.2441921 21.919012 0.16503112
-9.2853117 21.824165 -1.0594974
-9.4334049 22.042179 1.128096
-9.3965645 22.010836 1.3490063
-9.3064499 21.814339 -0.5145117
-9.2561836 21.893505 -0.42378315
-9.3028393 21.770864 -0.76269358
-9.2084599 21.712347 -1.6305513
-9.2152796 21.684464 -0.73586994
-9.2093754 21.689308 0.16379677
-9.185854 21.692225 -1.491505
-9.190484 21.545284 0.73888469
-9.15765 21.671837 1.1650453
-9.2131357 21.688417 -0.44047722
-9.2786732 21.959213 -0.44987094
-9.2732201 21.968864 -0.20372784
-9.2639112 21.859814 -0.32906294
-9.2173576 21.687258 -0.63406223
-9.19139 21.433613 -0.31828034
-9.2236996 21.683811 -1.0406115
-9.4070911 22.02474 1.278687
-9.2172966 21.687368 -0.83358526
-9.4163647 22.016109 0.96476316
-9.2617664 21.88212 -0.64249605
-9.0821686 21.212358 1.1273843
-9.0632772 21.484043 0.56759107
-9.1395531 21.321569 -0.26854679
-9.1600037 21.294931 0.096956775
-9.2626448 21.889004 -0.53168875
-9.1079311 21.494072 0.65417725
-8.8756485 21.422533 1.3630769
-9.4038019 22.01005 0.65468055
-9.0760679 21.601475 -1.9437951
-9.3029604 21.725657 -0.21073683
-9.0246048 21.218386 0.76746053
-9.2657547 21.959324 1.5658042
-9.2119713 21.70084 0.35911277
-9.2346334 21.880592 0.26114178
-9.1918983 21.810064 0.17321058
-9.1634655 21.646259 0.97647381
-9.1759396 21.654644 1.0531077
-9.1482677 21.700603 0.74823427
-9.1125641 21.493109 0.45341954
-9.2551813 21.868275 -0.7296685
-9.1663513 21.706175 0.5436148
-9.2472677 21.975231 0.57546782
-9.1434793 21.618429 -0.43379065
-9.1349983 21.606106 -1.032372
