# .PCD v0.7 - Point Cloud Data file format
VERSION 0.7
FIELDS x y z
SIZE 4 4 4
TYPE F F F
COUNT 1 1 1
WIDTH 1612
HEIGHT 1
VIEWPOINT 0 0 0 1 0 0 0
POINTS 1612
DATA ascii
1.6817877 16.799326 2.7758245
2.3446827 15.052642 2.9369864
1.7757717 16.492771 2.9494696
1.5477436 16.990185 2.8602409
1.6026126 17.016876 2.5028434
1.8737315 16.17458 1.9076241
3.7010274 11.61136 2.2619469
3.0113673 13.790192 1.9441531
3.4060037 12.812483 2.0607421
1.8177994 16.444225 2.5352671
1.8829116 16.803743 1.9774255
1.9069922 16.708326 2.2571552
1.8878562 16.317272 2.6549792
1.8603773 16.322624 2.9537039
1.5535358 17.108492 2.9162602
3.0641444 13.890759 2.4443283
1.682134 16.89209 2.5546985
1.7711045 16.399305 1.8437235
2.8062837 14.320827 1.9580176
1.4054633 17.499048 2.5717466
1.3820323 17.499775 2.9578888
2.3771119 15.294006 1.9545231
1.7801763 16.32361 2.9382052
3.5272181 12.206025 2.4870172
3.0722947 13.793478 2.363883
1.5555465 16.954338 3.0462146
1.4954401 17.809513 2.0628257
1.5058761 17.807467 2.1504693
2.8501377 14.296801 2.1605968
3.117326 13.001243 2.4680176
1.83017 16.184156 3.1025872
1.4263214 17.461391 2.769186
1.8734647 16.881916 2.3578534
3.4012439 12.790812 1.9801641
3.7874908 12.180335 2.6392789
1.4860582 17.890915 2.4461534
1.9550608 16.791639 2.4339237
1.4202057 17.301846 2.9115226
1.6725268 16.8988 2.6593707
2.2384281 15.291024 2.8893075
1.5712674 16.991121 2.6551397
1.6868684 16.903477 2.4736407
1.5679423 17.103855 2.6544297
2.7005167 14.692464 2.3490176
2.3631878 15.592614 2.1625245
1.6128153 16.930038 2.5348105
2.8509929 14.277346 1.8821231
1.3866305 17.69001 2.3779917
2.0801134 15.697585 2.6734641
1.7426995 16.607864 2.7588584
1.3729147 17.587372 2.5696785
3.5755091 12.714314 2.5736721
3.1412311 13.812894 2.2069671
2.3328822 15.318111 2.382128
2.5893874 14.498797 2.4665554
2.1729746 15.511341 2.6620319
3.5009041 12.116598 2.27582
2.2771015 15.315191 2.653208
1.3996329 17.519281 2.8593743
3.5783346 12.594848 2.3674827
1.5175707 17.826288 2.4625478
3.3507118 12.984939 2.1613314
3.0765715 13.685674 2.0718575
2.1690361 16.089521 2.2542822
2.7910666 13.817355 2.7547476
1.7124668 16.800682 2.3517473
3.3014808 13.095618 2.3712564
3.1394179 13.083343 2.4783502
1.9576516 16.007124 1.9567071
2.8495579 14.490262 2.3731906
2.5865462 15.10576 2.4536898
1.6537197 17.58457 2.3694479
1.882653 16.901167 2.4646647
2.9686151 14.180325 2.2544417
1.7825726 16.602669 2.5610423
1.4685749 17.485783 2.4490702
1.7439013 16.784496 2.650228
3.2167857 12.684163 2.5943124
2.2882802 15.15252 2.9924448
2.2863898 15.108888 2.6879776
2.2732933 15.075217 2.9488487
3.8138311 11.847251 2.5324333
2.6617181 14.293425 2.6586149
2.9856417 14.097569 2.5461044
1.7385287 17.303644 2.5561464
3.7677653 11.816823 2.4653695
2.7021124 13.995108 2.8410766
2.2893758 15.198072 2.6668308
2.9577577 14.290061 2.7559919
2.6720569 14.973449 2.1742258
2.7115397 14.016201 2.5591965
3.1999965 12.694742 2.8732362
1.9632185 16.691069 2.4392731
1.5680887 17.202955 2.5669439
1.5667901 16.992949 2.7558677
1.7692747 16.48621 2.7670946
3.6259184 11.919452 2.3373461
2.8797977 14.405396 2.4507258
1.988794 16.609186 2.4421556
1.666886 16.883631 2.7638364
2.7218359 14.038852 2.9335716
2.8884194 13.596105 2.7828369
3.2114205 12.688669 2.7769184
2.9291663 14.501319 2.1242762
2.7707138 13.786824 2.9547739
2.2666698 15.392213 2.4705482
2.761049 13.913276 2.7645068
4.0361924 11.161079 1.8710239
3.8671198 11.600039 2.3655617
1.6087719 16.65004 3.1528113
1.8137397 16.438271 2.4534204
2.5855598 14.303876 2.7985513
2.7867072 13.783072 2.8838117
2.8644772 13.787036 2.5521796
2.6280284 14.997211 2.0758102
3.0073905 13.821224 2.2480707
1.9612674 16.189751 2.4602225
1.9812716 16.08057 2.6421638
2.2629721 15.386248 2.6427717
2.8636165 13.582334 2.9643686
1.9777317 16.464895 2.6335673
3.0499823 14.430492 2.5579331
3.3736734 12.907364 2.3815835
1.656168 16.6952 2.8554847
2.372221 15.59797 2.3557959
1.8585807 17.077717 2.3574793
3.3229098 12.624504 2.1852531
2.9287083 13.500323 2.9306064
3.055397 13.288629 2.4589117
2.6612678 14.99626 2.3569014
4.2476912 10.892933 2.5659201
2.6086202 14.327688 2.5377405
2.7824073 14.000448 2.3709333
2.8081899 13.921795 2.3936398
1.7649047 16.593191 2.8490088
1.7727233 16.692623 2.4715426
2.0634162 16.480438 2.362941
2.6474257 14.391379 2.5553107
3.7420678 11.488582 2.6584139
2.0143788 15.811147 1.860809
2.6885498 14.20095 2.6600001
2.000783 15.728544 2.8538952
2.7733638 14.49842 1.8626782
3.1990924 12.911659 2.3736107
3.6765773 12.390899 2.4530201
2.3573499 15.700062 2.266906
2.8039496 13.816819 2.6477063
2.3871808 15.004066 2.5637879
2.0794103 15.885692 2.45977
3.061301 13.27796 2.6728258
2.4171057 14.823985 2.6744516
1.8987255 16.701601 1.872568
1.7264514 17.224131 2.5240092
2.3533225 15.655104 1.9250371
2.2751021 15.284525 2.7586789
2.2949321 15.294016 2.4630828
3.6002483 12.402283 2.4402158
3.6189504 11.614626 2.8066757
3.6921985 11.414635 2.555577
2.8894219 13.522439 2.9643979
2.8089316 13.802763 2.4622543
3.5698297 11.739262 2.8691757
1.3060048 17.636801 2.7882688
2.8581474 14.295884 2.2648113
3.279444 13.041512 2.6792603
2.4732206 15.400337 2.4557033
2.8966694 13.516842 2.8365488
1.5860221 17.096535 2.567862
1.5758622 16.907421 2.7512724
2.1926661 15.517347 2.3648949
3.702877 11.523017 2.4795277
3.9975255 10.814325 2.464663
2.8499281 14.292034 1.9754786
3.6738203 12.198232 2.4444916
3.4882669 12.90009 2.473429
2.6806886 14.802185 2.363622
1.9594909 16.108898 2.752955
2.9655914 13.407397 2.934361
3.1753709 12.773744 2.9635077
3.8676343 10.981606 2.6540532
4.1835117 11.003556 2.447578
3.9750392 11.592963 2.4484684
3.2379932 12.863641 2.2541568
4.343679 10.751557 2.3531272
2.9147122 14.210756 2.5858059
1.7595713 16.497295 2.8539853
1.8747959 16.285231 2.7617662
2.3621507 14.989557 2.7564101
2.588268 14.302021 2.8567111
2.6947865 14.107182 2.6637011
2.9975038 13.31284 2.8760648
3.6418555 11.568661 2.9446166
3.6717396 12.288482 2.3633189
3.4427783 12.873302 2.0833092
1.8978851 16.306004 2.4728274
2.3728437 15.091496 2.4635422
2.3643708 15.002775 2.8596931
2.6821342 14.094213 2.8533301
2.6793787 14.100363 2.7654755
3.7025995 11.411818 2.6935928
3.8933654 11.017891 2.5699139
3.9023876 10.901333 2.58233
3.9768822 10.898508 2.4628019
1.3070014 17.735355 2.5653172
1.30752 17.761354 2.3739142
1.9766546 16.107592 2.4549091
1.9631941 16.078373 2.8573382
2.0997822 15.813651 2.3796835
2.0665092 15.809405 2.7710772
2.5713158 14.48905 2.7650115
2.886246 13.594014 2.6622674
3.1021478 13.021818 2.8562284
2.1168878 15.383497 3.1621971
1.570315 17.197054 2.4655423
2.8690555 14.305061 2.3441577
3.9745948 11.594703 2.3508129
2.2820816 15.297041 2.5577564
2.7021983 14.210326 2.3597779
3.2084582 12.731031 2.6921592
3.4011548 12.207749 2.654403
3.6091278 11.807748 2.4815912
3.8185718 11.208985 2.4769857
1.7105467 16.706482 2.5793648
4.0565391 11.089702 2.1723788
3.4074695 12.312639 2.3760567
2.6157095 14.296075 2.6572556
2.2924464 15.301476 2.3649995
3.587636 11.804379 2.7729769
2.9932325 13.407389 2.4603631
2.9800785 13.38553 2.756573
1.7668811 17.204391 2.3726089
3.572206 12.576927 2.0623813
1.5402613 17.180695 2.7635438
3.5189815 11.898645 2.6271167
2.4861016 15.289606 2.3624856
3.2841008 12.693015 2.4585416
3.578572 12.392799 2.2549055
1.7777712 17.279518 2.4632738
2.9518294 14.371572 2.7722411
3.2616992 12.585183 2.8449614
3.1809702 12.994946 2.27022
2.5605106 15.298266 2.4601808
3.5522745 12.002444 2.4629297
3.3316054 12.650143 2.4798713
2.2641339 15.899232 2.360729
2.1624608 15.4951 2.7640824
3.7183475 11.903836 1.904798
3.5799067 11.768351 2.8485057
1.6952922 16.805973 2.5547404
1.4476924 17.372295 2.7610738
3.0032105 13.407288 2.381654
2.9021053 14.213441 2.4496067
3.1303287 12.761325 3.0477958
1.8564744 16.393009 2.7591455
3.8401091 11.811109 1.9837139
2.0822265 15.686529 2.766711
1.2800941 17.783688 2.5659149
3.5775857 12.401814 2.3565426
2.7596102 14.289724 2.251524
3.052604 13.78971 2.0740812
3.2133672 12.838852 2.3902249
2.904007 13.51878 2.7609434
3.3593884 12.394581 2.7481194
2.6658411 14.294262 2.5663967
1.3046149 17.700603 2.6595776
3.1052744 13.10554 2.4796324
2.9421237 13.506435 2.7722144
2.7671752 13.994413 2.6578705
2.0702426 15.888297 2.6415513
3.4784622 12.607197 1.8728825
2.4322927 15.431357 1.8967299
3.1313157 13.961954 2.5326786
2.0693955 15.699049 2.8740664
1.3455186 17.664141 2.6737642
3.5876536 12.497411 2.4604959
2.9411826 14.404338 2.2470903
3.6933641 11.602497 2.461576
3.0513515 13.887169 2.1710479
2.2956219 15.699196 1.9791892
2.8102529 13.779298 2.5795279
3.5675523 12.505077 2.3569613
3.1343157 13.093377 2.5468204
2.5474615 14.687879 2.2724862
2.2965207 15.810714 2.4313152
1.3893349 17.379534 2.9286628
2.9817002 13.496936 2.3604045
2.3122292 15.12352 2.5861688
3.2004595 12.830195 2.5414453
3.0336215 13.401312 2.3658781
3.0866466 13.54445 2.5539758
3.6355791 11.799456 2.7404723
1.2690618 17.791971 2.7268565
1.7863926 16.487925 2.6609454
1.7844186 16.690224 1.773809
3.0435495 14.103102 2.5808597
3.5704319 12.690602 2.3675737
1.8605113 16.893826 1.7931412
4.1073842 11.239058 2.6160707
2.6699426 14.192719 2.7413034
3.1801155 13.610488 2.4574597
4.0627666 11.385363 2.4618912
2.5088928 14.685323 2.390902
3.8990624 11.6204 2.4514658
3.3380876 13.26976 2.2458961
3.7894518 12.10712 2.647805
1.9974459 15.934186 2.4858267
1.9755008 15.99501 2.8514683
2.6376576 14.484333 2.4370713
2.2482891 16.16007 2.3659647
3.1781113 12.799175 2.8552697
2.0915935 15.802311 2.5575924
3.1168618 12.932116 2.7805626
2.531873 15.460339 2.6060865
2.9379823 14.251882 2.0586581
3.5887146 11.895071 2.3646154
2.5694609 15.187554 2.369946
1.4459705 17.272192 2.8456542
2.5091314 14.634118 2.3961728
2.5944645 14.995947 2.4544678
1.7745507 16.688917 2.5543332
2.4677815 14.797626 2.7650931
3.5862126 11.897667 2.461705
3.5810351 11.904232 2.5522768
3.1650136 13.016249 2.0646369
2.5447016 14.68568 2.1903794
3.5582142 12.589689 2.2487319
3.3347266 12.646352 2.2753277
2.4462914 15.593416 2.2688746
2.5085111 15.638538 2.7290978
2.0336416 16.019386 2.1616461
2.2822652 15.384133 2.756006
3.2391136 13.587732 2.2369239
2.3699734 15.588322 2.2596316
3.1774762 12.901637 2.8607047
3.2694108 12.771528 2.0664539
3.6080468 12.510128 2.5480697
1.9883703 15.91102 2.7581787
1.9477391 15.895262 3.0612836
2.2697918 15.171193 1.8848491
1.5873846 16.755716 3.1347837
2.4698422 15.609428 2.0018995
3.6102853 12.581253 2.6689136
2.1555493 15.702259 2.3685417
1.7290583 16.834373 2.823442
1.9527022 16.885227 2.3626018
3.4575901 12.795267 2.3624594
2.0488002 16.0597 2.5662868
3.2504928 12.694686 2.1792202
3.1731575 13.491206 2.2678144
3.4346585 12.793763 1.8660297
3.1626964 12.992218 2.6516843
1.7661161 16.693527 2.7590878
3.6253424 12.605525 2.2403698
3.7831993 11.39396 2.4589489
1.6833501 16.586138 2.9536994
3.8996711 11.019403 2.473079
2.7867908 14.464413 2.5548368
2.5183299 14.504485 3.0257766
3.0102899 13.406816 2.1574655
1.501153 17.306221 2.4546864
2.6684537 14.186522 2.9349587
2.1502132 15.691501 2.1835413
1.2905864 17.711124 2.7760277
3.3117981 12.439329 2.4582934
2.9047401 13.50722 2.6425891
2.4880378 14.592721 2.7471013
1.331256 17.696487 2.5516915
1.5906885 16.914585 2.6619151
3.4381163 13.092842 2.5570607
3.8949709 11.098413 2.4738784
1.3463916 17.610518 2.8414874
2.9462051 13.712152 2.0743048
2.264924 16.000303 2.3566051
3.4042048 12.314994 2.4715068
2.8464539 13.884135 2.4626315
1.5992841 16.679039 3.2416084
1.788718 16.597584 2.4694023
3.4563367 13.008219 2.4668517
1.3000013 17.784315 2.4741809
2.8512564 14.772669 2.6592731
2.8540266 13.427229 2.9967527
1.8822426 16.392036 2.5668828
2.7015705 14.607811 2.0683799
2.6389346 15.16564 2.2522542
3.2096281 12.889248 2.2436044
3.6818995 12.387695 2.3695178
2.3132424 15.609934 2.0622661
2.9662907 13.999314 2.1593261
3.0789194 13.721203 1.9613218
1.6929644 16.800251 2.4673524
3.8863232 11.09977 2.6515117
2.5764499 14.502433 2.65674
3.1663532 12.984997 2.9406815
3.4692502 12.907712 2.3698897
2.9582567 14.200569 2.3780036
3.062176 13.179636 2.8645878
4.0347557 11.481217 2.5660815
2.8075707 14.695094 2.6918018
2.9581058 13.981708 1.8675199
3.0133166 13.037908 3.2437186
3.9076798 10.885237 2.665463
3.268949 13.401361 2.3632598
1.2869235 17.797468 2.6661873
2.0782523 15.900775 2.3665051
3.1315508 14.003245 2.663543
2.1685531 15.703149 2.2653348
2.1092434 15.48714 2.8003149
2.7424021 14.891809 2.2534008
1.8018752 16.5889 2.3812063
3.0438066 13.881828 2.0475714
2.5442626 14.793167 2.3555086
3.475033 12.204369 2.3690288
3.3321469 13.448662 2.6371875
1.5018429 17.682121 2.3016768
3.7399538 12.284781 2.5672727
1.7301482 17.391653 2.3968158
3.0117657 13.405334 2.2718229
2.0090399 15.937281 2.5673573
2.2412586 15.498548 2.3653119
2.8808718 13.688897 2.8589261
2.4916718 14.801873 2.357604
1.2574505 17.895138 2.7712226
3.200532 12.794896 2.6512594
2.5666394 14.814692 2.0678525
1.7153445 16.455 2.7072711
3.5165665 11.867794 2.9856372
3.9353471 11.757806 2.3727808
3.0613351 13.888681 2.3688328
1.6164471 16.799997 2.6793249
2.1564944 15.57771 2.8728108
1.4580933 17.303858 2.6597908
2.0877547 15.885298 2.0667331
2.743459 14.86733 2.1785336
3.0404358 13.288985 2.7510703
1.5710363 17.685606 2.443861
1.7725226 16.687254 2.6528571
2.6390867 14.494061 2.2782722
4.1547918 11.092576 2.2501981
3.5116706 12.035531 2.3956833
3.3380332 12.582696 2.4632134
1.5048875 17.710838 2.0356934
1.6471736 17.41437 2.6664991
3.0704613 13.891339 2.2678816
3.9619489 11.584917 2.1586866
1.931181 16.782173 1.9921089
3.6730955 11.595659 2.6626434
2.5269034 15.664299 2.5312219
2.0480099 16.696699 2.5675099
3.8894849 11.79426 2.4582736
2.3766007 15.710529 2.5354831
2.20733 15.418923 2.4880149
3.549912 12.799162 2.6666706
3.9846539 10.889697 2.3702319
2.0677187 16.397285 2.3562744
2.7009902 14.612761 1.9581773
2.1608448 16.383856 2.5721555
3.4530425 12.801734 2.5300829
3.402303 13.095321 2.5444331
2.1096563 15.727898 2.3809972
3.5400684 12.802637 2.3950222
3.042726 13.846111 1.9799891
2.36292 14.847074 3.1569953
1.9948151 16.082146 2.3607678
3.9876082 11.393579 2.4352198
2.7651277 14.861825 2.0603423
3.6786513 11.506104 2.7572742
2.9549036 13.060002 3.4243476
4.1746893 11.091152 2.470789
3.1640248 12.992456 2.4637272
2.1137555 15.471231 2.8263421
3.0743523 13.99438 2.4585307
2.1487164 15.561605 2.9124825
3.6891632 11.60929 2.5658932
2.0892065 15.555426 2.822741
1.8618428 16.399677 2.6540594
2.6683145 14.806727 2.4211838
2.1730559 15.592926 2.5611644
3.2698388 13.296688 2.3604283
2.9675186 14.280761 2.3705223
2.9866374 13.395978 2.5683672
1.5731329 17.09132 2.8887706
3.4389236 12.229799 2.0683343
4.0151687 10.732376 2.5493708
3.5825527 12.68487 2.650228
3.4504433 12.789647 2.2596889
2.4842417 15.123961 1.9344734
4.135426 11.263839 2.2589486
1.8837117 16.39773 2.376786
2.40288 15.404563 2.2572422
1.9925814 16.505947 2.0592999
1.9000456 16.699091 1.9689002
2.9302387 13.670297 2.3737175
3.0011036 12.988334 3.1786902
2.7730331 15.06987 2.4463229
2.4715724 14.796509 2.5586972
3.749553 12.014648 2.662473
3.1010232 13.18257 2.2641487
2.80212 13.916018 2.4758339
1.3519235 17.566996 2.9537795
3.7259643 12.280704 2.3920126
1.8861722 16.277788 2.8446369
2.3986151 14.636861 2.9815598
3.2360845 13.666042 2.3827596
2.7597356 13.98312 2.8686545
3.4988432 11.99752 2.5558076
3.5537648 12.694713 2.1769295
3.1846077 12.899522 2.5670733
1.4628464 17.217981 2.9586692
3.8196113 11.240911 2.1945333
3.2778499 13.307063 2.4603448
2.5737619 14.580114 2.7599406
2.3058915 15.688038 2.0594728
1.3859749 17.595306 2.4681702
2.7231863 13.85528 3.0191002
1.9639224 15.984012 1.8575497
1.900483 16.312119 2.3646247
2.4130437 14.984264 2.1631837
1.862329 17.06567 2.4552155
2.6575074 14.103241 2.9761195
2.2565489 15.490353 2.1867015
3.6511576 12.492158 2.4637702
2.9523625 14.300019 2.2556229
3.5249419 12.84945 2.258498
2.4964211 15.26158 1.8872007
2.891314 14.482315 2.1833947
3.7621024 12.002651 1.8723159
3.7507515 12.18731 2.3627274
3.602859 12.309921 2.070729
2.7785852 13.989704 2.5462956
2.117686 15.421297 2.9700761
3.1810763 12.783779 2.2639275
3.0658851 13.808795 2.4510965
3.0062442 13.198696 2.8766339
2.354228 15.174676 2.920589
1.8759158 16.400578 2.459306
3.0169458 13.22901 2.6434584
3.7650793 12.19314 2.4617758
1.5851276 17.193846 2.3617656
1.7783087 16.418427 2.7737365
3.2060513 12.805402 2.4585178
3.0039244 13.313794 2.4450278
3.0630007 13.802771 2.2587087
2.5555739 14.617105 2.8775568
1.6850984 16.60915 2.7671156
4.1609139 11.094126 2.3693843
3.3377223 12.592225 2.7563257
1.8361834 17.190037 2.3569007
1.5062661 17.741438 2.1664631
2.9792626 14.00116 2.3707871
1.9833419 16.095991 2.5650463
3.0315142 14.195219 2.4696085
3.2982879 12.498277 2.6705418
2.5742073 14.789839 2.1694484
3.6390462 12.279506 1.9965106
3.1613905 13.799888 2.457448
2.7840388 13.99773 2.4637203
1.4017143 17.273239 2.9869788
2.9074948 13.299481 3.2225394
1.7280357 17.458738 2.330615
3.2872021 12.599429 2.5562251
4.1145983 10.941558 1.7570434
1.986082 15.998111 2.7458882
4.1864538 10.607351 1.9431142
2.75617 14.080141 2.759686
2.186162 15.582761 2.3689895
2.694416 14.776007 1.8560284
3.5736859 12.553057 1.8244281
2.0334761 16.696459 2.3562605
2.3932438 15.499835 2.3575451
3.3046579 12.617382 2.4579124
2.3013492 15.63884 1.8058063
4.2028303 10.993778 2.7543044
2.2341223 15.508669 1.9814442
4.2070222 10.615855 2.076138
2.9261506 13.240278 3.2251639
3.0470939 13.798976 2.1663835
1.5917442 16.992249 2.5473428
4.0986409 10.918997 2.352402
2.6493454 14.437928 2.7633677
2.9639711 13.406571 2.675205
2.3704264 15.099953 2.56036
3.1937461 12.787107 2.7696543
2.7136002 14.62428 2.1450851
1.3051019 17.708458 2.8338964
2.4571936 14.894403 2.3562937
3.4702029 13.009275 2.6618063
2.8913145 13.695717 2.4620187
2.9848316 13.053478 3.0027778
1.5547098 17.715012 2.5549209
3.8731282 11.893375 2.4629805
2.4730711 14.690993 2.6635137
2.9488292 14.082896 1.9853446
2.2696462 15.397539 2.1567004
2.3699474 15.482065 2.7467952
1.7139812 16.521975 2.7613389
1.8559532 16.268633 1.9562745
2.6677158 14.892369 2.2664433
1.5467688 17.650948 2.7536318
2.4916556 14.711155 2.4685674
2.9173129 13.440177 2.6236832
2.6922331 13.902633 3.2799644
2.8454506 14.478031 1.8005996
2.9464977 14.39135 2.6382256
2.8817515 13.789105 2.3636522
2.3981078 14.890245 2.5576367
3.0044219 13.295819 2.1057258
2.0310512 16.782244 2.5589378
2.9745529 12.998272 3.4273994
3.1459253 13.084044 2.7577212
2.5348959 14.237131 3.3532591
2.7507153 14.187351 2.6458154
2.61392 14.209512 1.8724978
2.6214356 15.199541 2.1697497
3.1411288 13.891316 2.6449056
1.5012832 17.32888 2.4050727
2.0441282 16.075033 2.3601921
3.565588 12.489702 2.2612088
2.7448716 14.657043 1.8408443
2.9962668 13.307082 2.5756981
3.7906218 11.806694 2.2489567
3.0758114 13.808172 2.5387542
3.1398494 13.086819 2.6482096
3.0745175 13.19787 2.7671726
2.9633911 13.982697 1.9459467
2.1195688 15.440839 2.733341
2.0915008 15.443546 3.0985031
3.3485589 13.075895 2.1698136
1.5874977 17.106045 2.4642637
2.9543908 13.325238 2.1996245
2.8658373 14.499343 2.2664609
2.6379611 14.879102 1.9846164
3.0735292 13.636958 2.428169
2.4581783 14.894065 2.5486751
2.0883195 15.806713 2.470922
3.9746025 11.505293 2.4490469
4.0026731 11.305259 2.4460697
3.164782 12.896996 2.7681994
1.5092342 17.731853 1.9633834
1.9564936 15.981784 2.9568944
1.5541303 17.281109 2.3627419
1.575925 17.178253 2.0393147
3.218163 12.735409 2.4930098
3.2524149 12.799208 2.4639142
3.4453492 12.979445 2.2554951
2.9909675 13.101279 3.2397513
2.9515259 14.065187 1.8758097
3.4793146 12.119267 2.0124805
2.3146768 15.597901 1.9368589
1.3023375 17.574778 1.9331791
2.982708 13.493538 2.0670991
2.5956147 14.493148 2.3652673
2.8622377 14.400192 2.3588538
2.5024147 14.606332 2.6630905
1.4977651 17.181162 2.666965
2.6610742 14.308486 2.7506914
2.5658584 14.620951 2.1936979
3.4673736 12.10652 2.7568016
3.6677582 12.180974 2.3494353
2.4268026 15.616753 2.0983458
3.7851844 12.095817 2.3636434
2.9104257 14.423264 2.6368895
2.3671026 15.68448 2.344774
2.3941636 15.50023 2.2564704
3.6637177 11.699407 2.6541157
2.5678504 14.585755 2.3551078
3.0883238 13.092387 2.865725
1.6039121 16.721851 2.8239317
3.2440042 12.629435 2.9298997
2.6948621 14.115527 2.5617716
2.4190443 14.827119 2.4214919
2.1601393 15.770002 2.040544
2.1790028 15.403826 2.7610862
2.8943794 14.088154 1.8768222
2.4252408 15.60786 2.6711731
2.6700766 13.84903 3.3744819
3.2310715 12.861036 2.7227697
1.8612586 16.896437 2.2628951
2.5471296 14.694541 2.375278
2.1999662 15.505005 2.4637616
2.0979846 15.70434 2.5736284
2.0472937 16.593472 2.3766236
2.9456625 13.587028 2.558713
1.4613011 17.489218 2.5428801
3.7494864 11.973936 1.967144
3.1176801 13.115549 2.1126769
1.8278294 16.518551 2.8768811
2.5541418 15.301492 2.3698859
2.1534164 15.59417 1.9647213
3.0582659 13.300787 2.3709075
3.7853081 11.887723 2.3582559
3.310226 12.600266 2.3609886
3.8908372 11.103171 2.5469728
3.0153284 12.983393 3.0073555
1.8374176 16.587446 2.3873501
2.9486222 13.176322 3.4432425
3.7761371 11.395554 2.5415578
2.0701458 16.487951 2.249476
2.6072922 14.91653 2.1478562
3.7730415 11.302814 2.1710227
2.8676207 13.797561 2.4595172
4.0647187 11.299517 2.2621479
3.510807 11.920807 2.8509264
2.2808762 15.794387 2.1623056
3.0419207 13.377291 2.4680281
2.7497144 14.888746 2.4590657
3.1628625 13.648701 1.9084519
4.0795531 11.204544 2.3563569
1.5003543 17.159084 2.567148
1.3895708 17.464443 2.7263806
2.3726001 15.589407 2.6605029
1.4435438 17.118526 3.2398384
2.4999237 15.321636 2.4466057
1.9833572 16.091751 2.2619596
2.3699002 15.81531 2.5577197
2.1548233 15.692665 2.4758632
2.38168 15.092655 2.3693864
2.7705464 14.696682 2.4393246
3.7043185 11.582559 2.1757078
3.2968056 13.011082 2.0745664
2.1546896 15.689529 2.5706067
2.5605285 14.30087 3.1594763
3.002883 13.23479 2.7581213
4.1609974 10.792658 1.9689066
1.6685984 17.480394 2.4317455
2.6796 14.2774 2.8453343
2.093595 15.409267 3.2829771
3.5682077 11.900665 2.8264999
3.1433308 13.080312 2.3670683
2.4001482 15.491416 2.4402721
1.5034376 17.230703 1.9624789
2.5695467 14.597456 2.2896585
2.5734887 14.607408 2.0983307
2.0533817 16.00256 2.0690689
1.4495702 17.377884 2.8742614
2.8810849 14.204809 2.3556547
2.9501643 14.096397 2.2508547
2.4363644 15.665381 2.3886852
1.5077682 17.211678 2.3953795
2.2603314 15.990189 2.2593081
3.0894065 13.092827 2.7620687
3.7690232 11.99371 2.4522128
1.6706675 16.702497 2.7604322
3.1083682 13.011322 2.6542416
2.402952 14.893581 2.6525156
3.5003469 11.993107 2.7551541
1.2860551 17.734251 2.0198758
3.1396959 13.095277 2.2568898
1.7424543 17.274775 2.070003
3.2586966 13.28381 2.1549356
2.8493788 13.879663 2.2671778
3.1511338 13.034456 2.1637208
2.7325754 14.678936 1.9665039
3.3405528 12.59141 2.3568556
3.2614639 12.798635 2.1723728
3.1857471 12.90537 2.6667395
3.0909142 13.105186 2.6518211
3.0646653 13.195137 2.6548035
3.3982129 12.29149 2.5757086
3.277519 12.489086 1.9448655
3.3461151 12.990063 1.9785194
1.4078588 17.385992 2.6687074
2.7753336 14.495112 2.0653875
2.6933246 14.12799 2.46736
2.3586717 15.594397 2.0772142
3.649425 12.472542 2.174638
2.238621 15.491988 2.5564361
3.3429754 12.604226 2.668448
3.2705846 12.692282 2.656054
3.2603111 12.771407 2.7478113
2.377095 14.993882 2.6624384
2.3760433 15.09633 2.1892488
3.5185568 11.941506 2.5675626
2.5548775 14.603312 2.5556109
3.0969203 13.011924 2.7568803
2.8463371 14.651485 2.1572175
3.7509587 12.00034 2.1641076
3.9811306 11.491569 2.3630946
2.3550117 15.189604 2.5454562
3.1436009 13.893113 2.3426595
2.3539026 15.787067 2.4673152
2.6885877 14.39145 2.1852915
1.5740564 17.185993 2.6407218
2.2902584 15.18878 2.8913848
2.0221252 15.581117 3.2817085
2.7467444 14.589913 2.0737982
2.350606 15.793902 2.3576968
2.3659468 15.084673 2.6547291
1.4670362 17.193462 2.8503206
3.0858421 13.198874 2.3694689
1.5801384 17.321768 2.7492785
3.7877092 11.800198 2.1525357
1.5666074 16.904139 2.8384068
2.7699757 14.500803 1.955322
2.5619531 14.603662 2.9246159
2.1735289 16.219965 2.447237
2.2724793 15.388357 2.3720264
1.4799774 17.404924 2.3754385
3.1580863 12.99542 2.8455687
2.3636045 15.676678 2.0678263
3.4401326 12.785202 2.1601739
3.5818186 12.688265 2.4706573
3.4850383 12.21774 2.2620952
1.8859943 16.787994 2.1638718
4.0238552 11.579597 2.5772729
4.0918856 10.924798 2.1706696
2.375438 15.790368 2.6336048
2.8948026 13.623238 2.374665
2.8768961 13.797293 2.2714915
2.5636234 14.595106 2.4728041
3.4142284 12.400162 2.1793401
1.4754678 17.397959 2.5510755
4.2815528 10.528768 2.5149508
3.5551364 11.984819 2.6540313
1.5168473 17.11957 2.5947263
2.1636105 15.693851 2.6540821
1.890159 16.71266 1.7867683
3.2325115 12.882896 2.4639962
2.8193531 13.735588 2.6514585
2.6352975 14.083048 3.0414472
2.7236607 14.268538 2.7201216
2.7786989 13.884371 2.844058
3.0404336 14.070391 2.2534795
3.9179709 10.83639 2.5795157
3.6556139 11.904212 2.2370236
2.1918273 15.419598 2.5665674
2.3172317 15.227969 2.3703632
2.3029811 15.436685 1.9504101
1.9628904 16.099026 2.0336087
2.209163 15.212791 2.8142309
3.0198317 12.943977 2.9670203
2.8394752 13.89641 2.5531392
2.1874216 15.410243 2.6660109
2.4807012 14.794659 2.4619412
2.7564249 14.902609 2.5627182
1.6647891 16.996361 2.3725362
1.3826737 17.397892 2.797509
2.3661084 15.07066 2.8619642
1.6627715 16.98959 2.6434679
3.0687816 13.28877 2.2745829
2.4435301 15.482749 2.1749089
3.8961091 11.501432 2.2545259
3.6419301 12.280103 2.0480909
3.6978769 12.005042 1.931438
3.5710783 12.396793 2.0760493
2.1528788 15.698215 2.7673566
2.8405867 13.895973 2.6583202
3.4000919 12.203316 2.570786
1.7717017 17.299555 2.3799517
2.4009919 15.706596 2.662806
3.9058552 10.888968 2.4608634
3.0779564 13.28023 2.2007926
2.1008492 15.803462 2.280195
3.0470784 14.179881 2.5683966
3.001231 13.391931 2.873673
2.1742578 15.402694 2.8572638
2.9590905 13.501176 2.6710455
2.8927224 13.70155 2.5526035
2.8631032 13.786675 2.7633328
3.524174 12.755381 2.0687661
2.2353606 16.099251 2.4595039
3.444947 12.284085 2.4726152
3.1414702 13.744928 2.0276451
3.2728119 13.198839 2.0814824
2.6681511 14.197123 2.8541284
2.6629777 14.294142 2.453723
2.5535076 14.58255 2.6527853
1.4866562 17.224972 2.4900336
1.8622707 16.660276 2.7290106
1.6725817 17.491941 2.3818219
2.551827 14.297136 2.9727066
2.0088611 15.710198 2.9715939
1.4090682 17.434944 2.4254892
3.4718444 12.193514 2.5615175
3.6685658 11.707197 1.9617947
4.0837755 11.295506 2.3574555
3.0634363 13.094564 2.9375355
3.5086894 12.114109 2.3802004
1.4278457 17.479334 2.8358788
1.875407 16.78467 1.8666773
2.1567805 15.483792 2.9720526
3.1943197 12.90324 2.4623775
2.7603838 14.679605 2.2478542
3.3775733 13.036369 2.5600874
2.9067731 13.602597 2.4758077
2.940088 13.58459 2.6546724
2.5864215 14.468864 2.8305664
2.5872269 14.492945 2.558666
3.3464127 13.000107 2.0755033
2.4696598 14.790246 2.6562755
3.3558276 12.995861 2.3589735
1.4798863 17.289129 2.5598338
2.6050317 14.400714 2.4656775
2.1396451 16.395685 2.3809388
3.459106 12.998709 2.5609202
1.3855062 17.307404 3.0217242
2.3878596 15.111027 2.2845926
2.3663929 15.174905 2.7541823
3.5068209 11.965353 1.9916316
2.2517622 15.47238 2.7366199
1.7826861 17.089235 2.5574703
3.2497683 12.798239 2.6450429
3.367574 12.994811 2.2447391
2.8948126 13.353965 3.2219291
3.0803742 13.192513 2.558847
2.9407873 13.600406 2.8582983
2.2326372 15.500822 2.8365221
2.9682214 14.098256 2.438184
2.7726035 14.679945 2.5595202
2.5067599 14.617771 2.4618895
2.8805676 14.303386 2.4507799
3.2421296 13.59463 2.4555411
1.6602386 17.499128 2.2575946
1.6016437 16.801043 2.8737433
2.6816595 14.296859 2.3660572
2.6129644 14.404607 2.3619139
2.1285176 15.691451 2.8778255
3.3758116 12.393418 2.667151
3.4891856 12.027056 2.8298655
2.4266343 14.988823 2.175035
3.3426685 12.590257 2.2510123
2.9421229 14.082086 2.0637095
2.3928461 15.001827 2.3631084
3.829221 11.371258 2.5388403
3.6333275 12.591097 2.5732634
1.3520247 17.611788 2.773098
3.5544393 11.99331 2.5580363
3.4658613 12.690035 2.1660638
2.8115592 13.830511 1.8980917
2.2666755 15.402195 2.5625608
2.1031799 15.69093 2.4471111
3.5591025 11.971255 2.8387537
3.4819539 12.094538 2.6556973
2.9436121 13.609298 2.7427764
2.1734931 15.364932 2.9293833
3.1634762 13.788365 2.6497939
1.4413929 17.417789 2.6441536
3.1611452 12.590644 2.9927161
2.3762586 15.685683 2.4705646
1.8853214 16.796688 2.0706415
3.1593525 12.997014 2.556164
1.4619535 17.69212 2.4452491
2.3610368 14.931899 2.8658235
2.0420194 15.979328 2.2746396
2.4908624 15.193199 1.8611419
3.0418212 13.399712 2.7094185
1.3561734 17.577215 2.6611366
1.3460593 17.69589 2.915957
2.8639839 13.426052 3.3140831
3.6414826 11.779786 2.5632393
3.6373134 11.793428 2.4716673
3.5633774 11.885405 2.7596381
2.3928225 15.001575 2.4644265
2.3522341 15.182446 2.4615576
2.269464 15.299801 2.9404619
1.2991736 17.596844 2.8792961
2.9700692 14.301275 2.6570559
2.1381326 15.774749 2.29743
3.7886009 11.400065 2.3756049
2.2520056 15.415667 2.8401463
3.7300787 11.576849 2.3775139
3.1783054 12.991571 2.3572409
4.0951343 10.890521 2.2529149
4.0720968 10.638655 1.9897286
2.4878783 14.511586 2.9497466
3.4571621 12.998651 2.366647
3.948489 11.684104 2.3718858
2.7081444 14.214816 2.2878683
3.2317476 12.880184 2.5527129
2.1477954 16.289274 2.3641365
2.8844869 14.491077 2.671658
2.1894591 16.087278 2.3558462
2.9765196 14.082886 2.3666627
4.1576395 10.97395 2.1627729
2.5695076 14.306867 3.2160163
3.6478949 12.28073 2.1626847
3.1714594 12.988897 2.764313
3.6635311 11.697154 2.5526841
2.4805446 14.789025 2.856101
2.1564445 16.185352 2.3628786
3.8675165 11.685892 2.3539624
2.4776485 15.470389 2.3510571
2.8304403 13.95575 2.1317747
1.9597645 16.860008 2.6490505
3.5362816 12.092183 2.7584133
2.0512543 15.985192 2.3693721
2.3477194 15.186974 2.3656793
1.4760532 17.204664 2.7576206
3.7328975 11.56233 2.435164
3.2555296 13.498503 2.3470092
2.246716 15.482807 2.4716103
2.4402981 15.57496 2.3808801
3.1619794 13.098718 2.0705135
3.4005165 12.39553 2.382057
3.2877736 12.585419 2.658504
3.2391829 12.782722 2.8623226
2.6832497 14.203536 2.5548296
2.1647789 15.498748 2.8483903
2.0615165 15.566061 3.1461489
1.9741479 16.227057 2.8146105
2.4342909 15.470679 2.0583434
3.7381716 12.275924 2.4682593
1.8613265 16.995909 2.350625
1.9000547 16.098375 1.8651379
3.770817 11.999484 2.3606155
3.6731548 11.810787 2.0661235
2.1872082 15.626462 2.0578556
3.9724059 11.592651 2.2625079
3.1078265 13.124596 2.3747084
3.7754099 11.398564 2.6485565
3.5943823 11.809524 2.5612216
3.1685345 13.6908 2.4658799
2.5543718 15.186924 2.2540562
2.6520905 15.086699 2.4599783
1.4159656 17.390564 2.5939052
2.9398396 13.179938 2.9986274
3.8719549 11.794128 2.3599241
2.7013452 14.205889 2.446871
2.7324076 14.973938 2.3951237
2.1890361 15.597035 2.4645319
3.8608849 11.902698 2.3695061
2.5134237 14.592991 2.5651424
2.4326475 14.903688 2.848537
2.9445291 14.373899 2.3790469
2.4126334 14.835526 2.5688183
3.1599309 13.587296 2.3376844
2.1624591 15.315117 3.1898675
2.4337974 15.664122 2.2480619
3.7333276 11.566454 2.5678966
1.4950022 17.39452 2.4438732
1.6865671 16.898674 2.3816779
1.6913939 16.983019 2.8692245
1.6354299 17.087284 2.3658617
2.3123052 15.077275 2.8471982
1.5253838 17.194773 2.9369292
2.7918243 13.90438 2.5659323
3.4898949 11.8053 2.8359942
3.3710701 13.084413 2.2579377
3.2411592 12.877511 2.353014
2.1839867 15.502525 2.5482166
2.6932774 13.921796 3.177886
3.4956548 11.999006 2.6471519
1.4774677 17.907537 2.3441083
2.7841616 14.753485 2.2042308
2.9943261 13.292023 2.7584763
2.1681755 16.288485 2.2639291
1.7816241 16.406664 2.8559241
3.9707391 11.391464 2.356144
3.5918586 11.705116 2.7783227
4.1285248 11.296364 2.7242694
3.5935817 11.801684 2.6673486
2.9928396 13.30776 2.6637979
2.7803216 13.90547 2.6726828
3.3453484 12.510533 2.8468716
1.7791044 16.60807 2.6584165
2.7572215 13.983745 2.7626789
2.4668281 14.891308 2.7635801
1.8341966 17.072151 2.0397754
4.0816798 11.301906 2.4656477
3.7903697 11.303498 2.5657344
1.6756403 17.400379 2.3611202
2.5436742 14.317286 3.0576744
3.0395739 13.380021 2.7357852
3.5965371 11.711688 2.6515298
2.5022972 14.608168 2.8507786
4.2203755 10.970584 2.4382079
1.9408683 16.192097 2.7662203
3.8756964 11.699827 2.4543991
3.4314213 12.791546 2.0641248
2.2964551 15.222739 2.4629633
3.8897996 11.087177 2.3831682
3.5995991 11.813251 2.3874028
3.5032527 12.021797 2.4652557
2.7332165 14.900608 2.3619068
2.8531849 13.789742 2.6549067
2.9888642 13.293797 2.9367085
3.7477493 11.497294 2.456403
2.5719221 15.095547 2.3528662
2.1629736 16.190102 2.2591846
2.569046 15.283686 2.2648716
1.8894317 16.291491 2.5550859
2.3503382 15.192163 2.0505085
2.1338122 15.773279 2.7675865
2.2781191 15.211798 2.7520185
3.3509836 12.497387 2.6462731
3.779599 12.094923 2.4536631
4.0705414 10.914745 2.4200435
3.288362 13.111156 2.2540402
2.6032963 15.2159 2.617727
2.33254 15.921976 2.5587647
2.5512404 15.597612 2.5109653
2.2872055 15.60189 2.2580945
2.6686826 14.39702 2.2671001
3.8113534 11.305267 2.3658004
2.3964372 15.426233 2.1553099
2.1493349 15.763412 2.6662884
2.3970652 15.421288 1.8617982
3.1365206 13.876771 2.2322686
3.3491571 13.294209 2.3785205
3.81968 11.133203 2.6550293
3.0109699 13.820439 2.0471501
3.0044148 13.821722 2.3541403
2.9404676 13.841209 2.6055722
2.2685671 16.086246 2.2661843
2.7208736 14.94767 2.4373806
2.3930779 15.506103 2.1575389
2.9538908 13.765222 2.4802647
2.2687712 15.591207 2.1264582
2.9330819 14.528155 2.7877238
2.9679148 14.20631 2.6284189
3.1665597 13.77898 2.3574977
1.4438335 17.135002 3.141886
2.7345991 14.979417 2.5723093
2.4167054 14.842859 2.8604054
3.2919412 13.098577 2.0622325
3.3738375 12.340857 2.2002645
3.7858734 11.194978 1.8524131
3.4255989 12.365913 2.4582253
2.2556157 16.081993 2.5711246
2.6754613 14.897233 2.3562572
2.8800106 14.507511 2.5754762
1.6662474 17.499029 2.5920625
2.3010211 15.1857 2.5816905
3.7851384 11.304714 2.6658041
1.5948691 17.554337 2.6044524
2.8991098 13.496841 1.9658695
3.7892938 11.175214 1.925772
2.7430272 14.336869 2.4862461
2.9836514 14.189605 2.450557
2.3439641 15.289109 2.7541561
3.3831394 12.99447 2.4328647
1.5025783 17.816813 2.2587795
3.3684704 12.495344 2.4685655
3.0104573 13.936506 2.5256722
3.0077658 13.823477 2.1536422
2.9954023 13.909696 1.9683923
1.6081276 17.449514 2.6773121
3.8014414 11.311346 2.4506931
2.2280886 15.153977 3.1102331
3.6984785 11.986107 2.3638113
2.9595156 13.601821 2.1432118
2.1637423 15.833645 1.9454266
2.3904324 15.590133 2.5325222
3.7085328 12.012665 2.0846305
1.5225263 17.746189 2.5917397
3.4380293 13.086507 2.4462249
3.0009606 13.895693 2.3568773
2.8458421 13.509031 3.1048546
2.8110363 13.743004 2.6066544
2.99073 13.894588 2.0667965
2.8623354 13.679268 2.9539127
2.2972114 15.106874 2.7602508
3.1696453 13.489136 2.5897369
2.9759531 13.492719 2.4643455
4.1357713 11.277682 2.5694518
3.2993426 13.104395 2.1655445
2.7785714 14.50325 2.2554412
2.8876808 13.58782 2.8489935
3.8149552 11.332978 2.078428
2.877974 13.697062 2.6476674
2.6572249 14.974275 2.4733357
2.350806 15.26926 2.6570048
2.6043775 14.077074 3.3680472
2.8882599 13.504881 2.3532088
2.3774197 15.507547 2.5469029
2.8841045 13.694614 2.7531331
2.8906984 13.607409 2.5680411
4.1114836 11.221642 2.5389667
1.8663613 16.380798 2.8541193
3.7968585 11.321431 2.2589245
4.0356245 11.49253 2.3287485
2.7397411 14.609806 1.9519261
2.3042541 15.128119 2.452826
2.231446 15.576505 2.3730173
2.0976274 15.467197 3.1607451
2.8912506 14.41698 2.5426793
2.1702538 15.181798 3.2986763
2.7538292 13.695236 3.1749845
1.7072215 16.614552 2.6534681
3.7947624 11.187178 2.6559947
3.6533804 11.703642 2.1894617
2.7793024 13.667978 3.2974815
2.8086853 14.398025 2.0580957
3.9025562 11.605909 2.5241783
3.4431908 13.154475 2.6636651
3.0286334 14.17678 2.7258615
3.622556 12.916732 2.4668438
2.4759135 15.50577 2.6410089
3.0705965 12.942073 2.8547049
2.3475499 15.414307 2.5697422
2.9024889 13.51829 2.4814587
2.7752967 14.302116 2.0919838
2.1995234 15.134572 3.1205757
3.6880383 12.09404 2.3764622
4.2265062 10.978796 2.5675511
1.3775899 17.335073 2.8677325
1.4312253 17.348549 2.9585929
1.9470034 16.905783 2.2501588
2.0832338 16.108974 1.8782544
2.3620811 14.908303 2.9258475
3.3626926 13.385275 2.2726917
3.6494145 11.710461 2.0804038
1.6600571 16.609821 3.0369575
1.6718328 16.499083 3.1622717
3.5639298 13.090363 2.5280776
1.2756444 17.803774 2.8569269
3.0014081 14.130106 2.6543438
3.3203049 13.456574 2.5650558
4.0062861 10.802054 2.5593176
3.0208685 14.208438 2.8374338
3.9194407 11.546319 2.63012
2.0636849 15.651628 1.8346652
2.4893565 14.705856 2.8504055
3.0177395 14.273749 2.8489766
3.3236892 12.633468 1.9071563
2.794409 14.414895 1.9666585
1.8052534 16.28137 2.8623981
3.044663 14.103487 2.6863134
2.5029213 15.198315 2.0731518
2.425849 15.100688 2.3509779
2.4743872 15.396423 2.3674555
3.1525693 13.896691 2.56095
3.1595531 12.690114 3.0527396
3.549114 12.496769 2.1647167
2.4903889 15.21321 2.4616487
2.8110652 13.69575 2.8525715
2.3792396 14.844464 1.9499871
2.8099952 13.701996 1.928587
1.4990208 17.810341 2.6385932
2.3344312 15.281503 2.5485554
2.7628317 13.69471 2.989563
2.9023132 13.524724 2.5522404
2.3355215 15.884912 2.4545841
1.47211 17.097282 3.0566492
1.3719833 17.698505 2.4536638
2.1983275 15.23987 3.1422598
3.1060028 13.10535 2.2671907
3.4466705 13.140271 2.1026564
3.9775653 10.900881 2.5631137
4.2501583 10.774641 2.0783715
3.5065424 12.570388 1.9694159
4.2452607 10.667314 1.9661893
3.2056158 12.564789 2.8820486
1.5997765 16.803001 2.7524345
1.5715393 17.624353 2.6564918
3.2290549 12.875654 2.6753936
3.5376763 12.789181 2.1829348
3.4937077 12.899843 2.56285
2.0312209 16.778303 2.4040797
2.774554 14.412136 2.4234331
2.800077 14.423616 2.2722433
3.0976501 12.834593 3.0416923
2.7749348 14.492146 2.1540177
2.7754877 14.492543 2.4478312
3.0849934 13.979661 2.3789854
2.1251872 16.551674 2.6811912
2.1194744 16.135885 2.0800884
3.0940847 13.724327 2.4779184
2.1739106 15.337992 2.6932058
3.3304427 12.655514 2.6552246
2.0820704 16.565426 2.6117685
3.5183306 11.728434 2.8392291
1.7006538 16.485092 3.0422585
1.7046602 16.495657 2.8921177
1.5795468 16.804804 3.0526361
1.5017433 16.994047 3.0607312
1.5144413 17.0163 2.7246487
1.4729623 17.107447 2.9412906
1.497751 17.106134 2.7635262
1.4870381 17.106579 2.8572681
1.4156001 17.227224 2.9193683
1.3789504 17.367931 2.8561833
3.0433125 12.895312 2.9906363
3.0082879 12.913375 3.3926184
2.9793723 13.031618 3.3874915
2.5842242 14.201973 2.8910093
2.5097616 14.266996 3.2864783
2.5012512 14.311486 3.0908606
2.3626561 14.673185 3.2602942
2.3740282 14.70026 2.8871253
2.1851392 15.279685 2.8479259
2.0167434 15.590097 3.2042639
1.9143736 15.875408 2.8448889
1.9006803 16.006523 2.8523676
1.8870089 16.003138 3.0619538
1.8807014 15.999873 3.1498899
1.7994193 16.213234 2.9521666
1.7994688 16.197304 3.1572752
1.7519732 16.378996 2.9550438
1.7006446 16.5058 2.9425335
1.6717032 16.603018 2.8662817
1.5074463 17.027218 2.9581585
2.4975293 14.693352 2.5639324
3.2812197 13.111104 1.9525961
3.069804 12.852737 3.4711967
3.0316219 12.980655 3.2591727
2.97455 13.160143 3.0235648
2.858099 13.423984 3.4234672
2.814641 13.518072 3.1993895
2.7877903 13.594461 3.1958556
2.6972344 13.912515 2.9842093
2.6522999 13.982579 3.3804984
2.6418831 14.003215 2.9735334
2.6022701 14.103991 3.1627824
2.5724323 14.201893 3.1666312
2.4926438 14.346068 3.3453856
2.4904075 14.413818 2.9599791
2.4911063 14.41507 3.1539359
2.4683259 14.536741 3.1490841
2.4489772 14.589051 2.9637392
2.4081728 14.577978 3.3314085
2.3897932 14.673497 3.1378226
2.3591537 14.704694 3.3230467
2.3037708 14.913788 2.9439573
2.271347 14.995104 3.1362073
2.2548964 15.073845 3.1419265
2.1690807 15.305024 2.9322853
2.0237064 15.647613 3.1509452
1.9624292 15.798933 3.0793793
1.872123 15.997031 3.2552061
1.8291512 16.153406 3.2421927
1.8125141 16.178379 3.052722
1.7887744 16.236488 3.233953
1.7497745 16.36573 3.2316031
1.7423909 16.388052 3.0432136
1.6540165 16.592402 3.1251707
1.6337755 16.680256 3.0818839
1.5602647 16.897518 3.0631304
2.3861148 14.899707 2.7657256
2.7844565 14.791207 2.4571903
3.2094443 13.320018 2.2387743
2.9176605 13.242244 2.9966133
2.8834803 13.30512 3.2026069
2.594228 14.02491 3.3588569
2.5024219 14.31802 3.1517036
2.3923881 14.696452 2.9419668
2.3334045 14.757923 3.1314399
2.2818403 14.945818 2.9443672
2.2055736 15.188709 2.9340079
1.8982599 15.997918 2.9525003
1.8173178 16.119055 3.088227
1.7326514 16.345015 3.253022
1.6733497 16.494797 3.247895
1.6356144 16.666805 2.9436784
1.5582272 16.902168 2.9349992
2.3533671 15.199945 2.63888
1.9695313 16.790344 2.2699466
2.8857117 13.426792 2.8607001
2.8135626 13.599138 3.3063316
2.6407444 14.023034 3.2683678
2.6007409 14.133763 3.2609215
2.5878842 14.206232 3.0649986
2.5644875 14.240482 3.254818
2.5073586 14.379648 3.2429161
2.5197976 14.393388 2.8612022
2.2954936 15.007807 2.8556683
2.2745817 15.026618 3.0201988
2.2018287 15.235543 3.0127525
2.133637 15.380312 3.1804771
1.8739368 16.074392 2.9420786
1.788023 16.305305 2.8090477
1.5571136 16.875387 3.1167564
2.4203954 14.63971 3.1551549
1.7984142 16.98711 1.9783769
2.4479787 15.675716 2.613838
1.8885269 16.043608 2.7677832
1.9419318 16.283493 2.4664428
3.424633 13.046895 2.2310801
2.1764858 15.575288 2.6597521
2.533855 14.692287 2.8778124
1.5024359 17.015923 2.8525877
3.3524554 13.297441 2.6661124
3.3612556 12.502587 2.3674273
2.4958007 14.544235 2.8173957
2.404923 14.775672 2.7683973
2.3140757 15.013491 2.7817512
2.126025 15.455911 3.0952888
1.7650462 16.414717 2.6715446
3.5713825 12.37857 1.9761754
2.6728921 14.03502 3.1829612
2.4994137 14.510889 2.776541
2.4074588 14.760886 3.1091697
2.2635059 15.093534 3.0683327
2.1919773 15.277156 3.0681393
2.7550616 14.786093 2.2543333
2.2674172 15.496916 2.2756734
3.1620178 12.88409 1.9839222
2.2073083 15.238947 2.7484167
1.5067115 17.084549 2.670078
1.9537116 16.670177 1.993557
3.3361423 13.36253 2.4566824
2.1615596 16.097204 2.0665655
3.0266979 13.033493 3.0577078
2.8845823 13.394632 3.0220633
2.8546474 13.469382 3.2214651
2.4001186 14.690144 3.1000051
2.209693 15.240452 2.6985769
1.8037661 16.330715 2.6435843
1.5245731 17.013706 2.9143972
3.0897734 13.701479 2.3460948
2.6751266 14.906389 2.544642
2.7712133 14.808636 2.6413982
1.9439846 16.29859 2.2532995
2.5840154 14.393427 2.8458529
2.5931571 14.405307 2.5566499
2.5907931 14.397788 2.657526
2.8770263 14.115463 2.3609619
2.8986404 14.099398 2.061013
2.5917749 14.392547 2.7496974
2.6682229 14.897881 2.4622927
3.6966672 12.21067 2.5529175
3.4335103 13.160568 2.278178
2.5876017 14.376784 2.9555712
2.7925839 13.993173 2.1827009
2.8140519 14.050983 1.9572002
3.3537691 13.10097 2.3650024
2.1589675 15.846569 2.571178
3.4254792 13.193405 2.5239556
2.7753384 14.605548 2.334841
2.7830918 14.609499 2.4558725
3.3523898 12.491389 2.7574611
2.2109473 15.935103 2.2339489
1.8390499 16.207174 1.7870805
2.2671943 15.403947 2.2590361
3.7918272 12.099763 2.5533922
3.1425304 12.913998 2.0376801
3.4128406 12.706925 2.3442276
3.9450717 10.993335 2.4606724
2.7659986 14.090252 2.2845664
2.7517695 14.597916 1.8376396
1.8070643 16.427584 2.1730013
3.1779463 13.50331 2.4724801
3.4996159 12.899745 2.6478086
2.1405423 15.389866 3.0841498
2.110116 16.17461 1.8735578
1.9549248 16.591921 1.7518549
2.8927839 14.08444 2.2565699
2.2144251 15.915468 2.1780648
3.4406297 12.293387 2.5542076
2.8379977 14.582256 2.3512967
1.3919646 17.627117 2.3823922
2.8068929 13.68604 1.839583
1.9688839 16.690945 2.3721967
2.3666844 15.199162 2.2658682
2.3226027 15.020725 2.9198196
2.8676219 14.592899 2.458241
1.9674394 16.801281 2.3562403
2.8839979 14.500351 2.4784002
3.1359587 13.884542 2.4716313
1.4827682 17.28179 2.77194
1.8755987 17.089405 2.2724094
2.8514233 14.582047 2.2534246
1.9904466 16.599758 2.3626723
2.7478988 14.59535 2.1665828
3.5096226 11.92709 2.0005291
2.150811 16.405739 2.6509852
3.6762059 12.006652 2.2535048
2.7574303 14.803824 2.7444572
2.7658341 14.075735 2.1647563
3.4299307 12.381431 2.5684547
2.4624491 15.395613 2.2510653
4.0727577 10.914886 2.6033232
3.373894 13.183983 2.2379661
2.6717706 14.991899 2.2674603
1.9803531 16.092659 1.8649127
2.4546592 14.893243 2.6635981
2.4214542 14.997024 2.8777423
2.4443047 14.971413 2.2786145
3.0565073 14.081627 2.4695604
3.5336485 12.884226 2.6469116
1.3474452 17.597265 1.9920835
1.7974293 16.693457 1.8744135
2.8135061 14.339193 2.1187174
3.1825457 13.407475 2.3430476
2.7798359 14.007238 2.2611058
4.0534668 11.091105 1.9779853
4.0662751 10.700776 2.2517037
3.262794 13.395146 2.2559814
1.6134641 17.397358 1.9271003
2.7564895 14.795891 2.3680632
4.0557604 10.700637 2.367269
2.1930592 15.374528 2.1262317
4.0373654 11.469609 2.4665861
2.4244127 15.486368 1.9004636
3.353528 12.492773 2.5514932
2.0666912 16.155766 2.5598238
3.0592983 13.011843 1.9563727
3.1420951 13.989671 2.4457617
2.8450055 14.595996 2.1103129
4.0616879 11.101802 2.0637636
3.9892864 11.114305 2.0896244
3.9522669 10.988999 2.6532176
2.6552184 15.082744 2.145889
3.3721187 13.110217 2.4528711
3.3803625 13.19431 2.4513993
2.7884033 14.506681 2.3561037
1.9584845 15.901504 2.9649012
1.4041456 17.690468 2.2778275
4.1304502 10.966499 2.0733566
2.8015921 14.40556 2.1700101
4.1512828 10.897958 2.2661057
1.7962682 16.599401 2.2764306
4.0382075 11.401852 2.2602568
2.8526142 13.966771 2.3602829
2.9219482 14.471634 2.6052678
2.111304 16.199793 2.3555946
2.4114251 14.896799 2.2461956
4.0549169 11.186106 2.2530289
2.105958 16.195921 2.2579985
3.0822449 12.939367 1.9439074
3.0885818 13.989791 2.6526704
3.4703858 12.692022 2.2593396
3.774332 12.23105 2.7576945
3.2733498 12.606048 2.7550054
2.550925 14.371476 3.0194221
2.0579083 15.887917 2.8386843
2.0998757 16.182062 2.424866
2.3717461 14.814705 2.950592
2.5490131 14.682516 2.7732975
2.5236297 14.360075 3.1805456
3.9441395 10.989038 2.567327
2.576894 14.19749 2.9808989
4.1968932 10.997197 2.5598025
2.7062118 14.611841 2.4640722
4.0414796 11.493263 2.6628373
4.1750593 10.797449 2.0700684
4.0600405 11.404794 2.5498314
4.0687175 11.388405 2.7418313
3.8470206 11.225513 1.9358977
2.9474087 14.406353 2.5423849
2.1922207 15.902962 1.9642929
4.0663137 11.623903 2.6379371
3.987895 11.592868 2.64029
2.9785795 14.211637 2.5748129
3.9824393 10.891344 2.6706007
3.6636996 12.193563 2.2617126
4.1921768 10.89219 2.4525709
2.302623 15.890785 2.5436523
3.8415351 11.993689 2.4703031
3.8841536 11.895848 2.6404657
3.8645658 11.991847 2.7643504
2.828485 13.489785 3.4160209
4.0754833 11.203307 2.4528394
3.0768926 13.992236 2.5652642
4.0728931 11.127505 2.6346993
3.9091027 11.684013 2.6163518
4.2091165 10.922954 2.6526358
3.9033751 11.811796 2.5610075
2.1214645 16.563637 2.71907
2.7596326 14.696926 2.3551939
4.1756959 10.990341 2.3626599
2.4484582 14.896823 2.1651547
4.177279 10.6953 1.974498
3.8068099 12.043455 2.5441263
2.7978303 14.408704 2.3494635
2.778739 14.385545 1.8494401
3.9306755 11.082196 2.662883
3.8428545 11.98155 2.6465163
2.61759 14.286961 2.4939477
2.5921636 15.205815 2.5516734
3.2362082 12.694731 2.9201932
2.1399617 15.784519 2.1608129
3.8841133 11.892122 2.5560684
3.9458098 11.00546 2.3548968
3.8632159 11.187088 2.5485291
4.2401533 10.896657 2.4572568
4.0727787 11.396901 2.6691425
2.1657705 15.612048 2.7612712
2.4526095 14.893462 2.4651704
2.884505 14.199965 2.2575972
4.1619749 11.279047 2.0745928
3.5456529 12.474194 1.9683225
3.5389125 12.485148 2.0554595
3.5185513 12.415279 2.1313248
3.5404532 12.066589 2.4693725
2.0034676 15.894747 2.6517506
2.644455 14.404525 2.8906291
1.6916132 17.293816 2.602174
2.7668996 14.081149 2.6517572
1.958485 15.900547 2.8575213
3.1843333 12.494417 2.9946997
1.6222763 17.571201 2.0452614
1.8618623 16.496384 2.2704668
1.8314054 16.472488 2.2051306
2.2828228 15.810013 2.3480399
1.848734 16.491385 2.4627094
1.7447433 17.193539 1.9479691
2.4636374 14.672756 2.9565642
2.9260268 14.471534 2.6487203
2.4778891 14.698543 2.7493267
2.195781 15.996349 2.1658494
2.022548 15.839199 1.8409232
2.0707219 15.847977 2.2057765
1.7903528 16.905621 2.182884
1.7960135 16.490612 2.4738171
3.159951 13.683371 2.2648945
3.1712012 13.689108 2.3806109
4.0445251 11.396723 2.1899683
2.6193779 15.282767 2.1501598
3.6649413 12.401369 2.2502694
1.6611001 17.077757 2.1794782
1.7741702 16.547201 2.0296969
1.780916 16.67609 2.0495417
2.1552129 16.396166 2.2624631
1.4181976 17.478437 2.238204
3.3630533 13.261105 2.1719174
4.3212967 10.74993 1.9274496
1.9199879 16.806124 2.5820518
3.864253 11.852043 2.17818
1.857628 16.889828 2.0680962
2.0934641 16.297482 2.34412
4.02145 11.463149 2.1195531
1.8503354 17.189083 2.2602596
