# .PCD v0.7 - Point Cloud Data file format
VERSION 0.7
FIELDS x y z
SIZE 4 4 4
TYPE F F F
COUNT 1 1 1
WIDTH 1213
HEIGHT 1
VIEWPOINT 0 0 0 1 0 0 0
POINTS 1213
DATA ascii
-13.333332 31.744032 1.860931
-13.721241 30.909214 -0.57469213
-13.519044 31.757132 2.5615718
-13.643812 31.584082 1.772977
-13.519838 31.673216 2.8523533
-13.724704 31.68478 -0.61118424
-13.439775 30.274324 -0.57399893
-13.50605 31.700529 2.2511551
-13.563319 31.639935 0.72516638
-13.812752 31.525648 2.0076349
-13.661578 31.627272 1.5355397
-13.501527 31.558809 1.7857614
-13.478266 31.598074 2.0108571
-13.513274 31.680569 2.5733256
-13.831475 31.745581 1.9571146
-13.590569 31.014038 -0.11890005
-13.5217 31.679657 2.4684315
-13.648957 31.081154 -1.8254031
-13.633411 31.608482 1.8505207
-13.734588 31.35737 0.42696643
-13.827528 31.395216 -0.27459767
-13.631947 31.624449 -0.79445428
-13.343967 30.397839 -0.65473384
-13.330873 30.390005 -0.85043752
-13.333179 30.396528 -0.94552761
-13.704481 31.489717 -1.7560053
-13.326522 30.399525 -1.23739
-13.332168 30.394402 -1.0329226
-13.753525 31.60211 1.3537307
-13.343451 30.414085 -0.54664588
-13.849081 31.765648 1.5903317
-13.744511 31.609539 0.66240096
-13.333011 30.389957 -0.74532866
-13.706318 31.501316 -1.7962394
-13.749383 31.465233 -2.007051
-13.026433 29.952011 -1.1677781
-13.440063 30.694469 -1.0330338
-13.328207 30.398386 -1.1270218
-13.314466 30.407946 -1.3383394
-13.625604 31.71788 1.9640688
-13.798099 31.589182 -0.54353076
-13.805528 31.580639 -0.6317268
-13.508455 31.552679 1.8356422
-13.4331 30.694403 -1.3468556
-13.373306 30.689646 -1.2519876
-13.478056 30.983782 -1.4295756
-13.280723 30.046177 -1.1109663
-13.365528 30.667664 -1.0333809
-13.277087 30.272291 -0.56396157
-13.242203 30.284281 -0.9393909
-13.219212 30.110851 -1.2351098
-13.349829 31.704685 1.9516548
-13.334373 31.725477 -0.5479455
-13.341187 31.716888 -0.64158797
-13.433532 30.670584 -0.6407274
-13.35831 30.689199 -0.76385117
-13.559433 31.090437 -1.6407427
-13.533497 31.102152 -2.0442469
-13.500525 31.77491 -1.0403295
-13.760242 31.571995 -0.94141823
-13.017027 29.950396 -0.81414759
-13.729759 31.657125 1.1444407
-13.738532 31.60873 -0.32893589
-13.415351 30.208645 -0.65261722
-13.695184 31.300894 -1.4509259
-13.715168 31.495981 -1.6530968
-13.616928 31.534201 1.5432963
-13.706164 31.658998 0.95165581
-13.76093 31.56843 -1.2315712
-13.74046 31.661242 1.2624564
-13.706183 31.667877 0.84905517
-13.720108 31.663116 0.7524302
-13.72944 31.663391 1.055591
-13.452873 31.705694 1.4573427
-13.749483 31.582378 -1.3290095
-13.885139 31.40711 -0.36800164
-13.514287 31.752426 0.96072978
-13.511496 31.766619 0.27899739
-13.761322 31.583666 -1.5700428
-13.792933 31.335381 -0.83158624
-13.491556 31.767544 0.77128792
-13.814312 31.430502 -0.45526153
-13.831741 31.183884 -0.28795275
-13.787171 31.318043 -1.1055844
-13.745436 31.58954 -1.6389804
-13.516958 31.77437 0.86174881
-13.791292 31.480877 0.84218347
-13.67814 31.203381 -0.23054533
-13.769081 31.396282 -0.2953788
-13.597154 30.902805 -0.436248
-13.744953 31.588224 -1.4307563
-13.592102 30.91729 -0.54169858
-13.331907 31.716537 -0.42621326
-13.733092 31.314346 -0.3668558
-13.696135 31.180643 -0.34278187
-13.554955 30.878233 -0.25905624
-13.699293 31.114729 -0.82886589
-13.493885 30.725212 -0.23149201
-13.483374 30.606688 -0.38288197
-13.645938 31.116018 -0.3508108
-13.517179 30.792747 -0.32895344
-13.429748 30.590899 -0.42663094
-13.485703 30.62138 -0.97148275
-13.605564 30.992455 -0.44417048
-13.51769 30.808838 -0.44184265
-13.592474 30.797523 -0.83748007
-13.319756 30.284349 -0.31207967
-13.697145 31.207796 -0.41357723
-13.602289 31.017387 -0.35276902
-13.46347 30.69113 -0.3495667
-13.494761 30.723806 -0.32277769
-13.488783 30.616848 -0.82190204
-13.413464 30.424721 -0.62154478
-13.614053 31.633627 -1.0282638
-13.298766 30.292818 -0.44029361
-13.650001 30.822815 -0.42727363
-13.556314 30.965733 -0.42009541
-13.644833 31.195827 -0.46294904
-13.752198 31.589552 -1.1257964
-13.451508 30.699322 -0.44813722
-13.185961 29.911028 -1.0283608
-13.526073 30.896845 -0.95057809
-13.72925 31.659412 -0.25398296
-13.810172 31.492376 -0.54471517
-13.601292 30.910671 -0.9186129
-13.509465 30.783783 -0.24265441
-13.425736 30.609461 -0.34287483
-13.742195 31.661797 0.65865719
-13.707455 31.210627 -0.6396147
-13.700356 31.203316 -0.53665805
-13.613443 30.984041 -0.54306287
-13.595589 30.925398 -1.1503724
-13.495344 30.703873 -0.53658324
-13.508691 30.692911 -0.82317907
-13.518914 30.67943 -1.1616075
-13.503279 30.592762 -1.1585127
-13.399697 30.429237 -0.56211829
-13.34817 30.387905 -0.45620897
-13.735737 31.667742 1.4402817
-13.615307 30.905569 -0.83109432
-13.498316 30.630465 -1.0052239
-13.394519 30.395325 -0.84986758
-13.534487 30.901371 -0.73851383
-13.704299 31.238682 -1.2961047
-13.182895 29.892382 -1.2530138
-13.499574 30.807802 -1.0395108
-13.395697 30.421167 -1.03941
-13.523955 31.76967 1.4464806
-13.804183 31.59281 -0.34637722
-13.543568 31.693823 -1.360441
-13.265903 30.23349 -0.58333617
-13.741641 31.586245 -0.65899873
-13.378975 30.551945 -0.53478152
-13.747135 31.609247 -0.14196545
-13.562666 31.789106 1.1220021
-13.750174 31.675865 2.1455824
-13.466724 30.773434 -0.53017348
-13.515645 31.768696 1.8288081
-13.732258 31.609741 -0.53226072
-13.522079 31.76643 1.0697328
-13.023349 29.965984 -1.0758132
-13.524775 30.894405 -1.0379753
-13.287912 30.235029 -1.4226123
-13.730582 31.611166 -0.44646549
-13.625148 31.685745 -1.1305954
-13.5415 31.686071 -1.1388549
-13.710536 31.305395 -1.337829
-13.52502 30.801987 -0.66785848
-13.103351 29.893564 -1.3336883
-13.600286 31.007673 -1.3142143
-13.189541 29.936272 -0.56029832
-13.356373 30.398985 -0.33712861
-13.709655 31.187893 -0.82612062
-13.709269 31.184921 -0.94968593
-13.695926 31.112772 -0.94593853
-13.602489 30.897877 -1.0368724
-13.600424 30.903973 -0.74103659
-13.495061 30.712233 -0.4409208
-13.499264 30.686066 -1.2726305
-13.745619 31.397326 -0.4516241
-13.599799 31.125547 -1.5448554
-13.804234 31.297188 -0.57242751
-13.514315 30.805061 -0.54996759
-13.707648 31.34465 -1.5095538
-13.754833 31.492599 -0.65793496
-13.652355 31.260759 -0.64234251
-13.641266 31.631514 -0.44382527
-13.617037 31.10482 -1.3422304
-13.758258 31.386715 -0.54887944
-13.530723 30.895754 -0.63719523
-13.35211 30.46912 -0.53745341
-13.645426 31.627626 -0.32747898
-13.380561 30.10305 -0.5513714
-13.567693 31.205931 -1.0283893
-13.60409 31.604948 -1.1872488
-13.662989 31.385498 -1.4427738
-13.53765 31.690678 -0.92789483
-13.614897 31.693163 -0.62702233
-13.593191 31.006712 -1.2203585
-13.028471 29.98904 -0.92589706
-13.17776 30.152905 -1.5415294
-13.576925 31.069122 -0.61287069
-13.257587 30.180954 -0.63294357
-13.624056 31.633509 0.080138445
-13.369547 31.727379 -0.3251327
-13.717527 31.305182 -0.64959526
-13.611658 31.090143 -0.54532784
-13.402728 30.596218 -0.54706347
-13.225622 30.084389 -0.52473891
-13.657343 31.611561 -0.044791356
-13.756782 31.49991 -0.55679595
-13.667225 31.27956 -0.53800952
-13.692324 31.215126 -1.0302855
-13.686305 31.212523 -1.1245726
-13.619828 31.088732 -0.43047377
-13.529748 30.891695 -0.55171055
-13.395817 30.412731 -0.95269191
-13.316253 30.295895 -0.74721348
-13.624515 31.690397 -0.35078472
-13.64375 31.179726 -0.54233533
-13.634439 31.184412 -0.63517398
-13.606188 31.012686 -0.63782907
-13.615993 30.999365 -0.94187611
-13.501287 30.710291 -0.93018603
-13.435183 30.593935 -0.76259249
-13.190364 29.905918 -0.77288246
-13.187874 29.899958 -0.18523014
-13.621105 31.087851 -0.64760959
-13.613399 31.610846 -1.2394024
-13.425022 31.704298 -0.93728054
-13.700971 31.312361 -1.2312229
-13.184845 29.891533 -0.29975599
-13.548847 31.075573 -1.4326744
-13.519217 31.693316 -0.53348607
-13.632591 31.297285 -1.5291611
-13.650259 31.280453 -1.2417272
-13.508122 30.897547 -1.4549724
-13.495936 30.812073 -1.2347406
-13.349948 30.586458 -1.5288554
-13.226814 30.089424 -0.74642044
-13.132377 29.996258 -1.4381258
-13.692152 31.415733 -1.5109472
-13.528881 30.989342 -1.426704
-13.528437 30.89431 -1.2343822
-13.399269 30.610538 -1.4553616
-13.194723 30.007341 -0.84476757
-13.788979 31.556278 -1.1238699
-13.702067 31.407763 -1.4567989
-13.709191 31.400263 -1.3400239
-13.515817 30.803989 -0.84384203
-13.491546 30.782074 -1.334383
-13.409044 30.580202 -1.2391833
-13.314342 30.401684 -1.5367975
-13.214192 30.21389 -1.53688
-13.186437 29.907265 -0.93983108
-13.618769 31.197292 -1.34784
-13.246834 30.359184 -1.7263645
-13.728405 31.495058 -1.4608656
-13.700757 31.317537 -1.1356446
-13.653173 31.293217 -1.3398608
-13.510427 30.798908 -0.93906349
-13.181987 30.027382 -1.4225463
-12.923353 29.902559 -1.3171443
-13.220934 30.099972 -0.94504774
-13.715206 31.300888 -0.74357778
-13.620312 31.088387 -0.8540343
-13.600449 31.001451 -1.1386582
-13.500436 30.712776 -1.0365638
-13.191475 29.913162 -0.83584648
-13.6055 31.010437 -1.0296134
-13.422759 30.585085 -0.84805697
-13.408604 30.597471 -1.3520861
-13.197907 30.091536 -1.5215937
-13.191604 30.068491 -1.426711
-13.200438 30.000956 -1.2249495
-13.197125 30.003679 -0.93015456
-13.199417 30.004328 -0.7429685
-13.707281 31.310658 -0.93751156
-13.613806 31.096132 -1.2363347
-13.547159 30.993103 -1.2442795
-13.214681 30.094618 -1.336174
-13.396322 30.613188 -1.5649127
-13.251919 30.197241 -1.343882
-13.162416 29.974165 -0.67255425
-13.223443 30.104021 -1.0307933
-13.289613 30.414034 -1.8897904
-13.65051 31.20278 -0.74973953
-13.629671 31.099579 -0.74831128
-13.613276 31.096523 -1.1330684
-13.519905 30.897821 -1.3403138
-13.618073 31.189463 -1.4369303
-13.571959 31.083118 -1.2332202
-13.188404 29.897642 -0.47384319
-13.744123 31.489361 -1.2388792
-13.717526 31.407209 -1.2338096
-13.715187 31.395643 -1.1272025
-13.606597 31.200182 -1.5409045
-13.634656 31.1908 -1.134464
-13.523706 30.899313 -1.1281754
-13.509147 30.798445 -1.1308184
-13.417244 30.602175 -1.1259347
-13.353166 30.500134 -1.3419433
-13.305938 30.300995 -1.1326239
-13.040575 30.023094 -1.5261099
-13.13543 29.900764 -1.036851
-13.276173 30.396002 -1.4561167
-13.700937 31.308447 -1.0326861
-13.632823 31.196905 -1.2316564
-13.608089 31.096519 -1.0483218
-13.557158 31.004057 -0.74132776
-13.305571 30.30168 -1.0386432
-13.229605 30.090714 -0.64746219
-13.798394 31.503098 0.37553227
-13.714905 31.39567 -1.0374416
-13.609804 31.093624 -0.9466204
-13.766738 31.508938 0.36895996
-13.553674 30.992559 -1.1330429
-13.415183 30.600538 -1.0381993
-13.266899 30.261026 -0.67638993
-13.75055 31.582441 -0.83933759
-13.661072 31.431219 -1.2333115
-13.665087 31.374334 -1.135128
-13.547239 31.189335 -1.4231851
-13.274891 30.467649 -1.1461653
-13.236626 30.301476 -1.4394947
-13.168474 30.181541 -1.2349714
-13.725361 31.401714 -0.94706351
-13.529838 30.98407 -1.332713
-13.473631 30.95545 -1.2909647
-13.267553 30.394794 -1.3232363
-13.175446 30.20858 -1.3575726
-12.919394 29.922468 -0.72064447
-13.756149 31.498808 -0.73478812
-13.661476 31.287323 -1.1233596
-13.549829 30.996027 -1.0386057
-13.359253 30.583202 -1.1425648
-13.359661 30.579292 -1.3549079
-13.218805 30.093563 -1.1232622
-13.68353 30.880718 -0.68825072
-13.640296 30.890297 -0.65913987
-13.3462 30.548822 -1.2234585
-13.238256 30.196217 -1.235739
-13.128273 30.08762 -1.4386908
-13.147437 30.006254 -1.3227249
-13.673678 31.479654 -1.0436974
-13.653924 31.283867 -1.0452801
-13.634177 31.191673 -1.0412041
-13.555303 31.082338 -1.1384474
-13.366561 30.657198 -1.0963964
-13.34833 30.487373 -1.120618
-13.204432 30.007858 -0.63758969
-13.746819 31.491665 -1.0414444
-13.638101 31.196386 -0.93800539
-13.548999 31.086157 -1.0326881
-13.229306 30.096052 -0.83585417
-13.13764 29.9128 -0.73665017
-13.039474 29.903996 -1.2474718
-13.256674 30.40361 -1.8326943
-13.739149 31.492868 -1.127949
-13.649587 31.384808 -1.0389727
-13.56192 31.1695 -1.1029148
-13.328629 30.488005 -1.2489854
-13.353132 30.489393 -1.038787
-13.238935 30.198236 -1.1364731
-13.669744 31.476528 -0.95119572
-13.647047 31.388056 -0.9435479
-13.639293 31.286791 -0.94149584
-13.563585 31.18227 -0.95963913
-13.544091 30.993572 -0.94391865
-13.468756 30.962633 -0.92394352
-13.440641 30.699539 -0.9394775
-13.265382 30.395428 -1.0358593
-13.16607 30.159178 -1.0619724
-13.12537 29.992556 -1.2374001
-13.045351 29.915388 -1.1230236
-13.140774 29.906898 -0.93695098
-13.617999 31.617126 -0.64198548
-13.673264 31.496094 -0.88450646
-13.668847 31.423399 -0.67785358
-13.641068 31.193052 -0.84805363
-13.54205 31.08362 -0.9418335
-13.354677 30.584219 -1.0391465
-13.245924 30.191319 -1.0366089
-13.83922 31.206676 -0.72098434
-13.735778 31.495466 -0.84096342
-13.644726 31.384192 -0.83162314
-13.152765 29.992846 -1.1207743
-13.670745 31.467667 -0.75295907
-13.637758 31.377369 -0.76995754
-13.643289 31.280918 -0.81926697
-13.560103 31.185768 -0.82754827
-13.296251 30.298307 -1.2254658
-13.310053 30.336929 -1.3261962
-13.726575 31.672915 -0.13462207
-13.645556 31.290695 -0.7456367
-13.441478 30.701323 -0.84062797
-13.347431 30.586227 -0.93419677
-13.245875 30.194952 -0.94474739
-13.158303 30.086544 -1.0235205
-13.712643 31.104904 -0.74638879
-13.538021 30.994263 -0.84296232
-13.042643 29.921371 -0.4428499
-13.717036 31.19462 -0.74798089
-13.548842 31.185272 -0.77048331
-13.532992 31.089039 -0.8294937
-13.342521 30.489532 -0.93691045
-13.265809 30.463755 -0.92073196
-13.131475 30.075703 -1.210079
-13.14414 29.991745 -1.0405971
-13.220783 29.916569 -0.61505061
-13.509102 30.603601 -0.65248501
-13.628385 30.827805 -0.66960871
-13.308438 30.301374 -0.9465071
-13.478484 30.67054 -0.21082386
-13.537468 31.103449 -0.75209296
-13.46504 30.976532 -0.76837093
-13.365051 30.694344 -0.84598339
-13.337798 30.590378 -0.84580821
-13.269543 30.471874 -0.85566515
-13.166196 30.179924 -0.92773861
-13.142689 30.110319 -0.67305821
-13.112933 29.92016 -0.53175378
-13.800134 31.175396 -0.65748662
-12.925479 29.977148 -0.95216197
-13.330348 30.593882 -0.73585039
-13.324299 30.589104 -0.68431932
-13.341554 30.501139 -0.73237133
-13.275625 30.474779 -0.77001268
-13.244308 30.387142 -0.67601854
-13.259439 30.402346 -0.85311437
-13.798972 31.389791 -0.17175972
-13.409119 30.290386 -0.67901301
-13.116052 29.917181 -0.43584538
-13.146976 29.996243 -0.94080299
-13.784304 31.369856 -1.15328
-13.513912 30.59259 -0.7149334
-13.398733 30.194593 -0.70331538
-13.22485 30.301367 -0.75404394
-13.228262 30.191662 -0.74833786
-12.918743 29.980732 -0.64122105
-13.094709 29.955515 -0.44047922
-13.39685 30.140404 -0.72800231
-13.238016 30.194622 -0.84182066
-13.169732 30.171581 -0.83156556
-13.168299 30.174179 -0.76524156
-13.142959 29.985737 -0.84098339
-13.098233 29.958141 -0.3409889
-12.927642 29.982792 -0.82987112
-13.151052 30.11338 -0.76357698
-13.115441 29.974955 -0.53693914
-13.026823 29.960037 -0.65434533
-13.005743 29.981049 -0.75056612
-12.933919 29.986029 -0.7316907
-13.409112 30.710663 -1.5417838
-13.156556 29.983053 -0.73563868
-13.296965 29.902834 -0.69831002
-13.318742 30.30789 -0.65270537
-13.386557 30.524979 -1.4525858
-13.731876 31.495354 -1.3377893
-13.7924 31.532621 -1.2939423
-13.63888 31.633135 -0.96521497
-13.427935 31.720348 -0.12410843
-13.326537 30.430843 -1.8497633
-13.728717 31.502705 -1.5307131
-13.519821 31.792719 2.3745914
-13.390942 30.429996 -1.1050733
-13.626296 31.669678 0.35782245
-13.442956 30.69441 -0.74502796
-13.433877 30.782591 -0.95289147
-13.032798 29.935848 -0.6443786
-13.350408 30.592449 -1.7385025
-13.438491 30.684988 -1.2366002
-13.79787 31.50346 -0.95270199
-13.679812 31.534742 1.4054408
-13.689901 31.139521 -0.38395441
-13.200184 29.730406 -0.68533617
-13.837255 31.526165 -0.33259895
-13.821442 31.496878 -0.64367026
-13.533298 30.890568 -0.84076595
-13.790827 31.39621 -0.53807318
-13.732367 31.294613 -0.45363531
-13.75071 31.531548 1.4491557
-13.801502 31.41226 -0.81660247
-13.733078 31.526564 1.1694374
-13.752048 31.613241 1.8534527
-13.751772 31.499527 -0.95103693
-13.802318 31.607735 1.7626315
-13.663434 31.626484 -0.22358093
-13.311009 30.40645 -1.4310157
-13.614844 31.695442 2.3865724
-13.225459 30.40139 -2.3272784
-13.323093 30.294209 -0.84573674
-13.347984 30.285418 -0.2513186
-13.528208 31.694553 -0.14229181
-13.45353 30.780781 -1.0428829
-13.349182 31.727303 1.0706263
-13.408687 31.769575 -0.55066752
-13.328856 30.184988 -0.46100548
-13.708696 31.601748 -2.2411029
-13.798036 31.62731 2.2407994
-13.037691 29.92565 -0.84914619
-13.769625 31.686678 2.0968113
-13.588163 30.869984 -0.018088028
-13.709806 31.6749 1.5473609
-13.049849 29.926357 -0.71875918
-13.521111 31.702595 0.0620615
-13.527465 31.697521 0.25060028
-13.450846 30.689491 -0.54712951
-13.529554 31.695955 -0.22857574
-13.56438 31.55525 -0.68368661
-13.491445 30.837585 -1.4314473
-13.742915 31.584967 -0.74100029
-13.716566 31.304787 -0.85483474
-13.792171 31.403677 -0.65601403
-13.883533 31.545439 -0.38913065
-13.646797 31.612764 1.4911366
-13.535979 31.695137 0.16511187
-13.551928 31.568966 1.5643594
-13.415575 31.767328 -0.33445936
-13.263943 30.47072 -1.7167007
-13.798255 31.49649 -1.0347248
-13.418208 30.596443 -0.93836313
-13.486927 30.890766 -1.9071165
-13.695441 31.218742 -1.2263956
-13.520988 31.70162 0.85277456
-13.300794 30.204954 -0.84383583
-14.029883 31.556128 1.9268131
-13.610061 30.891562 -0.11802065
-13.439977 30.788406 -1.4411384
-13.622622 31.677473 -0.55065012
-13.296378 30.213533 -1.1260749
-13.78758 31.597731 -1.2470195
-13.550304 30.981693 -0.557459
-13.528089 30.805513 -0.7334677
-13.535993 31.685616 0.9650507
-13.816351 31.416218 -0.74672937
-13.699944 31.76194 0.27186331
-13.621974 31.688892 1.6496136
-13.745067 31.492855 2.071614
-13.644747 31.635063 -0.14265895
-13.762384 31.80983 0.66851693
-13.299405 30.162239 -0.49302816
-13.442455 31.718653 0.47283933
-13.441502 30.888752 -0.84608704
-13.637549 31.691347 1.4695268
-13.288515 30.127657 -0.80115104
-13.789927 31.592176 -0.73891217
-13.740765 30.951481 -0.42089984
-13.658354 31.63698 0.46831036
-13.801602 31.592274 0.44745454
-13.440249 30.894224 -0.75447518
-13.532001 31.711842 1.6551849
-13.533963 31.699575 -0.041674934
-13.624703 31.692711 1.7719203
-13.538228 31.757542 1.3529181
-13.790665 31.574295 -0.94413793
-13.510993 31.683104 -1.0334555
-13.247289 30.384478 -0.7573694
-13.470243 31.636339 1.2498012
-13.496793 30.711508 -0.73426402
-13.63907 31.690538 1.5580195
-13.702194 31.655462 -1.1071424
-13.316647 30.310455 -0.55067825
-13.333357 30.087948 -0.72945023
-13.026378 29.96084 -0.53412116
-13.657269 31.680746 -0.95888019
-13.305167 30.139317 -0.55819029
-13.558646 31.627636 -0.35719097
-13.396255 31.706615 -0.63191533
-13.568374 31.636259 -0.23523621
-13.797603 31.605122 -0.15161683
-13.541938 31.692593 1.1595992
-13.141875 29.918812 -0.83179158
-13.568979 31.609016 -0.075226702
-13.558031 30.997793 -0.65265417
-13.218879 30.19437 -1.4467856
-13.501828 31.799883 -1.2649909
-13.737488 31.748459 0.10538967
-13.742883 31.611353 0.064572304
-13.508532 31.605375 1.4376186
-13.027039 29.924744 -1.0282834
-13.548443 31.606972 -0.96248025
-13.163301 30.077576 -1.3463672
-13.761847 31.768017 2.4195178
-13.816227 31.508324 -0.23524034
-13.339188 30.57229 -1.4308369
-13.562068 31.627853 -1.0165033
-13.281503 30.21579 -1.2183037
-13.730221 31.657806 0.13321669
-13.457076 30.889751 -1.0274737
-13.712516 30.955759 -0.66616452
-13.424041 31.789911 1.3758714
-13.750292 31.570898 2.0649848
-13.527952 31.695999 0.65676159
-13.455215 30.889458 -0.9270243
-13.713798 31.667 0.26896754
-13.757083 31.491251 0.69064367
-13.193533 30.003239 -1.1274927
-13.755884 31.567667 -1.0333723
-13.554435 30.884859 -0.3558763
-13.793784 31.684153 2.1462622
-13.625973 31.687185 1.863687
-13.419147 30.701242 -1.4375671
-13.889279 31.627028 0.55249172
-13.199876 30.007334 -1.0425192
-13.711841 31.749224 -0.11451823
-13.234569 30.287979 -1.265692
-13.736424 31.314791 -0.55111641
-13.746975 31.609194 -0.034525856
-13.435185 30.787403 -0.84360349
-13.807293 31.649496 1.6729655
-13.630244 31.675838 0.96188903
-13.325834 31.72703 -0.73387969
-13.746602 31.604445 0.96193624
-13.636342 31.681276 1.0658294
-13.806146 31.506758 -0.8508026
-13.790801 31.520384 1.5286694
-13.515679 31.630524 -0.44737685
-13.520621 31.835445 -1.4675756
-13.342696 31.722046 -0.21215072
-13.653386 31.619431 0.560377
-13.797293 31.601637 0.36310834
-13.019356 29.964708 -1.3701186
-13.465391 30.892927 -1.1468391
-13.72868 31.306002 -0.2628327
-13.511881 31.619246 -0.85048187
-13.703972 31.67317 -1.2252498
-13.683505 31.100311 -1.1370478
-13.818656 31.49073 0.66993785
-13.749866 31.609602 0.76174122
-13.597478 31.768408 -0.11508923
-13.487832 30.76405 -1.7178916
-13.253667 30.384727 -0.93429321
-13.599819 30.997459 0.054277062
-13.822227 31.653263 1.9799589
-13.335453 31.726088 -0.014943485
-13.748489 31.600859 1.1664329
-13.612872 31.001862 -0.83940685
-13.238957 30.291878 -0.83589298
-13.749307 31.542395 1.344398
-13.121207 29.899841 -1.253419
-13.630218 31.687798 0.86450088
-13.7195 31.517418 1.2583419
-13.442531 31.775282 1.47063
-13.472537 30.999125 -1.2725196
-13.70564 31.240183 -0.21736805
-13.732244 31.657604 0.06567008
-13.254455 30.40057 -1.9177473
-13.536365 31.690718 0.47154751
-13.749143 31.603056 0.36289388
-13.458936 30.799456 -1.3306563
-13.782938 31.451488 -1.3924843
-13.329428 31.72226 -0.83101708
-13.597486 31.097923 -1.4394869
-13.613841 31.641333 2.0716982
-13.532454 31.696266 1.767651
-13.519778 31.70397 -0.44359934
-13.256858 30.286356 -1.0469975
-13.524505 31.705242 1.8400699
-13.526662 31.621304 1.6302714
-13.880274 31.628983 0.71874923
-13.801554 31.548042 -1.2905083
-13.534984 31.701712 1.5617845
-13.738487 31.6667 -1.0259163
-13.529466 31.696217 0.3699955
-13.510853 30.705347 -0.64568365
-13.438686 31.627071 1.3676684
-13.808715 31.622355 1.6553417
-13.629049 31.679157 0.76832747
-13.47321 31.638454 1.4374403
-13.299446 30.441097 -1.7352986
-13.695058 31.747519 1.4261508
-13.747676 31.600382 0.85094649
-13.527861 31.699942 0.7663272
-13.533686 31.605488 1.3465905
-13.50168 30.908115 -1.5447712
-13.693792 31.746645 -1.0664208
-13.812538 31.589708 -0.41313729
-13.745069 31.611921 0.56761718
-13.745074 31.605425 1.0616072
-13.754058 31.609652 0.16822982
-13.423124 30.707277 -1.6471932
-13.367245 30.67334 -0.92836642
-13.528143 31.704412 0.56423342
-13.523482 31.708158 1.2696853
-13.129445 29.902723 -1.1242834
-13.804005 31.42284 -0.94664705
-13.405222 30.713844 -1.8632689
-13.244669 30.401096 -2.1532378
-13.805846 31.668119 2.2155709
-12.969916 30.054583 -0.62427843
-13.289345 30.430864 -2.0243855
-13.737976 31.684738 1.6659784
-13.293113 30.208059 -0.94497085
-13.363038 30.496826 -0.64119327
-13.312027 30.282972 -0.15471755
-13.445445 31.719639 0.072947331
-13.821219 31.505934 -0.74438775
-13.266595 30.297009 -1.3408082
-13.295309 30.211849 -1.0222474
-13.447052 31.718153 0.26036349
-13.430257 31.716698 -0.034119435
-13.745468 31.605093 -0.23995195
-13.250959 30.278034 -1.1367683
-13.721825 31.659027 0.55336559
-13.802378 31.57093 -1.0297871
-13.796859 31.57674 -0.83715659
-13.424551 30.792948 -0.74919069
-13.434352 31.7143 0.95303667
-13.427059 31.764771 1.0645578
-13.418167 30.499531 -0.52840418
-13.437677 31.712187 1.3655056
-13.801508 31.502275 -1.2476468
-13.144801 30.103563 -0.9345479
-13.421424 30.801109 -1.9442465
-13.648142 31.680786 -1.4200587
-13.568275 31.053045 -0.52972561
-13.457438 30.78372 -1.2224337
-13.321691 30.332975 -1.3887353
-13.4222 30.782619 -1.6119134
-13.554055 31.079447 -1.5252653
-13.547223 30.874643 -0.42206424
-13.52799 31.696043 -0.33385313
-13.526472 31.703436 1.3508618
-13.541926 31.701931 1.4814355
-13.549265 31.706343 -0.7415536
-13.765562 31.470028 1.8916641
-13.547857 31.696674 -0.63166916
-13.748303 31.609184 0.25885266
-13.275658 30.478321 -1.6827831
-13.715897 31.656294 0.46854678
-13.723715 31.394644 -0.66273713
-13.31071 30.203333 -0.74248362
-13.64149 31.671799 0.26251289
-13.61832 31.675608 0.55584085
-13.618206 31.676146 0.45663771
-13.439748 31.790571 1.5662066
-13.640018 31.669144 -0.037984338
-13.702538 31.666813 0.35160178
-13.629176 31.678329 -0.14182633
-13.785076 31.511044 -1.1627946
-13.566123 31.248075 -0.89316124
-13.80274 31.669825 1.5876595
-13.633725 31.681883 0.051899794
-13.796181 31.539709 -0.046008937
-13.423488 31.781721 0.37028691
-13.644897 31.681776 0.16382077
-13.456619 30.787085 -0.63957512
-13.628189 31.673405 0.67011154
-13.460836 30.787455 -1.1258708
-13.571315 31.096775 -1.367907
-13.576034 31.604925 -0.55014104
-13.473869 30.981602 -0.83060974
-13.4374 31.731628 0.85833043
-13.436451 31.718895 1.0656363
-13.695677 31.399576 -1.6467083
-13.465508 31.686407 1.9387113
-13.726604 31.388988 -0.84626496
-13.796107 31.660572 1.7708778
-13.751023 31.512096 0.88747162
-13.812982 31.505304 -0.45152095
-13.237304 30.359766 -1.1021342
-13.366002 30.683647 -2.1412346
-13.475455 30.986618 -1.0948957
-13.352133 30.676184 -1.8367286
-13.272861 30.369761 -1.2369368
-13.336329 30.080183 -0.68310541
-13.417349 31.5945 0.00077229895
-13.314072 30.496943 -1.5316576
-13.796295 31.437429 -1.0544798
-13.547295 31.758644 2.0786743
-13.508042 31.803226 1.9500201
-13.535514 31.758097 1.7675722
-13.627732 31.615326 0.85382539
-13.803772 31.613298 0.86151659
-13.760715 31.481556 1.9807057
-13.793159 31.605013 0.96933615
-13.372343 30.683586 -1.5046878
-13.757054 31.669954 1.7696581
-13.80424 31.598814 -0.028956534
-13.77764 31.528244 0.10142067
-13.76606 31.494469 0.54437125
-13.808417 31.593397 -0.21578848
-13.060054 29.868185 -1.6639369
-13.73917 31.394623 -0.74359202
-13.419555 30.398201 -0.72949284
-13.43585 30.794514 -1.5230064
-13.318675 31.796673 0.15392347
-13.623756 31.681156 1.1554593
-13.625493 31.692114 1.2669997
-13.435223 31.724194 0.55672503
-13.794843 31.605448 0.15737875
-13.750341 31.601761 1.4532949
-13.741696 31.618021 1.6666538
-13.420485 31.760927 0.65766507
-13.804369 31.608501 0.65817553
-13.798779 31.603834 1.2696338
-13.801854 31.612898 1.558417
-13.440004 30.597353 -0.63210475
-13.808762 31.668804 1.4604249
-13.507173 31.76638 2.2366259
-13.802713 31.608393 0.75519437
-13.613746 31.693211 1.3718554
-13.812176 31.582787 0.56204599
-13.809467 31.660355 1.8581825
-13.516962 31.631947 0.012028095
-13.639729 31.625004 0.76055062
-13.533317 31.677088 -0.83016509
-13.754766 31.434563 0.52849042
-13.417609 31.787966 1.8572524
-13.431289 31.724663 0.35008261
-13.535262 31.703056 1.0709715
-13.750248 31.596653 1.2594208
-13.816158 31.494261 0.46262279
-13.796851 31.609917 1.4640293
-13.43487 31.774593 1.6637305
-13.422822 31.768734 0.27880228
-13.809358 31.613157 1.1680545
-13.800054 31.600346 0.060375929
-13.400238 31.770603 0.46312946
-13.419389 31.775644 0.1655256
-13.723019 31.666071 1.3521155
-13.807152 31.628487 1.8504446
-13.440751 31.711489 0.65067506
-13.803773 31.617348 2.0437834
-13.79008 31.590315 2.1512451
-13.759931 31.578703 2.1515656
-13.752812 31.607862 1.5570434
-13.618581 31.678207 -0.23501171
-13.74221 31.618208 1.7631822
-13.74448 31.612236 1.9497716
-13.797749 31.497484 0.55463594
-13.798344 31.606396 1.3553896
-13.6366 31.689398 2.1536586
-13.435294 31.714575 0.76400089
-13.511508 31.694729 2.3612804
-13.798388 31.596508 0.26874229
-13.795423 31.609308 1.0666442
-13.625683 31.694605 2.0498683
-13.81646 31.595024 1.9523079
-13.613749 31.680517 -0.44676709
-13.425512 31.728851 -0.43344858
-13.440841 31.72271 0.16104707
-13.433303 31.713909 -0.33739063
-13.434628 31.719482 -0.24201475
-13.784087 31.662107 2.0871937
-13.320667 31.791853 0.65622824
-13.631566 30.999022 -0.74519908
-13.74289 31.604858 0.4526256
-13.349333 31.731434 -0.16824618
-13.761518 31.488253 0.47771648
-13.114312 29.920273 -0.33521417
-13.412639 31.795488 -0.4485409
-13.41706 31.773243 -0.026931925
-13.439653 31.75964 -0.23921302
-13.730075 31.422081 1.9765375
-13.432124 31.776636 0.55056769
-13.274826 30.471504 -1.8567291
-13.96804 31.579714 1.9349624
-13.635824 31.615242 1.1566668
-13.417858 31.779404 0.062072065
-13.637614 31.617287 1.0469255
-13.339866 31.711662 1.2494146
-13.621617 31.59807 1.3654121
-13.266768 30.468945 -1.5624565
-13.616459 31.622635 0.64771712
-13.640523 31.603144 1.2539876
-13.319893 31.719669 1.1625361
-13.548614 31.634481 1.074543
-13.632884 31.61936 0.96320754
-13.534523 31.772013 2.1627021
-13.32533 31.720053 0.96783507
-13.539187 31.61787 1.2657573
-13.330416 31.699947 1.3573605
-13.299292 30.202341 -0.64911062
-13.554558 31.633696 0.96301603
-13.578289 31.631369 0.81979877
-13.569291 31.641157 0.59133571
-13.546183 31.602514 0.66859132
-13.735929 31.53373 1.0768583
-13.783244 31.543955 1.4560117
-13.754162 31.519056 1.5487899
-13.33869 31.684925 1.4330935
-13.563314 31.630739 0.4680858
-13.75769 31.545019 0.76512808
-13.745502 31.542625 1.0045726
-13.782069 31.527687 1.3395747
-13.738236 31.527414 1.6438284
-13.891979 31.618652 1.1251309
-13.727703 31.561647 -1.819581
-13.537141 31.777233 0.47345522
-13.535954 31.777882 -0.058566801
-13.420202 31.766495 1.1598248
-13.410076 31.788788 1.2530482
-13.425125 31.776905 0.94848329
-13.431146 31.763874 0.76922864
-13.505053 31.769176 0.39556536
-13.66212 31.483334 -2.0064878
-13.063483 29.883507 -1.5858237
-13.441622 31.763046 -1.116424
-13.421661 31.768309 -0.91519916
-13.424307 31.802395 -1.0392995
-13.434827 31.786592 1.7501224
-13.438546 31.772881 -0.65420169
-13.586349 31.812767 1.7773827
-13.639738 31.7859 1.1698269
-13.664872 31.681997 -1.5394925
-13.610447 31.794647 0.90149993
-13.395978 31.775032 -1.2302783
-13.614332 31.661884 -1.7457521
-13.660856 31.68104 -1.0455303
-13.437055 31.761395 -0.83661002
-13.632795 31.687355 -0.75335252
-13.722491 31.664068 -0.041284379
-13.711745 31.528366 -1.9598157
-13.658762 31.392918 -1.8321941
-13.593951 31.684246 -1.3756119
-13.70402 31.672848 -0.33036023
-13.412663 31.773174 -0.74874395
-13.604041 31.303919 -2.1299796
-13.638238 31.310322 -1.8377039
-13.623037 31.391596 -2.1563823
-13.791718 31.653503 -0.04505755
-13.792846 31.649509 -0.38142926
-13.790591 31.657497 0.29138866
-13.551553 31.162025 -2.0468581
-13.577531 31.212629 -1.3448859
-13.598221 31.694038 -1.2563126
-13.570639 31.205318 -1.8532412
-13.540611 31.015291 -1.6250992
-13.807571 31.594679 -1.4345801
-13.329093 31.70793 1.5807184
-13.529272 31.753702 -0.25005984
-13.509352 30.918169 -1.7504234
-13.536079 31.009277 -1.7460675
-13.559849 31.094088 -1.7386067
-13.592002 31.116055 -1.7298892
-13.610497 31.211956 -1.7229801
-13.625953 31.272129 -1.704093
-13.680428 31.354221 -1.6981488
-13.692024 31.66947 -0.76684827
-13.64287 31.691118 -1.6376817
-13.617993 31.272051 -1.6593119
-13.626749 31.753757 0.17838091
-13.612873 31.804068 1.4715741
-13.459417 30.854214 -1.6438823
-13.496347 30.898834 -1.6456662
-13.506417 30.973867 -1.9313035
-13.518196 31.081482 -1.9164521
-13.57256 31.147751 -1.5834107
-13.589476 31.202162 -1.9054322
-13.679208 31.417339 -1.535315
-13.44956 30.892389 -1.918962
-13.517369 30.99251 -1.5329728
-13.582542 31.191881 -1.8452545
-13.532244 31.084293 -1.8289001
-13.415257 30.708536 -1.9151696
-13.403494 30.614763 -1.7468174
-13.418913 30.723375 -1.7773979
-13.654704 31.393028 -1.6627252
-13.489639 30.835611 -1.6630762
-13.485654 31.761427 -0.87481302
-13.598153 31.757401 1.0784341
-13.616617 31.197332 -1.6443255
-13.410552 30.800217 -2.1395154
-13.459757 30.89529 -1.7510095
-13.487191 30.944839 -2.0798972
-13.630239 31.309931 -2.0092578
-13.620184 31.375555 -2.0358706
-13.657598 31.404659 -1.9578176
-13.674649 31.372259 -1.3357341
-13.331396 30.604071 -2.022234
-13.398548 30.718174 -2.0275517
-13.567826 31.154026 -1.590035
-13.311048 30.586544 -2.2091835
-13.322924 30.604309 -2.1571782
-13.422849 30.801338 -1.8330281
-13.498952 31.030235 -2.0738995
-13.562314 31.192902 -1.7498707
-13.584583 31.225155 -2.0311892
-13.598473 31.769556 0.066977635
-13.261539 30.394299 -1.5394164
-13.272855 30.533644 -2.1882463
-13.337569 30.581118 -1.8254037
-13.385868 30.622185 -1.8119979
-13.239829 30.297161 -1.6586525
-13.257305 30.391678 -2.0377595
-13.307355 30.515686 -1.953215
-13.353906 30.585272 -1.6102382
-13.457446 30.882881 -1.4996092
-13.498465 31.0042 -1.8406523
-13.497488 30.932272 -1.8255739
-13.195818 30.223782 -1.9233664
-13.23709 30.289814 -1.549034
-13.224285 30.291479 -1.8537126
-13.437612 30.887251 -1.8267176
-13.176174 30.272789 -2.3780594
-13.206181 30.237385 -1.7554047
-13.261727 30.383629 -1.6635545
-13.33508 30.633347 -1.9583815
-13.34741 30.680296 -2.234292
-13.363023 30.686226 -1.9249284
-13.462655 30.97863 -1.8423113
-13.189976 30.320524 -2.403111
-13.250618 30.500031 -2.3530226
-13.343551 30.710768 -2.3235734
-13.367023 30.697924 -1.6661025
-13.367282 30.764971 -1.9809829
-13.465692 30.998903 -2.2600358
-13.477448 30.989405 -1.600978
-13.53235 31.171412 -1.8907729
-13.573307 31.292221 -2.1947892
-13.104612 29.983036 -1.6339617
-13.177197 30.271656 -2.223695
-13.100447 30.004105 -1.762105
-13.191733 30.307695 -2.3517046
-13.203803 30.301291 -2.2324357
-13.3035 30.522636 -2.1660919
-13.299282 30.409803 -1.6370808
-13.407168 30.794195 -2.213985
-13.486959 31.009563 -2.1530128
-13.523143 31.073877 -2.1447146
-13.638186 31.294744 -1.4235678
-13.565007 31.27527 -2.3500834
-13.673279 31.545845 -2.2538593
-13.316412 30.492231 -2.0107136
-13.538296 31.171179 -2.1375577
-13.204383 30.240776 -2.1805763
-13.210016 30.301504 -2.1406116
-13.131087 30.117146 -1.6199256
-13.161884 30.184168 -1.9430808
-13.204416 30.303368 -1.9190395
-13.300541 30.514233 -1.845716
-13.161134 30.185579 -1.6077418
-13.1257 30.009586 -1.5757364
-13.157079 30.107506 -1.5512352
-13.168845 30.189793 -1.8799967
-13.363942 30.677799 -1.4536661
-13.447865 30.893969 -2.0618293
-13.373917 30.817339 -2.1794
-13.43962 30.902071 -2.1423714
-13.390965 30.897785 -2.5112612
-13.419455 30.991304 -2.4942019
-13.512462 31.242403 -2.4496462
-13.563974 31.277706 -1.7604983
-13.53738 31.306789 -2.4373782
-13.655202 31.505091 -1.7195559
-13.638379 31.546453 -2.3920901
-13.672246 31.55303 -1.7076418
-13.091938 30.055628 -1.7568188
-13.397812 30.579197 -1.6434252
-13.465451 30.894735 -1.4555978
-13.624428 31.329504 -1.9658713
-13.657879 31.420603 -1.7415258
-13.5179 31.630993 -1.1149389
-13.186878 30.227098 -1.8207577
-13.160431 30.304953 -2.5055113
-13.392673 30.83643 -2.4366636
-13.406724 30.910624 -2.4255552
-13.452134 30.976229 -2.0689878
-13.532526 31.244749 -2.3805723
-13.625311 31.42778 -2.3604307
-13.13873 30.136724 -2.1217651
-13.156221 30.192726 -2.150207
-13.456245 30.97611 -2.1461325
-13.575829 31.277859 -2.1281731
-13.101727 29.974104 -1.7893054
-12.885122 29.828436 -1.2929981
-13.204787 30.197464 -1.6822571
-13.401687 30.753174 -2.0875304
-13.111352 29.936489 -1.4799771
-13.085354 29.823978 -1.0419127
-13.3805 30.510347 -1.607059
-13.475396 30.748451 -0.39661789
-13.358544 30.385723 -0.17470656
-13.441273 30.608168 -0.24719244
-13.759173 31.682005 2.2850018
-13.754351 31.474026 -0.23473069
-13.519682 31.775002 2.4364719
-13.513485 31.701044 2.165118
-13.514471 31.639572 -0.16755958
-13.700262 31.296747 -0.13503635
-13.796679 31.201046 -0.15857592
-13.621916 31.09514 -0.14296819
-13.57865 30.977732 -0.13809197
-13.672381 31.210007 -0.0014175158
-13.644353 31.144983 0.010942081
-13.631723 31.090368 0.031917859
-13.569689 30.927513 0.074576005
-13.659578 31.187943 -0.1093857
-13.903723 31.479008 -0.75957149
-13.457153 31.770397 2.167177
-13.652937 31.778183 -0.93568182
-13.588795 31.715822 2.4577971
-13.510961 31.690228 2.6604478
-13.590259 31.747402 -0.6239208
-13.43852 31.709799 1.5509403
-13.634478 31.685787 2.2733009
-13.656289 31.621309 1.6482985
-13.722973 31.331455 -0.066405401
-13.731615 31.086807 -0.18007557
-13.687174 31.117022 -1.0025243
-13.47167 31.635971 2.1423411
-13.665133 31.599161 2.1608031
-13.7297 31.365381 -0.11034007
-13.433052 31.793568 1.9464974
-13.508038 31.775089 -0.41945148
-13.409925 31.620087 1.7686534
-13.647497 31.530556 1.7685732
-13.643663 31.849937 0.6523881
-13.591452 31.774004 -0.5090993
-13.604998 31.76026 -0.063926384
-13.717845 31.683083 -0.44029671
-13.771869 31.445446 0.70977223
-13.63494 31.53326 0.81804377
-13.712029 31.854918 1.3420376
-13.785184 31.758144 0.86497277
-13.343282 31.790739 -1.5466
-13.536317 31.779741 0.58303404
-13.530109 31.765553 -0.74499953
-13.632496 31.811195 0.77922857
-13.510285 31.793879 0.18531907
-13.596951 31.768124 1.2365873
-13.706296 31.785789 0.84853381
-13.507576 31.799509 0.056392815
-13.591247 31.827253 0.53260559
-13.428902 31.705368 -0.75979412
-13.643007 31.810661 0.27065533
-13.87591 31.483072 1.2226115
-13.522298 31.720751 1.9628536
-13.395839 30.508539 -0.93668735
-13.646382 31.64283 1.9526472
-13.546474 31.687851 2.0868723
-13.43014 31.698753 1.1654313
-13.146143 30.088017 -0.83710223
-13.461882 31.683456 2.1059105
-13.417808 31.720388 -0.52497083
-13.760828 31.489058 -0.44383475
-13.679102 31.463364 -1.8275243
-13.327137 30.487099 -1.437072
-13.645917 31.487143 -2.3994608
-13.541162 31.756563 1.6765965
-13.060967 29.912674 -0.93787915
-13.826014 31.675707 1.3908595
-13.507636 31.776672 1.5359474
-13.260228 30.495152 -2.2124231
-13.377267 30.828842 -2.2966568
-13.302432 30.497112 -1.640548
-13.291996 30.490883 -2.2283814
-13.793001 31.652121 1.2355475
-13.809671 31.663998 0.34783286
-13.797827 31.654161 -0.72931862
-13.05761 29.92841 -0.52919799
-13.518956 31.764301 1.2390105
-13.147508 30.124569 -1.8675009
-13.852194 31.675278 -0.95641267
-13.165526 30.147705 -1.4081522
-13.668541 31.480722 -1.9737661
-13.633538 31.634218 0.26533118
-13.824656 31.726856 -0.99025786
-13.170364 30.171362 -1.786864
-13.750643 31.395874 -0.2411181
-13.64746 31.639048 0.35303164
-13.641192 31.62142 0.16154572
-13.544868 31.802387 -0.12568875
-13.64389 31.786543 -1.0428295
-13.727423 31.659664 -0.51840144
-13.464469 31.565357 -0.97158712
-13.618584 31.365244 -2.4635804
-13.805918 31.491783 0.2416435
-13.49583 31.796572 -0.54327542
-13.614373 31.776144 0.63046765
-13.487873 31.699587 -1.2295413
-13.832947 31.437372 0.92193383
-13.044704 29.94698 -1.4883136
-13.813004 31.67695 -0.85877508
-13.345262 30.758104 -2.1894097
-13.389538 30.510681 -0.35358527
-13.399411 30.50926 -1.0325625
-13.147181 30.193796 -2.2459593
-13.366187 30.774145 -2.4443541
-13.397813 30.519371 -1.2565383
-13.417267 30.522898 -1.3320971
-13.788655 31.648552 0.94789934
-13.426821 31.708054 -0.83033025
-13.409388 30.491364 -0.63873506
-13.216244 30.297417 -2.0373452
-13.40921 30.505533 -0.84073818
-13.404576 30.519379 -0.23098147
-13.403133 30.467327 -0.47341841
-13.23131 30.386139 -2.2312636
-13.437946 31.69882 1.2400671
-13.453981 31.722757 1.6483886
-13.422451 31.68651 1.738932
-13.412222 30.506189 -0.73619807
-13.415575 30.796284 -1.7489426
-13.308023 30.499317 -1.7457145
-13.44994 31.716957 1.8965573
-13.404093 30.515152 -1.129107
-13.159885 30.090361 -1.1379075
-13.342831 30.491966 -0.84889805
-13.229552 30.281193 -1.7214311
-13.809692 31.699379 0.86171818
-13.44145 30.700161 -1.1296389
-13.287855 30.579496 -2.3346205
-13.204771 30.406147 -2.4430456
-13.844401 31.660845 0.63696313
-13.018618 29.9177 -1.3532547
-13.775345 31.545235 0.29667541
-13.019142 29.909061 -1.4115946
-13.834972 31.518051 0.74581218
-13.518035 31.774738 -0.98363954
-13.65552 31.486618 -2.1365821
