# .PCD v0.7 - Point Cloud Data file format
VERSION 0.7
FIELDS x y z
SIZE 4 4 4
TYPE F F F
COUNT 1 1 1
WIDTH 1509
HEIGHT 1
VIEWPOINT 0 0 0 1 0 0 0
POINTS 1509
DATA ascii
-4.7158642 18.258741 -5.8394265
-4.9219451 18.073858 -6.266293
-4.4994073 18.390203 -6.22963
-7.7032032 16.793491 -5.3132114
-6.932591 17.436062 -7.0941386
-5.9556603 17.426207 -5.4451375
-6.7227764 17.559505 -6.7393007
-5.4748774 18.024853 -6.3966846
-4.5679388 18.452503 -6.3938022
-6.7358475 17.580862 -7.3395047
-7.4506149 17.226997 -6.7868266
-5.4689817 17.951323 -7.137877
-4.4295988 18.218571 -6.1142035
-5.4146194 18.012344 -6.8619766
-5.7218404 17.58893 -5.737133
-5.4713531 17.866951 -6.6182089
-5.1087365 17.764956 -5.8301625
-5.4087815 18.023594 -6.3287725
-5.4371443 17.864243 -6.5075188
-5.5217166 17.814722 -6.247932
-5.4167266 17.934879 -7.0532627
-7.5543098 17.156502 -7.2633042
-4.4435301 18.480394 -7.1442113
-6.2653766 17.512671 -6.1684341
-6.437377 17.495653 -6.3425016
-5.3352385 17.919786 -6.2548342
-6.199698 17.492706 -5.8568964
-6.4316506 17.494736 -5.9442849
-6.4229522 17.49608 -6.2619557
-6.2789183 17.532585 -6.903192
-8.4346876 16.306559 -4.7410145
-7.8096733 16.623257 -4.9778914
-8.3607025 16.229021 -4.7631192
-8.4454651 16.309397 -4.6651897
-7.4236302 16.889507 -5.2361116
-7.5349751 16.859802 -5.2680025
-7.3936682 15.340685 -5.1223898
-6.3296285 17.302916 -4.909018
-7.0257983 17.061607 -5.4192109
-7.3821001 16.913767 -5.8591523
-7.4270086 16.90074 -5.5427461
-6.3218122 17.334911 -5.5188441
-6.366972 17.314144 -5.2195463
-7.6604671 16.815939 -5.9290495
-7.1827164 16.97241 -6.0496531
-7.9549284 16.587547 -5.0516319
-7.8186326 16.742687 -5.3147969
-6.4770198 17.248489 -5.9088521
-6.4328699 17.259781 -6.2342305
-6.1590939 17.379436 -5.8148003
-7.6693597 16.766209 -5.8302236
-6.7332168 17.169647 -4.9503641
-6.8530798 17.110241 -5.3264079
-5.9548416 17.420876 -6.0269551
-7.2469373 16.936388 -5.0712361
-7.4371009 16.868097 -5.4287291
-7.0977283 16.978058 -5.6786175
-7.219481 16.918997 -5.7149739
-6.761013 17.122631 -4.9689412
-6.5467396 17.204617 -5.2252355
-6.611515 17.177368 -5.5611553
-6.7277184 17.125546 -5.9150624
-6.3303056 17.279613 -4.8831258
-6.1689091 17.339334 -5.4910359
-6.3226533 17.301958 -5.8634725
-6.0399365 17.405418 -5.7668691
-7.2242684 16.964392 -5.7914972
-6.9203811 17.088795 -5.7131076
-6.9653354 17.069138 -6.043066
-6.515871 17.236774 -5.3350153
-6.3332605 17.310822 -5.6213923
-6.1969342 17.361233 -5.2739191
-6.8872561 17.132841 -6.1703277
-6.9324918 17.10322 -5.8521209
-6.7435117 17.184372 -6.1473174
-6.4332595 17.293306 -5.4574981
-6.2430696 17.372051 -5.7460113
-6.3351312 17.338196 -5.7552276
-6.36588 17.319349 -5.1294341
-7.3360281 16.969866 -5.3540893
-6.8920636 17.144629 -5.9151244
-6.9355516 17.078314 -5.6189203
-6.6255131 17.215876 -5.8315272
-6.4207602 17.291872 -6.1340013
-6.434236 17.2883 -5.2345581
-6.2145948 17.39537 -5.8013244
-6.0240355 17.462124 -5.7394423
-5.328783 17.716888 -5.6403489
-6.9104323 17.17057 -6.630197
-6.7460928 17.189068 -5.9477434
-6.7323141 17.192873 -5.3202744
-6.2328086 17.373726 -5.5127063
-6.0244107 17.501675 -5.5078826
-5.6516938 17.657522 -5.1235442
-5.6198521 17.664433 -5.7560821
-5.5506802 17.66066 -5.7208724
-4.6268387 18.050718 -5.9190764
-4.16853 18.227064 -5.8568816
-4.2268043 18.205513 -5.8643279
-7.7268429 16.970497 -6.4781427
-7.0364709 17.237457 -6.6977167
-6.4907045 17.442087 -6.2703791
-6.2398076 17.528536 -5.9108515
-6.0096016 17.632238 -6.1833429
-5.4239516 17.857283 -6.0901423
-4.6720166 18.154049 -6.6165705
-7.7564974 17.000494 -6.513895
-5.4534693 17.867264 -5.7755527
-5.2731194 17.962078 -6.7097569
-4.96732 18.035364 -5.6985874
-7.7220955 17.009706 -6.7749271
-7.6653829 17.013464 -6.7731571
-7.7358265 16.969673 -5.5418415
-5.9134207 17.698872 -6.1602192
-5.5570073 17.843536 -6.401392
-5.631978 17.798668 -6.1190128
-4.6543255 18.168514 -5.9561787
-3.967129 18.454086 -6.1642094
-7.7567744 16.947529 -5.3991795
-7.6395392 17.036108 -6.3039646
-5.4018087 17.888695 -5.8595676
-4.6123266 18.184565 -5.5452061
-4.3328218 18.325426 -6.7878513
-7.3342175 17.134829 -5.9313192
-6.0126758 17.630568 -5.7455893
-5.8480639 17.714333 -6.0304575
-5.5253301 17.840141 -5.9848599
-5.2353621 17.962927 -6.5841193
-5.003653 18.037024 -6.2411337
-4.8251233 18.100597 -5.9417043
-6.2593479 17.539778 -6.6593828
-6.2210975 17.541725 -6.0221758
-5.382247 17.851625 -5.6133623
-5.1213055 17.966534 -6.2163897
-4.3921852 18.261671 -6.1448689
-4.3268557 18.29055 -5.813827
-4.2764087 18.299789 -5.4823198
-7.3343673 17.123838 -6.3923278
-7.4281554 17.079475 -6.1413336
-7.2774119 17.14188 -6.3865294
-7.2302084 17.079258 -5.7314291
-7.0564547 17.243698 -6.9943786
-6.2324452 17.533098 -6.2693419
-6.190906 17.540644 -5.6382995
-5.9541984 17.630644 -5.6130309
-4.611352 18.142691 -6.1127868
-4.3596945 18.239477 -6.0846496
-4.4073133 18.20351 -5.4670653
-4.2819147 18.264019 -5.4505553
-4.3160601 18.249945 -5.7687316
-4.2129211 18.297672 -5.7561889
-4.1203866 18.331369 -5.4337707
-7.6390529 17.006844 -6.4419975
-6.8289585 17.359108 -6.9501023
-6.063714 17.630606 -6.5375371
-5.8483057 17.697315 -5.9211397
-5.5996599 17.788269 -5.9291325
-4.9352555 18.076069 -6.4743943
-4.8988557 18.075691 -5.8446336
-4.7413692 18.120577 -6.1379161
-7.6542172 17.006767 -6.2046247
-7.4271135 17.101896 -6.4213719
-7.4026995 17.077816 -5.820065
-6.8856134 17.357246 -7.0632963
-6.8493118 17.330814 -6.1320095
-6.8382111 17.320143 -5.8008842
-6.6158037 17.450075 -7.0447416
-6.6062098 17.428579 -6.1039457
-6.4320078 17.534136 -7.0226164
-6.2129354 17.572414 -6.3631096
-5.6377964 17.794497 -6.0112901
-5.415586 17.88323 -6.0440087
-5.1284094 17.986891 -5.9466414
-4.7002873 18.159386 -6.232049
-4.4195671 18.232464 -5.6268034
-4.2897301 18.291063 -5.6152372
-4.2486048 18.320736 -6.2353239
-4.2286386 18.300365 -5.6171293
-4.1699905 18.335127 -5.9229765
-4.0555944 18.389946 -6.2269926
-7.2620602 14.728241 -6.2176094
-5.9418693 17.642445 -6.3117266
-6.1234059 17.751619 -6.1324115
-7.724679 17.128767 -6.8331261
-6.4410262 17.619047 -6.0626793
-6.8310184 17.493898 -6.1215291
-4.3006277 18.565041 -7.2700887
-7.0172968 17.081758 -5.3772998
-7.7158804 17.131855 -6.5314803
-6.3175859 17.605963 -6.2767816
-4.2521896 18.487467 -6.436235
-5.7131934 17.628376 -6.0939422
-5.9415946 17.782978 -6.8847528
-6.3683796 17.64155 -6.0980587
-6.5361643 17.416073 -6.4899673
-6.0360889 17.448696 -5.1236382
-6.8437552 17.161207 -6.6547017
-7.5252275 16.82494 -5.775208
-7.7159657 17.000267 -6.3195591
-6.599834 17.44692 -5.9381623
-6.24932 17.627869 -6.629725
-7.6200542 17.046131 -6.4121385
-3.9975641 18.508863 -6.2973781
-5.8786759 17.489397 -5.5345392
-5.8724575 17.825163 -7.2703214
-4.129858 18.59704 -7.2182808
-7.7423234 16.588711 -4.6487288
-8.3623447 16.215157 -5.4285254
-5.1359735 18.025345 -6.9224095
-5.8255463 17.530197 -5.7251449
-6.0099158 17.7665 -6.0033331
-5.8304567 17.815344 -6.1844096
-7.0425072 17.066528 -5.8767691
-5.9164581 17.661268 -5.6494694
-5.5000353 17.969959 -6.0478377
-5.3425326 18.074711 -6.4209719
-6.9685946 17.073738 -5.4064546
-6.8256855 17.308559 -5.7040572
-7.0513611 17.08362 -5.6200194
-6.9025726 17.102242 -5.356082
-7.3016825 16.889774 -5.7320027
-6.6178479 17.547741 -6.275733
-7.0435743 17.261166 -6.6607957
-5.0504384 17.993393 -5.8526292
-5.3524132 17.935925 -7.0541782
-4.0005646 18.383459 -5.4469061
-3.9652605 18.43429 -5.5279179
-6.5670495 17.436886 -6.1351895
-6.9303389 17.082729 -5.0334926
-4.0095873 18.401358 -5.9121122
-4.5567307 18.27075 -5.8707185
-4.5641322 18.289789 -6.3706255
-4.5238762 18.270306 -6.4794617
-7.193943 14.725441 -6.1560249
-6.3205647 17.609262 -6.332284
-4.7123756 18.15497 -5.9613667
-4.4799404 18.362705 -5.7862101
-5.0081272 18.023743 -6.0231795
-5.7801499 17.762272 -6.6547947
-7.0430522 17.388729 -5.9594073
-7.5404119 17.035154 -5.8446112
-6.6717539 17.407154 -6.6258278
-7.2964749 14.759445 -6.3691597
-5.5322533 17.991817 -6.1998453
-6.4372973 17.452559 -6.6086364
-6.9321566 17.29932 -5.8694811
-6.4435992 17.35181 -5.8985686
-6.3941302 17.511425 -6.0855131
-6.454421 17.524628 -6.5531998
-7.7578645 16.626625 -5.293016
-6.1776743 17.719547 -7.1016459
-5.7490501 17.896692 -6.8393135
-6.4136052 17.490854 -6.4284506
-5.8424902 17.715923 -5.7333708
-6.4326324 17.474052 -5.8044095
-4.719182 18.314352 -5.9719319
-7.0275726 17.04978 -5.7351332
-7.0390878 17.124252 -6.3258147
-6.6314368 17.596607 -6.9363499
-8.3542461 16.292683 -4.9548197
-7.2348318 16.970127 -5.1561356
-7.040277 17.024122 -5.3222585
-6.6876931 17.573153 -7.0546427
-6.9684992 17.132502 -6.664804
-5.8339057 17.486454 -5.4143147
-5.8361983 17.518082 -5.3652201
-5.8739629 17.803644 -6.4883647
-7.015769 17.368496 -5.7606983
-6.7339773 17.326155 -5.7365494
-6.3267832 17.598188 -6.6063776
-6.7285128 17.503361 -6.7845378
-5.8333025 17.872183 -6.6239181
-6.6439137 17.420902 -6.2503147
-6.342494 17.510803 -6.6680193
-7.8246603 17.16164 -7.0598812
-5.7764678 17.538837 -5.0648732
-6.687324 17.258438 -6.262033
-7.5428014 16.841291 -5.5367365
-6.7749844 17.519321 -6.4357119
-6.0912986 17.763737 -6.6262779
-6.5267048 17.462656 -6.4210172
-7.7766342 17.13299 -6.4395709
-7.710638 17.095016 -6.3399124
-7.0568967 17.041891 -5.7518897
-7.3504138 16.941599 -5.5138154
-7.5003157 16.947649 -5.765573
-7.6057258 17.134584 -6.5872064
-6.0811086 17.680714 -5.6670403
-4.6191354 18.357821 -6.3088598
-5.6242328 17.600636 -5.7321558
-7.317174 17.235727 -5.8785014
-5.8344817 17.807673 -6.579699
-6.6537075 17.488113 -5.8772807
-4.0493488 18.397171 -5.599905
-4.3391285 18.114388 -5.7597442
-7.3702736 17.231937 -6.1774516
-6.7415085 17.159363 -5.6977472
-5.414495 17.82378 -6.4518204
-6.5970879 17.619312 -6.7199636
-4.0192571 18.462021 -5.6907721
-7.0079384 17.02235 -5.653893
-6.9600248 17.270416 -6.2008295
-5.8484507 17.794504 -6.7338243
-5.0561008 17.991047 -5.713243
-7.0134363 17.289797 -6.1379952
-5.7985039 17.748985 -6.8608689
-8.3448238 16.329885 -5.260715
-4.541326 18.373652 -6.3500257
-5.6062579 17.918789 -6.0239935
-7.3081608 16.969534 -5.6286459
-7.0496988 17.396034 -6.0546994
-6.8527179 17.459246 -6.2656012
-6.5696435 17.174324 -6.1881032
-4.6858487 18.358772 -6.9569254
-5.0035219 18.023987 -6.5127764
-5.7757993 17.871578 -6.3467979
-5.0414839 18.159437 -5.8200855
-6.6087875 17.232693 -4.9718843
-4.271131 18.382845 -5.792233
-7.3083072 17.195702 -5.9584212
-8.0900497 16.509104 -4.6775131
-6.6193352 17.561905 -6.0487223
-6.0198264 17.801796 -7.2411599
-5.5159588 17.926208 -7.1282945
-7.5752077 17.20787 -7.1227102
-6.8466969 17.144447 -5.1636443
-7.6788831 17.17415 -6.4525104
-4.3722677 18.362795 -6.0850797
-7.1984406 16.974726 -5.7829976
-5.1388001 18.019831 -7.0159702
-5.546288 17.919733 -6.5816522
-7.5113955 17.078184 -6.2759528
-8.3541737 16.270247 -5.5416427
-5.0008125 18.052382 -5.9066257
-6.8049006 17.278467 -5.2900772
-5.4574523 17.879898 -6.4153843
-6.62535 17.42083 -6.7154655
-7.6240983 17.061352 -6.3094215
-8.4926014 16.269512 -5.3349786
-4.5804415 18.256981 -6.804575
-5.096086 18.106689 -5.8070641
-6.409863 17.235271 -4.9171233
-4.7827606 18.086349 -6.4241714
-7.5297165 17.044855 -6.2954302
-6.8095326 17.367962 -6.5614133
-5.9328542 17.469492 -5.5440607
-6.3017135 17.551754 -6.4099827
-7.0538321 17.21455 -6.050714
-7.5540738 17.168545 -6.8926873
-6.9173298 17.302227 -5.6321535
-6.5369873 17.581457 -6.0481758
-4.8318796 18.137383 -6.903079
-5.9556298 17.766743 -5.7474327
-4.5312753 18.181517 -5.8144975
-6.2064543 17.361525 -6.2409601
-7.61059 17.163599 -5.9564686
-5.6294613 17.991693 -7.2278509
-5.9228449 17.499418 -5.7231612
-7.4409971 17.261572 -6.549346
-7.4379129 17.271332 -6.6125917
-6.7272201 17.516415 -6.5826378
-6.7166519 17.455379 -6.2713799
-6.1464987 17.470247 -6.1642547
-4.6697392 18.115561 -5.8046036
-5.8124018 17.796511 -5.8587446
-6.4963279 17.225201 -5.5309429
-4.561707 18.194172 -6.6007013
-7.1724796 17.344408 -6.0064855
-6.4185429 17.608654 -5.9864874
-4.6475363 18.167183 -5.8779745
-4.2553926 18.419058 -6.802855
-4.0355368 18.40419 -5.5368114
-6.6075602 17.415779 -6.9387932
-7.0097094 17.469061 -7.3149538
-5.9198804 17.809534 -6.1448097
-5.7076945 17.799793 -6.0251293
-6.8431077 17.344969 -5.6414914
-4.8294549 18.07612 -5.9978571
-4.7132821 18.274502 -5.7601786
-6.3060637 17.497578 -5.7233477
-7.1403432 17.382351 -7.125701
-4.8183289 18.256979 -5.9561238
-7.4455152 17.19577 -6.8967156
-5.1911392 17.987511 -5.7076492
-6.2010679 17.754295 -6.680213
-6.925827 17.296749 -6.5063105
-7.409461 17.299065 -6.9578414
-7.6742854 17.102432 -7.2400498
-7.1187716 14.772809 -6.1615791
-5.1653852 17.991613 -6.6075296
-6.9408579 17.460625 -6.8676243
-6.6639309 17.275238 -5.2941375
-6.8633828 17.112602 -6.0069966
-4.0619602 18.485291 -6.4114957
-5.5434003 17.898861 -6.0619564
-5.6271935 17.949532 -6.1395531
-6.6080465 17.218517 -5.6003342
-4.6208982 18.190964 -6.160624
-6.1942735 17.752954 -7.2061529
-7.613441 16.80547 -5.5379643
-4.5584846 18.175577 -5.631402
-5.648571 17.965429 -6.7838092
-4.8400483 18.090488 -5.6630883
-4.7457809 18.292835 -6.1779332
-4.6012559 18.255533 -6.0445986
-4.52351 18.453526 -7.1244664
-4.5198054 18.220022 -5.9344606
-6.9125566 17.177118 -5.6566253
-6.1140571 17.69368 -5.8801188
-6.6504288 17.557272 -6.3628101
-6.7390904 17.386919 -6.4604158
-6.847034 17.398811 -6.4477124
-4.0730848 18.472885 -6.5226641
-6.6326871 17.404978 -6.4695859
-5.8890963 17.781034 -6.5812249
-5.4539309 17.962847 -6.0545621
-6.7665687 17.5266 -6.6764684
-7.3848186 17.254408 -6.2458258
-6.735816 17.332853 -5.6807184
-4.6308455 18.404903 -7.1024327
-5.4347839 17.994179 -6.6616378
-5.0645399 18.026917 -6.8605976
-7.6194773 16.986002 -5.3500781
-6.7793732 17.117641 -5.5956044
-6.2049303 17.773256 -7.3237057
-5.3204989 18.063662 -6.1079884
-7.9668679 16.498753 -4.6703205
-7.5150647 17.264156 -7.1326761
-4.2900534 18.547096 -7.0318561
-8.0925102 16.423409 -4.7908993
-6.9398932 17.339565 -7.0667143
-6.2378073 17.752438 -6.9863238
-5.0967913 18.060677 -6.0185189
-4.3515911 18.543264 -7.2581868
-4.7825427 18.114731 -6.6322565
-7.6035213 17.1602 -6.0808268
-4.6703649 18.338497 -5.9810872
-6.663887 17.17053 -5.2407537
-6.415771 17.615494 -6.5815039
-4.4941411 18.177704 -5.4721618
-5.1456552 18.118412 -6.1067572
-6.2533994 17.341736 -5.6060114
-5.2422147 17.934155 -6.0279827
-7.691843 17.14587 -5.9588704
-5.6571178 17.890287 -5.765377
-7.5987139 17.256798 -7.1494565
-5.4430294 17.825701 -5.849473
-4.4462385 18.28434 -6.4724216
-7.1261811 17.260151 -6.1057649
-4.9888439 18.203423 -6.2154622
-7.5216546 17.231689 -6.6342287
-7.3258762 17.289797 -6.7394295
-6.880702 17.339863 -6.4113889
-6.8019123 17.164219 -4.9896941
-6.2119584 17.749617 -6.7049923
-4.5377593 18.203079 -6.1659718
-6.5718288 17.220814 -5.9369283
-6.8855247 17.269402 -6.0340514
-6.6347532 17.623297 -7.3094945
-7.4439955 17.183739 -5.8808513
-4.0322723 18.525749 -6.7155404
-5.4995799 17.850246 -5.7060575
-7.3435726 16.898275 -5.4104428
-6.7793002 17.398132 -7.0537748
-6.5364914 17.255396 -5.2777009
-6.9179835 17.480198 -6.7118044
-7.1331849 17.295273 -6.4475532
-5.418642 18.001213 -6.2722187
-8.3406334 16.220987 -5.5275488
-7.517622 17.267441 -6.8653784
-5.4165454 18.066792 -7.2449408
-7.8915648 16.482922 -4.7165413
-6.2224636 17.770954 -7.0830846
-5.033361 18.173578 -5.9094319
-6.2741365 17.781834 -7.447762
-6.944068 17.247902 -5.7280211
-6.447639 17.486084 -6.1106277
-6.4275656 17.265743 -4.8528066
-5.4131403 17.913813 -6.942286
-7.8262095 17.010815 -6.3867784
-6.1381063 17.682894 -6.2702203
-7.3117495 16.914999 -5.0787663
-6.9815054 17.266333 -6.0312791
-4.6429949 18.131632 -6.4292459
-6.0463057 17.410194 -5.4464588
-4.6622696 18.294296 -6.2391372
-4.788187 18.213814 -7.0221467
-5.3234291 17.993767 -6.8706574
-4.0587578 18.50013 -6.1076756
-7.6176424 17.048368 -6.6003866
-4.5950499 18.281271 -6.5985589
-7.2116251 16.954906 -5.3725362
-6.3323374 17.286373 -5.4799428
-4.5265517 18.192423 -5.5544271
-5.0210447 18.118496 -6.2783074
-7.6271505 17.17292 -6.8352623
-7.3051853 17.184673 -6.2628293
-4.0502882 18.337381 -5.7922134
-4.8447156 18.301476 -6.93538
-5.919445 17.778019 -7.0220323
-4.8213096 18.31608 -7.0514078
-6.1358995 17.727308 -7.2607999
-6.3416905 17.527161 -6.9053459
-4.7524323 18.108164 -5.6567421
-5.0821433 18.036526 -6.5545139
-4.8565063 18.191986 -6.4740567
-6.4183812 17.668995 -7.1944342
-4.8443975 18.060043 -6.145844
-5.8222694 17.80426 -6.9649963
-5.2466726 17.765902 -5.6466918
-7.4722652 17.110786 -6.5909519
-4.7983327 18.255163 -6.1344166
-5.4282541 17.840984 -6.2511797
-5.5815439 17.958448 -5.7971973
-7.0230389 17.237694 -5.8925395
-5.2177405 18.124786 -6.4351168
-6.8394117 17.108566 -5.6464415
-6.6969476 17.560923 -7.1828375
-7.5243468 17.015896 -5.3485332
-4.8446007 18.115807 -6.7860398
-4.3268657 18.419226 -5.8288741
-5.5025573 17.923862 -6.2815423
-7.2707181 17.31246 -6.8540611
-4.6963634 18.321705 -6.4339161
-6.8858972 17.457764 -6.5626593
-4.6384563 18.310686 -6.3680925
-4.3199797 18.424194 -5.782629
-7.0885005 17.426428 -6.6631551
-6.3119478 17.688786 -6.2453179
-6.9342446 17.311289 -5.9493527
-5.3252082 17.873457 -6.1776671
-5.5605497 17.777988 -5.8248558
-5.9466009 17.80921 -7.1046367
-6.8356905 17.474726 -6.0428662
-4.0392079 18.494749 -6.6156573
-6.9356766 17.294081 -6.1242557
-6.6343088 17.584091 -6.4281125
-4.5431767 18.210184 -6.2589445
-6.9242215 17.291748 -6.3299036
-7.3235016 17.159878 -6.4679985
-5.0175409 18.248104 -7.0172887
-5.1765909 17.737408 -5.5210805
-5.12921 18.073336 -6.2797723
-6.3476057 17.645567 -6.9384732
-6.3276711 17.587654 -5.7312374
-7.4379706 17.212883 -5.9664397
-5.5217838 18.029486 -7.0092945
-7.4236698 17.182255 -5.6660495
-6.6363177 17.197515 -5.9983454
-6.1141591 17.608381 -6.3528881
-7.134409 17.29488 -5.8817058
-6.1051378 17.701412 -6.8907342
-5.7562828 17.715492 -6.2920732
-4.8101749 18.264364 -6.727047
-7.2895722 17.32896 -6.631731
-5.9785557 17.526777 -5.8194671
-4.8348341 18.278454 -6.4530187
-4.6202035 18.288271 -6.6896939
-5.511281 17.894258 -6.3215055
-5.0320263 18.110165 -6.9534822
-4.5985875 18.326132 -5.8401661
-7.3240004 14.67745 -6.2198429
-6.7244105 17.564899 -6.9525142
-4.8576593 18.314531 -6.8355794
-7.3290558 17.166977 -7.0291481
-6.9787974 17.087194 -5.201364
-5.0160308 18.093971 -6.3407431
-5.4801478 17.932463 -7.0532017
-4.611804 18.186632 -6.2543921
-5.4214664 18.060062 -6.7048512
-6.4270997 17.599117 -6.3161178
-6.7395205 17.369076 -6.1376276
-5.57372 18.000305 -6.7447166
-6.635654 17.389006 -6.0213766
-4.0509892 18.487848 -6.2256756
-5.9311128 17.461246 -5.4189382
-5.8879542 17.810183 -5.8346148
-7.3502727 14.673182 -6.0984287
-7.6363411 17.226269 -7.1420774
-5.2389565 17.727444 -5.549561
-6.7553072 17.329571 -6.3290648
-4.2133975 18.521992 -6.7207599
-7.3330574 17.303619 -6.5570126
-5.8271842 17.70187 -6.3234577
-7.119554 17.024406 -5.4197736
-5.0147133 18.106625 -6.6368246
-6.0390015 17.430336 -5.2413874
-6.6076722 17.400396 -5.753377
-5.49054 18.049417 -7.1216998
-5.6581016 17.995523 -7.3992267
-5.7432504 17.927223 -6.7299871
-5.8970022 17.915955 -6.9048543
-6.9122124 17.494392 -7.1740885
-7.6236124 17.219612 -6.7605243
-7.1304479 16.988028 -5.0346556
-7.1062613 17.194883 -6.3953791
-4.7112694 18.183794 -6.1372108
-6.2774882 17.299873 -5.8322835
-6.8264585 17.156069 -5.8399444
-5.7240028 17.843296 -6.764708
-5.3393106 18.034901 -6.6714439
-5.492878 17.87104 -6.6412992
-4.5856733 18.354637 -6.4435596
-6.4557424 17.499357 -6.9121385
-4.3903971 18.087215 -5.7704864
-7.0222921 17.050325 -6.2043548
-7.391336 17.243074 -6.0962076
-6.7077093 17.406822 -5.920331
-7.4696145 17.150658 -6.6667466
-7.1298981 17.067871 -5.3491683
-5.9394684 17.679295 -6.0474548
-5.2334089 17.990021 -6.337492
-5.736414 17.776714 -6.3413515
-5.0383205 18.075035 -6.5876241
-7.4728737 17.235426 -6.3236866
-7.3420577 17.244934 -6.8900018
-6.8250146 17.495922 -6.5775108
-5.5961123 17.861771 -5.6712518
-7.0040193 17.065571 -5.1050959
-5.9422174 17.876291 -6.8261876
-6.7117028 17.364571 -5.7648516
-4.8397694 18.257328 -6.3356485
-5.2420721 18.126514 -6.5550189
-6.7396526 17.385439 -6.3153725
-6.4934177 17.284395 -5.8507934
-7.0499063 17.382421 -6.2586498
-7.1493883 17.005377 -5.1319795
-7.7835946 16.835083 -5.5006933
-7.433826 17.033247 -5.3531942
-5.5472078 17.839796 -6.3354521
-4.2421126 18.398157 -5.678515
-6.87117 17.10907 -5.8327117
-6.9256954 17.503036 -7.2560887
-5.5157332 17.951445 -5.8117237
-7.0530019 17.262533 -6.2087498
-7.7858386 16.757883 -5.3281465
-6.7928724 17.131372 -5.7114191
-6.5470214 17.192045 -6.2169881
-6.2617159 17.318342 -5.7819448
-7.1373954 17.432177 -7.2300749
-6.1436296 17.767744 -6.3715382
-6.5020347 17.551804 -5.8753886
-6.1269011 17.779236 -6.2379055
-6.2130389 17.700439 -5.7826405
-5.5745835 17.833969 -6.8458543
-5.6774693 17.95492 -6.5835118
-8.0022306 16.502041 -4.7414937
-4.6121712 18.31749 -5.7697611
-5.7643924 17.828577 -7.065001
-5.8195066 17.957451 -7.4694371
-6.3143234 17.660122 -5.7802906
-6.3963099 17.443493 -5.26548
-7.7605228 17.135496 -6.6615763
-7.5727444 17.153151 -6.1796489
-5.6736002 17.92848 -6.1789913
-5.5365877 18.0084 -7.2496204
-7.5062923 16.868801 -5.5684419
-6.7414856 17.382847 -6.2661924
-6.4403138 17.676662 -6.9681458
-7.5291896 17.215681 -6.3201466
-7.0372071 17.245911 -5.7261643
-7.2152061 17.30958 -6.7883525
-7.0701861 17.260244 -5.8252473
-5.774086 17.541553 -5.3850484
-7.2415252 17.299587 -6.2517052
-4.9584599 18.010654 -6.1340189
-7.6226754 17.114988 -6.9390244
-5.4710379 17.82765 -5.7777643
-5.5339146 17.886826 -5.9329987
-6.1340957 17.592201 -6.2277164
-6.6328259 17.277971 -6.2526336
-4.1436572 18.455462 -6.8309922
-6.6861005 17.553007 -6.1497273
-5.5900917 17.973969 -6.9681358
-6.5191598 17.293701 -5.9087443
-4.512496 18.194294 -6.4153075
-6.318933 17.667986 -6.1011715
-7.0253592 17.420921 -6.3628969
-7.0281491 17.26852 -6.5124044
-7.5954628 17.216446 -6.6156178
-7.5577555 17.021763 -6.1367121
-5.932066 17.670008 -5.7305875
-5.7250819 17.733879 -6.2318344
-4.2565761 18.507 -7.0648718
-7.5518808 17.027824 -6.2371597
-6.6900311 17.196302 -5.8842025
-6.5683126 17.663826 -7.3503537
-5.7760134 17.820183 -5.9652581
-5.0192146 17.8188 -5.6993952
-6.823041 17.180601 -5.9177909
-5.6885343 17.792109 -6.8527513
-7.0125957 17.054951 -5.0213962
-7.2162218 17.248701 -7.0849638
-7.3384514 17.153681 -6.5685396
-4.7199607 18.297295 -6.6296372
-6.6039071 17.529779 -6.1736064
-6.8678684 17.122005 -5.2377176
-6.2771277 17.564138 -6.5221806
-6.4008608 17.602642 -6.6050081
-4.737855 18.33729 -6.5611043
-6.1255002 17.617903 -6.0639157
-4.7380977 18.212154 -6.0743375
-5.5359135 17.834724 -5.7637577
-4.7299562 18.279715 -6.3324614
-6.3180408 17.680004 -6.4631233
-4.7509503 18.142311 -6.2683134
-3.997726 18.42778 -6.1755462
-5.9227018 17.814764 -6.6201649
-7.3081641 17.29985 -6.9097919
-5.6685853 17.852936 -5.9690423
-4.4045477 18.435532 -6.0420003
-4.0673943 18.458595 -5.496932
-4.021595 18.365101 -5.778326
-5.5066671 17.848408 -6.1071568
-7.2384176 17.277706 -6.8910394
-7.051806 17.444481 -6.9430103
-6.7164731 17.408815 -6.5120168
-6.5506387 17.603666 -6.8819952
-7.5189767 17.15744 -5.8805766
-6.2507205 17.561243 -6.4043241
-6.446538 17.562172 -5.8798442
-4.6965346 18.375561 -6.8743978
-7.2325482 16.976871 -5.4615355
-6.7402153 17.511148 -6.041347
-7.6187301 17.207165 -6.5344019
-8.3619499 16.256159 -4.6487737
-4.0537214 18.591026 -7.0954909
-5.8604527 17.920296 -7.361012
-5.8036623 17.919838 -7.0319176
-6.7072887 17.132368 -6.226357
-8.4051046 16.245232 -4.8609838
-7.3243713 17.157993 -6.5900559
-6.8244801 17.361374 -6.746768
-5.5346336 17.990358 -6.5072589
-7.3201866 17.288664 -6.8533287
-7.3530412 17.301516 -7.1343503
-4.6247997 18.29377 -6.1447449
-5.8178139 17.579779 -6.1151824
-6.7558994 17.12697 -5.5804677
-6.7888508 17.129831 -4.9281545
-6.2338195 17.710918 -6.9262862
-5.7731142 17.876652 -7.2673917
-5.7085428 17.914274 -6.6545067
-7.2181334 17.381922 -6.9242282
-4.627037 18.370533 -7.0494452
-4.2490177 18.417051 -6.6071954
-6.6342678 17.45944 -5.6691766
-7.5315104 17.192238 -5.9466224
-5.8396382 17.91147 -7.2146063
-7.1426091 17.21394 -6.5299993
-7.0655856 17.404772 -6.7152262
-6.1871963 17.609003 -6.6914091
-5.3530569 17.927277 -6.3934727
-7.2941637 16.951101 -5.5013642
-6.7434258 17.488647 -5.9720831
-6.4184923 17.562082 -6.272429
-6.2828221 17.680973 -7.0995708
-5.1405706 18.17865 -6.4702229
-6.5798807 17.484741 -5.6674676
-6.8288817 17.489967 -6.8753219
-5.8678093 17.939539 -7.458756
-6.1411791 17.643637 -7.0000029
-6.1090827 17.70647 -5.7661171
-6.2609243 17.733681 -7.0107784
-6.2152891 17.603168 -6.8860765
-6.4318538 17.441988 -5.8735733
-6.3931942 17.676981 -6.4420323
-5.2266049 17.921616 -6.2253008
-6.0001578 17.771008 -5.7645941
-6.533021 17.425571 -6.0335808
-5.2519073 17.925526 -6.1767998
-6.1299262 17.822756 -7.1328855
-5.1981254 17.906441 -5.8240738
-6.8285089 17.317192 -6.9719176
-6.440403 17.631592 -7.230845
-6.0984898 17.820728 -7.3354244
-5.8725004 17.845167 -7.1024394
-7.5066562 17.066696 -6.0885301
-5.3254519 17.912563 -6.8554306
-6.2011194 17.667704 -6.5748773
-6.146265 17.791864 -7.0070081
-7.2535267 17.236069 -6.4084764
-4.3219414 18.507059 -6.976202
-6.5378971 17.634573 -7.0677042
-8.0601349 16.410507 -4.5559311
-6.8715429 17.537668 -7.0095296
-5.3217301 18.017757 -6.043047
-5.6404486 17.930513 -6.1888995
-7.2523813 17.177917 -6.5503449
-4.1949162 18.374964 -5.9813752
-7.2638125 17.365763 -7.1229815
-4.2155352 18.414757 -6.5406137
-6.1404471 17.780413 -6.9401212
-6.540617 17.616869 -6.9374046
-7.0525208 17.029591 -6.0668492
-7.2354813 16.997639 -5.6251311
-5.7691569 17.932846 -7.0737057
-6.6249619 17.196337 -5.9701366
-5.3332143 17.939344 -6.6259184
-6.0944233 17.824366 -6.8672566
-7.1277132 16.991085 -6.0359201
-7.1954689 16.964064 -5.0573201
-5.343668 18.005697 -6.2798839
-5.6210966 17.79084 -5.7358136
-6.7550397 17.545202 -6.901485
-4.1694236 18.441616 -6.4709902
-4.1439781 18.324888 -6.0649352
-4.3348713 18.277033 -5.9306669
-6.3160315 17.4744 -5.2613297
-3.9729311 18.555687 -6.5477057
-5.9784007 17.6989 -6.9908476
-5.3554859 18.016617 -5.7838707
-5.6234026 17.965948 -6.6069431
-6.5031714 17.630661 -6.3598194
-6.333673 17.750525 -7.1227498
-5.0430403 18.172188 -6.3150492
-6.1280293 17.706371 -6.6415057
-7.4566207 16.947252 -5.4456267
-4.455574 18.218292 -5.516706
-5.5293064 17.977163 -6.973731
-5.201447 18.07584 -6.0973473
-5.3783121 17.887455 -6.7272882
-7.2236342 17.224224 -6.3828034
-5.3146772 17.90041 -5.9377832
-4.738029 18.104799 -6.7595458
-4.7744246 18.137684 -6.5284872
-5.2409358 18.077055 -5.8143787
-4.3511252 18.288048 -5.5212412
-6.3444276 17.496609 -5.8201485
-4.7254529 18.131098 -6.6260309
-5.3685083 17.941896 -6.9129734
-5.8180981 17.894335 -6.7251959
-5.3246884 17.976315 -6.5746732
-5.0847635 18.149429 -5.8996663
-4.4395671 18.419947 -6.3565063
-4.734097 18.16913 -6.8425131
-4.8076272 18.156195 -6.8394871
-7.2385168 17.316212 -6.021832
-6.0206289 17.635599 -6.8389826
-4.2011909 18.438063 -6.4018521
-5.1242037 18.180077 -6.9069681
-7.2234325 17.328281 -6.3366566
-6.6286035 17.392054 -5.8239646
-5.2714887 17.932335 -6.7078791
-4.6161203 18.358675 -6.200211
-5.9283867 17.878588 -6.6016927
-5.4539585 17.95505 -6.897387
-4.2530003 18.389118 -6.2294869
-7.0114899 17.260513 -5.8917332
-5.3104582 17.915941 -6.0635161
-7.0293074 17.425045 -6.8605103
-5.1074133 18.17565 -6.7221241
-7.7321711 16.7248 -5.5063558
-7.6951723 16.941357 -5.4010715
-6.794682 17.374508 -6.6470737
-5.3474298 17.960619 -5.9527574
-7.3388453 17.262228 -6.1007853
-6.6399384 17.516142 -5.7246532
-6.9955177 17.448565 -6.5529132
-6.8269634 17.124111 -6.0977263
-4.0327682 18.41441 -5.8566074
-7.0015097 17.460239 -6.9406595
-4.40522 18.385368 -5.8384161
-6.3314395 17.507 -6.1355
-6.4892755 17.588219 -5.7772999
-6.0025253 17.818647 -6.9329796
-5.6099443 18.001385 -7.0964823
-4.3111792 18.400978 -6.3945279
-4.5481834 18.338158 -6.1421471
-6.981638 17.14469 -5.9951262
-6.8600965 17.497887 -7.1507955
-7.1711311 16.999983 -5.7901826
-7.2140818 17.272913 -5.8787456
-5.6283073 17.900486 -7.0924058
-5.8699164 17.56543 -5.8023772
-8.4328241 16.295563 -5.3977108
-7.0373917 17.025402 -5.016129
-6.5118527 17.462618 -6.291533
-4.9130034 17.864773 -5.6786432
-5.869565 17.732906 -6.6657133
-6.8420448 17.117502 -5.3955622
-7.4351907 17.229034 -6.5403991
-6.5383158 17.433197 -5.9645553
-6.7882504 17.144995 -5.9762664
-6.8150625 17.107845 -5.5833058
-4.9248552 18.21674 -6.4257298
-6.8235545 17.468929 -5.9645147
-6.4097424 17.279922 -5.5523982
-6.531508 17.571423 -5.9797735
-6.8067203 17.524824 -6.9395199
-6.0389123 17.797054 -6.638473
-7.8112965 17.177629 -7.1160183
-4.9452028 18.081333 -6.8510585
-6.8067961 17.557394 -7.2754064
-6.1960106 17.339073 -6.094811
-6.938786 17.263744 -6.668817
-5.9461927 17.788801 -6.3270025
-5.4726849 18.055637 -7.0083179
-5.4019628 18.070189 -6.8754435
-6.6206684 17.577484 -7.1378469
-6.6326132 17.605492 -7.0587091
-6.1602716 17.731548 -6.1198483
-7.3839216 16.935219 -5.1488738
-6.6506901 17.532913 -6.7847514
-5.5252986 18.002167 -6.3959522
-6.8232284 17.386435 -6.1791053
-5.4851513 17.999889 -6.6277227
-6.5235167 17.445972 -7.0125933
-6.3969407 17.668074 -6.2078938
-4.2498012 18.439722 -6.7042203
-4.5159168 18.25144 -6.8174887
-7.1296134 17.360216 -6.1105509
-5.7091827 17.951046 -7.0843668
-6.4222412 17.617836 -6.1568184
-5.7218261 17.730694 -6.1370816
-4.7330723 18.126329 -6.4850664
-7.2151527 17.196598 -6.1572599
-6.8453045 17.479233 -6.4355021
-4.2405405 18.463326 -6.1472402
-4.931798 18.070749 -5.9321146
-6.0085454 17.462954 -5.427207
-6.4400239 17.241177 -5.54493
-5.9993782 17.45196 -5.2983251
-4.9342375 18.091625 -5.7770295
-5.8341064 17.710533 -6.8435111
-5.6070013 17.664511 -6.4034514
-4.4884806 18.450151 -6.9995074
-6.7780061 17.377392 -6.9451585
-4.4711728 18.434378 -7.0661793
-4.2675343 18.520027 -6.6709065
-6.1608863 17.810261 -7.4040074
-5.9407458 17.952339 -7.5056233
-4.1191769 18.518908 -6.4419036
-4.1601973 18.556221 -6.7062807
-4.1471853 18.583389 -7.0456696
-4.1147637 18.555515 -7.0947227
-4.1194439 18.560116 -6.3029943
-4.1242833 18.570023 -6.4387546
-4.1039186 18.55929 -6.1070614
-7.2351589 17.217653 -7.042985
-6.4483285 17.2712 -5.6359034
-4.2116485 18.547222 -7.0771046
-4.2228537 18.545809 -6.6785359
-4.2031059 18.553162 -6.8933263
-4.3290634 18.285965 -6.1252255
-4.3400702 18.297689 -6.2223148
-5.2409897 18.090305 -6.3400331
-6.6774187 17.534153 -6.0352945
-5.9126582 17.677761 -6.8198786
-6.2221317 17.724865 -7.2281666
-7.7893343 16.736137 -5.1851315
-5.9626303 17.848217 -6.2948079
-5.9209294 17.685892 -6.5341191
-6.0359058 17.627712 -6.3454523
-6.2780933 17.303143 -4.8711629
-6.9340277 17.498953 -7.3260317
-5.9202194 17.841564 -6.9433556
-5.953289 17.830093 -7.2381458
-5.8401842 17.875637 -6.2511144
-5.9167509 17.809147 -6.0467496
-5.8441172 17.899948 -6.9344807
-5.725359 17.915501 -6.9304028
-6.5232077 17.6576 -7.0897298
-6.4884892 17.622616 -6.192574
-5.3336906 18.025572 -5.8016119
-5.6403527 17.76157 -6.206079
-6.7830648 17.159294 -5.3345976
-6.9200258 17.440901 -5.7518482
-4.4999557 18.290422 -6.1902986
-6.7342339 17.383972 -5.8556886
-5.0689602 17.994003 -5.9362407
-5.6791949 17.862911 -6.7752061
-5.4056082 17.906933 -6.8534679
-4.3443108 18.493727 -7.0389805
-5.5342031 17.966251 -6.3252935
-6.4051509 17.379698 -5.5635467
-6.6207519 17.413012 -5.9572606
-6.0428467 17.827473 -7.0162468
-6.2384505 17.504606 -5.2573624
-6.8362947 17.540556 -7.2298031
-4.7786193 18.301933 -6.256722
-6.550108 17.426174 -6.9362121
-6.4157925 17.28673 -5.8457422
-6.6371021 17.357986 -5.5781021
-7.5188098 17.095522 -7.0278611
-4.9313707 18.219904 -5.9293904
-4.929235 18.158396 -6.059628
-6.5273237 17.599321 -6.1488481
-5.8523879 17.871574 -6.4478717
-7.4160671 17.119713 -6.5595746
-5.3282509 18.114128 -7.0297518
-7.5740967 17.082468 -6.5899777
-7.1112947 16.980495 -5.3593297
-6.5142798 17.611027 -6.7640572
-7.6236086 17.136122 -6.1794047
-6.1402612 17.688303 -6.3369808
-6.466301 17.442112 -5.6484003
-7.3002687 17.103804 -5.5144424
-7.2615371 17.197208 -6.0770173
-6.126462 17.712082 -6.0170794
-6.8150053 17.325188 -6.0101433
-4.7648945 18.231251 -5.8309898
-5.7665462 17.972239 -7.4832311
-7.6442266 16.821043 -5.3183098
-4.7435226 18.202274 -5.6722589
-6.9203477 17.384876 -6.1702795
-6.8960643 17.406528 -6.2705793
-6.9467864 17.442596 -6.3454747
-6.9472237 17.412664 -5.9711809
-6.0857615 17.615864 -5.6345506
-6.3186388 17.612461 -5.8799052
-4.9440222 18.253023 -6.9273844
-7.2268209 17.18774 -5.8116512
-6.1717901 17.587685 -6.5379429
-5.9116058 17.846863 -6.2375035
-4.4230046 18.508141 -7.2433553
-5.0127091 17.98823 -6.1390872
-6.2245584 17.32324 -5.5002522
-4.440052 18.311089 -6.5115876
-6.3563848 17.566612 -5.6690545
-4.6422696 18.20155 -6.8312097
-4.6782041 18.192509 -6.5022678
-4.7131057 18.239811 -7.0456452
-4.0983787 18.582561 -6.6069012
-6.9475265 17.398453 -6.4332924
-4.7376981 18.173615 -6.5080662
-4.9383326 18.039635 -6.3353205
-4.9138803 18.032393 -6.4547057
-7.0884385 17.354603 -6.2623253
-8.340848 16.277901 -4.8486748
-5.7663431 17.950739 -7.3790851
-4.9164467 18.075851 -6.5196986
-6.5641036 17.458094 -6.6087437
-4.4929748 18.465834 -7.2318807
-4.6204901 18.389315 -6.9455523
-4.6283836 18.424564 -7.1944356
-4.4999924 18.388174 -6.7516441
-4.5416212 18.394733 -7.0594549
-7.6188626 16.887663 -5.4743743
-4.8208437 18.3585 -7.1442342
-4.8299694 18.076475 -5.8368416
-4.320538 18.362751 -5.6790948
-5.6995797 17.879175 -6.0232782
-5.243381 17.998446 -5.9808311
-7.7950091 17.15646 -6.5230794
-4.531734 18.426352 -6.9537048
-7.5924649 16.814053 -5.4661794
-7.5291882 17.19673 -6.0832682
-6.4342833 17.487255 -5.6669521
-7.5465631 17.093678 -5.9776592
-7.8246841 17.049023 -7.2049546
-6.5216703 17.455984 -6.1308689
-7.3009782 17.277142 -6.251224
-7.5636649 17.056133 -6.407805
-7.5051999 17.08745 -6.5615482
-7.5167136 17.069681 -6.1584063
-7.5413589 17.11713 -6.3478074
-5.0534048 18.02335 -6.6633391
-6.5142007 17.478764 -6.2572956
-7.6224518 17.179884 -6.2374539
-6.0094604 17.668356 -6.3698392
-7.3396616 17.306683 -6.3224611
-8.3653793 16.212389 -4.9022446
-5.9235616 17.873983 -7.2123785
-6.2347312 17.697855 -6.6572952
-4.6123285 18.188913 -5.6443596
-6.0066094 17.719656 -6.692286
-7.3816142 17.302328 -6.9937296
-6.1313901 17.731895 -6.7889018
-5.6434522 17.924614 -7.2729154
-6.2931652 17.563789 -6.8971848
-8.3605661 16.24044 -5.321734
-6.5474195 17.515205 -6.5651183
-6.2614741 17.432373 -6.506784
-6.665597 17.490238 -6.2448263
-6.969162 17.442066 -6.8663902
-6.6499953 17.393536 -6.3355284
-6.9338326 17.4627 -6.3611383
-7.4629407 17.1327 -6.0652452
-5.8097696 17.912823 -6.858994
-6.5774407 17.596565 -6.6635494
-6.5500202 17.524769 -5.8786235
-4.8462954 18.169838 -6.3305898
-6.806087 17.473301 -6.7845073
-4.0736227 18.615595 -6.7098947
-8.0412722 16.433317 -4.6422839
-8.0794983 16.364933 -4.7432203
-4.2477536 18.58408 -7.2838216
-8.4346085 16.276505 -5.3240232
-6.0647717 17.603472 -6.4646378
-4.2725091 18.568624 -7.1750035
-7.7242594 17.105656 -6.2351546
-6.1054873 17.625992 -6.1748905
-6.1319098 17.566826 -5.9424376
-6.1393523 17.613638 -5.7562432
-4.1143284 18.422138 -5.9223957
-4.1101761 18.441614 -6.4960756
-4.1699648 18.422512 -5.8320513
-4.2459965 18.401917 -6.1473513
-4.3317637 18.411831 -6.1365538
-4.4239097 18.291216 -6.2252569
-4.1056156 18.465946 -6.6089978
-4.1489086 18.436863 -6.2987866
-4.1247954 18.39897 -6.2363515
-4.3113518 18.361706 -5.9399323
-4.3518896 18.34844 -6.2320466
-4.9273338 18.138716 -6.9883943
-5.0343256 18.091728 -6.0451818
-5.1164341 18.084909 -6.920691
-5.127574 17.993118 -6.029532
-5.4219875 17.915327 -6.2511916
-6.2190843 17.597801 -6.0494685
-4.0978966 18.383873 -6.0361748
-5.6349845 17.796505 -5.8601866
-7.729722 17.024595 -6.6091528
-4.1455879 18.509403 -6.1532583
-4.2129354 18.50597 -6.0522771
-4.3467188 18.492884 -6.6510091
-4.4181967 18.454079 -6.6380696
-4.5271606 18.375937 -6.0360217
-4.5798807 18.404303 -6.5958333
-4.7223425 18.371185 -7.1290708
-4.9339924 18.205675 -6.5519691
-5.8191948 17.883638 -6.3201675
-6.0292311 17.889387 -7.4977193
-5.9940505 17.866585 -6.8880086
-6.0236068 17.809164 -6.2626653
-6.2237377 17.730347 -6.2456746
-6.3859472 17.689377 -7.103653
-6.4352264 17.69187 -6.7938313
-6.4469995 17.710934 -7.4111409
-6.6104822 17.567774 -6.1459951
-6.9023094 17.468616 -6.1063924
-7.20859 17.413891 -7.2500081
-7.4494905 17.228113 -6.0490236
-7.7067103 17.200352 -7.1301374
-7.741919 17.169968 -6.8340316
-7.8303628 17.114817 -6.5157661
-4.2362928 18.48502 -5.9842076
-4.2465749 18.515318 -6.5778356
-4.330224 18.494427 -6.5556798
-4.5622272 18.390657 -6.5099645
-4.5533099 18.357971 -5.9199376
-5.7379289 17.914133 -6.2716527
-5.9407272 17.890491 -7.1364903
-5.9619331 17.835419 -6.2248082
-6.2271533 17.714935 -6.1326003
-6.3625741 17.728737 -7.3640904
-6.4114394 17.706743 -7.3554845
-6.4469328 17.687878 -7.0365148
-6.4939303 17.662409 -7.0301671
-6.9566407 17.420801 -6.0417099
-7.0601864 17.413839 -6.6212316
-7.8368349 17.122366 -6.4526424
-5.3542743 17.893814 -5.7376862
-4.1442904 18.49802 -5.8449826
-4.2219787 18.46966 -5.8360147
-5.745348 17.895473 -6.1558022
-6.0194831 17.794842 -6.120296
-6.2275829 17.692989 -6.0546227
-6.331234 17.706692 -7.2389407
-6.8837819 17.469137 -6.278255
-7.2129664 17.321297 -5.9340777
-7.7344542 17.18433 -7.0505939
-7.8615332 17.14459 -7.0276446
-4.1602726 18.539083 -6.7390709
-4.2750144 18.454636 -5.7848263
-4.7558374 18.323467 -6.9122066
-6.016427 17.787935 -6.4498405
-6.5321412 17.646666 -7.28092
-6.9085689 17.491585 -6.9392662
-7.8347888 17.144423 -7.1222897
-4.2814155 18.449881 -6.107255
-6.4327855 17.666119 -6.7724466
-6.9965353 17.421938 -6.421525
-7.0489492 17.380638 -6.1215677
-7.63375 17.207695 -6.9565187
-7.7299633 17.182838 -7.2740641
-7.8421221 17.106218 -6.6549234
-4.1615 18.524328 -7.0953331
-4.7339411 18.30525 -6.7380743
-5.407392 17.998333 -5.7793541
-5.7328205 17.859749 -5.7604332
-6.0373335 17.696415 -5.7358427
-6.4099431 17.590702 -5.7174034
-6.459444 17.635611 -6.9019127
-6.5738287 17.543367 -5.9994469
-6.7390165 17.469366 -5.7221303
-7.5298586 17.195658 -6.2387118
-5.9241881 17.545984 -5.8108001
-6.2120571 17.684452 -6.3116016
-7.2655897 17.322136 -7.1288137
-5.4432487 17.990047 -5.8102894
-5.6786137 17.938356 -6.3918629
-5.829483 17.849623 -5.7938404
-6.0886374 17.766376 -6.0808277
-6.5104113 17.658506 -6.9663868
-6.7597361 17.522598 -6.3540821
-6.8020258 17.465839 -5.7658863
-7.6302328 17.178078 -6.3167896
-4.1167989 18.397411 -5.5254087
-4.2287726 18.390089 -5.4927945
-5.2030826 18.070377 -6.6622891
-4.0828018 18.521509 -6.5397563
-6.1879315 17.65715 -5.8827739
-6.2356696 17.692513 -6.7876811
-6.4436584 17.613337 -6.7855449
-4.0830846 18.456549 -5.6824822
-4.1283855 18.391075 -5.6452894
-4.514061 18.313519 -6.6004205
-5.4473414 17.90575 -5.9289632
-5.9354863 17.751646 -5.966845
-6.0385776 17.677603 -5.9510579
-6.0303111 17.685753 -6.8751049
-6.4805822 17.559174 -6.5738397
-6.9727588 17.370478 -6.8906121
-7.1852837 17.280951 -6.5846429
-7.2104869 17.20966 -6.2696042
-7.4226923 17.106634 -5.9530272
-4.1429911 18.324772 -6.1045599
-4.1494222 18.292818 -5.8107524
-4.2435803 18.303486 -5.8109717
-4.6318865 18.117771 -5.4929667
-4.9036059 18.029694 -5.8364024
-5.0887609 17.940567 -5.8179703
-5.2220078 17.913147 -6.4602213
-5.9357033 17.630165 -5.5423355
-5.9039416 17.685913 -6.459321
-6.0159564 17.623779 -5.8694239
-5.9738159 17.632429 -6.1703038
-6.0434527 17.5951 -5.5530248
-6.1391187 17.571905 -5.8580518
-6.4763012 17.43141 -6.1789932
-6.6442833 17.382534 -6.4920425
-7.1922188 17.143198 -5.9127579
-7.237648 17.137054 -5.6081314
-7.3788199 17.071915 -5.3180313
-7.4688525 17.036211 -5.6269913
-7.0300884 14.825977 -6.1720161
-7.4233212 17.086506 -5.6448307
-4.3848419 18.459583 -6.4105182
-4.863874 18.099545 -6.3162632
-5.0433326 18.185259 -6.7152467
-5.003098 18.205307 -6.4195108
-5.6317425 17.581726 -6.3216333
-5.8178763 17.746658 -6.3443632
-7.7501049 17.073341 -7.2232652
-5.21872 18.001001 -5.8348513
-4.9940319 18.218546 -7.0422535
-5.5457258 17.821732 -6.1124129
-6.0619588 17.724602 -6.6609473
-4.4252186 18.289255 -5.6378231
-4.448421 18.326519 -6.0845914
-7.1380653 17.010429 -5.7667108
-4.8271203 18.115906 -6.259501
-7.1548948 14.775448 -6.1933784
-5.2474318 17.924639 -5.7423263
-5.7056913 17.901276 -5.7964649
-6.1897488 17.705553 -6.4746928
-6.0782099 17.770067 -7.0972514
-5.1370974 18.111702 -6.3312597
-6.1535678 17.387186 -5.9036188
-6.1210089 17.394978 -5.5831842
-7.0577183 17.469496 -7.2527585
-6.2409964 17.590206 -6.2332993
-5.8474035 17.693237 -5.8373346
-5.6107087 17.817646 -6.3084202
-5.7884216 17.555763 -6.0511718
-5.580339 17.799633 -6.8300719
-4.4258871 18.287659 -5.9051285
-5.5961518 17.806458 -6.7623224
-5.1285758 18.021549 -6.3279266
-5.1734977 18.134827 -7.0045738
-5.1001124 17.976328 -6.4657798
-5.0538278 18.199116 -6.4943929
-4.8000522 18.206278 -6.2761712
-5.6415081 17.813238 -6.5284715
-6.5497184 17.258741 -5.4726348
-5.9600544 17.643314 -6.5526061
-6.2957892 17.578051 -7.0154448
-6.2445688 17.592918 -5.8850031
-6.0866866 17.801056 -7.2084112
-5.4205532 17.957161 -6.5373521
-6.7352114 17.365044 -6.017446
-4.5076599 18.320309 -6.6998258
-5.8231931 17.704451 -6.1482935
-6.346096 17.712494 -6.994421
-5.2807589 18.091827 -6.5919352
-7.1134396 17.401669 -7.0180216
-4.9815187 18.218554 -6.6219034
-6.0249853 17.767271 -6.7928691
-5.8207455 17.86659 -7.1026835
-5.6723557 17.885023 -6.648068
-6.1213732 17.39119 -5.4767561
-5.379406 18.06834 -6.5301471
-6.627027 17.487764 -6.5588441
-5.90974 17.858688 -6.7181053
-6.9982333 17.324429 -7.0684843
-5.6737032 17.795872 -6.422205
-5.8344655 17.737738 -6.4818516
-5.7989907 17.705906 -6.2522955
-4.8810596 18.246254 -5.9381795
-4.3977079 18.471752 -6.9661007
-6.122632 17.408829 -5.7476816
-6.0339594 17.764812 -5.78969
-5.1737785 18.053467 -6.5996079
-4.5493035 18.254446 -5.7645082
-5.0086155 18.131727 -5.8160362
-4.5252671 18.274517 -5.6794305
-5.1107273 18.139132 -6.7067833
-5.4887156 17.849863 -6.7432795
-4.7250204 18.170647 -6.4379673
-5.5320044 17.804411 -6.5101256
-4.421875 18.428555 -6.243485
-7.0917745 17.103819 -6.0146575
-6.0730419 17.807188 -6.5020909
-4.4186325 18.474316 -7.0195527
-5.6420536 17.806616 -6.6463861
-6.5225859 17.264706 -5.5535626
-4.7541132 18.12904 -5.9801426
-6.4861679 17.280991 -5.785501
-7.1299553 17.408491 -6.8373575
-5.0482578 18.043036 -6.9258451
-7.1349964 17.379095 -6.3256969
-7.2867413 16.933781 -5.3852468
-5.3470011 17.869638 -5.8474269
-4.4192395 18.426668 -6.4141941
-4.6578054 18.304924 -7.0540705
-7.0695701 14.813854 -6.1900826
-5.9717455 17.673632 -6.2454515
-6.031786 17.858608 -7.1933675
-6.8223438 17.553284 -7.0213704
-6.0250111 17.851067 -7.1218419
-5.9845891 17.859119 -7.353735
-5.9759488 17.640656 -6.9521685
-7.525116 17.215452 -6.5501242
-7.5396619 17.249012 -7.2915812
-5.9822941 17.400387 -6.0273366
-5.9292498 17.727938 -6.9821806
-4.5777793 18.43301 -7.1118321
-7.5385122 17.222067 -6.7799468
-5.9700561 17.74358 -6.7052598
-7.5754366 17.190649 -6.8389854
-6.1307425 17.479048 -5.2021575
-6.5373087 17.237373 -5.6277323
-5.5835114 17.948805 -6.2007403
-4.3326139 18.382597 -6.6055169
-5.3192716 18.066467 -6.264349
-4.3480015 18.534042 -7.1596837
-5.9330983 17.871651 -7.0300407
-4.5176744 18.296528 -6.0760088
-4.439425 18.327932 -6.2963738
-4.9334836 18.191339 -5.8220115
-5.762012 17.762781 -6.1434126
-6.5546756 17.237118 -5.7480559
-5.7171493 17.791876 -6.2425485
-5.8060999 17.824646 -5.7577477
-6.378088 17.53204 -6.8644528
-7.3083916 15.361566 -5.0787983
-5.7133784 17.763239 -6.4451079
-7.1447811 17.047064 -5.9550414
-6.5854921 17.258196 -5.8630004
-6.5895338 17.300608 -5.9223113
-6.3212852 17.381042 -5.8571105
-6.6244302 17.651888 -7.3681111
-4.800415 18.18376 -6.0776343
-5.4333634 18.046436 -6.5203815
-6.3508105 17.522718 -6.4105463
-7.1182542 17.370193 -6.0688558
-7.3571014 17.133802 -6.0677781
-6.3275585 17.491697 -5.940403
-7.3478632 17.106739 -6.1354742
-6.9930186 17.293837 -6.9692063
-6.2233748 17.591293 -5.7584267
-5.8110685 17.6017 -5.1480803
-6.3350997 17.516434 -6.2524323
-5.1519213 17.932985 -6.4395523
-7.7924757 16.736603 -5.2025928
-6.2983384 17.35404 -5.7540679
-5.4728551 17.826946 -6.1885314
-5.6418352 17.609884 -5.797173
-4.713892 18.355297 -7.0655375
-7.3406029 17.121376 -6.2434015
-7.2449861 16.934883 -5.3875356
-4.8107738 18.225967 -5.7534647
-4.7011585 18.158598 -5.5534153
-5.3159895 18.055326 -6.6914635
-4.7593603 18.22686 -6.5914788
-4.3175144 18.373917 -6.7392912
-4.7508678 18.109804 -5.8468041
-6.6474748 17.448502 -6.8626218
-6.9245911 17.03549 -5.977181
-7.1308365 17.237623 -6.2417707
-4.4759502 18.440577 -6.9834146
-6.7335491 17.186478 -5.5036712
-7.1450953 17.032368 -5.5716643
-4.8953042 18.264523 -6.4367223
-4.3282099 18.470985 -6.4378424
-7.3191018 16.936794 -5.1694269
-7.262465 17.352629 -6.6308675
-4.4597259 18.390503 -6.1485767
-4.8095531 18.191292 -5.8162165
-6.8336725 17.52924 -7.3491068
-5.2240791 17.989824 -6.0329571
-6.7884464 17.312897 -6.1948013
-6.8498931 17.294491 -6.3413429
-4.8306079 18.202709 -6.6480246
-7.1439323 17.361666 -5.9396319
-7.3614988 16.918283 -5.8026824
-7.5025635 17.294983 -7.1928182
-5.6110077 17.804554 -6.9357824
-6.284512 17.367167 -6.1337523
-5.2178888 18.131081 -6.9012308
-7.055757 17.420698 -7.1683722
-6.2808142 17.402044 -5.2354217
-7.3044052 17.154415 -6.3726487
-5.1791444 18.062803 -6.5850091
-6.0117488 17.705072 -5.8479633
-6.644145 17.209167 -5.3095918
-6.0422568 17.698391 -6.4809198
-7.2137933 17.005657 -5.2656646
-6.3889065 17.653139 -6.0588336
-7.1273708 17.179066 -5.9091907
-6.7061667 17.166378 -5.6445785
-5.6580629 17.977886 -7.0312123
-4.4242439 18.390255 -6.7289238
-6.0539427 17.598461 -6.2483764
-6.7571068 17.492886 -6.8792238
-5.8112249 17.858402 -6.1647806
-6.0766449 17.605028 -6.0711508
-6.0420418 17.508795 -6.472116
-6.3192663 17.695221 -6.6597204
-6.3148842 17.680073 -6.3390465
-6.6497684 17.543341 -6.5890465
-4.3132896 18.455257 -5.968369
-4.4179039 18.391661 -6.6314812
-4.8738742 18.15004 -5.6715569
-4.8126321 18.186869 -6.7094026
-4.4388294 18.267189 -5.5049243
-6.3236337 17.565802 -6.0361094
-6.4638829 17.658056 -6.4923177
-6.9698744 17.042 -5.6368642
-6.5338163 17.397644 -5.5724869
-7.7006063 17.188538 -6.918108
-4.9539366 18.238464 -6.7284107
-4.915638 18.273085 -7.0330009
-6.5277767 17.437614 -5.6224613
-4.9381247 18.15575 -6.6641212
-4.9182959 18.196251 -7.0089655
-6.3115783 17.693745 -6.809433
-6.3671556 17.596388 -6.5768914
-6.3005161 17.726288 -6.7655797
-7.1359076 17.197807 -6.3862238
-5.337616 18.100254 -6.8603268
-5.2463388 18.100374 -7.0007896
-5.7364931 17.819839 -6.9377871
-5.0435801 18.205313 -6.9191446
-6.0143051 17.728886 -6.0404544
-7.6577101 17.144934 -5.945715
-7.4565339 17.139164 -6.8935666
-6.052454 17.64719 -6.1658573
-8.1136808 16.473377 -4.7701597
-5.9913473 17.700874 -6.2336864
-7.6366301 17.109627 -6.2216306
-7.447813 17.287666 -7.13908
-7.291995 17.132792 -5.8441362
-5.3341455 18.080303 -6.9429083
-7.6140938 17.008015 -5.6635652
-7.6337976 17.107494 -6.0553055
-4.9008718 18.273449 -6.5238729
-4.9084892 18.256735 -6.6266642
-5.2238083 17.998421 -7.0249119
-6.0781698 17.4139 -5.5713434
-7.726007 17.164509 -6.5135632
-5.5549459 17.910105 -6.8067002
-7.7302732 17.16119 -6.4421344
-5.1503811 17.989792 -6.8383503
-6.7086668 17.530941 -6.1316824
-7.9297791 17.083992 -6.5029821
-6.2159534 17.592907 -5.9577584
-5.8446698 17.815105 -6.0325623
-4.4354916 18.252295 -5.8504477
-4.3911743 18.213343 -5.7991714
-7.2395973 17.364956 -6.8559017
-4.8579764 18.20051 -6.1145034
-6.0865827 17.489222 -5.8361907
-6.7041669 17.466673 -5.8780131
-5.2330494 18.006954 -6.9061131
-6.8539662 17.31493 -6.4095659
-6.8490968 17.288757 -5.8928604
-6.8100362 17.430122 -5.6946983
-4.3279605 18.451256 -6.3741207
-7.2669897 17.269712 -6.1772075
-6.0660744 17.854916 -7.4203038
-6.2078495 17.793278 -7.1529317
-4.3260241 18.462004 -6.0607381
-6.3773818 17.28233 -6.2186666
-8.1085196 16.500532 -4.8300195
-7.3095298 17.170238 -6.0639009
-5.365922 17.997042 -6.3516812
-6.817687 17.427351 -5.9753332
-6.6535912 17.403526 -5.6619163
-6.8243828 17.396904 -5.87638
-5.4704418 18.016674 -7.2675138
-5.2681808 18.121063 -6.7111988
-6.7249246 17.156979 -5.231194
-4.9637327 18.134144 -6.6287122
-4.9287648 18.076609 -6.3163776
-5.0362635 18.064762 -6.8704929
