# .PCD v0.7 - Point Cloud Data file format
VERSION 0.7
FIELDS x y z
SIZE 4 4 4
TYPE F F F
COUNT 1 1 1
WIDTH 789
HEIGHT 1
VIEWPOINT 0 0 0 1 0 0 0
POINTS 789
DATA ascii
-7.549273 14.79269 -0.30273363
-6.7177114 14.91926 0.81483388
-6.7389441 14.813869 1.4866962
-7.196373 14.95138 -1.7206316
-7.2092505 14.977538 0.98355675
-7.3859181 14.979024 0.32414949
-7.3064322 14.947884 -0.53026479
-7.2393074 14.976251 -1.1070998
-6.8905745 15.102965 2.5674338
-7.0341158 14.966214 -1.7489879
-7.3387489 14.874286 -1.4164369
-7.1447802 14.956096 2.3298781
-6.724638 14.905581 -0.61270022
-6.7463646 15.189688 2.9588122
-7.1112623 14.890224 -1.6294641
-6.9200487 14.876641 -1.8322182
-6.9254446 15.007013 1.6596261
-7.3978143 14.695014 0.85590345
-6.7536912 14.928465 -0.34934634
-7.2361841 14.808547 -0.024505766
-7.3913488 14.60926 0.56537485
-6.9431715 14.987375 -1.6430622
-7.2471542 14.992523 1.5553696
-6.9442091 14.908945 -1.1242908
-6.9256849 14.907464 1.949284
-6.9231215 14.922758 -1.2250336
-7.3997316 14.709513 0.75231147
-7.3510456 14.720281 0.186142
-7.0182571 14.991418 -1.5333418
-7.3269911 15.026062 -0.26209259
-7.1213045 15.063061 1.2539142
-6.9393415 14.916117 -1.6494508
-6.9411221 14.912027 -0.64126563
-7.1343675 14.896797 -1.4367309
-6.9496984 14.920547 3.0546439
-7.090024 14.980874 -1.3445286
-7.1342187 14.914483 -1.3407406
-6.9276018 15.012863 -1.3388433
-7.0321193 14.916656 -0.94162071
-7.0378499 14.923227 -1.1381211
-7.2361951 14.825851 0.75361049
-6.9442101 14.919338 1.3590474
-7.0035248 14.985296 -1.215482
-7.1104078 14.969121 -1.1228122
-6.9394245 14.866182 3.2337062
-6.9582381 14.901885 1.7532843
-7.0333157 14.980659 -0.63389587
-7.1525192 14.82332 -0.45403069
-6.9424858 14.913837 2.7368679
-7.0331936 14.890387 2.9534986
-7.1000195 14.910282 -2.2320406
-7.3293381 14.887022 -0.94015205
-7.0226898 14.982603 -1.0495511
-7.0308766 14.97505 -1.1459373
-7.0441661 14.925016 0.26701519
-7.1456542 14.804195 1.8648871
-7.3610029 14.800657 -0.74275571
-6.9918108 14.843028 -0.66139078
-7.1422849 14.78512 1.4832002
-7.1248798 14.916864 -1.2473817
-7.3223577 14.86644 -0.53787524
-6.7621183 14.936018 -0.8639065
-7.1359272 14.808174 -0.65639353
-7.1271272 14.909784 -1.1378956
-7.0180883 14.98372 -1.331567
-7.0354419 14.970112 -0.73979372
-7.024189 14.981888 -0.84692258
-7.0286155 14.989038 -0.94789088
-7.2966299 14.877247 -1.2306809
-7.3436146 14.819048 -0.51724428
-7.2397137 14.817555 0.46610808
-7.4335704 14.666561 1.4578787
-7.0523033 14.7365 0.50451791
-7.1291218 14.962382 -1.5373642
-6.9337921 14.895752 -1.0444001
-6.9509497 14.907857 -1.3100097
-7.1969252 15.025984 -1.0680526
-7.1146646 14.962886 -0.041028429
-7.3544135 14.881562 -1.5594928
-7.2246618 14.80084 -0.43679887
-7.4065909 14.706663 0.95296067
-6.7635827 14.936815 -0.44713801
-6.9579506 14.907757 0.2616742
-7.2425251 14.781689 0.24934404
-6.943388 14.914705 0.4677791
-6.9345417 14.898426 2.6541905
-6.9276986 14.887602 2.1701055
-7.2464991 14.804507 -1.1339407
-7.2224946 14.884931 -0.93795061
-7.0887003 14.994761 -1.4198594
-6.7448773 14.928292 -1.1555895
-7.2439241 14.802369 -0.15222739
-7.0455675 14.749701 -0.58365506
-7.2291207 14.878976 -0.53786463
-7.0547209 14.834452 -0.70878685
-7.2348223 14.816372 0.36201313
-7.2175789 14.960974 -0.87561107
-6.9210734 14.991227 -1.4452116
-7.0409355 14.998646 -1.451951
-6.931592 14.914794 -1.4624412
-6.9142017 14.904263 -0.050213907
-7.04776 14.901828 1.6671389
-7.0564618 14.828122 0.5855546
-7.2895813 14.949366 0.65667433
-6.6335626 15.0236 2.0375905
-7.0496306 14.913721 -1.4473277
-6.6222954 15.025724 2.3859484
-6.6342459 15.002995 2.169414
-6.6107206 15.003759 1.8544183
-7.1362891 14.914647 -0.33593673
-7.1415062 14.818566 -0.94711745
-6.8521738 14.896698 -1.2077693
-6.9240956 15.007665 -1.1351709
-6.9372945 14.985549 -1.5151204
-7.1301231 14.894551 -1.7336576
-7.3165383 14.872041 -1.1348522
-7.1443534 14.911267 -0.83492726
-6.742013 15.101228 2.8526645
-7.3244729 14.867885 -0.73772025
-7.0089893 14.913422 1.3319246
-7.3376818 14.995175 1.9680721
-7.1204686 14.790261 1.9444033
-6.737781 15.216265 2.4641201
-6.9246039 14.998885 -1.0456883
-7.2331567 14.885579 -1.2420361
-6.9773259 14.932232 1.5025524
-7.0370841 14.927577 2.0768082
-7.4017458 14.8564 0.97022468
-7.0545626 14.830898 -1.2448599
-6.9206133 15.006956 0.059712049
-7.2397442 14.814702 1.2486761
-7.2270331 14.879934 1.95948
-7.589304 14.817136 -0.50399888
-7.2247291 14.898691 1.165634
-6.9368649 15.003569 2.3689992
-7.3281608 14.865769 0.96215558
-7.1292586 14.808806 1.556711
-7.0650067 14.924513 1.4470934
-7.3128877 14.985871 1.491006
-6.9002976 15.096579 2.36098
-7.2334161 14.889079 -0.4328976
-7.2217865 14.963645 0.75598419
-6.9256544 14.996844 2.8716698
-7.3266439 14.873325 1.3568366
-7.1072989 14.870833 2.7496526
-7.330739 14.863564 -0.037816875
-6.9419322 14.91047 -0.70694089
-7.133482 14.827279 1.6453079
-6.8935032 15.124153 2.6438034
-7.3101621 14.95381 1.3918109
-7.2341299 14.978111 0.17625637
-7.2382617 14.983557 -0.50697505
-7.2199035 14.8016 0.6583454
-7.2437992 14.88733 -0.84422004
-7.3352098 14.868429 0.56138569
-7.333612 14.866119 0.76202834
-6.9085436 15.100984 2.1523893
-7.2338815 14.885094 -0.14112179
-7.2119722 14.980642 -1.410892
-7.063869 14.823061 -0.87677622
-7.4271803 14.862454 1.4650213
-7.049191 14.922776 0.1623106
-6.9287319 15.006193 -1.242205
-7.0318465 14.98335 2.8622849
-7.2280407 14.896373 0.55604827
-7.1056595 14.886421 2.5549996
-7.1401949 14.911273 0.15841702
-7.2162213 14.821845 0.920461
-7.0292993 14.987244 2.5627842
-7.1202636 14.920015 1.6554329
-7.1321321 14.915482 -0.034120627
-7.22262 14.89593 1.2614372
-7.3384552 14.819814 1.7648617
-7.1399603 14.875491 2.8517327
-7.4825149 14.833022 1.4078352
-7.3332014 14.87276 1.6502023
-7.0244198 14.972795 2.6418304
-7.2307086 14.878108 1.8671143
-7.2282906 14.727367 0.16384
-7.2364378 14.896658 1.0592083
-7.066299 14.932659 1.8671381
-6.9265871 15.001406 1.5650156
-7.0525436 14.827617 1.3593507
-7.1361361 14.89641 1.7592328
-7.3307066 14.868992 1.0614471
-6.7527981 15.185906 2.831485
-7.2113957 14.947342 -0.45853084
-6.7230549 15.207847 2.7536922
-6.9200644 15.002687 0.46371362
-7.0340443 14.974532 1.462709
-6.9358201 15.003904 2.465467
-7.2289882 14.89793 0.46053395
-7.0445132 14.923673 -0.23651986
-7.2339449 14.88618 -0.043068595
-7.3531208 14.826951 1.0573585
-7.1650925 15.051426 1.0508446
-7.3375578 14.865093 0.059320178
-7.3347306 14.865872 1.1617081
-7.3966932 14.823099 0.062947199
-7.3171415 14.870386 1.9605259
-7.3442512 14.828754 0.16298608
-7.3524699 14.824403 0.057385977
-7.2332473 14.894905 -0.23710699
-7.2328148 14.891683 0.16208927
-7.1298676 14.922692 0.25712979
-7.1097507 14.880298 2.3565617
-7.0281324 14.976233 0.15695386
-6.9231963 14.997508 0.16383275
-6.7035136 15.261432 2.5558116
-7.3421245 14.81236 1.8535691
-7.1854043 15.057636 -0.34496203
-7.269105 14.990428 -0.36405796
-7.3337083 14.869039 1.2648602
-7.3293943 14.865956 -0.23033637
-7.2261586 14.897034 1.7579722
-7.2280064 14.892364 0.26042759
-7.1308842 14.917791 0.053404927
-6.8140411 15.093918 2.15572
-7.350708 14.824436 -0.035027731
-7.0210276 14.982307 2.1707776
-6.8160553 15.100321 2.3605738
-7.3418236 14.708633 0.76960993
-7.2347364 14.895605 0.75836098
-7.3306532 14.866114 0.86010265
-7.1410546 14.909882 1.1553128
-6.9215417 15.011027 1.1560904
-7.3294353 14.867595 1.4624331
-7.0228834 14.985109 1.6607802
-6.9189296 15.009438 -0.13900352
-6.9278655 15.006845 1.2622423
-6.9227214 14.993204 2.6462491
-6.9258857 15.009672 1.3631189
-7.4253826 14.869558 -0.5313009
-6.9302568 14.997588 0.36583245
-7.0396605 14.879381 -1.9578321
-7.4017725 14.856014 -0.4397355
-6.7292895 14.933891 -0.2835927
-7.2310305 14.893815 0.9615075
-7.2583461 14.981799 0.50707746
-7.3472595 14.827378 -0.23933397
-6.6341748 14.981396 0.21569803
-7.108685 14.880516 2.4671333
-6.9363699 15.002098 0.96064848
-6.8294892 15.01221 2.55617
-7.2435083 14.99416 0.63560706
-7.3970613 14.815226 -0.23523563
-7.3489022 14.727612 0.55824417
-6.987195 14.766979 0.65907109
-7.24821 14.983541 1.152195
-6.9396467 14.89578 2.4491291
-7.1251736 14.814835 1.1767595
-6.7352843 15.214717 2.5653543
-7.2107506 14.721904 2.0839353
-7.2479739 14.644907 0.50201547
-7.3401275 14.816335 1.4662435
-6.9353819 15.000907 -0.63252306
-7.1485019 14.809475 0.97797048
-7.1934032 14.954784 1.4505204
-7.3546281 14.828307 -0.14108042
-7.4023762 14.828578 1.862273
-7.3543248 14.827874 0.2582899
-7.4033837 14.86337 0.86486322
-7.3556347 14.825283 0.96142238
-7.0489492 14.89624 2.5583222
-7.3465018 14.820797 0.56308937
-6.8216944 15.014586 1.8694023
-7.1052437 14.871161 2.6591341
-7.0272322 14.983157 0.76502204
-7.3501363 14.819715 1.1571467
-6.7383595 15.206481 2.649296
-7.3336539 14.864059 1.8616456
-6.9248962 15.0055 1.8568547
-7.0292001 14.907916 0.97199905
-7.045444 14.895466 1.9633199
-7.3532052 14.803128 -0.63477433
-6.8883381 15.119869 2.8607383
-7.1075048 14.969332 1.7701449
-6.8560162 14.907898 -0.63293809
-7.2593594 14.815763 -1.4081241
-7.0301089 14.975205 -0.43697205
-6.8488436 14.911504 -0.12871487
-6.7359624 15.212084 2.3702049
-7.2537761 14.787271 -0.52981627
-7.3226829 14.866284 1.757761
-7.3316832 14.72182 0.97755808
-7.1352439 14.921146 1.0625998
-7.1387119 14.919002 0.55875897
-6.9200664 15.001198 -0.43564957
-7.1316137 14.806643 0.84516054
-6.7499499 15.107289 2.9648697
-6.8545671 14.878596 0.9788605
-6.9280505 15.006555 -0.23834206
-7.0383992 14.90713 2.4685645
-6.821897 14.911383 -1.4414055
-6.8544235 14.913676 -0.95755666
-6.8467131 14.933739 -0.86495864
-6.8023686 14.939105 2.6309564
-7.3002286 14.979947 0.97317266
-7.1293001 14.822987 0.15901393
-7.3971767 14.861723 0.66287935
-7.127635 14.912228 1.4586408
-7.0273247 14.97207 -0.33243746
-7.143044 14.918529 0.86759382
-6.6632881 15.080213 2.0978105
-7.018465 14.983281 1.5585504
-7.3369622 14.867827 0.36485866
-7.3931608 14.703911 1.5466079
-7.1409116 14.828928 0.45629859
-7.3179188 14.867867 -0.63855857
-7.3447938 14.864631 0.25893876
-7.3946543 14.85595 -0.13905235
-7.2344804 14.884072 1.6584535
-7.3863254 14.950024 -0.88318241
-7.343812 14.824083 1.5587893
-6.9007597 15.094738 2.4511013
-7.3427677 14.822285 1.3556368
-6.8129673 14.925858 2.9476011
-7.2871909 15.006956 1.596593
-6.8476362 14.9305 1.3735909
-6.8316483 15.010316 2.7613091
-7.1583877 14.834496 0.76070088
-7.1134443 14.816757 -0.17690295
-6.8225899 14.805369 -1.5123525
-7.2818527 14.997318 -0.86950409
-7.2443376 14.809088 0.054098275
-6.8552027 14.938571 2.4885926
-7.0450206 14.902422 2.3537147
-6.9225817 14.996357 -0.92840523
-7.2520523 14.708612 0.079395846
-6.8065038 14.894897 -1.5428125
-6.9348679 15.005471 0.75781137
-7.3998885 14.865232 -0.64705145
-6.9841337 14.839198 -0.93522966
-7.3438401 14.813604 1.6571633
-7.2420716 14.886142 -1.3356582
-7.12573 14.910673 1.3579087
-6.9324636 14.990505 2.7641153
-7.033905 14.977268 0.86387038
-7.1344795 14.922174 0.46068549
-7.1388431 14.902256 -0.53052384
-7.2156343 14.984503 -0.2684927
-7.1458426 14.802577 1.3661407
-7.1227627 14.824557 1.2652119
-7.2408304 14.816354 -0.92655325
-7.1339355 14.818382 -0.015894858
-7.2349391 14.81189 0.56783777
-6.8575516 14.897959 0.83528066
-7.3222117 14.994377 1.0303607
-7.1604033 14.811558 -0.2752687
-6.6654234 14.955352 2.2734871
-7.1380763 14.916817 -0.62871194
-7.393259 14.860298 0.4539966
-6.8494186 14.917634 -2.1157184
-7.3514876 14.826265 0.76159841
-7.0370688 14.840997 1.0057033
-6.9264827 15.002508 0.26079434
-7.1239862 14.811386 0.074296668
-7.0258799 14.97466 -0.23409475
-7.4033289 14.858571 0.77260059
-6.8260098 14.923553 -1.026719
-7.0568151 14.914219 0.66864395
-6.9295034 14.798796 0.63453305
-7.1325502 14.91953 -0.43705171
-7.3564115 14.825898 0.46870738
-7.2029905 14.874017 -1.6302016
-7.355422 14.823328 0.85995746
-7.0234747 14.980877 0.27207646
-7.0237088 14.908132 0.74973989
-7.3413339 14.813876 -0.42976123
-7.2722921 14.763832 -0.64065039
-6.7405944 15.077621 2.2539048
-7.3463182 14.825578 0.36054969
-7.1073194 14.787416 -1.137651
-7.3489065 14.822337 -0.33952352
-7.032042 14.797195 0.17983647
-6.8668609 14.896221 -0.71673864
-6.8084111 15.004747 3.1682267
-7.3241405 14.876044 -0.33540934
-6.91503 14.911078 1.2501713
-6.9322691 14.99439 2.1526217
-7.3458595 14.823308 1.261173
-6.8372946 15.000586 2.4611669
-7.3976002 14.872308 -1.2558295
-7.2202158 14.98251 0.27776539
-7.1178341 14.900105 -1.5479603
-7.1154714 14.906227 1.963524
-6.8506465 14.915923 0.24631575
-6.9427552 14.91744 -0.24880278
-7.0358076 14.908067 1.1676929
-7.4083605 14.856271 -0.73652351
-7.3863587 14.716662 1.3032103
-7.0218706 14.982541 2.0708869
-7.3503304 14.825063 0.66181105
-7.3180213 14.87256 -1.0387971
-7.3342562 14.86794 1.5552056
-7.0031209 15.07425 2.5074115
-6.9250278 15.010704 0.85958731
-6.6691461 15.072269 2.1711769
-6.8185005 15.025261 2.2648642
-7.2301288 14.792669 0.16072756
-7.2246003 14.896739 -0.63663393
-7.3962998 14.817508 0.35990751
-6.9266205 15.004836 -0.33714071
-7.1240315 14.810747 -1.0610725
-7.1455293 14.826823 -1.3631828
-7.163126 14.95575 -2.0582273
-7.3264585 14.869953 -0.43430832
-7.3296185 14.866618 -0.13490252
-7.3445063 14.71936 0.63427812
-7.3923368 14.962909 -0.57172716
-6.7504768 14.917241 0.35001323
-6.8328137 15.016865 2.3520021
-6.821032 15.016528 2.1708748
-7.1391749 14.916739 0.6608994
-7.4083357 14.878826 0.27252588
-6.8999157 14.97368 2.9381406
-7.3202724 14.87671 -0.82474566
-6.9304438 14.929743 -0.87698328
-6.9471693 14.806401 -0.65925914
-7.3267365 14.736765 0.86044747
-6.6883092 14.883495 -1.2492833
-7.0436525 14.916029 1.7710737
-7.2375684 14.8028 1.9655098
-6.7443843 15.025489 2.3868904
-7.0539303 14.922395 1.2538756
-6.8631096 14.940718 2.0826497
-7.3190079 14.98883 0.54824138
-6.9574661 14.909638 -0.91436875
-7.1112056 14.960135 2.0827515
-6.760921 15.108983 2.7693455
-7.0305233 14.978534 0.46343875
-7.2298384 14.892404 -0.33554468
-6.8315887 15.018495 1.9669875
-6.7582984 15.082003 2.4614627
-7.1244459 14.7381 1.3861715
-7.3980713 14.855087 -0.045704491
-7.4018188 14.811997 -0.039678141
-6.8546891 14.941191 2.2755449
-6.9278126 14.907494 1.0444241
-7.3981032 14.809545 -0.14450581
-7.2279944 14.828839 -0.84513021
-6.7648735 15.010017 2.8440688
-6.8275371 15.024486 0.96319824
-7.2232437 14.986384 1.0629523
-7.0475039 14.906474 0.46639207
-6.8157334 15.006641 2.6787634
-7.2160616 14.974257 1.9546816
-7.0303268 14.912443 0.04706829
-7.2359633 14.968435 0.59692532
-7.163043 14.830405 0.37803808
-7.4046445 14.856144 1.3502734
-6.9370666 14.891873 0.051678579
-6.9973831 14.910277 -1.5198646
-6.9204235 14.919038 0.17080957
-7.136219 14.921964 -0.13203655
-6.8424606 14.920618 -1.8127277
-6.8384409 14.939056 2.1797252
-7.4039135 14.794369 -0.53569573
-6.8327947 15.025328 1.155516
-7.4014521 14.805656 -0.33769199
-7.171411 14.915722 -2.074862
-7.2307935 14.975919 0.86270177
-7.0376434 14.907409 2.652261
-7.1605453 14.815367 0.55153048
-6.7596793 14.909787 0.9863658
-7.0240464 14.982014 0.36798316
-6.9253831 14.989828 2.5769339
-6.9261265 15.001331 0.55758357
-7.0583639 14.914357 0.36195803
-6.7683201 15.021091 3.05512
-6.9335041 14.999046 2.2767382
-6.7779517 14.928345 -0.15485567
-6.6966515 14.981371 2.6022229
-6.7623525 15.016192 2.0606225
-7.2299976 14.806052 1.1563543
-6.7352633 15.032225 2.2242663
-6.7507353 15.017193 2.6361189
-6.7602606 15.020433 1.9557599
-6.7652121 15.036354 2.4456089
-7.4066291 14.860914 1.2523944
-7.3975472 14.826534 0.76480341
-7.2146482 14.682708 0.62644607
-7.3998098 14.821467 1.262195
-6.7576556 15.008766 2.1512539
-6.8667059 14.942905 1.8436056
-7.4072742 14.825615 0.25372785
-7.4020286 14.817937 0.45575708
-6.8648376 14.928799 1.9504728
-7.0347042 14.923051 -0.027802968
-7.0645618 15.052596 -1.0950066
-7.1319981 14.920199 -0.24193227
-7.2242303 14.888568 -1.7435957
-7.2225909 14.802949 -0.2500599
-6.6451163 15.036972 2.462796
-7.2445164 14.825971 1.0639201
-6.7362366 14.995419 2.8082035
-7.4227057 14.88683 1.9650214
-6.7601881 15.082283 2.3693702
-7.3366671 14.865239 0.46348405
-7.2315116 14.798308 0.86486781
-6.6583285 15.07075 2.2322185
-7.0052266 14.841628 1.5383787
-7.3972869 14.822947 0.96306503
-7.3919368 14.859524 0.1763422
-6.8948269 14.923497 1.5647265
-6.9724693 14.929185 2.6018119
-6.8579907 14.926345 -0.23906353
-7.0750494 14.837858 1.2905668
-6.821382 14.94013 -0.34848261
-6.6741805 15.073165 2.3799093
-7.405005 14.813398 0.65840977
-7.3980727 14.857499 1.0615329
-6.8539667 14.908094 -0.016373297
-7.3973017 14.858929 0.5641138
-7.4008794 14.865988 -1.4386933
-7.4030051 14.82401 0.85934043
-7.3400731 14.861594 0.16141334
-6.9148002 14.996976 -0.84546107
-7.4016809 14.85587 1.1536559
-7.3972054 14.813994 0.15991436
-7.3912334 14.86583 0.073861152
-7.3304439 14.866055 0.65764636
-6.8311639 15.020648 0.05505405
-7.4007535 14.826573 1.4565115
-7.3966894 14.821146 1.0635862
-6.9336877 14.909863 0.528898
-7.405282 14.854049 1.5626462
-7.4046569 14.832535 1.6565155
-7.4022117 14.799773 -0.44083172
-7.407145 14.855851 -0.35429472
-7.2328229 14.886588 -1.0404577
-7.0473285 14.935596 1.5422035
-7.4003825 14.829954 1.1605799
-6.8134727 15.117159 2.8552482
-7.4413071 14.857828 -0.24777035
-7.3992977 14.858837 -0.80876899
-7.4293404 14.858045 -1.0622334
-7.413548 14.880683 -0.92885792
-7.1604095 15.055734 1.347836
-7.2279992 14.795996 -0.73526263
-7.3967423 14.824965 1.3568158
-6.9090738 15.088538 2.0606713
-7.4138317 14.857609 1.6556039
-6.9578147 14.816473 0.11260211
-6.9436507 14.919349 0.34790394
-7.2630224 14.954239 -1.5256947
-7.13273 14.97156 -0.91816503
-7.1156955 14.965629 -0.64527941
-7.160778 14.973891 -1.0209799
-6.8375158 14.944557 1.7037728
-6.7355652 14.87406 0.64449126
-6.7581239 14.906332 0.068940207
-7.1126957 14.969479 0.86481166
-7.122375 14.960095 0.66404605
-7.117167 14.968457 0.26702866
-7.1111941 14.964773 -0.12735726
-6.8208241 14.913343 1.7452226
-7.0989704 14.979214 1.9553583
-7.105794 14.960193 0.96609151
-7.0470209 14.933311 -0.14672129
-7.015975 14.983201 -0.53333986
-6.9272203 15.003281 1.457909
-7.366478 14.725838 1.1503432
-6.7134104 14.920887 1.4588501
-7.011097 14.83462 -0.26611683
-7.0384607 14.836912 -0.15651532
-7.1198416 14.962722 1.0588088
-6.9230494 15.075984 2.9694433
-7.032588 14.834448 0.2667892
-7.2182875 15.007338 -0.94994766
-7.0400119 14.911967 1.0715799
-7.106751 14.970353 -0.54427165
-7.1087375 14.979229 -1.6536093
-6.9191599 14.915147 0.6756264
-6.759285 14.917882 0.57146519
-6.8187513 14.924441 -1.3363667
-7.1311049 14.972985 0.37115806
-6.8146958 14.938588 0.64227378
-7.0593028 15.061963 -0.18566662
-7.3377686 14.975525 0.47247601
-6.772912 14.97086 3.2645841
-6.7477059 14.892104 1.5309112
-7.1281476 14.991748 -0.84903574
-7.122828 14.972369 0.45185581
-7.1311021 14.965975 1.6370722
-6.8277783 15.102584 2.7666216
-7.1258984 14.99744 2.7426875
-7.1061387 14.990434 1.8712953
-7.1368504 14.909753 1.5657262
-7.1321344 14.912259 1.8656433
-7.3261495 14.707172 0.23158978
-7.4023476 14.829126 1.7603942
-7.4860821 14.888642 0.9127624
-6.8801403 14.889295 -1.9935265
-7.1266084 14.901724 2.0616882
-6.8318214 15.021753 1.2612393
-6.8062606 15.108355 3.0470057
-7.2280154 14.894929 0.055233248
-6.8211927 15.113581 2.9617445
-7.1331782 14.917192 1.2605915
-6.922646 14.904746 -0.14343287
-7.1418777 14.920807 0.9660998
-7.0955663 14.974569 2.4250238
-7.1401434 14.920649 0.76839072
-6.9107876 14.90009 1.8531095
-6.737093 14.899593 0.15901971
-6.8921728 14.937715 -1.9083897
-6.7885971 14.944615 1.0699441
-6.8186135 15.095301 2.6519597
-6.8302011 15.020823 -0.2355002
-6.9263592 15.009927 1.055041
-6.9254961 15.003923 -0.033158958
-7.2396727 14.817049 -1.644433
-7.2031188 14.890097 -1.5555322
-7.2253609 14.91367 -1.4071531
-7.2164907 14.805075 -0.35012054
-6.8196449 15.002546 3.3568716
-7.0877457 14.972594 2.5214653
-6.947155 14.923191 2.26355
-7.2027736 14.959119 -0.0067899912
-7.2229915 14.891351 -1.136036
-6.8200874 15.092209 2.2620323
-7.2244844 14.796349 -1.3186631
-6.8220434 15.000772 3.0348916
-7.2363224 14.805693 -1.5245295
-6.8332348 14.943293 0.73502779
-6.6771436 15.085834 2.4276252
-7.2710438 14.895706 2.6668203
-6.9836922 15.046095 2.1074331
-6.942894 15.03943 3.1356924
-7.117764 14.963495 0.75708824
-7.0211134 14.80665 -0.076411717
-6.8517966 14.932786 0.50601888
-7.1228509 14.803756 -0.51404274
-6.9386716 14.923817 1.1443863
-6.8059568 14.948422 3.2471433
-7.1273155 14.807528 0.24944763
-6.9307289 14.916571 0.74902683
-6.6937771 14.868258 0.45761839
-7.0135555 14.896397 3.1657858
-6.9040542 14.919208 2.0873942
-6.8802266 14.975685 3.0569351
-7.4006281 14.815477 0.55643606
-7.4007101 14.830833 1.5542094
-7.3613858 14.968164 -0.35576525
-6.8485017 14.934685 3.3111122
-7.0295424 14.89016 3.0489182
-6.8284879 15.020021 2.0575173
-6.8324819 14.986379 2.8644073
-7.1407042 14.8039 -0.38503429
-7.2315054 14.998114 -0.14483461
-7.2287269 14.889164 0.66560495
-7.1448841 14.82984 0.69931847
-7.3123684 14.742105 1.3665327
-6.9201365 14.910949 1.6393582
-7.2160926 14.979956 0.028881988
-7.0028777 14.890177 -1.2690415
-7.3889341 14.679513 0.44061014
-6.8739052 14.93292 -0.3971242
-7.0333014 14.906076 -0.4463639
-6.9225655 14.84416 -0.56070584
-7.1368446 14.845022 -1.2350574
-7.2156701 15.005501 1.7695726
-7.3653603 14.739155 0.35606906
-6.8347931 15.105719 2.5628884
-7.0979829 14.744452 -0.62834346
-7.2319679 14.96437 0.38785678
-7.2847471 14.743605 1.2634531
-6.7473121 15.091365 2.5675757
-7.0753565 14.910252 -1.8532701
-7.0142789 14.969364 3.2377112
-7.2326255 14.7906 -1.0369124
-7.3243494 14.986445 -0.13873968
-7.3938246 14.73652 1.129617
-7.3039842 14.982747 1.2618216
-6.9016385 15.061281 3.1313841
-6.8977704 15.077738 2.7756102
-7.0525565 15.081031 3.2351606
-6.9524508 14.788064 -1.8405972
-7.0107331 15.059286 0.98206282
-6.999238 15.073755 2.3821995
-7.3509121 14.993649 0.80576181
-7.2629929 15.003464 1.2790233
-7.3201575 14.98723 0.85320026
-7.2241755 15.013297 1.8500705
-7.1610298 14.82907 -1.5546494
-7.1092095 14.961712 1.2545637
-7.10988 14.961989 0.14872399
-7.1158338 14.962173 -0.22979054
-7.5064874 14.861553 1.1697801
-7.1202154 15.056097 1.909475
-6.8402958 14.932348 0.082489826
-6.8269701 14.934574 0.18097576
-6.8410578 14.929116 0.39336285
-6.8201375 15.005301 2.9714308
-6.9855256 15.065625 2.8236315
-7.1823754 15.035497 1.6463804
-7.0874467 15.034717 2.6550591
-6.9202166 14.996408 1.7579427
-7.1137629 14.972829 1.3600678
-6.9261127 14.992503 2.0684218
-7.1072364 14.966127 0.070949502
-7.1158962 14.975159 -0.33256552
-6.9374151 14.895077 0.96077317
-7.0976157 14.963173 1.15334
-7.1117444 14.969645 0.57273406
-7.3343492 14.570467 0.58585989
-7.0421257 14.912559 -0.54290795
-7.0232506 14.979016 1.2637447
-7.0357528 14.969633 1.8536583
-6.9341168 14.923033 -0.53386796
-7.0407333 14.926684 -1.0387211
-7.0409513 14.891042 -1.6466795
-6.9235339 14.933126 0.86163855
-7.4092946 14.858426 1.7802989
-7.0250902 14.978416 2.2717438
-7.0226555 14.975282 2.3679523
-7.0185838 14.914784 -0.84055763
-7.0430655 14.928456 -0.32029769
-7.0397425 14.82514 -1.3034961
-7.2334051 14.821105 -1.2580858
-7.0306106 14.899054 2.7489841
-7.0182004 14.97715 1.9596416
-7.0309396 14.893425 2.8603847
-7.0192957 14.974951 -0.040135842
-7.0238347 14.903622 -0.6258167
-6.8286638 14.907618 -1.1040206
-6.8710728 14.911249 1.1365609
-6.9988365 14.856783 -2.1310992
-7.2258825 14.888672 -0.74171072
-7.0296516 14.977909 1.1597099
-7.03163 14.970234 -0.14519273
-7.3123512 14.984149 1.7540857
-7.0178108 14.835748 -1.0022267
-7.2285695 14.887661 1.4535437
-6.7573771 14.903034 1.2904308
-6.7526503 15.098278 2.6678743
-6.7609634 15.08453 2.1627636
-7.2421732 14.978142 1.3637373
-6.9128861 14.920325 -0.3340174
-7.2361145 14.888567 1.547828
-7.2261205 14.896866 1.3585187
-7.1106997 14.876477 3.0428982
-6.7496176 14.944253 2.005703
-7.2160892 14.820773 1.48063
-7.2401686 14.804669 1.852204
-7.0148745 14.968319 2.4543798
-7.2808933 14.982612 -1.2010801
-7.2894926 14.961369 -0.039186418
-7.2290096 14.898165 0.85553569
-7.316318 14.96508 0.08383213
-7.0326128 14.972188 0.56551969
-7.0296755 14.975223 1.058391
-7.0238581 14.974172 0.05394496
-7.0293674 14.978979 0.96530193
-7.0362926 14.922532 -0.73458099
-6.6159029 14.871982 -0.62900764
-7.0303245 14.916263 0.56357527
-7.0415535 14.916234 0.85736459
-6.9346066 14.89904 -0.44580376
-6.9127107 14.894124 -1.54173
-7.0250578 14.979074 1.3725634
-7.0271769 14.976118 0.66415256
-7.0281878 14.983344 1.7519344
-7.2274556 14.896923 0.36210051
-7.1462731 14.909508 -0.722489
-7.1176071 14.912519 -1.0502959
-6.7646465 14.926651 1.2021825
-7.1088533 14.961823 -0.43031734
-7.3388243 14.971203 0.22527854
-7.1245904 14.90649 -0.9493075
-7.1387725 14.920094 0.36022967
-7.2822046 14.952215 1.6638176
-6.8611145 14.935093 -0.53970724
-7.1237211 14.972002 1.5703429
-6.9273686 15.003071 1.9644079
-6.8225141 15.093541 2.4571402
-6.9763541 14.814515 -0.24140155
-6.9752522 14.809696 0.4470765
-7.1293297 14.828992 -1.9731367
-7.207942 14.903514 2.4247899
-7.0317454 15.062491 -0.28074515
-7.0706124 15.000919 2.7421381
-7.1244969 15.075238 -0.080574341
-7.1247373 14.980978 1.4648831
-7.1206775 15.048402 -0.12043825
-7.1969185 14.96804 -0.74957198
-7.4227772 14.869755 1.8798072
-7.4918118 14.789358 0.72669673
