# .PCD v0.7 - Point Cloud Data file format
VERSION 0.7
FIELDS x y z
SIZE 4 4 4
TYPE F F F
COUNT 1 1 1
WIDTH 523
HEIGHT 1
VIEWPOINT 0 0 0 1 0 0 0
POINTS 523
DATA ascii
14.055068 19.228168 1.8352851
13.943982 19.240593 1.9520073
13.30574 20.641497 0.85653722
13.969339 19.197462 2.4341547
13.557899 20.199993 1.4541492
13.656332 19.698509 1.4565983
13.450381 20.130657 1.5474805
13.592289 19.801275 1.4820685
13.80237 19.299889 1.4604888
13.649275 19.930542 1.4467394
13.676743 19.692394 1.3413627
13.503853 20.090504 1.3821352
13.602226 20.055193 0.54419285
13.710031 19.705347 1.1976492
13.441424 20.630598 0.96377563
13.59854 20.077499 0.46824136
13.483558 20.116192 1.277681
13.293327 20.598303 2.2795291
13.299057 20.669113 1.2529222
13.716296 19.502558 1.4003631
13.306148 20.613718 1.754483
13.578157 20.070885 1.0590174
13.669968 19.926346 1.3539189
13.94954 19.168327 1.6283875
13.487308 20.216068 1.1869123
13.714799 19.818689 1.7424235
13.953141 19.374084 2.5634606
13.919523 19.456455 2.488307
13.447426 20.630091 1.6580178
13.658299 20.010778 1.3571007
13.28454 20.704653 1.3581567
13.311634 20.589418 1.9634168
13.316961 20.614407 2.1389184
13.587761 20.146603 1.7985059
13.29073 20.610817 0.99207687
13.74604 19.996557 0.99262404
13.693819 19.837183 1.8450599
13.765915 19.481043 1.4355032
13.301151 20.593792 2.3636525
13.700649 19.803688 1.9249208
13.695096 19.615952 1.4106002
13.723738 19.994137 1.0337046
13.346949 20.756826 1.9879426
13.732084 19.995668 0.89940691
13.526316 20.619076 2.1850109
13.871702 19.451864 1.5355614
13.451216 20.811035 0.66186786
13.479806 20.310715 1.0530943
13.672171 19.892675 1.2519337
13.684539 19.731207 0.99647993
13.740675 19.785997 1.1171601
14.044151 19.328121 2.1946106
13.725724 20.067104 1.9938625
13.731073 20.047026 1.8471906
13.982398 18.989206 1.2571673
13.702544 19.762428 1.1443647
13.771447 19.51222 1.2582759
13.742487 19.690561 1.1567295
14.025404 18.954861 1.2590621
13.449855 20.632135 1.7513051
13.719964 19.75639 1.0879772
13.960558 19.10981 1.2516717
13.955151 19.318453 2.4606037
13.771648 19.603798 1.0947289
13.862038 19.620613 1.1224953
13.998612 19.062302 1.128729
13.701661 19.696249 1.2781234
13.839441 19.466288 1.1204176
13.649158 19.941385 0.5926289
13.756906 19.674713 1.7109406
13.730038 19.591434 1.336193
13.484694 20.298491 1.176453
14.047934 18.973797 1.0487856
13.543609 20.208572 1.0927325
13.751996 19.670708 1.0812582
13.48839 20.096779 1.444501
13.750919 19.683365 0.99533993
13.657514 20.181519 2.1237085
13.495736 20.03476 1.6393405
13.811733 19.27808 2.2136295
13.456128 20.638565 1.8595423
13.725977 19.783939 0.96440983
13.748326 19.434702 1.4637334
13.477479 20.276274 1.4445529
13.979243 19.118599 1.0523831
13.534473 20.187447 1.1799018
13.361052 20.493473 0.95433331
13.715866 19.722588 1.7158649
13.771107 19.611351 0.96573168
13.765934 19.355831 2.3872118
13.947487 19.366741 2.3496625
13.603032 20.059999 1.1634649
13.586459 20.198698 1.2163626
13.676738 19.918417 1.1697313
13.649523 19.940006 1.0627611
13.950395 19.371962 2.0618429
13.947919 19.369234 2.1614325
13.731503 19.984737 1.8449845
13.598343 20.064861 0.95503193
13.77606 19.510567 2.0414038
13.641608 19.923832 0.87505782
13.854063 19.494194 1.2512128
13.467394 20.270889 1.5596731
13.885182 19.19475 1.5542753
13.530445 20.292332 1.0583801
13.459845 20.633951 2.1689901
13.673044 19.615599 1.4653448
13.444094 20.668991 1.9583093
14.009932 18.960899 1.0959182
13.93925 19.109003 1.3542153
13.641149 19.909996 1.588377
13.44846 20.630209 2.270828
13.598257 20.001825 1.2512057
13.601708 19.910507 1.2657368
13.766891 20.189642 0.59484529
13.576435 19.92251 1.1031096
13.751128 20.167452 1.929365
13.71699 20.176466 0.58413309
13.70595 20.145956 0.61253566
13.98827 19.486057 1.9603872
13.715057 20.148815 0.49642774
13.491717 20.201439 1.2561798
13.800825 19.430019 1.2764552
13.956193 19.469265 2.4709272
13.992603 19.464132 2.5213072
13.721627 20.008142 1.7890939
13.277442 20.682039 2.2452958
13.798122 19.509441 1.1675799
13.6082 20.147558 2.2096217
13.710977 19.622906 1.2651706
13.134869 20.873276 2.3908553
13.739029 20.001213 1.6548327
13.971678 19.482824 2.6160257
13.959121 19.446423 1.7752054
13.593054 19.912132 0.86498624
13.594868 19.920563 1.4626186
13.379549 20.77454 2.2522557
13.62997 19.919285 2.0140164
13.394006 20.788113 1.8767955
13.43798 20.67972 1.7599255
14.01274 18.904686 1.6545681
13.971299 18.974201 1.3200712
13.37499 20.759445 2.3790088
13.386785 20.751177 2.5600612
13.453809 20.675406 2.1653974
13.681335 19.801273 1.3656198
13.469209 20.459461 1.1605505
13.435744 20.496199 1.0831894
13.420274 20.541382 1.4135205
14.047438 19.240561 2.047864
14.068254 18.793865 1.3521903
14.042234 19.276852 2.3412957
13.378282 20.631519 0.76359957
13.378308 20.626167 1.6543972
13.286091 20.688507 1.8526902
14.026896 19.31595 1.9694302
13.290273 20.628908 1.5358366
13.383748 20.629265 0.65552884
13.951621 19.321375 1.4605852
13.606719 19.997086 0.75965196
13.872425 19.169594 1.4511378
13.582685 19.908995 2.1571531
13.607448 20.004902 0.45043561
13.72356 19.836924 1.23326
13.665838 19.932138 0.76971745
14.192284 18.672363 1.1619012
13.607044 20.000105 0.65695012
13.31659 20.6936 2.6150427
13.314354 20.705515 1.7599723
13.384616 20.679953 1.1586802
14.061105 18.798962 1.2804774
13.947215 19.303181 2.3623464
13.858927 19.314199 2.6578751
13.4037 20.759869 2.4305556
13.788602 19.400852 2.2706871
13.704408 19.792072 1.6169235
13.867395 19.366013 2.5437398
13.192129 20.902082 2.2701645
13.59637 20.0093 1.4609727
13.485148 20.820728 2.3609436
14.078807 18.798084 1.1889305
14.0715 18.89353 1.9200317
13.371931 20.622885 1.5665696
13.585649 20.08761 1.2631004
13.777353 19.938313 1.9042957
13.311279 20.612082 1.8344324
13.361889 20.624575 2.1597493
13.440105 20.678108 1.662214
13.280951 20.680283 1.445684
13.85536 19.318449 2.7288013
13.38155 20.683577 1.7645009
13.597547 19.892265 2.0072439
13.599287 20.001276 1.8633654
13.344854 20.626364 2.4658372
13.570166 19.918573 1.6800103
13.303548 20.673605 2.3402803
13.379242 20.628542 0.859263
13.359043 20.60713 2.7486086
14.063189 18.885151 1.0816379
13.591907 20.008039 1.9500395
13.594301 20.00449 2.0475996
13.668993 19.5415 1.5467786
13.573673 20.056194 1.8533462
13.666761 20.018114 1.7663927
13.602319 19.998135 1.1619571
13.687093 19.857893 1.934484
13.950314 19.322229 1.5575533
13.653605 20.005152 0.46055472
13.668357 20.012527 1.6565517
13.755144 19.583891 1.244784
13.647337 20.002031 0.76077294
13.661459 20.06456 1.7475662
13.648879 20.007219 0.95861489
13.662193 20.064281 1.8543804
13.718869 19.486319 1.4303659
13.385187 20.678814 0.96180695
13.649331 20.004198 0.65811491
13.947266 19.366152 1.6688216
13.589324 20.059254 1.5537894
13.460473 20.630562 2.0460932
13.795362 19.398306 2.0570512
14.033104 18.933805 1.8963523
14.049413 18.894007 1.1843669
13.945086 19.319305 1.3579997
13.371864 20.674313 2.1648722
13.893315 19.314999 1.7593623
13.660417 20.066532 1.6669956
13.891489 19.318306 1.4641397
13.665349 20.01926 1.9602698
13.555513 20.205917 2.093843
13.365543 20.79936 2.141854
13.308745 20.639372 2.4483826
13.3863 20.677128 1.0595405
13.387939 20.679808 0.86363345
13.749718 19.998089 1.9455843
14.096378 18.816858 1.6764672
13.367989 20.688044 2.364213
13.377103 20.629139 1.0642345
13.651356 20.002949 0.56311649
13.65456 20.064013 0.95524585
13.789606 19.389236 1.7591372
13.734898 20.015104 2.066452
14.051043 19.191505 2.1737118
13.880033 19.313656 2.4623578
13.780883 19.471144 1.8276736
13.581579 20.068089 1.4730698
13.804337 19.392576 2.1626692
13.752451 20.005629 0.79773545
13.887337 19.317966 1.9608364
14.049292 18.885019 1.2624353
13.662877 20.064352 1.9668366
13.666044 20.163155 2.0442557
13.435159 20.637558 0.85617983
13.895576 19.366335 1.3642118
13.892354 19.363703 1.467225
13.470805 20.415689 2.1855657
13.874405 19.317387 2.3596346
14.045639 18.870491 1.7729145
13.3049 20.687489 0.85265696
13.744871 19.475231 1.7739388
13.667771 20.016048 2.0545549
13.386833 20.687181 1.2578174
13.948103 19.362333 1.7645643
13.879201 19.312159 2.0594501
13.593053 20.000172 1.7675247
13.648452 20.002966 0.86090076
13.668615 20.014729 1.8620269
13.383221 20.632576 1.4642932
13.885309 19.371658 1.7559142
14.067604 18.891182 1.5916342
13.64904 20.005495 1.0604298
13.453135 20.630611 1.9720052
13.436528 20.50058 1.9773965
13.414853 20.214031 1.4871044
13.955046 19.321032 1.8612794
13.386617 20.682558 2.0504928
13.891605 19.374853 1.5610096
13.366488 20.683315 2.4553545
13.719067 19.578426 1.0274692
13.257195 20.860537 1.9614754
13.294333 20.692631 1.9513965
13.947484 19.361731 1.8610402
13.659621 20.016794 1.5613964
13.873238 19.377659 2.7603817
13.967748 19.317728 2.7647996
13.947126 19.369295 1.9526247
13.288538 20.667435 2.1577339
13.888449 19.370512 1.6613925
13.879825 19.313349 2.2658923
13.996239 18.983274 1.6266402
13.299202 20.933529 2.1682458
13.65626 20.010027 1.2641151
13.386594 20.686569 1.6625844
13.864118 19.381166 2.6485233
13.882775 19.364971 1.9579573
13.374695 20.683313 1.9613053
13.893413 19.36858 1.1593596
13.433867 20.680016 0.85629618
13.384799 20.687416 1.3622203
13.46122 20.193758 1.4567868
13.596087 20.005051 1.559109
13.867207 19.320656 2.5520325
13.951484 19.320179 2.2491405
13.657432 20.067245 0.55871916
13.875422 19.361835 2.2566335
14.000315 18.903662 1.3047655
13.662117 20.077114 0.85055101
13.951898 19.321194 2.0676472
13.575808 20.066067 2.0600071
13.686441 19.806061 0.98238558
13.954317 19.31856 1.961596
13.668227 20.059769 0.66170126
13.603449 19.997663 0.96743256
13.952376 19.37187 2.2492096
13.970263 19.010798 1.5450014
13.885953 19.322718 1.6617228
14.13978 18.794058 1.6622676
13.950521 19.31608 1.7619052
13.957721 19.318935 2.1543229
13.888662 19.314604 1.8624661
13.646376 20.055624 1.0714903
13.894386 19.318895 1.5598812
13.883999 19.366873 2.1557374
13.876184 19.371132 2.4560761
13.651919 20.010614 1.1576703
13.879775 19.373377 2.3566635
13.434315 20.769894 2.1852922
13.275647 20.69281 1.5576524
13.510695 20.76622 1.983621
14.06481 18.863148 1.6787893
13.581445 19.921028 1.8385192
13.603114 19.998915 1.0597533
13.360486 20.678528 2.5610282
13.889743 19.374033 2.0599356
13.386889 20.490442 1.2637421
13.762181 20.050249 0.72995478
13.878066 19.309254 2.1656427
13.494329 20.182642 1.3272479
13.379716 20.680376 1.559087
13.884446 19.311947 1.2521735
13.890272 19.371542 1.85551
13.994504 18.928083 1.8230511
13.595662 20.001677 1.6601245
13.388048 20.682604 1.4665955
13.294593 20.590504 1.3794142
13.294363 20.627203 1.4699458
13.364879 20.619667 1.9657334
13.370542 20.624235 1.3622657
13.916175 19.086397 1.1588062
13.368542 20.630285 1.8694029
13.281809 20.613197 1.6596773
13.430387 20.631948 0.78844321
13.60286 20.005836 0.57054561
13.472799 20.417036 1.0678595
13.459837 20.633966 0.45727804
13.475336 20.399029 2.0543897
14.028609 18.983913 1.1507218
13.683467 20.169868 1.7505167
13.532519 20.201532 1.5631543
13.438765 20.63637 1.0619248
13.74999 19.537384 1.3145641
13.817201 19.263845 2.6532047
13.566844 20.194031 1.6762996
13.65738 20.066648 1.264091
13.664944 20.078667 0.46041358
13.816278 19.448709 2.340421
14.188906 18.670425 1.2679566
13.648947 20.183176 1.9492285
13.443894 20.675135 2.3521385
13.598977 20.06217 1.7688749
13.390346 20.625628 0.46402162
13.594553 20.085247 1.9694978
13.431817 20.677238 0.6563918
13.958314 19.294798 2.6507471
13.48526 20.116829 2.0960975
13.272415 20.686615 2.5687945
13.429117 20.677902 0.96808589
13.731726 19.996771 1.1660485
13.309758 20.649632 1.0980461
13.438658 20.635439 0.66536987
13.298032 20.677925 1.6608443
13.372477 20.628321 1.1601042
13.375847 20.626936 0.9620567
13.598446 20.077122 1.3570154
13.408138 20.790831 0.67114139
13.370488 20.62291 1.7602711
13.591287 19.900358 1.5637665
13.793429 19.413996 1.321287
13.686947 19.919024 0.67661673
13.812009 19.524654 1.0222101
13.288471 20.688572 2.0515208
13.596456 20.00388 1.3667685
13.728592 20.001654 0.41491067
13.386535 20.681154 0.66139245
13.294592 20.690723 2.4640002
13.362229 20.615841 2.2557459
13.575755 19.899422 0.64443433
13.659098 19.797453 1.2642794
13.804724 19.336761 2.1345327
13.445663 20.677702 2.0535619
13.429309 20.677708 0.75429642
13.266778 20.804176 2.1547873
13.657675 20.076115 0.75612515
13.899178 19.364519 1.2640947
13.377752 20.671518 2.2682266
13.74343 20.182196 0.63030165
13.479483 20.289721 1.2678312
13.447366 20.303528 1.3555855
13.807686 19.285995 2.3856127
13.375291 20.62471 2.3605006
13.606342 19.995815 0.85400081
13.988768 18.969753 1.4671688
13.445902 20.683399 2.2574697
13.36897 20.621859 2.0564737
13.890624 19.316631 1.1594545
13.382225 20.679146 1.8565125
13.440616 20.775223 2.2618544
13.427429 20.90304 2.1696622
13.28957 20.781836 1.7646873
13.362647 20.416208 1.4557376
13.584009 19.894438 0.55065829
13.593397 19.931961 0.46924174
14.031046 18.946835 1.3669442
13.386899 20.674971 0.76167011
14.002899 18.860544 1.3466549
13.584564 20.078724 1.6504796
13.438455 20.674963 1.5636978
13.460083 20.400179 1.1540042
13.794853 19.360044 2.4373438
13.607862 20.084612 0.67331743
13.596475 20.062321 0.79143399
13.434356 20.376801 1.2400964
13.381303 20.391151 1.3649894
13.397535 20.29627 1.4761269
13.943849 19.37561 2.4553349
13.938969 19.409414 2.6531534
13.681794 19.806396 1.4636247
13.780022 19.903538 1.9170551
14.053159 19.474443 2.0430946
13.924446 19.483198 2.0418639
13.302956 20.678675 0.76638454
13.677844 19.942028 0.9676832
13.301511 20.685503 1.1749647
13.514583 19.992085 1.7216001
13.411722 20.488869 1.6314729
13.838418 19.45001 1.7743524
13.840159 19.222458 1.7446225
13.773885 19.597445 1.1741009
14.12544 18.80175 1.2929277
13.559504 20.161972 1.829101
13.81827 19.334753 2.0325191
13.515284 20.088507 1.9738353
13.787819 19.384106 1.923148
13.429846 20.370468 0.81011862
13.801259 19.368343 1.8597636
13.493488 19.996567 2.1103747
13.518264 20.061197 1.6495491
13.654785 19.91069 1.6499844
13.437502 20.47401 1.567346
13.696124 19.728798 1.524145
13.435312 20.395412 1.4674654
13.420169 20.384836 0.98102647
13.484624 20.236046 1.5545619
13.965837 19.11228 1.5707958
13.781273 19.596861 1.5856185
13.287986 20.626657 2.8320353
13.779658 19.495926 1.5289718
13.751471 19.623142 1.4969423
13.736972 19.763807 1.7539349
14.048249 18.949911 1.7153478
13.677723 19.889771 1.7490563
13.9935 19.104094 1.6522868
13.515619 20.237621 1.6225791
14.021735 19.050808 1.6582494
13.975437 19.314346 2.5609953
14.051105 18.954288 1.6433948
13.536958 20.290648 1.7897843
13.73081 19.781769 1.6952598
13.829903 19.504311 1.6512512
13.782547 19.594666 1.6330583
13.717727 19.77474 1.5891252
14.027939 18.98904 1.6045887
13.764494 19.647272 1.5913295
14.067775 19.000408 1.8219827
13.959649 19.206629 1.7612264
13.943466 19.208757 1.5617241
13.75694 19.605831 1.7218533
13.364843 20.473352 1.5455532
13.309155 20.595434 0.78059721
13.85604 19.240261 2.6546261
13.873119 19.219803 2.2729294
13.895354 19.030066 1.6387599
13.907457 19.203426 1.6458954
13.691659 20.166101 0.87024426
13.314262 20.599487 1.1561593
13.548237 19.916588 0.73785275
13.398834 20.536963 0.79469657
13.660338 19.817268 0.91040874
13.551739 20.204603 0.95856082
13.71617 19.715111 1.0865614
13.657008 20.152294 1.6680754
13.915528 19.463205 2.1526546
13.412922 20.752171 0.75760055
13.515781 20.198915 0.87621677
13.391174 20.500847 0.88482916
13.403959 20.456104 1.0604045
13.886686 19.504333 2.4076056
13.365982 20.408562 0.83700365
13.710979 19.538521 2.1691177
13.644078 19.572369 2.069448
13.684577 19.523817 2.2176244
13.283849 20.778481 0.66187018
13.277382 20.729239 0.69026279
13.738214 19.634472 1.992589
13.855589 19.475664 1.9690151
13.856125 19.473547 2.0442619
13.360132 20.774214 0.47600555
14.000737 19.074787 1.8500316
13.543392 20.177269 1.3690478
13.936919 19.18701 2.392504
13.914967 19.472357 2.5217683
13.900651 19.447134 1.4334997
13.825527 19.532166 1.3957818
