# .PCD v0.7 - Point Cloud Data file format
VERSION 0.7
FIELDS x y z
SIZE 4 4 4
TYPE F F F
COUNT 1 1 1
WIDTH 1613
HEIGHT 1
VIEWPOINT 0 0 0 1 0 0 0
POINTS 1613
DATA ascii
26.40799 11.312833 2.211468
26.438276 10.903425 2.5560694
25.507936 13.29743 2.6412323
26.199305 11.83074 2.4157422
24.281317 16.292604 2.4580922
25.969252 12.782924 2.150856
24.613312 16.021463 1.9748176
26.444904 11.574778 2.1612558
24.826313 15.669308 1.6584884
26.822638 10.592995 2.3984275
26.465218 10.798195 2.2638402
25.648462 13.6238 1.8714873
25.123501 15.187534 2.646023
26.084167 11.521334 1.9574887
24.789076 15.514865 1.9836451
24.638174 16.294155 2.3549407
26.189505 11.524575 1.8832055
24.979992 15.086804 1.9486662
24.696152 16.021595 1.843745
26.291113 11.896841 2.7407351
24.647663 15.90238 1.5332882
26.000645 11.932833 2.3093362
24.963846 14.504164 1.8306644
25.4552 13.488252 2.7470763
26.966757 9.4966459 2.4396367
26.309359 11.130423 2.1607327
25.163754 14.198994 2.5527968
24.543745 15.863371 2.4533589
26.281321 11.800392 2.3599954
25.314793 13.775474 2.6650968
25.301212 13.814952 2.2652931
25.310495 13.8239 2.4500294
26.777205 10.640922 2.8693686
25.030632 14.579721 2.0695968
26.231333 11.45496 2.5732331
25.300804 13.805815 2.3528512
26.58643 10.877639 2.2822604
26.279993 12.003395 2.7593517
25.52697 14.159011 2.8803585
26.488611 10.805776 1.7418673
27.134832 9.9359922 2.8545213
26.30109 11.981793 2.839479
25.928101 12.59045 1.8041421
25.044905 14.569192 2.3613749
24.619658 15.612703 1.7594837
26.661919 10.301428 2.5554891
25.755589 12.694367 2.0798137
26.504007 10.627149 2.3720684
27.2265 9.5544052 2.3625093
25.429728 14.306035 1.6757053
26.468899 10.795092 2.3616276
25.960854 12.587405 2.0554879
26.889908 10.114219 1.9011751
25.604839 12.995218 2.4394684
25.760899 13.300216 2.46666
26.473688 10.781974 2.5612669
26.436722 10.970097 2.0687685
26.252691 12.081483 2.653343
26.499224 10.995706 2.7756612
26.485472 10.707997 2.0678918
26.080151 11.805316 2.5507827
26.673704 10.66848 1.9398565
27.242891 9.5494938 2.2295027
26.505672 10.607326 2.7284923
26.368031 11.596294 2.2660074
26.068956 12.002202 1.8664318
25.396997 13.439983 2.1460793
26.464834 11.399571 2.3628151
24.642241 16.085106 2.0652711
25.336742 14.521502 1.5633017
24.644709 16.278082 2.5585558
26.280178 11.800137 2.5515468
25.333517 14.543864 1.8387804
25.500839 13.319783 1.9644871
24.620514 16.470837 2.7464054
24.1089 16.945421 1.7917867
26.312382 11.130444 2.270417
25.764826 13.298474 1.9744527
25.783285 13.302268 2.6560283
25.548956 13.315085 1.7752957
25.873161 13.108011 2.7622378
24.499533 16.529816 1.8867193
25.287056 14.410703 2.4624939
25.790804 13.195549 1.8602836
24.938652 15.581377 2.5676384
25.764977 13.293305 1.7523757
25.618452 12.940758 2.2704358
25.362991 13.696595 2.2589765
24.5762 16.200718 1.9893771
24.35047 16.393946 1.9820001
26.767221 10.858272 1.9336246
24.58342 16.203281 2.4532595
26.470516 11.295579 2.3620706
25.449001 13.479959 2.2605176
24.686537 16.295816 2.8490019
25.652496 12.98557 2.0539246
24.545639 16.497606 2.4544439
26.833015 10.604689 2.8479738
25.472206 13.407633 2.0749152
25.751163 13.390369 2.4600754
26.380014 11.728704 1.6447597
26.470972 11.298525 2.1782277
24.455139 16.171761 2.3688357
24.707682 15.889043 1.7615235
24.649296 16.373581 2.6871045
24.542355 16.507015 2.171814
26.474529 11.399265 2.759423
25.611881 12.82405 1.9916936
25.274744 14.199915 2.0616419
25.817362 12.436064 2.1687763
25.398981 13.383906 1.9624583
24.553007 15.805284 2.355526
25.60317 12.826555 2.3443289
27.003147 9.406455 1.9782991
26.190567 11.945955 1.5586884
24.426695 16.873312 2.1108937
24.682137 16.218723 2.8613849
25.700142 12.71018 2.5338187
26.172935 12.015241 2.5480826
26.5459 10.679731 1.9801419
24.854712 15.47908 1.9795474
26.494587 11.08467 2.4727271
26.46908 11.399668 2.1753013
26.139553 12.022499 1.7535532
25.716005 12.711235 2.4394314
27.20315 9.3025761 2.4679615
24.6084 16.09786 1.873637
26.284491 11.996456 2.6499319
25.675999 13.079497 2.055902
26.642088 11.100368 2.1685846
26.552177 11.288975 2.272306
24.440151 16.167542 1.9541869
26.499811 11.29798 2.4572258
26.122416 12.38858 1.8646901
25.440254 13.485908 2.567044
26.872894 9.7089043 2.5522735
25.933578 12.900616 2.1744568
24.480265 16.597181 2.4599333
25.48934 13.901754 2.3561058
25.833433 12.471125 2.3609827
25.847031 12.484611 2.4426267
25.169611 14.612309 1.9600796
26.987185 9.4007416 2.0707936
26.258268 11.706548 1.8621664
26.833853 9.8761692 2.153291
25.769842 13.199505 2.1601088
25.478928 13.898817 2.2659788
26.457739 11.40372 2.0633092
26.111969 11.635914 2.5290971
25.953018 12.897681 2.7704329
25.398682 14.044834 2.5829418
26.642258 11.074252 2.373064
24.552795 16.586613 2.6535125
25.379835 14.29423 2.564203
25.932358 12.889289 1.97864
25.980619 12.096951 1.8718076
26.285536 11.726165 2.0240531
25.706102 13.199356 2.263804
26.887077 10.318892 1.5708499
25.479578 13.801628 2.8576522
26.831823 9.9809132 2.0550396
25.762104 12.954325 2.7368422
26.104084 12.324722 1.7894465
25.534243 13.986718 2.3568611
26.585396 10.994391 2.6735783
25.707479 12.810109 1.8639705
26.282028 11.654035 1.9773195
24.541544 16.48687 2.2622905
26.091492 12.31315 2.362191
25.710201 12.716819 2.2635581
26.699139 10.110246 2.1777997
26.841515 10.565456 1.8803719
26.291006 11.802285 2.7382469
26.60622 10.41522 2.5710342
25.737122 13.074929 2.7547512
25.935875 12.885989 2.3826149
24.973478 15.24635 1.5560638
24.796743 15.596751 2.1602917
25.596233 12.852023 2.3663852
25.743799 13.384132 2.353117
25.61075 12.945274 2.4819169
26.843304 10.591301 2.6471846
25.806053 12.426647 1.8517504
26.707758 10.729096 1.5589782
24.93788 14.878231 2.3125129
24.922558 14.908247 2.4648771
25.967569 12.694343 1.508968
26.906227 10.293614 2.8644295
27.223545 9.6674166 2.119067
25.812738 12.41603 2.1007435
24.893679 15.707659 3.0386817
25.792816 13.124605 2.5323598
27.238972 9.5416946 1.8604276
24.517771 16.574739 2.8140938
26.567991 10.993562 2.0754592
24.761614 15.284081 2.1653049
24.492231 15.905439 2.2613347
25.418434 13.920139 2.3661711
24.497366 16.402885 2.2627628
24.45623 16.208784 1.7699298
24.533913 15.88556 1.949084
26.434967 11.507111 2.0775423
26.588564 10.947042 1.7865502
26.506046 10.620889 1.9992532
24.495028 15.89818 1.9838253
25.471569 14.096136 1.9434197
24.786852 15.187032 1.9714869
26.475666 11.392842 2.6593149
26.194712 12.105695 2.6519856
24.462477 16.692719 2.4510953
24.505697 16.232304 1.6125337
25.438551 13.835828 2.6787269
24.647726 15.681871 2.0492525
25.041832 15.362643 2.7586908
26.10078 11.720665 2.4633973
26.724337 10.163644 2.7126503
24.929697 15.565049 2.3601668
26.355228 11.089363 2.3514695
24.794216 15.315773 1.5867746
26.203671 11.200609 1.9266565
24.876543 15.777304 2.0529118
24.77602 15.193895 2.1638637
24.490129 15.91053 2.1673975
26.12447 12.065951 1.7720376
25.883083 12.207627 1.9511377
25.867847 12.109502 1.9280775
24.792177 15.206573 1.8506793
26.589285 10.405469 2.0692322
25.173386 14.712679 2.0900426
24.801186 15.182648 1.7099622
24.425152 16.966629 2.6248944
25.507486 13.076421 1.8771006
25.480545 13.383904 1.9852645
24.994732 14.536126 1.8111562
25.639 13.317167 1.4539065
24.909136 16.006195 2.0752387
26.487356 11.415897 2.8566537
25.617825 12.871054 2.5215271
24.361292 16.58074 1.9970491
24.466616 16.69269 2.5619485
25.127342 15.180298 2.7464442
25.816601 12.792562 1.5301023
26.300491 11.203462 2.2555399
27.031172 10.060292 1.9677461
26.62726 11.119907 1.1060214
25.913107 12.217028 2.54563
24.172966 16.791704 2.3437643
24.568993 15.78616 2.4671249
26.784943 9.9198036 1.9786061
26.990494 10.085239 2.662369
26.461781 10.899867 1.9562392
24.893551 15.706566 2.843549
25.262243 14.592855 2.175106
25.840591 13.188552 2.5657744
24.881458 15.688926 2.6570735
24.922091 15.563705 2.282624
25.940592 12.762882 1.7089983
26.217651 11.289647 2.4384091
24.851089 15.690504 2.3630695
27.249521 9.4774523 2.4633045
26.541323 11.62725 2.8810236
24.86306 15.689382 2.5659721
25.722094 13.545826 3.0162501
25.66432 13.471368 1.8830558
25.172066 14.891673 2.6607299
24.804213 15.477854 2.2762849
26.754658 10.481377 2.1892431
26.392252 10.905204 2.1541343
27.088274 9.9507351 1.5479469
24.761806 15.393171 2.1570559
27.003014 9.3073034 2.1438591
27.122854 9.9537697 1.6635888
24.794186 15.60467 2.2712722
25.161442 14.889885 2.1532488
26.557903 11.284205 2.7302182
26.574312 11.107999 2.1668563
25.647228 13.614863 2.0526268
27.193165 9.3976803 2.3641064
25.675589 13.461102 1.6455274
27.24086 9.49191 2.1755931
26.293993 11.701863 2.1689918
24.503849 15.833543 2.4691539
24.774183 15.408803 1.7806541
24.880272 15.60224 2.556833
25.053982 14.583236 1.7916055
24.727678 15.362844 1.8622227
25.944511 12.892386 2.4720757
24.468897 16.089516 2.3563001
24.761618 15.397921 2.3600655
26.770523 9.9960203 2.5551779
25.20064 14.493329 2.2698245
25.096092 14.406498 2.5575013
25.498194 13.303934 2.5611846
24.678185 15.504223 1.7024549
24.853344 15.577784 2.0652773
26.073095 11.590117 1.8759015
26.211975 11.91244 2.5604908
26.37822 10.823001 1.9956843
24.871199 15.589164 2.3676946
25.273788 14.600412 2.4634137
26.45993 11.299721 2.0739315
26.530317 11.121518 1.4884491
24.855816 14.906311 1.6896682
26.495426 10.707962 2.56041
25.741938 12.708778 2.4581232
24.745872 15.397027 1.954484
25.204479 14.91692 2.9760208
24.7477 15.392543 2.2571959
25.298908 14.290267 2.550606
25.294765 14.308079 2.3693423
27.065063 9.904253 1.8829573
25.697659 12.796705 2.1501143
26.333178 11.200698 2.6683755
24.422407 16.861441 2.1860557
27.19981 9.5931215 1.9887977
25.886656 12.714097 2.0529802
26.052464 12.304316 1.9969833
26.231319 11.482056 2.4621954
25.482868 13.901934 2.460108
24.953663 15.484452 2.7592428
26.446407 11.588493 2.3775504
25.208153 14.00588 2.3533361
24.942432 15.497839 2.4720659
26.203577 11.886045 2.0412533
25.346529 13.873559 2.2753611
25.461861 13.918226 1.9934368
24.458591 16.594202 2.2599356
26.893476 10.302471 2.1789861
25.813189 12.413485 2.3288114
26.140717 12.391726 2.091495
25.797394 12.581607 2.6386933
26.195595 11.917777 2.1615684
25.426907 14.37922 2.6885571
26.923883 10.391186 1.7118592
26.044783 12.247044 1.6826876
26.348362 11.182834 2.145277
25.688553 13.458533 1.5996668
26.168566 12.095176 2.179409
25.630199 13.527284 1.7451216
26.841078 10.569696 2.5488825
26.151548 12.500483 2.2383068
26.447186 10.886932 2.6468
24.806408 14.999033 1.9890941
26.494385 10.697085 2.4622016
25.702961 13.403718 2.5563538
26.465698 11.495157 2.5612345
25.50135 13.915166 2.7761326
26.314581 11.690278 2.6453805
25.495354 13.911276 2.6446979
25.508503 13.9114 2.5455961
27.113682 9.4788055 2.2557006
24.431705 17.016441 2.8618011
26.259539 11.984842 2.3624043
25.390249 13.596566 1.8272973
24.528116 16.599051 2.380214
26.898092 10.337584 2.7482207
26.939194 10.2925 2.3683445
25.393185 13.597583 2.0705509
24.466358 16.684078 2.3575463
24.900808 15.018574 1.5988932
24.658901 16.003908 2.1726429
26.792732 10.676581 1.8267667
26.800669 9.8981524 2.3666735
25.399462 13.599437 2.2585142
26.530029 10.663851 2.7328119
24.471277 15.997332 2.2614584
24.456882 16.093592 1.6698184
26.519787 10.713965 1.9052351
26.208672 11.423048 2.2611499
26.303135 11.676786 2.4780827
26.795547 9.9007559 2.165055
24.657459 16.276127 2.2407899
26.352795 11.17559 2.5442455
24.85557 15.381317 1.7388271
25.15074 14.269924 2.164732
24.525555 16.570572 1.8524175
25.798592 12.503473 2.2464495
24.421234 16.847418 2.4198532
26.681181 10.214701 2.0688376
26.143688 11.689662 2.2599008
25.141743 14.290991 2.2691832
26.859959 9.7874832 2.0546939
25.996134 12.604194 2.5546453
24.859707 15.598447 2.1593888
25.145754 15.018158 2.0951486
25.159861 14.893368 2.4559693
25.143679 14.290833 1.9856961
24.741585 15.872448 1.5669376
26.12414 12.278987 1.9612274
26.229414 12.161665 2.1467955
25.860493 12.902144 1.9690993
26.328876 11.181728 1.8683567
25.366899 14.423597 1.668612
25.167557 14.20283 2.4610193
25.80913 13.230166 2.8379235
25.755234 13.188432 2.0917163
24.678673 15.90038 2.4486353
24.558046 15.806309 2.0596187
25.933918 12.969725 2.5642824
25.261154 14.605332 2.2685647
25.901997 12.959377 1.8269446
24.350775 16.893703 2.2769508
24.766434 15.690734 1.9737997
25.244858 14.124065 1.8103784
26.301373 11.581364 2.2519131
26.045988 12.58656 2.3813384
25.928268 12.31851 2.1365821
24.156937 16.701286 2.4547067
24.478754 15.967937 2.3517008
26.6089 11.122108 2.0885813
25.30418 13.820798 2.5735919
25.151682 14.696683 1.9565933
24.657934 15.683644 2.349597
24.334091 16.388613 2.1630504
25.076229 14.899405 2.1592941
25.932167 12.986046 3.024235
25.420515 13.601385 1.8107526
26.270054 11.989087 2.1728649
25.66707 12.886726 2.2643406
25.286131 13.885591 2.1551919
24.896358 15.409266 2.3641617
24.449207 16.165449 2.0705724
24.375732 16.401564 1.6867306
25.93862 12.18935 2.4562635
26.373907 11.686104 2.363158
25.520903 13.59736 2.8637364
25.65254 13.39383 2.0605888
26.366514 11.796523 2.3755293
24.362301 16.891401 2.1730738
25.949568 12.888607 2.6656201
26.498283 11.290654 2.6399546
26.748823 10.098699 1.9694449
25.948996 12.28367 2.2544835
25.105349 14.313976 1.9845328
26.899693 9.6035891 2.0642889
24.182331 16.522266 2.4607282
24.664993 15.305943 1.9686493
26.384403 11.0052 2.3638771
24.476063 16.393272 1.977296
25.369949 14.095582 2.0712156
24.613571 15.638697 1.9807308
26.148899 11.772334 1.7402942
26.791628 10.621944 2.7675626
25.239222 14.084011 2.3392117
25.364416 14.041904 2.7169259
25.993465 12.01217 2.1589267
25.332966 13.784255 2.4559112
25.8491 13.179243 1.6103551
24.486698 15.901753 2.3406584
26.079567 12.179656 1.8717308
25.895502 12.98805 1.9729004
26.60767 10.409417 1.9465628
24.752485 15.885605 2.0598445
25.076387 14.147706 1.8377807
26.741997 10.086253 2.2605698
26.82394 10.659316 2.8238249
25.330082 14.555311 1.8547692
24.737686 16.185963 2.7860608
24.271305 16.402937 2.3637719
26.332556 11.278627 1.9340372
24.473125 16.691605 2.8435907
25.791101 13.323589 2.857784
26.729837 10.183161 2.08039
25.401396 14.006052 2.1421351
24.312225 16.414274 1.9514717
24.300282 16.407368 2.0680985
25.890663 12.30337 1.972401
24.938908 15.112132 1.7880367
26.344822 11.763552 2.0307679
24.763298 15.887704 2.2684643
26.828724 10.58525 2.2546704
24.391026 16.712187 2.542958
24.399048 16.697256 2.2535594
25.631695 13.773174 2.4629142
25.896027 13.078857 2.9697709
24.754692 15.985867 2.4648271
24.385696 16.797211 2.4558506
26.552895 10.68446 2.5568407
25.333736 13.883875 1.6653581
27.025139 9.4101524 2.5390406
24.266275 16.732929 1.7778482
24.228392 16.696693 1.6463809
25.597095 12.99902 2.0811107
24.578808 16.299143 2.4582913
24.88258 15.213586 2.2561684
25.928108 12.962097 1.7500889
26.558989 10.684024 2.3622043
26.598051 10.41765 2.1700156
26.9508 10.14403 1.623147
25.208462 14.015849 2.7771702
24.353691 16.384077 2.2413857
24.882044 15.605293 2.6461549
26.522501 11.468583 2.3923509
25.745298 13.38548 2.1702671
25.952757 12.300463 1.6423663
25.671415 13.189388 1.8721985
25.686689 13.213367 2.3877239
24.514029 15.807658 2.2304215
25.763988 13.085826 2.0759118
26.916119 9.5012569 2.2621989
26.74579 10.784796 2.6575768
24.237984 16.667376 2.1846542
26.442741 11.015358 2.0111246
25.056562 15.379171 3.073817
24.709015 15.90368 1.5105101
25.595818 13.223463 1.5708756
24.724514 15.38237 2.5913963
24.441141 16.174728 1.9079603
25.821848 13.290291 3.0010455
24.573729 16.022381 1.7768425
24.869574 14.816776 1.9500155
25.106684 14.377935 1.8857247
25.137163 14.284126 2.0742719
24.580002 16.300795 2.3601239
25.600428 13.029696 2.5641911
26.686216 10.908685 1.9549448
25.746113 13.38322 2.5537882
25.732222 13.395617 2.2542992
26.864428 10.515056 1.7968868
25.755413 13.403044 2.8498955
26.917686 9.4354038 2.2018406
25.178005 14.980228 3.0358911
26.825869 10.673104 2.5679491
25.713274 13.168753 2.7551301
24.648413 16.192558 2.2615836
26.087915 11.792619 1.9555761
26.443624 10.881547 2.159266
26.817165 10.570397 1.9890667
24.554605 15.807283 1.83559
25.715681 12.709671 2.3833652
24.814615 14.999462 2.3388894
25.782837 12.600513 1.9457157
25.57893 13.734295 2.8647962
24.082047 16.903381 2.3614912
26.5569 10.99711 1.9421818
25.591406 13.508314 2.3752842
26.486891 11.112716 2.3737748
26.765907 10.684433 1.6904782
26.987741 9.3993416 2.3715382
26.52931 11.394053 2.2587032
25.838696 13.298514 2.7627244
25.600376 13.00638 2.2674563
24.875288 14.72381 2.2671783
25.946915 12.185123 1.9673463
24.471521 16.59437 2.3613203
24.918802 15.535771 2.7170415
26.684158 10.896066 2.1651487
24.997513 15.113953 2.348012
25.068577 15.1098 1.8603235
24.996355 15.116142 2.2614477
26.731836 10.155666 2.2438405
26.688118 10.910703 1.6696768
25.408485 13.988798 2.341094
24.794397 15.80481 2.7461154
24.927427 15.422487 1.7976626
25.478765 13.389565 2.7466187
27.185429 9.5891142 1.8065572
24.589779 16.102951 2.1670783
26.359861 11.807244 2.757057
26.087303 12.104015 1.8619636
26.746931 10.177551 1.968551
25.582062 13.098845 2.0651975
26.405558 10.916916 2.3548315
26.899071 9.5913897 2.4479086
25.639872 12.984982 2.2677228
25.143692 14.280848 2.4505517
25.808195 12.518895 2.4452419
26.762598 10.534054 1.9916241
26.044117 12.069286 2.5986478
24.635241 16.386471 2.5809429
25.510622 13.104916 1.9781446
24.577719 16.194544 2.0729375
25.543743 13.999971 1.6329278
25.980507 12.110348 2.7525997
25.352451 13.89079 2.0525064
26.662361 10.890345 1.7459794
26.167953 11.78688 2.1478183
25.506243 13.737734 1.9737598
27.141598 9.857399 2.5594649
24.23559 16.660299 1.9714314
25.880014 12.917431 2.741457
25.600304 13.626166 2.6363544
26.863256 10.493552 2.4741299
26.906485 9.6137915 2.2629011
26.832636 10.590811 2.7592781
25.398338 13.502241 2.3642952
25.687788 13.395777 2.6490626
25.490721 13.083533 2.1108875
25.30245 13.816272 2.1642749
25.364656 14.194877 2.1656642
25.690195 13.204202 2.4678109
25.167814 14.227808 1.9011416
25.024652 15.410038 2.5039508
25.037802 15.289069 2.4684076
26.881372 10.318387 2.6485357
25.57481 13.890487 1.6246545
25.601252 13.009524 1.9659945
26.813921 10.508362 2.8433938
26.40222 11.005904 1.8834379
24.9974 15.216862 2.5418234
26.178356 12.267505 1.8471826
24.235325 16.675344 2.0565999
24.953508 14.783891 2.2672782
25.744183 12.772139 2.5544679
25.271458 14.599768 2.545332
26.645266 11.007057 1.7658899
26.106171 12.122513 1.9737965
26.006124 11.999428 1.8734931
26.068232 12.401542 2.2536635
25.721601 13.392558 1.6188899
25.36541 13.501115 1.9660586
26.54221 11.307759 1.8224043
26.367718 11.581163 1.9375452
26.87236 10.412259 2.075866
24.948118 14.811031 2.363636
24.500065 15.805161 2.1448219
25.192558 14.023605 2.1086547
24.882282 15.396796 2.4556251
26.552723 11.29301 2.4737408
26.396057 11.496078 2.7318029
25.656221 13.088243 1.8733735
24.542707 16.624123 2.7391629
25.755138 13.29272 2.2594094
24.883524 15.550087 1.5104371
24.779366 15.222668 2.6351898
26.592276 11.011152 2.5478289
25.867344 12.494319 2.6502886
25.192404 14.49023 2.0818207
24.579546 16.402336 1.9706725
27.063665 9.8957644 2.4481206
26.288136 11.901792 1.8220623
25.361511 14.074521 2.7634716
25.784407 13.209627 1.6480708
26.15424 11.838177 1.6825294
25.399948 13.998606 2.255266
26.833914 10.587062 2.1787515
25.389433 13.603616 2.3611696
25.427635 14.401117 2.769325
27.084938 9.7008457 2.1668847
24.559242 15.794465 2.2608027
25.783995 12.882586 2.7551458
25.738197 12.761001 2.0682795
25.638556 12.992838 1.9701035
25.777601 12.260328 1.9397124
26.331005 11.184547 2.4668694
24.986187 15.122845 1.6269988
26.017094 11.982356 1.340991
24.432207 16.880718 2.5609732
25.529263 14.11267 2.8508554
27.048193 9.9998684 2.8368661
26.868404 10.497148 1.7068565
24.891273 15.287882 2.4127078
24.798851 15.195554 2.8912385
26.769344 10.690654 2.4618716
25.165855 14.189755 2.1672537
24.806658 15.709878 2.5458434
24.441525 16.093756 2.1526871
26.668383 10.901707 2.5563431
26.808954 10.512016 1.8529855
24.603601 16.125793 1.9902403
26.078014 12.21174 2.0644536
26.795233 10.522685 2.6753628
26.678905 10.899849 2.0882716
25.103968 14.330978 2.0727632
26.009686 11.942656 1.9057076
25.080843 15.09613 1.9556487
24.891638 15.614444 2.8525894
27.063574 9.7015705 2.6680853
27.077049 9.840003 1.9446707
26.372417 11.101612 1.9618326
25.685074 13.305385 2.2577949
26.409861 10.805588 2.3862464
24.91589 14.732002 2.2105751
25.282108 14.590584 2.6581986
24.781235 15.902065 2.6478758
25.169798 14.697681 2.1627474
26.922062 10.227026 1.6668913
25.196133 14.530025 2.3535726
25.174143 14.192879 1.9736066
24.926863 14.891068 2.2513487
26.396563 10.790404 1.8494635
25.461304 13.412734 1.8607476
26.94029 9.5803518 2.3640509
24.623169 16.3458 2.2148542
24.616291 15.497532 2.2047632
25.444897 13.57226 2.0635724
26.547647 11.279517 2.3637967
26.154085 11.58812 2.3420162
24.513573 16.302698 2.4909
24.678865 15.480354 2.4555535
26.223787 11.950308 1.9036311
25.755383 12.900278 1.7691193
25.169006 14.185562 2.0691226
26.402691 10.924195 2.7792401
26.285276 11.903577 2.6485498
26.824144 10.667529 2.4100676
26.88208 9.6814308 2.3650734
25.50577 13.959136 1.7080419
24.799334 15.110763 2.3538966
25.355906 14.523391 2.0754342
24.383879 16.896347 2.6680641
26.147068 12.288575 2.2720568
25.741772 12.779667 2.6519418
26.284048 11.977729 1.6682637
24.699696 16.166176 1.7379675
26.532444 11.407031 2.6609416
26.87476 10.395914 2.4520144
26.704103 10.094165 2.4794981
25.86396 12.553377 2.6448431
24.460201 16.847685 3.025193
26.821346 10.665667 2.6357999
25.707251 13.163452 2.6819518
24.671913 15.499322 2.1535311
25.900345 12.285872 2.0770609
25.718643 12.870942 1.6272119
24.801744 15.103478 2.0625587
26.779417 9.9840488 2.057714
25.588087 13.778719 1.9767467
26.402554 10.89616 2.6698985
26.645943 10.358973 2.6634333
24.863651 15.108963 2.8684759
26.488098 10.792916 1.9717019
26.737133 10.875686 2.638859
24.440205 16.170198 2.1754174
25.946592 12.857596 1.6335744
25.290546 14.278495 2.466985
26.820965 10.708248 2.7812304
25.318525 14.154337 2.8958359
26.345352 11.199757 1.954275
26.840872 9.9061241 2.0664468
26.343945 11.800518 1.8765608
24.777004 15.206343 2.0611708
25.209877 14.002027 2.2931826
25.747711 12.682528 2.1556482
25.084967 14.416575 1.973848
24.57008 16.412838 1.761472
25.708286 12.467612 1.9163666
24.40085 16.717779 2.4773979
25.483219 13.394073 2.4614882
25.514416 13.831544 1.8411996
25.606089 13.000251 2.1525409
25.389853 13.600445 1.9560648
26.152718 12.298288 2.1716785
26.755108 10.790714 2.4545357
26.476543 11.10253 1.8699024
26.055525 12.472701 2.1849627
25.205833 14.526953 1.8976866
25.445482 13.489029 2.067944
24.873661 15.596761 2.4599605
25.669292 13.255915 1.6556821
27.095579 9.7139606 2.5478308
24.959236 15.491573 2.5663183
26.169291 12.207922 1.9885341
26.779114 10.497403 2.2576251
26.416302 11.558969 1.8599932
25.267851 13.926759 2.761018
26.159546 12.192751 2.2630117
25.7505 12.691352 2.2605023
24.765652 15.890311 2.5540125
26.585369 10.999716 2.7475085
25.836016 13.19386 2.0637529
25.36871 13.605147 2.8390985
25.195663 14.718877 2.6576684
25.446257 13.504313 1.9609038
24.456339 16.085278 1.9587524
26.560196 11.000579 2.1671746
25.711075 12.686612 2.0732961
26.889961 10.080635 1.9551735
25.82567 13.343717 2.1172271
24.783394 15.279006 1.6950868
26.600433 10.399638 2.2433279
26.373592 10.904761 1.9794279
25.614449 13.745257 2.9846768
24.781654 15.911609 2.7552218
26.049456 11.888922 2.1506183
25.173361 14.194601 2.3633049
25.740688 13.280931 1.4778409
25.559723 13.586878 1.5181668
26.322823 11.891222 1.7012924
26.529047 11.500756 2.792763
25.629276 13.68299 1.6682715
25.180817 13.9797 2.868413
26.049322 11.965037 1.9677367
26.093695 12.194376 2.1719623
25.255844 14.690305 2.5656362
26.132389 12.38314 2.3588321
25.193634 14.09339 1.9747359
26.748026 10.823057 1.9640259
25.280556 13.890121 2.2494006
24.508001 16.30154 1.715472
26.98036 10.12105 1.7663151
24.786659 15.213223 2.5514417
25.900381 12.945963 1.4709727
25.592094 13.10555 1.8693923
25.360046 14.398166 2.5674205
26.058949 11.899743 1.875387
25.765432 13.392288 2.6531782
26.968267 9.7059116 2.1770835
24.897474 15.105692 1.5836883
27.151011 9.6241493 2.0876565
25.446457 13.483659 2.6428354
24.940039 15.571504 2.4865062
26.153303 12.297771 1.7808266
25.126312 14.35014 1.7655866
26.465569 11.392814 2.2678843
26.066696 11.892468 1.9484911
25.859823 12.392156 2.2575645
24.434143 16.201635 2.2525218
26.795696 9.9001865 2.6501632
26.99437 9.4019117 2.2483428
24.891922 15.510332 2.5499411
26.443819 11.585597 2.565819
25.74404 12.771912 2.1711664
25.691208 12.798819 2.5421834
26.323458 11.893159 1.9319872
25.866879 12.384326 2.0595269
25.982994 12.50139 2.267308
25.302382 13.902122 1.8675951
26.85503 10.502252 2.2676482
24.780342 15.568661 2.4734516
25.578091 13.827458 1.7460344
24.693569 15.427666 1.8803538
26.17378 12.194449 2.7490003
25.835558 12.487733 2.2669685
26.2439 12.095197 2.4720802
25.20665 14.180562 1.7659992
26.82019 10.653255 2.4641571
25.392307 13.598038 2.4466212
26.788361 10.500886 2.457839
25.286673 13.892752 2.3593893
26.049843 11.884407 1.7502455
26.779873 10.208566 2.3719728
26.099682 12.203897 2.2483435
24.541784 15.897974 2.0511327
25.773411 12.773354 1.8757318
26.86606 10.497494 2.6515689
26.800837 10.496038 2.360507
25.370152 13.689674 2.0698977
25.706858 12.716127 2.1701047
25.300627 14.334781 1.9041973
24.750399 15.989477 2.5618484
26.878643 10.441103 1.8478794
26.178572 12.100882 2.5554986
26.452208 10.957355 1.8802652
26.733763 10.164146 2.6433103
24.473289 16.69603 2.6648989
24.409426 16.725611 2.6608579
25.240894 14.677744 1.7019424
27.161917 9.7327042 1.8954226
25.447157 13.483932 2.4494402
25.520084 13.943559 2.8390603
24.856134 15.665546 1.5192926
25.58313 13.099589 2.1488461
25.785244 13.338949 3.0583508
24.378456 16.778229 1.6604207
25.000654 15.00923 2.2623525
25.146421 15.001434 2.8749185
26.876335 9.6109123 1.9943966
25.931273 12.197218 1.7451185
24.977371 15.188754 2.0644326
24.644547 15.57527 2.0649614
25.428282 14.368551 2.4881892
25.430544 14.291608 2.5702841
26.741083 10.78171 2.3643155
25.371933 14.432755 1.4663209
24.499886 16.304983 2.0672607
26.079655 11.80339 2.2610245
25.989794 12.418719 2.2527797
26.630592 10.379483 2.1665187
24.765392 15.279104 2.6528878
26.488234 10.706222 2.6579807
24.752558 15.841712 1.5404009
25.106102 14.293301 2.5377967
25.986729 12.025901 2.6491981
24.382215 16.79319 2.2592895
25.046703 15.18919 2.4614153
24.343485 17.063665 1.8360511
26.751356 10.796738 2.5665429
25.894981 12.71621 1.4560807
24.987545 14.632908 1.7497176
25.48658 13.829299 3.1044118
24.877975 15.327509 2.5347319
24.180065 16.59206 2.457289
26.280308 11.603463 2.379221
24.346897 16.899151 1.9925551
25.422794 14.30157 1.74007
25.965736 12.720308 1.9026759
25.574856 13.161048 1.7565103
25.882208 12.816954 2.4696925
25.393599 13.596724 2.1564963
26.75926 10.613616 2.073993
26.846392 10.506488 2.7587724
25.534359 14.084057 2.7247217
25.278969 13.901019 2.4564102
26.980364 9.4902325 1.9655739
24.200909 16.598541 2.1690176
26.897911 9.6919632 2.075299
26.285728 11.700327 2.3711042
26.598732 10.495377 1.9835899
24.746433 15.782645 1.9580681
24.442625 16.90847 2.739001
25.364956 13.707104 1.9627578
24.294666 16.894861 2.4584484
26.476566 10.888776 1.8628174
26.242537 11.76837 1.8822677
26.188553 11.972419 2.636889
26.084663 11.804479 1.8680874
26.84724 9.8961153 2.4674861
25.941425 12.593149 1.9466172
26.760994 10.815668 2.257158
25.397341 13.502658 2.455699
24.559652 16.209854 1.8860683
24.948587 14.778837 2.5434012
24.605974 16.106754 2.3273029
24.494856 15.798878 2.3718474
25.131439 15.168713 2.9150093
25.449799 13.573067 1.8336328
24.898346 15.608684 2.7464266
26.773876 10.783677 2.7770081
24.536148 16.587004 2.5629146
26.723091 10.149021 2.5686929
24.938503 14.811318 2.1608319
25.687702 12.796339 2.07461
26.405127 10.731647 2.0008988
25.831116 12.693035 1.7359736
25.342066 14.482151 2.2469087
26.744413 10.804183 2.0763342
25.537971 13.283876 2.3645201
25.101128 14.316048 2.1512706
25.101822 14.313419 2.3415656
26.342539 11.903737 2.6623647
24.944651 14.872211 2.0521684
26.338741 11.882231 2.7251894
25.62331 13.089509 2.5875676
25.490526 13.490059 1.743493
24.782007 15.701502 2.263835
24.157049 17.005863 1.772294
24.470789 16.315239 1.9543815
26.672338 10.895657 2.6560962
25.105122 14.30409 2.2554224
27.081364 9.8931389 1.5637931
25.365528 14.288108 2.1684883
25.25499 13.993094 1.9707968
25.812248 13.161932 1.7549139
24.949863 14.791552 2.6681976
24.309973 16.775925 2.2589827
26.770018 10.590434 2.2555101
24.37546 16.794394 2.0658073
24.773542 15.696554 2.0660651
24.80286 15.112937 2.2588065
24.237947 16.682886 2.2629168
25.211306 13.881246 2.033901
25.28927 14.307516 2.2514985
24.597904 15.583138 2.5575452
24.49317 16.405304 2.1703227
24.583385 16.207359 2.3528647
26.470734 10.802763 2.0660377
26.441223 11.58784 2.2686632
24.368513 16.894054 2.3494627
25.171282 14.977432 2.7387977
25.546152 13.597146 2.7403829
26.59457 10.87341 2.5137396
26.165251 12.201358 2.3626289
24.764921 15.210255 2.3629189
25.472406 14.275906 2.834322
24.769032 15.281563 2.4605193
25.230116 14.081279 1.9923806
25.789703 13.300482 2.7373319
26.607452 10.397849 2.8258955
24.865299 15.422517 2.5327382
25.741634 13.06027 1.5776683
26.083893 12.406252 2.4590833
24.143671 16.882206 2.0675478
26.028727 11.963283 2.5451417
24.758654 15.890356 2.3825557
27.003319 9.8066263 2.2577155
26.390251 11.010452 2.0698607
24.590847 15.611033 2.3401613
25.227871 14.161248 2.3768814
25.642311 12.993478 2.3637946
24.14422 16.883032 2.269834
25.364809 13.69768 2.5579591
26.875763 10.197298 2.0615501
25.203659 13.991417 2.5189536
26.168903 11.802252 2.3560772
26.61459 11.003431 1.6074247
25.143864 14.374709 2.2792981
25.499014 13.30682 2.1583087
25.80028 13.288971 2.9336038
24.194662 16.905813 1.5424356
25.786087 13.074772 1.6998861
26.09038 11.78301 2.4603426
26.87134 9.6950579 2.6300623
26.532181 11.492168 2.224993
26.902451 9.5994091 2.3468254
24.348801 16.795338 2.9658794
24.890694 15.528577 2.6607509
25.434633 13.968523 1.9798665
26.512663 10.626675 2.2573109
26.349485 11.780498 2.2646677
24.605145 15.621128 2.0580864
25.988251 12.508801 2.4649291
24.986328 15.208267 2.4577746
25.091898 14.967857 1.7839675
25.979279 12.093107 2.1551523
24.966816 15.294696 2.2735143
25.990538 12.388016 1.7963001
26.837635 9.8725653 2.5680652
26.987459 10.099481 2.1722755
25.519453 14.146904 3.1056702
25.832785 12.480173 2.0628781
26.024385 11.990475 2.1495571
26.463772 10.910265 2.7599337
26.325867 11.946896 2.6689076
25.659801 13.694816 1.5900774
25.466454 13.999418 2.2623076
25.557346 13.305355 2.638133
25.090073 14.387781 2.0690768
24.980814 14.698328 2.2498617
26.490932 11.194388 2.3586476
25.744179 13.392887 3.0572679
25.356672 14.390176 2.371191
24.781826 15.995057 2.8446517
24.569324 16.297028 2.2634721
24.929981 15.620465 3.043092
24.779852 15.578052 1.768859
25.903059 12.622993 2.3856642
26.299528 11.709144 2.2548814
25.462271 13.599955 2.6624599
25.192223 14.098864 2.2597969
25.559174 13.851916 1.8103061
25.990192 11.889012 2.5121639
24.59651 15.613539 2.1528251
25.204664 14.005621 2.148869
25.30695 14.196783 2.2473781
25.762039 12.708773 1.6323389
26.029978 11.987468 2.3690505
25.967808 12.11 2.0837128
26.368134 11.593693 1.682842
25.502056 13.668068 2.5327144
26.700655 10.806274 2.7213674
25.393242 14.107949 2.3662188
25.373302 13.339136 1.8939101
24.39599 16.818081 2.7793818
25.911266 12.294298 1.746034
26.175112 11.807318 2.2635033
27.063261 9.713275 2.2665977
24.578007 15.605749 2.4315698
25.51178 13.372417 2.6732481
24.289055 16.399399 2.2687702
25.855177 12.395542 2.1513798
25.966751 12.094568 2.2588322
26.31333 11.250491 1.7152246
24.541212 16.394079 2.1643202
26.992992 9.2997198 1.9783654
26.259579 12.085597 2.5618644
27.156567 9.4144068 2.0047858
25.000242 14.99747 2.1389284
25.004005 14.608261 2.3595002
24.380493 16.098698 2.4529636
26.554234 11.284855 1.6906433
25.992929 12.490427 2.3639357
24.370731 16.932545 1.8486199
24.159164 16.861557 1.7828364
26.772623 10.599748 2.5555425
24.544645 16.48925 2.3765047
25.728596 12.778635 1.9429636
25.192978 14.100389 2.1726444
24.801453 15.109552 2.1428285
25.195629 14.101171 2.0772839
24.606461 15.603124 2.2500951
24.155521 16.903778 1.9765419
25.581442 13.291249 1.5799712
27.097851 9.7082777 2.4561188
24.669468 16.00745 2.26127
26.789797 10.679253 1.5547805
25.797388 13.104449 2.6455302
26.344709 11.89229 2.4581037
25.480097 13.018407 1.9826646
25.667 12.89634 2.460361
26.828257 10.705675 2.138809
25.302525 14.224534 2.4389822
26.048569 11.987391 2.4346662
26.981916 10.097605 2.3701587
26.034447 11.973783 2.0695698
24.139038 16.908237 2.3699238
25.927967 12.948604 2.3362522
27.158136 9.4040356 2.0707762
24.826365 15.087734 2.3456128
25.979084 12.329572 1.9644328
25.636003 13.772665 2.6263237
26.337843 11.892293 2.3686743
25.256382 14.485518 2.0766547
25.281282 14.530941 2.8270116
24.359577 16.768263 1.9863546
24.789766 15.107772 2.5648544
25.83679 12.482185 2.1690197
26.040775 11.984588 2.2503374
25.585159 13.598468 2.26298
26.467411 10.794023 2.4664459
26.262751 11.896993 2.2583139
25.315126 14.174727 1.8922769
24.879332 14.90218 2.7651076
25.673742 13.595451 1.7810895
24.87221 15.53367 1.6901592
24.597706 16.112013 2.2685502
26.192125 12.010635 2.3601837
26.54813 11.294562 2.6668055
25.731091 13.364781 1.4387201
26.440754 10.876863 2.3619666
24.766932 15.897263 2.4595368
25.329004 13.883591 1.8028791
26.595413 11.097025 1.9380865
24.148344 16.885801 2.1609175
25.953651 12.801652 2.2505796
26.571354 10.76207 2.469923
25.759817 13.126784 2.9603763
25.735554 12.699106 2.7466314
25.216003 14.09432 1.8756005
26.421656 11.684935 2.7240429
25.934662 12.212813 1.8777118
26.581978 10.511308 2.0600913
25.355663 14.165375 1.7634639
26.549765 11.299674 2.1694951
25.591261 13.791467 1.8681985
24.580597 16.403345 2.6433573
25.082394 14.893345 1.7639264
26.499279 10.697968 2.3622003
25.217249 14.021863 2.47837
25.384554 14.0976 2.2541049
26.795483 10.355864 2.4681432
25.743498 13.401752 1.9437482
25.041618 14.941043 1.6570456
25.057325 14.490081 2.1694672
25.857611 12.396065 2.3474052
26.746468 10.781368 2.8530529
26.01049 11.918685 2.3716278
26.000223 12.097576 1.7337174
27.082615 9.4837112 1.9203846
26.334045 11.990681 2.7747574
26.272083 11.79386 1.6427244
25.597 13.375902 1.7655177
25.10017 14.952609 1.8405622
25.834623 13.250285 2.6445036
25.59803 13.406515 2.3544993
26.896065 9.6219025 2.1805241
26.877216 10.101121 2.2640963
25.676836 12.885221 2.3559289
26.092934 11.466353 2.351517
26.793171 9.9061756 2.0463469
24.233528 17.007561 1.9765522
25.574312 13.496987 1.9691129
25.205593 14.51548 2.4242733
25.29211 13.65506 2.3494539
26.781326 10.317575 2.3610058
25.91342 12.145474 2.306504
25.734779 12.781986 2.4740467
25.999081 12.094696 1.6880645
25.138832 14.292457 2.3714797
25.704729 12.696478 2.7210822
24.499073 16.610151 2.7675893
26.337751 11.873592 1.714579
25.639185 13.712687 3.0653942
27.205606 9.4070807 2.194315
25.965853 11.884145 2.0129209
26.051725 11.892117 2.2568891
25.054955 14.498766 2.4444969
24.134785 16.987902 2.1476831
25.47257 14.110879 2.8322809
25.958502 12.472357 1.8012735
26.394371 11.908023 2.9451134
25.675076 13.407854 1.7509265
25.346945 14.496514 1.7215064
24.691141 15.895532 2.0699003
25.638515 13.265167 1.7519155
25.412203 13.671797 1.5910181
26.416346 10.913046 1.8883302
25.32938 14.42732 1.9577519
26.723463 10.726695 2.0612659
25.146372 14.363181 2.506089
25.33289 13.768264 1.9824808
26.005962 12.419395 2.5445035
24.236341 16.888582 1.9767911
25.991558 12.523482 2.5562911
26.062599 11.969233 2.6258252
24.402637 16.600506 2.1771343
24.772242 15.698516 2.1667581
24.374393 16.893982 2.4631038
24.472666 15.876463 2.4381053
25.631266 13.766446 2.5836167
24.690271 15.305206 2.4278927
24.683273 15.481873 1.7383691
26.255657 11.893101 2.0746899
25.385815 13.511467 2.0708134
25.567709 13.862422 1.8417665
25.743458 13.290483 2.0791886
25.88921 12.896797 2.4641368
26.924507 10.380096 2.5467687
26.811811 10.520752 2.5806217
26.848278 10.511209 2.1636257
25.670204 13.119616 2.8807609
25.598248 13.71801 2.759881
24.994196 14.783375 1.5833694
24.70385 15.310623 2.1788313
25.84708 12.50078 1.8835298
24.46097 16.096317 2.4347596
25.435087 13.564001 2.3609726
25.368954 13.776324 1.8476728
27.240011 9.483757 2.2388783
25.782713 12.592435 1.5869565
24.499065 16.302937 2.1615624
24.066708 16.899855 2.4736698
24.46228 16.575073 2.0708449
24.628239 15.675896 1.9640603
25.45138 14.191606 2.4689226
24.47682 15.999847 2.0699623
26.069937 12.192719 2.6556959
24.648331 16.190277 2.0896089
26.66695 10.882274 2.26231
25.715023 12.738449 2.6433001
26.165007 11.587491 2.0695312
25.484842 14.107295 1.6775434
24.489149 16.327251 2.3504703
26.230608 12.097032 2.1865468
25.870237 12.997441 2.4593096
24.885487 15.304432 1.8610508
26.638655 10.39157 1.968244
25.895132 12.303661 1.8832543
25.370054 14.299548 2.4549856
26.77413 10.174804 2.1592546
25.779522 12.582596 2.5647559
25.576694 13.797413 2.4662342
26.773661 10.690884 2.1761875
25.530668 14.050622 1.588654
25.652645 13.589422 2.363991
24.93597 15.476931 2.261332
27.2379 9.5325928 1.6979638
25.79879 12.992214 2.26192
26.783236 10.599857 2.6511362
26.707939 10.116674 2.3698153
26.147425 12.388276 2.7758157
25.996601 12.006068 2.3666353
26.372957 11.597812 2.4590616
24.866194 15.001379 2.5559933
26.006998 12.003591 2.2508385
25.991812 12.407681 2.4383581
25.234993 14.57429 2.0734978
25.465469 13.995095 2.3683622
26.896242 10.302399 2.5642657
24.936522 15.479369 2.1593812
25.081123 14.997955 2.3620527
25.085369 14.390836 2.1521523
25.405733 13.507399 2.1665461
25.560118 13.954999 2.9330065
25.777235 12.865156 1.9272838
25.87326 12.37734 1.7557766
25.57012 13.693072 2.0755095
26.372646 11.305408 1.7652619
26.079811 12.083625 2.0633583
26.488607 11.186405 2.2819343
26.741081 10.080292 2.362504
26.973244 10.085431 2.2608919
26.047552 12.503017 1.6995438
25.55291 13.792408 2.2784932
24.787695 15.094004 1.95574
25.585878 13.091697 2.2583795
25.390995 14.208581 2.5550585
25.045618 14.563737 2.1927986
26.883783 10.398001 2.6659024
26.178019 12.194338 2.5591843
26.788906 10.291903 2.175096
25.327814 14.517305 2.182241
26.090286 11.787857 2.1537929
24.842606 15.486517 1.8688542
25.563286 13.398235 2.1797426
26.772984 9.9839134 2.4374332
24.732904 16.089745 2.1792917
26.394524 11.330835 2.3597393
25.530216 14.069321 2.5933528
24.500132 16.400887 2.5349355
26.326622 11.894302 2.1764734
24.34795 16.884602 2.0616055
25.883114 12.78907 2.7340536
25.811052 12.382746 1.7304394
24.442974 16.942616 2.9313817
24.910748 14.663479 2.0385451
26.850113 9.8861065 2.3536975
25.497105 13.316369 2.2682543
25.144844 14.982737 2.1537993
24.684641 15.40204 2.1591146
25.947037 12.776802 2.0916557
25.229788 14.433608 3.0346084
26.106159 12.10754 2.2400341
25.07272 14.760291 2.5367739
26.769215 10.584926 2.364269
25.388798 14.101726 2.4568713
24.366909 16.395403 1.5620332
25.514395 13.214241 1.977087
24.510025 16.318295 2.23125
26.252937 12.100541 2.7795753
24.390491 16.617847 2.2653558
24.27795 16.675167 1.548173
25.535896 13.993939 2.4589186
24.471943 16.109312 1.7683437
25.398727 13.603344 2.566891
25.979815 12.701055 2.5599031
26.635662 10.388126 2.263288
24.967609 15.004464 1.8312604
24.450544 16.091805 2.2744942
24.666727 16.192863 2.5592604
27.149649 9.8072891 2.0737028
26.058273 11.895773 2.3627102
25.000341 15.304782 2.6434109
26.644583 10.491474 2.2580249
26.442543 10.891842 2.0668967
26.002523 12.010819 2.0590329
26.94417 9.5753403 2.0710578
27.075872 9.4860554 2.3219719
25.679026 12.897126 2.5827239
25.879459 12.983712 1.6444099
24.638189 15.442117 1.8038375
24.511053 16.479193 2.6704328
24.369997 16.791349 2.1654766
25.439436 14.281382 2.6607103
24.951813 14.789207 1.750452
25.019239 14.522461 2.5812564
26.575825 10.505018 2.4576814
24.798094 15.620574 2.5335388
25.490839 14.094652 2.7402995
25.310446 13.817531 1.8528413
27.091951 9.7077494 2.7501836
25.815788 12.414701 2.5324523
24.49593 16.020931 1.9489667
25.005018 14.997667 2.3426044
26.935677 9.5841465 2.4445031
24.74263 16.081367 2.464745
26.03299 12.102345 1.5338988
24.977665 15.197359 2.2572114
26.794365 9.897294 2.2505226
24.438477 16.880163 2.6487083
24.501488 15.733221 2.2799153
24.849756 15.09105 2.5574999
27.080723 9.5129356 2.4809937
25.970005 12.806843 2.7445412
26.952019 9.5816231 2.2549047
26.418978 10.81776 2.4621091
26.15947 12.290541 2.7851825
24.372599 16.100414 1.8556917
25.614853 13.77582 1.5335114
26.178307 12.196735 2.4672904
25.475348 13.398005 2.3445768
26.868279 10.02198 2.3519323
26.601534 10.398111 2.4606731
25.626976 13.371515 1.8472309
25.380491 14.397923 2.665041
24.68721 15.823133 2.2536545
26.830544 10.544861 1.8903513
27.08083 9.6882477 2.069752
25.487156 13.398119 1.7573371
26.002813 11.994622 1.9587444
25.499331 13.703361 2.0609608
25.282322 13.899592 1.987672
26.559919 11.363661 2.1739783
26.103838 11.370768 1.9381266
24.960239 15.079282 2.5527549
25.543705 13.872441 2.0690427
27.081421 9.8749628 2.0748041
26.603401 10.399591 2.3676767
24.177214 16.697218 2.3656714
26.08445 11.801609 2.3539269
26.792652 9.8867588 2.4380865
25.77619 12.596506 1.7556138
27.037914 9.3746338 2.1674321
24.758656 15.382463 2.4668233
26.453403 10.985463 2.2730734
24.567062 15.789907 1.6767617
25.953493 12.79181 2.3678989
26.376854 11.286712 1.8662915
26.335505 11.890551 2.5603685
25.011208 14.50618 2.1725903
24.608192 15.500122 2.3448102
25.687271 12.602449 1.9696692
26.859238 10.483227 2.3591235
26.592182 10.91431 2.4793274
24.682135 15.495106 1.951775
25.057467 14.487961 2.2689264
26.741798 10.337187 1.9071443
24.527 16.568516 2.2349641
25.457729 14.085232 2.17344
26.995779 9.4227552 2.6371932
26.797405 9.9138126 2.5613611
25.598467 13.69197 2.6631794
25.978027 12.696866 2.4616766
25.23336 14.793307 2.9714789
24.157045 16.880064 1.8812711
25.199306 14.097817 2.3671043
26.055216 12.05372 2.4452825
24.202887 16.518074 2.1796007
24.263765 17.10129 2.1666775
24.792969 15.924373 1.7930523
26.869938 10.290515 2.3916342
25.223764 14.789232 2.2496855
26.463348 10.960161 2.1794958
25.094576 14.377925 1.8060614
26.441879 10.890451 2.4699528
25.862398 12.386253 2.454994
25.007896 14.589766 2.6325612
24.545309 16.29561 2.0598793
25.602005 13.717611 1.8476651
27.135551 9.8775177 2.6329551
25.168625 14.19313 2.2618484
26.833832 10.471305 2.0600157
26.155085 12.290516 2.3693833
25.201696 14.099955 2.5602565
26.740976 10.797501 2.1855509
25.089909 14.390412 2.3619885
25.082052 14.400645 2.2735
25.08791 14.210773 2.3625236
24.381067 16.80187 2.363523
24.7145 15.289385 2.3258538
24.691885 15.994498 2.4517226
26.334284 11.883224 2.2435985
25.428488 13.622187 2.8594651
25.04236 14.580867 2.2660301
26.702522 10.615047 2.4747074
26.935507 9.5845118 2.1676297
24.609781 15.512857 2.4703851
24.871109 15.074342 2.4893572
27.013048 9.7870321 1.887015
24.54162 16.648666 2.5669789
25.084312 14.402867 2.4503222
26.741688 10.097615 2.4565082
25.690477 13.30527 2.4642549
24.922354 15.567523 2.2080009
26.828445 9.8719063 2.250308
24.683569 15.325326 2.276562
24.875399 14.910604 2.5571532
25.911135 12.315463 1.6629175
25.306198 14.212928 2.7185338
26.192255 12.201393 2.6593854
25.464554 13.90166 2.072221
24.841732 15.174738 2.5741317
25.476721 13.40155 2.5629885
26.31707 11.099712 2.5356722
25.676134 12.984989 1.6657877
25.651039 13.294987 1.9687963
26.57078 11.094852 2.755147
26.550449 10.578204 2.447948
26.170826 12.290476 2.6533074
25.399332 13.505729 2.2673142
26.199883 11.89947 2.2728751
24.706543 15.291962 2.6366172
25.274973 13.908734 2.0655346
24.671707 16.193867 2.7443056
24.168077 16.323658 2.1171644
24.469915 16.568901 1.7743154
25.851292 13.086392 2.3695276
25.639618 13.783359 2.7684081
24.771128 15.300131 2.5575218
24.400036 16.849594 2.9014704
25.193947 14.106699 2.4431744
25.298599 14.609848 1.6648929
24.586384 15.956518 2.574795
24.382938 16.88916 2.5573628
25.650597 13.620998 1.9707432
25.642834 13.66436 1.8406687
26.789474 10.705428 1.7415106
26.128513 12.369734 2.1783237
25.637159 13.648812 1.9494622
25.984604 12.303273 2.348053
24.736256 15.994663 2.3708646
25.454016 13.573058 2.2823696
25.253155 13.989354 2.2569082
25.247719 14.786529 2.7562785
25.837448 13.093462 1.9709779
26.571119 10.49836 2.3647563
25.147301 15.072591 2.7430055
24.689976 15.410453 2.3544788
27.126884 9.8714495 2.0812628
27.126373 9.8834591 2.7599986
24.436985 16.679888 2.0783758
26.262169 11.892681 2.1646082
26.155346 11.277835 1.964064
24.478754 16.67918 1.933884
25.23033 14.07628 2.2791743
25.565754 13.19509 1.9744449
25.28056 14.65603 1.7444609
25.804199 12.597098 1.6722809
24.440742 16.786224 2.367862
26.771744 10.610097 2.1898732
24.450676 16.686628 2.1794908
25.756121 13.092106 2.1715765
26.16127 11.598738 2.1652873
25.807941 12.499769 2.6359088
25.447659 14.197001 2.5601463
25.588696 13.09589 2.3652403
25.567934 13.793406 2.1677856
25.163897 14.80129 2.2646506
25.034101 15.248627 2.4021742
25.121489 14.968441 1.919273
25.701321 13.304979 2.5705013
25.591255 13.09164 1.950549
25.561411 13.696362 2.259737
25.80331 12.506073 2.1608601
26.397449 10.899759 2.0590711
25.688942 13.183648 1.7889012
24.795612 15.711426 2.4616826
25.79541 12.602267 1.8698071
26.955326 10.367317 2.8463593
26.866756 9.7889309 2.6569464
25.695927 13.315112 2.3611481
25.356777 13.874301 1.8543053
26.771029 10.686049 2.659004
25.360355 14.410582 1.5851402
26.778965 10.00106 1.9742751
25.588577 13.089558 2.5599508
26.55632 11.2868 2.5556812
26.56086 11.281081 2.0805268
25.368774 13.774324 1.7829479
25.688318 13.293159 2.6432581
24.849529 14.949034 1.6846244
26.313717 11.143541 1.9060684
25.470394 13.4008 2.2672062
25.456823 14.081879 2.3650036
25.459875 14.094605 2.4576266
24.603258 16.300812 2.5543857
24.997013 14.597348 2.4575095
26.530138 11.371408 2.3664215
25.349695 14.383389 1.8426049
26.408325 10.914039 2.2563756
25.27301 13.900503 2.5376673
26.081219 12.408371 2.1031621
25.880358 12.313153 2.2611127
26.550211 10.882372 1.9772044
25.488548 13.982372 2.7421393
25.563833 13.182158 2.6442194
26.142435 12.383894 2.4602985
25.946663 12.196757 2.2603021
26.907421 9.5433111 2.5589962
26.77828 10.635885 1.8601674
25.48167 14.00037 2.4551494
25.845499 13.190391 2.7540188
26.160433 12.294556 2.4595389
25.397068 14.223782 2.6517744
24.985991 15.489245 2.8500273
25.484827 14.090065 2.6433115
25.372078 14.193215 2.2641022
27.04204 10.079154 2.2746134
25.620304 13.752558 2.2820017
26.782595 10.691289 2.7861512
26.527975 10.995352 1.9100322
26.136665 12.477638 2.7411067
26.27817 11.903358 2.5653067
24.65309 16.194685 2.4632506
25.43609 13.648004 1.8508463
24.564117 15.884566 1.8691372
25.497631 13.795397 2.7413626
24.544767 16.300772 1.951622
25.153479 15.028597 2.9504509
25.940819 12.180586 2.1455038
25.237358 14.88161 2.6890059
26.460791 11.499105 2.3799787
26.555429 10.558206 2.6692684
25.387865 14.289004 1.935549
24.600874 16.099358 2.0646605
25.191711 14.783886 1.729367
26.22394 11.974697 2.0591516
26.470726 11.296492 2.2603776
25.696627 13.204545 2.1581116
26.477188 11.502429 2.7593856
26.451939 11.593107 2.7425566
26.570322 11.086983 2.2584305
26.169888 12.291085 2.5636563
25.639778 13.664166 1.7621589
25.949394 12.1838 2.7755265
25.908682 12.200082 2.4831104
25.397861 14.004388 2.4371896
25.303377 13.81054 2.0680683
25.862803 13.091082 2.5551894
25.68848 13.208168 2.0718029
25.470772 13.395009 2.1600218
25.698439 12.804767 2.3472121
25.900091 12.230009 2.3409219
26.576481 11.102188 2.3591564
25.511166 13.125215 2.5027931
25.941628 12.202327 2.068213
25.879414 12.397611 1.8892324
24.963346 14.786201 2.04931
25.684551 13.397801 2.4671617
25.268841 14.59362 2.3712139
26.167295 12.449496 2.0118096
24.586098 16.191063 2.2620423
24.661489 16.186335 2.1640644
26.358307 11.509564 1.9514073
24.799948 16.179226 2.2095673
26.374733 11.478086 1.5575097
25.400267 13.953731 3.1469429
25.814156 12.494236 1.8930659
25.706594 12.824785 1.6959676
25.169168 14.380226 2.3649273
25.974789 12.687325 1.7824855
25.603479 12.921641 2.6500676
25.439903 14.233637 2.9224708
25.675398 13.298017 2.0822949
24.684618 15.38802 2.4574046
24.767517 15.799712 2.2616897
26.480968 11.394456 2.5562315
26.58639 11.096642 2.4625688
25.349239 14.396721 2.2711945
26.138836 11.681184 2.5532165
26.351601 11.593299 2.1607378
26.493044 10.697229 2.1681159
24.491411 16.598965 2.6512647
