# .PCD v0.7 - Point Cloud Data file format
VERSION 0.7
FIELDS x y z
SIZE 4 4 4
TYPE F F F
COUNT 1 1 1
WIDTH 837
HEIGHT 1
VIEWPOINT 0 0 0 1 0 0 0
POINTS 837
DATA ascii
-6.8571053 15.348427 -0.12964791
-7.0972657 15.2741 -0.63059312
-6.6758838 15.16037 0.63969642
-7.0353723 15.218106 -0.63947183
-6.9138517 15.114405 -1.7650735
-6.8737602 15.459035 0.54941362
-6.9685345 15.664443 -1.5650227
-6.7581272 15.098046 -2.0476584
-6.9516034 15.699967 0.83137089
-6.7463865 15.207342 -2.3494875
-6.9485645 15.659986 -1.9021952
-6.9462595 15.685569 -2.1253562
-6.9189825 15.572437 -2.3231575
-6.8375964 15.399168 -2.3394403
-6.7492042 15.087506 -2.2230155
-6.8222737 15.286023 -2.147567
-6.7667298 15.091982 -2.1230803
-6.825717 15.333452 -2.3572526
-6.8364697 15.285608 -2.0289183
-6.7778301 15.170565 -1.9427732
-6.8704762 15.380659 -1.8478537
-6.760046 15.165133 -2.0374706
-6.9511361 15.584574 -0.03180087
-6.964612 15.58884 -1.7222252
-6.8404069 15.292557 -1.9439205
-6.8963757 15.210756 -1.8319099
-7.0191064 15.297804 1.6517535
-6.8488827 15.286421 -1.8317356
-6.9598799 15.582109 -1.8371229
-6.9733706 15.554434 -0.65992278
-7.0179386 15.526273 -1.7485201
-6.9071989 15.207072 0.56130165
-6.9599991 15.595856 -0.33391526
-6.8992033 15.112568 -1.6567501
-6.9092355 15.085299 -1.8276443
-6.9242301 15.410507 -2.2264788
-6.8369465 15.296062 -2.2411721
-6.8589239 15.293531 -2.4310293
-6.7628841 15.103657 -2.4377761
-6.9497633 15.579947 -1.6385113
-7.0305257 15.686586 -0.33979902
-6.9992099 15.31452 -1.0288417
-6.9090428 15.200253 0.65741849
-7.0553331 15.316583 -1.6125498
-6.7681532 15.164881 -2.1716361
-6.9261661 15.503024 -2.132242
-7.0056024 15.582026 -1.9363198
-6.8963199 15.104902 -1.2495713
-7.0062704 15.416247 -1.6252583
-7.0054212 15.304212 -0.62878847
-6.9521513 15.586499 -1.9439327
-6.9041634 15.091683 -1.5442059
-6.7667298 15.15884 -0.43962967
-6.9949312 15.29623 -1.3095682
-7.0108452 15.403685 -1.5218325
-6.9953499 15.435203 -1.8720738
-6.7539415 15.191422 -1.1517869
-6.7401118 15.210544 1.8682694
-7.0068946 15.413243 -1.7634566
-6.9919415 15.706603 -1.9349695
-7.0016608 15.398626 -1.9355657
-7.0555129 15.508404 -2.2992892
-7.0129294 15.654352 -1.650759
-6.9098763 15.092934 -1.9295553
-6.9780998 15.658159 -1.2822274
-6.9705758 15.578518 -1.048936
-6.8536611 15.287089 1.1648285
-6.8182602 15.092901 -1.7285273
-6.900352 15.188878 -1.5163031
-7.0104351 15.318765 -1.1260246
-6.7401419 15.176587 -1.442024
-6.9763703 15.651182 0.22552267
-6.866838 15.549977 -0.54457474
-6.8951902 15.169971 -2.0665374
-7.0100164 15.30901 0.15853719
-6.7474761 15.29109 1.7481066
-6.9494472 15.66781 1.4513024
-6.7523923 15.179078 -2.2365212
-6.9540663 15.687757 -0.22099866
-6.9709387 15.556823 -0.84796333
-6.9608436 15.667571 1.6273746
-6.9681978 15.685192 1.5675527
-6.9569187 15.663046 -2.3233845
-6.9901037 15.333199 1.7439274
-6.7649884 15.180189 -1.7455015
-6.8699589 15.382389 -1.7412177
-7.0087738 15.409503 -1.2396889
-7.0070043 15.410895 -0.43806067
-6.7516632 15.077032 -1.8251379
-7.0054927 15.409272 -1.4225762
-6.7549982 15.154391 -2.4341528
-7.0076947 15.42137 -1.3229449
-6.9563751 15.587392 -2.0391166
-7.0083556 15.406601 -0.62965226
-6.9990535 15.506458 -1.625854
-6.815331 15.100277 -1.8361281
-6.753428 15.032255 -1.9395012
-6.9036117 15.318476 -1.7561886
-6.9166183 15.204318 -0.93988293
-7.0128403 15.287273 -0.9490602
-6.9372034 15.584796 -2.1190987
-6.9100895 15.203348 -1.240446
-6.8504682 15.274494 0.761002
-6.9935508 15.313523 0.042011626
-6.8987932 15.09687 -1.1361152
-6.9141245 15.19275 -1.1338261
-7.0213652 15.503328 -1.4295756
-7.0041761 15.322385 1.553826
-6.9962716 15.313114 -0.3379634
-6.9045076 15.11096 0.66720742
-6.9437332 15.574547 -2.2080762
-6.9949217 15.321825 -0.53390682
-7.0022607 15.402079 -0.7462374
-6.9098291 15.199034 -0.83587456
-6.9072509 15.108559 -0.5418089
-7.0083385 15.406434 1.0567381
-7.000659 15.405135 1.357464
-7.0187845 15.310427 -0.44670069
-7.0098991 15.408435 -0.54351294
-6.9063835 15.102526 -0.43866387
-6.7959228 15.099702 -2.1292863
-6.9108233 15.393796 -2.4579945
-6.7502222 15.346088 1.7652979
-6.7664056 15.29588 0.43393806
-6.757494 15.311046 1.9696121
-6.7736969 15.247282 0.61798859
-6.6777058 15.023147 1.0549726
-6.6675301 15.043906 1.536018
-6.777657 15.195247 -0.98403466
-6.7741251 15.278813 1.5646737
-6.6751966 15.016217 0.96916246
-6.6608624 15.000706 0.73653615
-6.7545757 15.027567 0.66386414
-6.8635068 15.280238 1.2729554
-6.7523885 15.085881 0.45976326
-6.7588573 15.159404 1.9734161
-6.7527628 15.069325 0.74905795
-6.9327688 15.506301 -2.4377954
-6.7428422 15.099098 0.56137091
-6.9009709 15.311165 -2.0446436
-6.7575927 15.199852 1.5884995
-6.8037882 15.093521 -2.0336967
-6.9161053 15.406517 -1.737383
-6.8460302 15.466509 -1.1234865
-6.7647057 15.08897 -1.7268443
-6.77526 15.265318 -0.90212154
-6.741549 15.073036 0.9471423
-6.7445874 15.020132 -2.4392409
-6.7546148 15.080099 1.350099
-6.9279962 15.494719 -1.9470534
-6.8605895 15.269229 0.86528933
-6.7638211 15.085352 -1.6359074
-6.8633289 15.283627 1.8517405
-6.7686167 15.257722 -1.1589189
-6.699861 15.265833 -1.4494895
-6.8131523 15.09395 -1.5389149
-6.9008822 15.106595 -0.63855344
-6.8547258 15.290403 1.9629931
-6.9012394 15.113514 -0.84853518
-6.9165177 15.500566 -2.342535
-6.7544074 15.078903 -1.941588
-6.7654386 15.014532 -2.1145632
-6.9019747 15.110352 -0.7421965
-6.8795986 15.453602 0.42948142
-6.9153934 15.392776 -1.6341524
-6.7333851 15.200176 1.4741895
-6.8610697 15.468835 -2.3378887
-6.6528244 14.987666 0.58798015
-6.7646403 14.989127 0.75772178
-6.7341003 15.019511 0.46224749
-7.0183272 15.677259 0.7567358
-6.9051685 15.203364 0.35757199
-6.9556942 15.488892 1.4546454
-6.9624195 15.578722 1.6672595
-6.8443065 15.363161 -1.1490896
-6.8583188 15.476544 1.1712109
-6.8494229 15.192093 1.6641889
-6.6402025 15.004503 1.4867094
-6.9724164 15.599417 0.058704246
-6.7536526 15.079145 -0.31501749
-6.9793468 15.65521 -0.66359025
-6.8582745 15.291593 -0.33772379
-7.0064902 15.585991 -1.6337614
-6.9497485 15.601678 -0.23195009
-6.9677277 15.595378 0.48024073
-6.9618998 15.653772 -0.14609396
-6.7595682 15.197539 -1.0250771
-6.7304192 15.198042 -0.69667673
-6.9558549 15.569348 0.8828814
-6.946228 15.673811 0.32841921
-6.9581013 15.655821 -0.33564934
-7.0032644 15.308389 -0.023376115
-6.8594317 15.192703 0.76046306
-7.0173893 15.578081 -1.736024
-6.8245115 15.188907 -1.8237069
-6.9677601 15.576099 0.15493989
-6.9631848 15.573407 1.3738512
-6.9558873 15.590622 0.66650355
-6.9443274 15.489454 2.063621
-6.9639635 15.572322 1.5647323
-6.8669662 15.566397 -0.32153347
-6.8426619 15.383343 -2.1529403
-6.9473233 15.692005 0.72685057
-6.9254036 15.597971 0.35321951
-6.9564681 15.576317 1.774101
-6.9617023 15.609678 0.93972403
-6.7595201 15.085385 -0.033454206
-6.7618184 15.076729 -0.23985769
-6.958395 15.590242 1.0624757
-6.9679828 15.584996 0.26784617
-6.9646573 15.573503 -1.2534591
-6.7397075 15.091009 -2.3373303
-6.9562554 15.562688 1.1466199
-6.9477262 15.602528 0.55692947
-6.8237672 15.009586 -1.9333477
-7.0053973 15.58636 -1.8367337
-7.0025897 15.405583 1.1698904
-6.8783035 15.358381 -0.049080577
-6.753036 15.073018 0.87022823
-6.8632517 15.408318 1.0591682
-6.969389 15.672289 1.974286
-6.8550491 15.458134 -0.23207654
-6.855969 15.185758 -0.031329121
-7.0131454 15.403743 1.2603368
-7.003962 15.404068 0.96200901
-6.6723013 14.933741 0.50539058
-7.000134 15.408094 1.9617512
-6.8479981 15.397738 0.96419859
-7.0098825 15.399538 1.6713932
-7.0219555 15.50358 1.8592469
-6.7212143 15.07494 0.66771078
-6.9958816 15.410908 2.1660614
-6.8433018 15.390791 1.2404318
-6.8495774 15.189951 1.561112
-6.9546809 15.580778 0.78625351
-6.9445634 15.48786 1.9644954
-6.9456425 15.387133 -0.73788488
-7.011024 15.397219 2.0705793
-7.0268612 15.585597 1.65874
-6.8620501 15.179264 -0.14163311
-6.6748829 15.074732 -1.2937218
-6.8605022 15.187046 0.062576011
-6.8079104 15.018674 -1.8422227
-7.0086679 15.415929 1.7708675
-6.9110932 15.207811 0.46018884
-6.8373675 15.19179 1.9521799
-6.9617667 15.476836 0.16506512
-6.8562469 15.191596 0.55882651
-6.899425 15.112322 -1.0433269
-6.8388233 15.196555 -1.6344109
-6.9599538 15.483069 0.66043675
-7.0153933 15.514193 1.9586905
-6.9587173 15.481962 0.36204785
-7.0036678 15.310577 0.66386944
-6.9238949 15.294927 0.9606542
-6.8534188 15.184783 0.9612354
-6.8615456 15.182837 0.26044953
-6.8394389 15.192118 -1.2328619
-6.8609338 15.280405 -0.43514931
-6.9480753 15.387721 -0.44020379
-6.9444671 15.487544 1.7597259
-7.0191097 15.498599 -0.83759934
-6.9608169 15.493506 0.46670693
-6.9172878 15.412218 -2.1228619
-6.8577948 15.471774 0.042456228
-7.0235915 15.588845 1.5597147
-6.7505794 15.178074 0.057240535
-6.8574438 15.375397 1.9558893
-6.8379116 15.48097 -0.31292751
-6.7453613 15.177406 0.15876377
-7.0243683 15.59052 1.4632938
-6.9732633 15.596266 -0.14571738
-6.8664951 15.395322 -2.2332795
-7.0194421 15.497935 1.3563206
-6.8095965 15.089796 -1.6380067
-6.75669 15.018867 -0.82718855
-6.7291656 15.190398 1.3864831
-6.855298 15.293497 -0.12649667
-6.9040046 15.306811 -1.825326
-7.021162 15.683881 -1.1703043
-6.7567859 15.032245 -2.0613346
-6.8491874 15.372423 0.037546065
-7.0092216 15.405544 -0.94305772
-6.8670526 15.468104 -2.1601086
-6.8372416 15.082253 0.96213859
-6.9034638 15.202059 0.26459292
-6.9015326 15.101996 0.86330527
-6.9181981 15.299295 1.8634776
-6.8543906 15.293977 -1.7377456
-6.8529458 15.285172 1.5635264
-6.9246535 15.296743 -0.4374285
-6.9909091 15.309464 -0.12069978
-7.0405626 15.580184 -0.63721889
-6.8606148 15.183643 1.0629758
-6.7390647 15.211087 0.74936748
-7.0060053 15.400586 1.5621771
-6.7603951 15.076854 -0.62946177
-7.0199523 15.501847 1.7611173
-7.0273089 15.505698 -0.93680197
-6.9916587 15.305902 -0.83412719
-6.830039 15.084414 1.4597125
-7.0298414 15.701634 1.0563672
-6.855567 15.188338 1.2678152
-7.0177503 15.499455 0.66210169
-6.9470334 15.388053 -0.63957632
-7.0200968 15.499753 1.6534147
-7.0328398 15.583841 -0.33979446
-6.7594118 15.087907 0.05724518
-7.0281053 15.588408 0.85786635
-6.9976726 15.306389 0.75225151
-7.0270386 15.590951 0.4631049
-6.8550234 15.287299 -1.6296632
-6.9157176 15.205196 1.4607897
-6.860177 15.375424 0.56826699
-6.9146304 15.199478 1.0611521
-7.0205693 15.502163 -0.33704582
-6.8617916 15.37282 -2.0261407
-6.752389 15.210028 -0.33621162
-7.0283632 15.58983 1.1619985
-6.943542 15.392882 0.96567047
-6.9223766 15.295281 -0.73864412
-6.8330212 15.085807 1.2613049
-6.9580212 15.699802 -0.0039257426
-7.0204763 15.683315 0.25037977
-7.017323 15.503858 0.96061677
-7.0289063 15.68025 -0.21116641
-6.8615794 15.380178 -1.5339825
-6.8399901 15.083002 -0.33907247
-6.8500113 15.475729 1.0601891
-6.8594856 15.382613 -0.63625449
-6.8682981 15.365479 -0.34932423
-7.0056205 15.401289 -1.0443975
-6.8682609 15.27648 0.5497461
-6.8584719 15.182679 0.45834452
-6.8485417 15.461222 0.92482412
-6.9681721 15.693068 0.64761633
-6.9927506 15.318432 -1.2413132
-6.8575354 15.189396 0.65873539
-6.8724818 15.380812 -1.6438836
-6.9231553 15.293463 1.1618233
-7.0267873 15.588529 1.7597958
-7.0282245 15.586933 0.56315482
-6.9254375 15.298904 -0.24177632
-6.9491444 15.395534 0.75603831
-7.0148335 15.501241 1.4629372
-6.8505316 15.284752 1.7665749
-7.0136213 15.502017 0.36323932
-6.8486652 15.385539 -0.26937303
-7.0301332 15.586711 1.0620519
-6.9446659 15.389917 0.46014243
-6.8395672 15.083372 -0.43465239
-6.8665309 15.498078 1.4067672
-7.0276279 15.590534 0.66111696
-6.6760602 15.057979 1.4431233
-6.9459805 15.570338 -1.3301364
-6.7473507 15.290777 -1.353048
-6.8420568 15.376525 -0.55003238
-6.9169464 15.194827 1.3603892
-7.0294809 15.587827 0.96060622
-6.927568 15.297716 -0.037975494
-6.9120083 15.197626 -0.64243251
-6.8608384 15.494324 1.9669999
-7.0186648 15.499502 0.26197863
-6.8537788 15.391718 2.3490903
-6.9538741 15.488899 1.6602765
-6.8007078 15.011827 -2.3141053
-6.8578014 15.278363 0.65896845
-6.9091291 15.200755 0.960042
-7.0196919 15.501007 -0.43667594
-6.848537 15.286443 0.36014187
-7.0277405 15.587457 0.76308304
-6.7584496 15.077743 -1.0339345
-6.941474 15.395001 1.3597357
-6.9539509 15.487309 -1.0439205
-7.0177207 15.5015 -0.13503487
-6.7292304 15.070153 1.0555941
-6.8581657 15.284025 0.16052884
-7.0004916 15.309604 1.3511868
-6.6734905 15.002232 -1.0362904
-6.8576317 15.288364 -0.24300358
-6.8606782 15.27667 0.26890022
-6.9851875 15.770215 0.87727761
-7.0162163 15.497402 -0.037642203
-7.011766 15.199602 -0.96139228
-6.8503942 15.38042 1.7624065
-6.9191117 15.397003 2.1626172
-6.961205 15.479565 0.86259872
-6.9132562 15.401051 -1.9362454
-6.9286876 15.298726 -0.33860302
-6.8585196 15.46012 -0.5507133
-6.8652329 15.381035 -1.4484606
-7.0122318 15.765654 0.48953283
-6.9190803 15.395 -1.5394986
-6.8798518 15.502571 0.32212266
-6.7655559 15.174389 0.35620853
-6.7773032 15.181224 -0.15453373
-6.9245353 15.296485 -1.2378539
-7.012898 15.506639 2.0604334
-6.8305621 15.088483 -1.1408556
-6.9590602 15.478167 1.0618646
-6.8371959 15.085138 1.0598348
-6.8667107 15.380926 0.14782451
-6.7488284 15.021607 0.56177658
-6.7478027 15.172888 0.97850335
-6.9276242 15.299586 -1.0365338
-6.9074769 15.199523 -0.53499079
-7.0192156 15.579859 -1.5375712
-6.9217896 15.292982 0.061082795
-6.9299355 15.304764 -1.1391689
-7.023314 15.690053 -0.9269371
-6.957396 15.478684 0.76132029
-6.8533173 15.281427 0.46649379
-6.8605442 15.285202 -1.0571806
-6.7697678 15.156961 1.0625979
-6.9460053 15.494327 -1.3415202
-6.9187436 15.302637 2.0570021
-7.0210705 15.661259 1.3601357
-6.7545919 15.075224 1.1783679
-7.0148168 15.7562 -0.31064647
-7.017776 15.505407 0.86334813
-7.0213308 15.674766 1.2569784
-7.0253439 15.676692 0.66078573
-6.9445381 15.391006 1.262428
-7.0203042 15.671738 0.94749153
-6.7538118 15.064001 0.35636887
-6.9245763 15.294264 -0.83891934
-6.8552556 15.453316 1.8543361
-6.995131 15.689393 1.8693637
-6.9077821 15.203139 1.560842
-6.9136062 15.205037 0.86068034
-6.8366427 15.081944 1.1624458
-6.7511821 15.216627 1.2741148
-7.0311584 15.674263 0.55343354
-6.8573618 15.285757 -0.84709817
-6.8519135 15.281258 -0.63778776
-6.9079256 15.194474 -0.73111659
-6.9233255 15.295912 0.36199322
-6.9560838 15.483397 0.96127772
-6.9933348 15.314806 0.85321862
-7.0292101 15.668185 1.1736541
-6.8279014 15.365963 0.36196396
-7.0386343 15.694881 -0.79497397
-6.8669567 15.391097 -1.2388572
-7.0304508 15.669693 -0.44333693
-7.0190487 15.50544 1.0597769
-6.8618975 15.272643 -0.54397398
-6.8622947 15.293176 -0.037637983
-7.0214882 15.505197 1.5640756
-6.9188766 15.379344 -2.3197405
-6.8543344 15.28088 0.066141129
-6.8609915 15.407885 0.47076181
-7.026392 15.588328 1.3609062
-6.8641667 15.274492 -0.73502958
-6.8568535 15.299275 -0.93944818
-7.0270057 15.588642 1.2582301
-6.9142156 15.203688 1.2646725
-6.9089589 15.201566 0.76157838
-7.0153689 15.498601 0.16219483
-7.0227928 15.489904 -1.0356853
-6.7929964 15.006092 -2.1275172
-6.8661284 15.376699 -0.44351509
-6.9075727 15.200755 -0.43813324
-7.0078197 15.402422 1.8668553
-6.90978 15.200147 -1.0460348
-6.9664626 15.590279 -0.72897077
-6.9625449 15.580345 -0.93976039
-6.9780083 15.651423 -0.39160547
-6.9597354 15.574612 -1.5396374
-6.9591584 15.580379 -1.4400858
-7.0130401 15.388092 2.2439849
-7.0024362 15.402939 1.4624662
-6.8377442 15.084377 -0.53029442
-6.8303056 15.085702 -0.93377095
-6.8237557 15.457238 -1.4659133
-6.9620094 15.482291 0.56225699
-6.839694 15.086929 -0.73840237
-6.8490577 15.3678 -1.3178424
-6.8665862 15.478072 -1.2157665
-7.0391397 15.679973 -1.2143394
-6.7670865 15.147842 -0.22266157
-6.8390532 15.390047 0.6607095
-6.7618442 15.075755 -0.12432337
-6.908865 15.196773 1.6610986
-6.9232063 15.295778 1.0614783
-7.0391941 15.581761 -0.5388357
-6.8251305 15.1927 -1.7509468
-6.9402614 15.394977 1.5668563
-6.7723269 15.208445 -0.50578988
-7.0100365 15.409711 -0.04330359
-7.0372844 15.582921 -0.73928314
-6.9056025 15.208226 0.064120278
-7.0155416 15.501254 -0.23671916
-6.9312329 15.388897 1.6692774
-6.9747453 15.669003 -1.7576612
-6.9614816 15.479591 1.267635
-7.0202374 15.654488 1.5624738
-7.0052586 15.406995 0.7573368
-6.8496938 15.38454 0.26693019
-6.9450111 15.494401 -1.2423415
-6.7322588 15.092112 0.23200062
-6.8536258 15.18678 -0.44069248
-6.8540654 15.381329 -1.9367695
-6.7793427 15.152207 -2.5863681
-6.9164033 15.397921 2.0629451
-6.8612566 15.185992 -0.2430611
-6.9037685 15.205442 0.16177349
-6.8351536 15.190712 -1.3388636
-7.0037904 15.406096 0.36379158
-7.0092707 15.409319 0.66611701
-6.9055882 15.203422 -0.23768742
-7.0056396 15.414525 0.56263602
-6.7355728 15.014141 -0.62289613
-6.856967 15.277843 -1.1384382
-7.0253854 15.494365 -0.53885412
-6.8362155 15.090096 -0.84046322
-6.8309283 15.08494 -1.0393368
-6.9601984 15.478205 -0.53652066
-6.8755536 15.394701 1.1615484
-6.9080839 15.203777 -0.33510062
-6.7586088 15.07176 -1.1421978
-7.0371985 15.581254 -0.44211316
-6.9594331 15.492206 -0.84167773
-6.8322582 15.096812 -1.3376963
-6.9086628 15.206096 -0.14238633
-6.9467325 15.494201 -1.1397582
-6.753408 15.064776 -1.344982
-7.0393157 15.582705 -0.83508778
-6.8233404 15.088189 -1.236611
-6.8515725 15.282975 -1.2434335
-7.0368619 15.585521 -0.93692255
-6.7525244 15.074641 -1.4392948
-6.9065385 15.203465 -0.031557139
-6.7546549 15.062131 -0.94352245
-6.7591739 15.084407 -1.5534209
-6.7579384 15.082416 -0.82596087
-6.8469148 15.287398 -1.3329957
-6.9687028 15.568262 -1.1353104
-6.912241 15.297866 1.9581934
-6.9221611 15.391202 -1.4384204
-6.9553661 15.483294 1.1599836
-6.9537144 15.494732 -1.4373424
-6.9569831 15.48911 -0.9405576
-7.0370402 15.588415 -1.240477
-6.9241176 15.397305 1.965122
-6.85814 15.284312 -1.4289138
-6.94138 15.485429 -1.5416197
-7.0380659 15.581894 -1.0368758
-6.9291511 15.393268 1.8643452
-6.9230809 15.407604 2.3489175
-6.9195929 15.298476 -0.93234605
-6.6517243 14.96369 -1.6272492
-6.7650919 15.081782 -0.7316196
-6.7691288 15.16333 -1.5667655
-6.8541923 15.383081 -1.0502534
-7.039124 15.579976 -1.1402038
-6.7448254 15.008233 -0.44155884
-6.8556561 15.383774 -0.7510165
-6.9677286 15.552023 -0.57172704
-6.8748655 15.475197 -1.012295
-6.7436156 15.072117 -0.43125165
-6.7506318 15.069815 -0.52298844
-6.911622 15.299153 -1.4257677
-6.8613038 15.385995 -0.94523901
-7.0198865 15.501715 -1.5365683
-6.7731514 15.265478 -0.75081408
-6.8658271 15.489461 -0.95240557
-7.0303535 15.505613 -1.1326784
-7.0235481 15.49955 -0.73816848
-6.6614432 15.028927 -1.2981125
-6.6720901 15.004951 -1.1261469
-6.6709008 15.019629 -0.95549822
-6.6777859 15.031882 -0.78153324
-6.8515282 15.394933 -0.82110709
-7.0048175 15.410258 -1.1387919
-6.8467078 15.293871 -1.5471667
-7.0053058 15.676441 -0.61726564
-6.9243011 15.396873 -1.2357655
-7.0288258 15.584748 -1.3406665
-6.9194989 15.307335 -1.3316957
-6.9182477 15.404389 2.2576067
-6.9439154 15.384415 -0.93558431
-6.7449408 15.021343 0.36876807
-7.03304 15.585709 -1.4419087
-6.7542515 15.176676 -1.3333524
-6.6554303 14.993931 -0.87404037
-6.9258361 15.395634 -1.3392248
-6.7708583 15.188601 -1.6358314
-6.7397647 15.013719 -1.7591125
-7.0078611 15.319194 0.56099552
-7.0059733 15.410197 0.46389547
-7.0057917 15.318664 1.0697682
-6.994482 15.330753 -1.5313561
-6.9126468 15.201198 -1.4406779
-6.9476862 15.392302 0.65700066
-6.9379215 15.392319 -1.0357995
-6.9499035 15.392483 0.15930404
-6.9492497 15.388611 -0.034418862
-6.9236412 15.295982 -0.13791282
-6.9096446 15.303835 -1.6350985
-6.7468905 15.011311 -1.527837
-6.9328661 15.401339 -1.1388443
-6.6772218 15.05577 -1.1783917
-6.9390039 15.499814 2.163419
-7.0025682 15.307963 0.36495003
-6.9503469 15.393682 0.060909603
-6.9486775 15.390967 -0.14327201
-6.9955401 15.310045 1.1667532
-7.0079074 15.403829 0.85712832
-6.9492197 15.390603 -0.3361395
-6.9797497 15.567737 -0.4822036
-7.0283213 15.5884 0.36495024
-6.9477754 15.392836 -0.53907609
-6.952559 15.390255 -0.23894069
-6.9204693 15.29781 1.7564653
-6.8578439 15.180246 0.36423603
-6.8527694 15.181034 0.16493049
-6.6644883 15.01838 -0.33377883
-6.8170667 14.994216 -2.0130668
-6.6579266 15.015272 0.68077898
-6.8086662 14.948616 -2.4496779
-6.9143381 15.310383 -1.5387418
-6.7364292 15.012596 -1.6427885
-6.6732578 15.012136 0.46857533
-6.8616748 15.283364 1.4645447
-6.753118 15.016123 -1.8379116
-7.0187492 15.56569 -2.3458228
-6.8724351 15.463105 -1.8734095
-6.9048519 15.207967 -1.6515186
-6.6448927 15.079289 -0.70863122
-6.9873066 15.49254 -2.0609164
-7.0046716 15.578648 -2.0268271
-7.0009103 15.2101 0.55631649
-6.7445703 15.018666 -2.3308601
-6.8482671 15.384552 -2.4199331
-6.9356413 15.674583 -1.4728577
-6.9258204 15.194218 -2.2582202
-7.0043092 15.279454 1.8732911
-6.8358383 15.202137 -1.5382987
-7.0293016 15.756166 1.1070943
-6.8808017 15.236754 -2.3606668
-6.9674735 15.34027 -2.5508761
-7.0067368 15.423422 -2.5311618
-6.9278612 15.112183 -1.9982657
-6.9166288 15.235681 -1.9615319
-6.7248745 15.147668 0.27304468
-6.7678857 15.249093 0.27444848
-6.7568212 15.306584 -0.58571994
-6.9490776 15.494942 -1.6417246
-6.9488201 15.482422 -0.33775249
-6.9151921 15.313649 -2.216464
-6.9604015 15.477557 0.25762171
-6.9579873 15.486751 -0.63142836
-6.9242439 15.648555 0.021061989
-6.8588371 15.187556 -0.53410798
-6.9915409 15.227389 0.83028018
-6.8559017 15.185112 -0.34065279
-6.8528152 15.195002 -0.93500996
-6.8507171 15.18324 -0.73505419
-6.8493772 15.193092 -0.83916789
-6.8260036 15.110474 -2.2348077
-6.8379965 15.200579 -2.3337553
-6.8510585 15.191283 -0.64132768
-6.839107 15.08324 0.55804837
-7.0016565 15.399423 -0.83807629
-6.9588213 15.47772 -0.24395423
-6.8978958 15.302849 -1.9262182
-6.8127728 15.193694 -2.0378861
-7.0119295 15.311962 -0.24428363
-6.99863 15.3017 0.26046222
-6.9426379 15.492062 -1.7417369
-6.815568 15.105242 -1.9532387
-6.9518719 15.482837 -0.74225599
-6.9609733 15.484468 -0.44108498
-6.9567723 15.482677 -0.039244566
-6.8348708 15.192738 -1.4338295
-6.8567581 15.420258 -2.5791731
-6.9581556 15.676112 1.2623924
-6.7429585 15.369337 -1.4429587
-6.810257 15.203281 -1.9559529
-6.8290558 15.189754 -2.2355142
-6.9655023 15.583897 1.8602898
-6.814877 15.186703 -2.1464622
-6.9249778 15.293159 0.65987873
-6.9241843 15.297265 0.16111605
-6.9210882 15.300028 0.85848778
-6.9228201 15.296862 0.55989367
-6.9221644 15.294269 0.75943202
-6.9267087 15.298588 0.45965543
-6.926136 15.291854 0.26382807
-6.9418988 15.397209 1.462654
-6.7967978 15.090125 -2.3290675
-6.9618869 15.580333 2.0550692
-6.9754519 15.703932 -1.6301529
-6.9981704 15.52702 -2.1559339
-6.9440351 15.393792 0.8609376
-6.6431994 14.985671 1.1546799
-6.9020271 15.105047 0.76646882
-6.8662906 15.480846 0.87107188
-7.0064149 15.415792 0.15910345
-6.7698727 15.154354 1.2091672
-6.777061 15.173676 -0.84985769
-7.0852456 15.550233 -2.4082
-6.9468517 15.389791 1.1591697
-6.9204674 15.300784 1.2643871
-6.975667 15.683899 1.0873963
-6.9176817 15.201515 1.1659336
-6.9852853 15.216653 -0.31303525
-6.9931326 15.437338 -2.3612502
-6.7749882 15.236353 0.6760323
-6.8786244 15.475595 -0.037824735
-6.8618436 15.506243 1.2536087
-7.007648 15.205809 0.659917
-7.0040674 15.412239 0.053370658
-6.917624 15.296084 1.457064
-7.0149603 15.497849 -1.8339857
-6.8410177 15.087474 -0.63720971
-7.0272312 15.497694 -1.9468374
-7.0295048 15.50724 -1.2374541
-6.983654 15.241741 -1.9757488
-6.7491636 14.939425 -2.1555655
-6.9312248 15.425148 -2.5631137
-6.9593029 15.549256 -2.5490294
-6.8862629 15.289198 -2.1163313
-7.0842533 15.369728 -1.4051272
-7.016902 15.463963 -2.2672105
-6.9972115 15.189398 -1.8186855
-7.035161 15.324568 -1.8123512
-7.0194964 15.50001 -1.3309427
-6.8498964 15.186371 1.4565777
-6.8988895 15.197582 -1.739657
-7.0212407 15.497933 -0.63248891
-6.8384666 15.083663 0.66202766
-6.8384786 15.084155 0.86001855
-6.8364344 15.083098 0.75736564
-6.7516026 15.189645 1.7732
-6.9521065 15.489622 1.8638852
-6.9209952 15.303636 1.6562283
-6.9217868 15.29849 1.3611892
-6.9194312 15.295397 1.5599898
-6.9561749 15.486855 1.5599844
-6.9566002 15.479276 1.3586839
-6.9458466 15.389957 0.55869073
-7.0012393 15.216661 -0.15551206
-6.9873333 15.215031 -0.036988202
-6.8555598 15.557954 -1.4979569
-6.7716684 15.196448 0.49800301
-7.0078835 15.190545 0.75336289
-7.0125442 15.199604 -1.0620172
-6.8619614 15.381584 0.85254323
-7.0156274 15.501349 1.254364
-6.9315529 15.49131 -1.8344587
-6.85217 15.374472 0.73565489
-7.0934172 15.406809 1.9511755
-6.7715015 15.023577 -2.2103508
-7.0058818 15.312967 0.45563352
-6.7244434 15.181999 -0.60460734
-6.7587647 15.014328 -0.54672021
-6.8003912 15.005538 -2.5698211
-6.6433158 14.954743 -1.9082386
-6.7443881 15.021711 -0.94264299
-6.8433967 15.196882 -1.0408572
-6.7448292 15.021007 1.072282
-6.9937186 15.581174 -2.5973389
-6.7520514 15.019853 -0.73398173
-6.8417444 15.271184 -2.5007904
-7.0030675 15.410263 -0.13919722
-6.9025602 15.403954 -2.0395355
-6.7794461 15.250211 0.026633449
-7.0030761 15.410889 -0.23402834
-7.0048184 15.407135 -0.33834037
-6.7501974 15.193056 1.6546937
-6.7618971 15.22041 -1.8047109
-6.9421492 15.38797 -0.84308118
-6.9392734 15.521266 -2.2064946
-6.9265103 15.296022 -0.53575402
-6.9806247 15.670403 -1.8740191
-6.9326711 15.535212 -2.5545759
-6.9056802 15.40161 -1.8403566
-6.8958578 15.341955 -2.3450963
-6.8497443 15.377789 1.4530878
-6.9284015 15.490461 -2.0430741
-6.8041039 15.151942 -2.5336883
-6.8138924 15.19043 -2.4465628
-7.0018282 15.683333 -1.5174983
-6.9541836 15.675659 0.94611168
-7.0200167 15.339798 2.2841167
-6.8377738 15.08322 0.45909768
-6.7444253 15.092906 1.26484
-6.7449036 15.081355 1.5558413
-6.8405056 15.18842 -1.1416044
-7.0286694 15.337276 -2.165267
-7.0059094 15.408418 0.26195928
-6.7552447 15.076555 1.4634347
-6.7457323 15.221849 0.55358213
-7.0173736 15.501636 0.46212026
-6.9601808 15.477523 -0.14072105
-6.9359579 15.394576 1.7547601
-7.0008435 15.311661 1.275275
-6.9080153 15.195647 -1.337567
-7.0020943 15.307906 0.95895785
-6.7714925 15.012506 0.95461005
-7.016325 15.500604 0.06313961
-6.9310842 15.297648 -0.64115047
-7.0155587 15.50214 1.1652501
-6.8421254 15.376665 1.8476939
-6.7690377 15.204193 0.85568917
-7.0148754 15.501655 0.56311619
-6.8590741 15.475298 1.7463391
-6.8588295 15.283552 0.96099627
-6.853446 15.278584 1.0706735
-6.8513942 15.190635 1.157334
-6.856472 15.190598 0.86413246
-6.8580027 15.38397 2.2629962
-6.9819746 15.210442 -0.72874224
-7.0256262 15.670609 -0.74111795
-7.0169497 15.504163 0.76173836
-7.0023355 15.213297 1.5482167
-7.0060778 15.696773 -1.3111821
-6.8617849 15.359196 1.6485004
-6.8162513 15.087378 -1.4447136
-6.8358903 15.362812 1.3814958
-6.8534765 15.383079 1.568113
-6.8667717 15.466935 0.75538832
-6.9454513 15.393632 1.0625744
-6.9480886 15.38976 0.25909781
-6.9615178 15.573596 1.9582961
-6.9618835 15.47801 0.061181407
-6.9580617 15.573392 1.2747829
-6.9458861 15.595737 1.4521132
-6.8528833 15.194934 1.363852
-6.8612833 15.271198 1.3850895
-6.8570151 15.291406 1.6694852
-6.7544637 15.070179 -1.2479776
-6.9465375 15.387508 0.36296412
-6.894588 15.242867 -2.1644621
-6.8670182 15.484443 1.4695435
-7.018672 15.665047 1.4768851
