# .PCD v0.7 - Point Cloud Data file format
VERSION 0.7
FIELDS x y z
SIZE 4 4 4
TYPE F F F
COUNT 1 1 1
WIDTH 1556
HEIGHT 1
VIEWPOINT 0 0 0 1 0 0 0
POINTS 1556
DATA ascii
-0.93582976 9.9045219 2.3742232
-2.2465401 13.593381 2.9625437
-2.2475555 13.493473 2.6582637
-2.7646534 14.876524 2.6504984
-2.1745081 12.548254 2.2795851
-2.0825353 12.228904 2.4311578
-2.7489176 14.805647 2.7671015
-2.5126083 14.201497 2.9342086
-1.7264578 12.089276 2.7513628
-1.6446152 11.886003 2.8612285
-3.3644269 15.689493 2.2362664
-1.2093146 10.628035 2.2687974
-2.9615006 14.435139 2.1927514
-1.0607264 10.293171 2.4668746
-1.543757 11.593124 2.5657234
-1.5331576 11.58626 2.760308
-0.96632725 10.037691 2.2761276
-1.404212 10.52526 2.2690957
-1.7614168 12.18256 2.6559336
-1.6450584 11.895358 2.759702
-2.8096738 14.196487 2.4470463
-1.2532721 10.798727 2.4802423
-3.4512208 15.891748 2.3759193
-2.7461901 14.785828 2.6516094
-1.2368507 10.697343 2.2449365
-1.9550009 12.575099 2.2922244
-2.1032207 12.306531 2.2003844
-2.2372642 12.669813 2.283895
-2.9748089 15.369931 2.3339381
-2.8589478 15.097197 2.6664863
-2.7572622 14.865155 2.4989977
-2.7263784 14.786769 2.8518686
-2.4540324 14.081078 2.7535625
-1.3519635 11.084777 2.5519218
-1.2649287 10.876693 2.5609784
-2.5573652 13.508883 2.1759911
-1.6796855 11.891145 2.1694918
-0.9089185 9.8985691 2.6408522
-0.89359778 9.8253469 2.6584597
-1.7963958 11.498712 2.0746491
-1.1104186 10.505009 2.838562
-2.1788075 13.162705 2.1479287
-0.66830218 9.2802353 2.5691013
-2.8506763 14.264347 2.1831763
-2.2374053 12.699769 2.1601052
-2.5793595 14.197941 2.2081528
-2.623198 14.207549 2.1555066
-1.9675875 12.637895 2.1925888
-2.7710714 14.670594 2.1442666
-1.8112867 11.521933 2.2937322
-2.8361456 14.985867 2.6593537
-2.5441892 14.290762 2.7602613
-1.5539434 11.503341 2.2539837
-1.5538808 11.585445 2.4648402
-1.91438 12.590832 2.7522614
-1.2463453 10.793337 2.5628417
-3.3618219 15.444508 1.7771767
-3.3670609 15.823949 2.2776906
-1.93332 12.592379 2.4665737
-1.9062593 12.178778 2.9398112
-2.4373295 13.194613 2.1603026
-1.9308358 12.2827 3.0698099
-3.1125183 15.100218 2.194881
-2.4396343 13.893875 2.4502099
-1.6519717 11.886767 2.6551504
-1.6565782 11.806891 2.2394168
-1.638329 11.114702 2.0656657
-1.0798802 10.464432 2.5609133
-2.7653933 14.873305 2.5837455
-2.2088246 13.234737 2.1613986
-1.3647782 11.006586 2.103049
-1.5731032 11.603919 2.2327242
-1.0777797 10.267328 2.1009567
-2.4699831 13.211946 2.2547536
-2.4474914 13.88821 2.2923601
-2.5598061 14.281881 2.483839
-2.4246249 13.895323 2.7584517
-2.5501349 14.164888 2.2888293
-1.7497426 12.094073 2.4680221
-1.2992878 10.228326 2.285501
-2.0271692 12.276101 2.2285714
-3.4042485 15.630255 2.2745032
-1.863206 11.656123 2.2788823
-3.0418975 15.587188 2.754509
-3.4756329 15.973644 2.294174
-0.97040242 10.073356 2.3842793
-1.9104342 11.877695 2.4608717
-2.288866 13.510832 2.971313
-1.6578252 11.880829 2.9652119
-1.6990664 11.927305 2.9629993
-1.7351174 12.029901 2.9447017
-2.3165009 13.503638 2.2842495
-2.1757782 13.14982 2.3092482
-1.6543515 11.293889 2.3472872
-1.6657078 11.955611 2.4729154
-2.3377774 13.793707 2.8650038
-1.7360996 12.084207 2.3636968
-1.1739166 10.572649 2.1975985
-1.5592285 11.68189 2.6638284
-2.2633836 13.590827 2.8510911
-1.7542087 12.29251 2.8490515
-2.3781779 13.971675 2.8298171
-1.7712666 12.284489 2.3537428
-3.0143142 14.516781 2.3417001
-3.4052589 15.693552 2.4229529
-2.8433964 14.285911 2.4394228
-2.1389034 12.421735 2.4461133
-1.9256582 12.496329 2.9415338
-1.9846991 12.744595 2.8592694
-1.9597837 12.593728 2.3676469
-2.2744691 13.559179 2.3273361
-2.9613123 14.609398 2.4209681
-2.0184517 12.807466 2.9230032
-2.958919 14.30645 1.7496133
-1.3625935 10.229233 2.5298812
-2.0084534 12.904435 2.9442706
-3.3279624 15.515603 2.4434357
-0.72528946 9.3972569 2.4669991
-1.7393303 12.087446 2.5531156
-1.749539 12.192716 2.7641544
-2.34583 13.608412 2.3579755
-1.6446555 11.290218 2.536005
-1.3556253 10.501363 2.2838681
-2.9417284 15.286848 2.6672688
-2.4399555 13.903282 2.3868425
-2.4439576 13.920206 2.8597341
-1.4675245 11.460946 2.6447518
-2.8777244 14.144606 2.2453265
-2.1213906 13.009992 2.1721992
-3.5557556 15.776545 2.1753063
-2.8854051 14.095817 2.1842315
-2.0878353 11.849729 2.1575782
-2.3613799 13.970499 2.6681726
-2.3151684 12.683693 2.1982968
-2.157445 12.823189 2.1854928
-0.98247212 10.02378 2.2765055
-2.4255476 13.526473 2.3443308
-1.9317739 12.150903 2.3546386
-2.0799646 11.936344 2.4174891
-2.7526557 13.95866 2.155261
-1.6308895 11.10048 2.2624667
-1.478039 11.558959 2.8105869
-2.1273112 12.962009 2.2701027
-1.7783233 12.348693 2.7597265
-2.4846284 13.106807 2.3375287
-2.0438409 13.004206 2.8888173
-2.9033122 14.306792 2.007261
-2.0354681 12.198631 2.2609129
-2.0476382 12.988088 2.7750518
-2.0601096 12.988872 2.5619009
-2.8928056 14.906931 2.2871759
-1.3758816 11.10587 2.2624834
-2.9213338 14.304793 1.8800862
-2.1244321 12.121536 1.6250093
-2.5543654 14.381003 2.7840853
-1.2042625 9.8773117 2.4687865
-1.456825 11.472733 2.8714681
-2.5582249 14.397894 2.8620558
-2.6795182 14.753129 2.7446704
-2.0447927 13.065119 2.88097
-2.0558336 12.994361 2.6507459
-1.4642801 11.546799 2.6953204
-2.0624616 13.060724 2.6706052
-2.3690212 13.887348 2.8006966
-3.1233575 14.778236 1.7587616
-0.74594426 9.4862556 2.4640017
-0.80548161 9.6022072 2.4783287
-1.8990552 12.312928 2.8408012
-3.1006389 15.485207 2.5674694
-1.6778301 11.848756 2.2157371
-2.7764273 14.846302 2.3496244
-3.3370879 15.695147 2.4534278
-3.1603031 15.884164 2.5577035
-0.87394387 9.9576864 2.6583028
-2.2780757 13.666033 2.9258456
-2.5537648 13.829681 2.8620155
-2.8161662 14.994102 2.7477567
-1.8709942 12.55512 2.784575
-2.9950757 14.514565 2.4204292
-1.174281 10.245035 3.0747156
-2.7094457 14.412416 2.3660109
-2.7008576 14.39435 2.4686639
-3.0637364 14.967175 2.501749
-1.2841774 10.123621 2.4419229
-2.7530842 14.883366 2.7570593
-1.9175911 12.605765 2.8653612
-2.1714959 12.897903 3.0728366
-0.80013657 9.5949659 2.8418574
-2.253643 13.568103 2.660403
-0.61467177 9.1012516 2.7617271
-1.0095544 9.6851044 2.4730668
-2.9456515 15.305182 2.752635
-2.1818392 12.928615 3.0848849
-3.3213429 16.100613 2.7616172
-1.7743173 12.352454 2.8393853
-0.48749429 8.8358212 2.9546802
-2.0663552 13.085556 2.7356768
-1.8329654 12.261342 3.1034756
-3.0679047 14.753655 2.2486632
-2.5613961 14.194717 3.087507
-2.8505981 14.922045 2.2841241
-3.1292031 14.82188 2.8464141
-1.6690874 12.077806 2.7552788
-1.6506108 11.969361 2.7661116
-1.4830141 11.138206 2.8506274
-1.4602598 11.366185 2.5561812
-3.1104834 14.912872 2.1921833
-0.44950193 9.0625772 2.6286201
-3.0184655 15.529333 2.9385209
-2.3493259 13.792479 2.7694459
-1.6360914 11.95013 3.0174162
-1.4290134 11.299408 2.6636798
-3.1402681 14.964123 1.6713169
-2.8053889 14.797543 2.2504683
-3.0359988 14.710194 2.1293592
-2.466768 13.502891 2.9049406
-2.9819465 15.120972 2.5486195
-2.0122302 11.902415 1.7960166
-3.118979 14.899363 2.4539726
-2.6552505 14.197459 3.0261321
-1.6277522 11.26169 2.4619508
-0.43956679 9.0728502 2.8801718
-0.63410616 8.8856039 2.5816698
-3.0423794 14.707206 2.2463925
-2.1554787 12.632467 2.7962523
-2.5216374 14.201651 2.7558143
-1.6603224 11.92412 3.0480857
-1.8335431 12.391528 2.7487314
-0.50241584 8.7395935 2.4611077
-2.7577748 14.88496 2.8447499
-1.4749087 11.484378 2.7629151
-1.2049764 10.45309 2.1827388
-1.485105 11.365329 2.9536064
-1.6532348 11.98035 2.6650379
-2.8652275 14.338954 2.5840647
-1.6188041 11.182545 1.9987851
-0.94743174 10.086074 2.7441268
-0.61904967 9.1038933 2.5584154
-2.6774442 14.803914 2.858114
-0.9001078 9.5958815 2.5643651
-2.4611993 13.271825 2.4656668
-1.4443018 10.602672 2.3659487
-1.6239097 11.702433 2.7499278
-1.4273463 10.600516 2.4458916
-2.0254605 11.883399 2.2793462
-1.6200786 11.700185 2.4657331
-2.2498987 13.498552 2.7667806
-1.6868005 11.719238 2.6014957
-2.2258525 13.411995 2.9512434
-2.3061178 13.706859 2.9297466
-1.4406214 11.402926 2.8558669
-2.3998713 13.245626 2.6118338
-1.8517809 11.995579 2.9555655
-0.93345827 9.9926586 2.7547467
-1.8320006 11.619114 2.4523153
-1.750548 12.035233 3.0136096
-2.0491271 12.709903 2.9942994
-2.0419917 12.088694 2.1446977
-1.4042505 10.292551 2.347362
-2.7072055 14.423147 2.5824807
-2.2998204 13.426645 2.8535905
-0.51852828 8.892149 2.7551947
-2.7392864 14.110302 2.4628577
-0.50133532 8.8008842 2.5587983
-1.7281388 11.987679 2.5575016
-0.49846336 8.8149137 2.6545682
-1.7310338 12.005161 2.3888745
-1.7448236 12.008452 2.2822771
-2.4192462 13.588181 2.8695934
-2.2594295 13.58656 2.7624261
-3.3213983 16.104773 2.5433314
-3.0641563 14.885856 2.3592918
-1.9207134 11.577955 1.8187817
-2.0358479 12.904125 2.8474376
-0.69632787 9.3053579 2.5565536
-3.1574039 15.880466 2.6433353
-2.1999085 13.196666 2.2480383
-1.941488 12.691169 2.6588452
-0.70369256 9.3168077 2.3870616
-1.7538277 12.183954 2.5693297
-2.7504478 14.770994 2.5682511
-3.1278739 15.600587 2.5543213
-2.3168218 13.43084 2.2832086
-2.7590351 14.770987 2.4885063
-1.5194068 11.392691 2.5612733
-3.1889343 14.970528 2.2361486
-3.1145327 15.59863 2.6391394
-1.625702 11.705967 2.6410596
-2.3302379 13.38757 2.0150373
-0.75825894 9.5651655 2.5649018
-3.4216406 16.019213 2.6099744
-3.0933208 15.255604 2.5288367
-3.3197131 15.750854 2.6141398
-1.8881267 11.525344 1.7232275
-2.0320971 12.89488 2.6570053
-1.8476516 12.389087 2.5561969
-1.0579141 9.86483 2.2460613
-1.9009389 11.536791 1.862622
-3.1965306 15.192142 2.420332
-0.74200189 9.4942789 2.6626072
-2.0372996 12.214083 2.4298658
-1.7544584 11.472677 2.3489678
-2.2513895 13.494493 2.4832604
-2.2678123 13.374117 2.3011539
-2.6666362 14.615541 2.2483127
-1.7065969 11.911865 2.2576826
-2.4241931 13.109943 2.432606
-2.3559027 13.194462 2.465903
-2.2456851 12.832429 2.7274301
-2.3016543 13.394801 2.7443681
-1.8952112 12.291453 2.1216431
-3.1581571 15.099865 2.245482
-1.8207924 11.38903 1.7164145
-2.8368058 14.27072 2.3805325
-1.5702771 11.676823 2.5675809
-2.4072962 13.683981 2.8601546
-2.5418239 13.510733 2.4231858
-2.4094844 13.708741 2.4615548
-1.6953537 11.792268 2.4734406
-3.0232682 15.225119 2.2430692
-2.7627311 14.972616 2.794451
-3.0521376 15.496945 2.35958
-1.6366525 11.793948 2.5554962
-2.2997971 13.401628 2.5657163
-1.2450937 10.784651 2.3824131
-3.473856 15.967116 2.4527752
-1.96332 12.787997 2.843544
-2.4441137 13.896658 2.6676741
-3.3943863 15.593568 2.4238443
-0.65945899 9.2849798 2.4777684
-1.4360824 11.44979 2.480406
-2.1876943 12.38542 2.3433366
-3.1113591 15.591269 2.8786781
-1.055077 10.271502 2.3688595
-2.5877509 14.383849 2.9487066
-2.6974289 14.509809 2.3489044
-0.91656178 9.7021103 2.440999
-1.5262535 10.974448 2.2804523
-3.13434 14.97183 2.2492137
-1.4273039 11.200818 2.6521404
-3.1606102 15.882641 2.4652996
-3.2470691 16.174963 2.5661697
-2.3222709 13.767253 2.9285755
-1.5476644 10.904418 2.3640056
-1.8603654 12.491049 2.5628881
-1.2151536 10.697918 2.472487
-3.308557 15.399158 2.3421662
-1.5723712 11.662801 2.3975551
-3.2514865 15.986988 2.383759
-3.1404166 14.789797 1.9669431
-2.9380364 15.19361 2.4607184
-3.1427312 15.787832 2.6627982
-3.3096261 16.028374 2.5649247
-3.244596 16.076637 2.7454579
-3.3878846 16.175079 2.7602642
-2.3435199 13.080677 2.4717765
-3.2451797 15.785337 2.7513292
-2.504838 13.099504 2.4312921
-2.1661897 13.101339 2.2527575
-2.6224442 13.798841 2.4441955
-2.8242054 14.527703 2.6913128
-3.010793 15.13026 2.6133659
-3.3934722 16.13047 2.6287467
-0.99128944 9.8095093 2.3240616
-1.5570545 11.075891 2.2441657
-2.6845012 14.299604 2.4077756
-3.1879454 15.615281 2.8323972
-1.3798066 10.556421 2.2277381
-2.5292859 14.080271 2.2657676
-1.3585457 10.573905 2.1850607
-1.1653702 9.9867907 2.3685904
-2.522135 13.576429 2.3885882
-1.2070906 10.425988 2.4786685
-1.2045653 10.440084 2.5696931
-0.72668457 8.8954449 2.3695924
-1.9951516 11.908357 1.984959
-2.7758851 13.962989 1.9452082
-3.4296348 16.233486 2.2858095
-2.562016 13.824083 2.1903315
-1.4382342 11.208441 2.2856166
-1.4193604 11.204422 2.7433281
-1.4241054 11.193073 2.864861
-2.2467868 13.483673 2.3956079
-1.429328 11.185765 2.5647626
-3.150948 15.614722 2.9732835
-3.5135624 15.831244 2.3604937
-2.7612464 13.909861 1.8851674
-3.3467383 15.784801 2.6009188
-2.4575386 13.268463 2.3653522
-1.4186404 10.996319 2.7574294
-1.497754 10.790551 2.4490359
-1.3198111 10.220229 2.3667772
-3.2698905 15.957049 2.8369536
-2.4052341 13.322208 2.0037682
-2.3572688 13.332728 1.9495034
-2.1051679 12.813373 2.379144
-3.2646651 16.185104 2.8558915
-3.1161361 14.906612 2.3456719
-1.8406745 12.38556 2.3775392
-2.6454864 14.550645 2.359688
-1.4448863 11.149837 2.9515891
-2.2370238 13.381782 2.5692115
-2.718143 14.700357 2.7546883
-1.837399 11.614208 1.9269332
-2.8753691 14.040844 1.6073112
-1.7284118 12.239184 2.3680861
-3.1380823 14.995049 2.3649743
-1.6746498 11.340796 2.1787567
-3.2300994 15.997144 2.6508203
-2.3242581 13.395112 2.9626832
-2.121217 12.990785 2.4770596
-2.0802877 12.714003 2.7018375
-2.2202339 13.110384 2.3834171
-1.837822 11.554987 2.2997985
-2.6830027 14.371047 2.6633821
-2.2844598 13.079278 2.7762201
-2.2581263 13.367654 2.1367404
-1.6512721 11.230825 2.0556989
-1.6104939 11.600782 2.2960989
-0.6732409 9.3764095 2.9560866
-2.5949044 14.133216 2.6609299
-3.2996681 15.292617 2.3534083
-2.1812477 13.032084 2.4505455
-2.7360981 14.18349 2.7954633
-1.259107 10.89496 2.7584388
-3.2288604 15.812359 2.3736079
-1.9593064 11.993254 2.3617451
-2.2650468 13.579407 2.5913599
-2.3185112 13.273965 2.3432882
-1.8030012 12.034272 2.8684912
-2.7047889 14.505478 2.4635797
-3.0269861 14.79052 2.4486637
-1.7830712 11.992101 2.4607527
-2.8897381 14.932446 2.4410534
-3.4008052 15.605151 2.3568645
-2.4973032 13.804886 2.7183349
-2.8332362 14.887816 2.4643974
-1.7933726 11.316513 2.3755062
-2.1032052 12.830979 2.825197
-2.4350448 13.895557 2.5628498
-3.1930728 15.132761 1.9374996
-2.4472492 13.990066 2.6616063
-2.7069016 14.489476 2.8543739
-3.1034875 15.516198 2.7994273
-3.4137161 15.692842 2.3621089
-2.6466196 14.381377 2.3592057
-1.638375 11.787861 2.1921053
-2.1206858 13.003486 2.655369
-1.7616775 12.097528 2.2820501
-3.2334318 15.988475 2.5493021
-1.7924669 12.00502 2.75826
-1.2241695 9.9970636 2.3677688
-1.1994126 10.495086 2.3769662
-1.0041099 10.103537 2.6571207
-2.1338258 13.090808 2.8642664
-3.3420362 16.13452 2.4813869
-3.0060365 15.290643 2.4539392
-3.3246503 16.134987 2.8358831
-3.2202096 15.303235 2.4413269
-1.5986185 11.069324 2.0109203
-1.4236038 11.103108 2.9115391
-1.7368121 11.984682 2.8592744
-2.1344376 13.099064 2.6532071
-2.4925151 13.450108 2.5132704
-1.820291 12.293879 2.7603683
-2.0299344 12.796827 2.7643065
-2.3910871 13.594402 2.7674751
-2.3116164 13.504011 2.756155
-2.7024055 14.424652 2.7295086
-3.2594526 15.919071 2.9529583
-3.2972045 15.996867 2.6400313
-2.4612653 13.360311 2.486223
-1.7100228 11.210555 1.9512396
-1.5825627 11.449662 2.1897945
-1.3475932 10.606308 2.3966823
-1.5222533 11.08467 2.463726
-1.5184054 11.20946 2.328413
-1.9237348 12.340343 2.4870534
-2.2116821 13.200123 2.4614422
-2.0392647 12.270638 2.4669015
-1.2150738 9.9001942 2.3505073
-2.4115274 13.703122 2.5487633
-2.0903628 12.825237 2.5497591
-2.2234013 13.295139 2.749413
-1.8580129 12.493387 2.3773468
-3.5379102 16.008011 2.2709098
-2.3425534 13.594666 2.4663832
-1.6265683 11.787759 2.7604873
-1.1982896 9.8094311 2.353092
-2.0539572 13.068751 2.5331166
-0.55947191 9.0751305 2.7448695
-1.6390976 11.385796 2.4555595
-2.4922838 13.822918 2.4570158
-2.4410133 13.811317 2.7474463
-3.0402193 15.495584 2.4646623
-3.5998108 16.009178 2.2122581
-1.5013987 11.237219 2.8131073
-3.3896263 16.220394 2.5839813
-1.2516404 10.510139 2.8364482
-1.9629385 12.789636 2.672466
-1.8613859 12.489973 2.4919548
-1.8377415 11.504892 2.3455417
-2.095649 12.191639 2.3601656
-2.4494483 13.19608 2.3617198
-2.9384863 14.391817 2.2822049
-2.7395656 14.441935 2.9420724
-2.7081957 14.514886 2.7546487
-1.5252664 10.800896 2.3578863
-2.6240549 14.277115 2.2729189
-2.2648642 13.128655 2.917001
-2.5141592 14.079668 2.8510404
-1.2088146 10.698803 2.7619643
-1.8208103 12.295804 2.8569205
-2.5225992 14.005802 2.4755003
-2.5364175 14.095103 2.5656819
-3.3264346 16.128708 2.2669785
-1.7283075 11.98719 2.7443671
-0.56017333 9.1543884 2.562505
-2.0140059 11.891585 2.1901035
-1.0364943 10.1926 2.3569722
-1.0287699 10.193707 2.475831
-1.1341161 10.489816 2.5708051
-1.9300326 12.493597 2.6536031
-3.2406459 16.023724 2.7655201
-2.7355959 13.901518 2.3534963
-3.348803 15.605431 2.3590608
-1.010736 10.10784 2.5539238
-2.4300451 13.232773 2.447928
-1.8333025 12.293634 2.4688449
-2.1911626 13.122905 2.6516955
-2.20979 13.209974 2.3780649
-2.8912103 15.020665 2.4834073
-1.2883798 10.69812 2.8657954
-2.1147885 12.88153 2.8697183
-1.1325386 10.496602 2.6540396
-1.3066708 10.817883 2.8944094
-1.1455275 10.49247 2.370028
-3.0074551 14.604786 2.3643847
-3.4473066 16.027153 2.3234596
-1.0257392 10.192809 2.5642462
-0.91104335 9.8962498 2.4646175
-3.1142094 15.507763 2.6653905
-1.0812216 10.14463 2.7065561
-0.98990667 9.9224873 2.6514413
-2.0190918 12.699505 2.7560349
-2.4501019 13.442311 1.9360291
-3.3957241 16.301716 2.8774943
-3.0052681 15.28869 2.38691
-2.886327 14.910119 2.5620046
-1.7199156 11.197416 2.3675928
-2.9845276 15.033971 2.7182243
-3.0000579 15.107068 2.427973
-1.5805812 11.42838 2.3861282
-2.5915775 14.108978 2.5770607
-3.0088825 15.275874 2.865536
-2.8988569 14.904858 2.6598153
-1.8192931 11.39678 2.285558
-3.3885036 16.284229 2.7793994
-1.876941 12.379394 2.2092609
-1.6001806 11.502064 2.7567828
-1.3347723 10.885139 2.2794893
-0.89731616 9.8081818 2.459007
-2.9252591 15.090364 2.4571626
-2.9456244 14.971577 2.1675959
-2.4112742 13.597671 2.4773018
-2.0952721 12.815057 2.6653502
-1.4978424 11.211337 2.4497378
-0.86655396 9.8884706 2.5649979
-0.66687775 9.2713652 2.3894029
-1.5932747 11.098949 2.4570618
-2.2317283 13.296506 2.5628183
-1.2134565 10.519612 2.7441514
-1.1239861 10.306808 2.6516321
-1.0247214 10.103601 2.4726243
-1.8451242 11.674844 2.4313898
-2.2881761 13.311875 2.5525599
-0.55989802 9.0867043 2.285172
-2.5259361 14.100126 2.7616024
-1.6514283 11.790914 2.3647864
-1.2357898 10.892283 2.9413075
-3.3975735 16.239119 2.6711473
-2.798466 14.692808 2.6488025
-2.4853482 13.827591 2.3541636
-2.3046579 13.413418 2.6585066
-1.1337601 10.389495 2.5605896
-2.1754792 12.694757 2.4007959
-1.4171196 10.991202 2.3740246
-1.314168 10.711918 2.440238
-1.2092695 10.494308 2.6724324
-1.5393952 11.500443 2.3516667
-2.1286194 13.004578 2.569391
-2.5422959 13.404136 2.3634357
-2.3490939 13.57329 2.2760746
-3.2440627 15.894635 2.375272
-3.2003219 15.702724 2.4799905
-1.982561 12.489968 2.3025415
-1.1196113 10.408445 2.3799417
-1.1254648 10.316319 2.7474041
-1.1171463 10.303232 2.3744259
-1.0154442 10.099004 2.3624802
-2.329159 13.602574 2.7576425
-1.7083242 11.10703 2.3705182
-2.1966748 12.966273 2.3714025
-0.73344058 9.3968563 2.3670905
-3.1896327 15.680136 2.6813269
-3.0050182 15.223948 2.3608365
-2.6151967 14.2959 2.5608377
-1.5954356 11.507819 2.5671763
-1.4894609 11.206858 2.6640627
-1.4018312 11.009442 2.6534362
-1.3546467 10.297819 2.2784178
-1.3197598 10.991474 2.5567048
-1.813398 12.191059 2.3693466
-0.63858414 9.2095079 2.742516
-1.3068318 10.794904 2.4742014
-1.2071462 10.701344 2.8549366
-3.2395365 15.900166 2.5615139
-2.1314461 12.391191 2.3644028
-3.432292 15.795816 2.3643801
-1.3367674 10.982695 2.3681514
-1.3346204 10.997878 2.4711251
-1.292098 10.705534 2.6572084
-1.5305473 11.41087 2.873255
-1.6268286 11.792717 2.664428
-2.5164232 13.999169 2.5547523
-3.3055398 16.075596 2.3678267
-0.64586663 9.1869259 2.4754817
-3.1541913 15.887856 2.7539139
-3.157835 15.084507 2.3520966
-2.3707905 13.85125 2.3537207
-1.3277042 10.905334 2.5661271
-1.2176896 10.611243 2.4782984
-1.4865018 11.29352 2.3886693
-1.8342524 12.297917 2.3752115
-3.2200851 15.897835 2.8943682
-3.2219973 15.809797 2.6895914
-1.8949488 12.29992 2.5529432
-1.8844573 12.219047 2.6664975
-1.0290749 9.9914284 2.750447
-2.2185328 12.505685 2.3607736
-2.7901342 14.004424 2.2923174
-2.8192315 14.890572 2.6536396
-1.5172734 11.496268 2.7565777
-2.149195 13.185156 2.5837638
-3.3230405 15.390206 2.2933824
-1.5359316 11.403415 2.4641249
-1.3221577 10.891603 2.6515563
-1.3093601 10.800928 2.6587579
-1.8173916 12.095671 2.8476658
-2.5256743 14.095797 2.3617492
-2.7004418 14.411943 2.8384151
-1.3168944 10.902276 2.460927
-3.1905208 14.810373 1.7625897
-2.5678084 13.481163 2.2267382
-1.9597243 12.656734 2.3284926
-2.1562674 13.103572 2.1617837
-2.0370228 12.195001 2.3591499
-1.3306665 10.900439 2.755343
-1.7915554 12.015207 2.6458962
-2.8011749 13.939503 1.9986262
-1.7051951 11.823529 2.2651062
-2.3347938 13.399905 2.1827872
-2.1094482 12.902175 2.5641136
-1.5263811 11.305265 2.2590919
-3.0965915 15.483305 2.8667336
-1.1150049 10.298915 2.4684107
-0.69330651 9.3997622 2.9198182
-2.2429936 12.599913 2.2432477
-2.9270215 15.097106 2.3574009
-2.3197937 13.49477 2.5575292
-2.3250821 13.501552 2.8508978
-2.916553 15.119342 2.7585225
-2.8210843 14.900439 2.7497122
-2.7183614 14.49151 2.263571
-2.7116647 14.501764 2.6411026
-2.3111646 13.38956 2.3638976
-1.825469 12.203978 2.4631479
-1.7900256 12.033284 2.5712452
-1.5003465 11.302707 2.7673407
-1.4014685 11.008018 2.5654738
-1.8151958 11.397552 2.3502858
-1.7769034 12.189861 2.4846215
-3.1353168 15.793672 2.5730369
-2.8190503 14.82004 2.748348
-2.3051274 13.404881 2.4686046
-1.809052 12.107469 2.5715165
-1.5106655 11.298101 2.5622239
-1.5124178 11.2985 2.6599526
-1.4998467 11.296397 2.8490973
-2.5191598 14.093768 2.6650975
-0.63816822 9.1951151 2.5536561
-1.8919753 12.296528 2.3699572
-3.5252659 15.831242 2.2555213
-1.7344725 12.098207 2.661653
-2.8113942 14.688047 2.571027
-2.8523586 15.088166 2.5833349
-2.1996164 13.101315 2.4681382
-2.1155221 12.897132 2.663877
-2.0168586 12.71015 2.469012
-1.601945 11.511979 2.4712844
-1.5223606 11.38889 2.2458313
-2.5000019 13.987173 2.2943735
-3.2758391 15.597259 2.4237382
-1.6436249 11.797844 2.4707422
-3.2241917 15.829046 2.4648271
-2.1243904 12.983702 2.7568088
-2.0918369 12.810027 2.7493577
-2.0165536 12.690789 2.5601599
-1.4916886 11.213719 2.562428
-1.4904312 11.228236 2.3088338
-3.2351453 15.905618 2.7609866
-3.1917653 15.719522 2.5396612
-1.5374132 11.493422 2.4674776
-2.0489993 12.892539 2.4712517
-1.1038033 9.8069048 2.4560618
-1.9325448 12.485301 2.3685968
-0.87547928 9.7840738 2.147336
-2.1820476 13.040217 2.7809515
-2.2821496 13.300519 2.2568288
-0.94550163 10.166922 3.1225626
-1.0109609 9.9864025 2.4747007
-1.9712381 12.879418 2.9452901
-0.76700604 9.657527 2.6024427
-2.2488036 12.781219 2.3664777
-1.8191441 12.174913 2.8398759
-2.4694407 13.257701 2.1982629
-0.99211097 10.023973 2.3700838
-2.395169 13.615004 2.3936224
-2.5599897 14.197144 2.3832471
-2.2249489 12.910851 2.6482034
-2.5000825 13.885854 2.481653
-3.0259914 14.682807 2.3536153
-1.4422904 11.192712 2.3669901
-1.1271665 10.465502 2.2700918
-1.1746943 10.760149 2.7809589
-1.3223654 10.801231 2.5690331
-1.913972 12.410571 2.8442194
-1.7344142 11.380183 2.3669603
-3.0681732 15.505136 2.2831218
-1.3036754 10.99917 2.8529892
-2.5348766 13.587146 2.5720642
-2.459136 13.287058 2.0822203
-0.66685569 8.880888 2.3222952
-3.2826982 15.947984 2.810499
-2.7692487 14.870013 2.200278
-1.1011372 10.288895 2.2646174
-1.4273714 11.108166 2.6508977
-1.0408665 9.8057594 2.4702563
-1.1074828 10.199115 2.5484507
-3.0695353 15.006617 2.5165687
-3.5125222 15.888607 2.2642169
-1.7445831 12.093676 2.1802311
-1.6558303 11.684072 2.3013306
-2.9039757 15.003437 2.7648125
-2.9210258 15.094196 2.6562138
-0.77677917 9.6651163 2.653429
-1.1259497 10.755507 2.4964197
-1.0014579 9.9988079 2.6614618
-1.993933 12.591024 2.8531775
-2.5195644 13.908559 2.8907454
-2.4322903 13.999226 2.7641454
-2.7101531 14.504857 2.5501962
-1.8049183 12.097526 2.7571137
-2.2879174 12.669076 2.2857258
-2.693944 13.698053 2.3486862
-2.6050243 14.182858 2.6705675
-1.4452899 11.284659 2.3723977
-1.2947224 10.707014 2.7697902
-2.2324018 12.960938 2.8679764
-1.0955422 10.132602 2.4923904
-2.2479851 13.392367 2.467268
-1.9812829 12.483278 2.578382
-2.7455249 13.870749 1.7681346
-2.9190795 15.099291 2.5518901
-0.55141139 8.9892282 2.8634274
-1.5982165 11.502731 2.6673515
-2.1575861 13.195974 2.6741912
-2.2066061 13.198804 2.5510008
-2.2893658 12.613655 2.2940946
-1.0186331 9.9027472 2.4172292
-3.2636082 15.040257 1.4989694
-1.6016893 11.481346 2.2988183
-1.6098146 11.526246 2.3872685
-1.0989959 10.205557 2.4722397
-2.8318133 14.215719 2.0530396
-2.2872233 13.268074 2.4748228
-1.1077454 10.404468 2.7596643
-3.1193154 15.6991 2.5680876
-2.7409372 14.101488 2.1806283
-2.6210558 14.391644 2.7612731
-2.817719 14.796268 2.4677701
-2.1267605 13.185373 2.7636576
-2.6167972 14.293038 2.4613328
-0.60772681 9.1039028 2.6625359
-0.47068328 8.8553619 2.6552668
-1.8703878 11.798019 2.5206759
-1.9363203 12.133992 2.7711058
-2.3766556 13.90342 2.5705154
-2.3704579 13.867217 2.6454542
-2.4106669 13.703035 2.6542988
-2.397768 13.622858 2.6617815
-2.7434299 14.09463 2.3504388
-1.900793 11.543666 2.3585198
-1.619718 11.60859 2.4647818
-2.7310901 13.903596 2.2735708
-1.1852205 10.545531 2.9376326
-2.0252709 12.798418 2.6643038
-1.0959253 10.216185 2.3881421
-1.9165319 12.14272 1.8858805
-2.4035463 13.703782 2.2735791
-2.8273909 14.291557 2.0695148
-1.8404675 12.28644 2.253855
-2.264503 12.802668 2.2938619
-2.5475433 13.323288 2.2667077
-2.0186203 12.802663 2.4625437
-3.0446768 15.474563 2.6620271
-1.5090675 10.596924 2.3777766
-2.1958983 13.097383 2.754096
-1.4252363 10.501778 2.3471396
-2.6431596 14.587913 2.7539742
-2.2125483 13.400315 2.8466518
-2.7337861 14.591559 2.1650491
-2.270082 13.698893 2.7589822
-2.470351 14.001597 2.4672494
-1.1532611 9.9936733 2.4514956
-1.8257946 12.179312 2.5601916
-1.8095171 12.093644 2.6574256
-2.816731 14.799191 2.5583177
-2.4796071 13.947408 2.213845
-2.850769 14.97597 2.3470728
-1.6877923 11.728715 2.6565151
-2.664134 13.879226 1.9568491
-1.427924 11.198497 2.4656539
-2.5706511 14.410824 2.6405706
-2.6105752 14.198818 2.3670468
-1.725771 11.295482 2.1675994
-1.828172 12.212859 2.2503843
-2.9156866 14.284044 2.26057
-1.7409313 11.469362 2.4525216
-2.3431888 13.777273 2.3735571
-0.47980008 8.8759956 2.8522704
-1.4267431 11.086924 2.7555654
-3.1236637 15.710542 2.6650798
-2.8546534 15.172983 2.6835742
-2.033916 12.795507 2.5605605
-0.79681545 9.6047163 2.6529737
-1.4581565 11.266696 2.2738945
-2.5404572 14.195118 2.5626442
-3.1310999 15.786165 2.4797451
-1.416508 11.098596 2.2501497
-1.9830329 11.996146 2.441313
-2.5121253 14.084685 2.93221
-2.1086671 12.978503 2.3616271
-3.3109894 15.226699 1.5379987
-3.1187487 15.509185 2.4512587
-2.0001428 12.587277 2.6581771
-2.4343035 14.022384 2.9717667
-2.2282717 12.970593 2.2508581
-1.5216285 11.403952 2.656302
-1.3819729 10.936714 2.7579637
-3.4082847 15.663874 2.2526541
-2.0063016 12.69556 2.3505814
-1.5364439 11.58885 2.6667347
-1.2241046 10.610359 2.3704047
-3.1229329 15.517481 2.3361602
-2.5388482 14.197553 2.6620128
-2.1707778 13.375684 2.6688023
-1.0294139 10.103547 2.7424426
-0.76640356 9.6631203 2.7484608
-2.2854385 12.601434 2.3215184
-0.48878905 9.1482849 2.3496811
-3.4462709 15.574639 1.5952467
-1.9645085 12.230667 1.9089788
-2.434442 13.999446 2.8601706
-3.2561705 15.094315 1.8236884
-2.5828304 14.10138 2.4015486
-2.4059722 12.998705 2.3575466
-2.7563009 14.079531 2.2911475
-2.2211437 13.28793 2.4609566
-2.0109804 12.587749 2.3426902
-3.1060221 14.790589 2.3680027
-2.2064521 13.213432 2.8538284
-1.1528021 9.8834181 2.3594878
-2.4475336 13.980099 2.5537574
-2.3699875 13.859679 2.4206374
-2.5039148 13.902745 2.5548973
-3.3203661 15.553259 2.263896
-3.0167787 15.383799 2.2518814
-2.4578924 14.180161 2.9705539
-1.3792021 11.246687 2.749511
-2.0015543 12.531709 2.6284261
-2.4267766 13.793641 2.5595696
-2.796382 14.623087 2.6834888
-2.0615444 12.957703 2.4716475
-2.1331 13.177759 2.8523798
-1.6294253 11.612006 2.8369529
-1.7214948 11.319859 2.2710905
-1.201036 10.393358 2.7760987
-2.6333706 13.781014 2.200068
-1.8959808 12.600826 2.9550779
-2.4316416 13.790289 2.8592684
-3.1985371 15.800556 2.5711446
-0.91754758 9.8927116 2.2646911
-3.4812114 15.901534 2.15446
-2.2355223 13.397043 2.7550771
-2.2189457 13.313246 2.8653224
-2.3386285 12.897112 2.2881875
-2.7850037 14.601811 2.5770879
-1.3324784 10.997827 2.6617684
-1.017993 10.191154 2.6584167
-2.4648726 14.208354 2.8860841
-2.7114844 14.102943 2.5504894
-2.0659239 13.067533 2.3809283
-0.51161635 8.9005194 2.8532736
-1.1693091 10.661433 2.558856
-1.0393152 10.290352 2.6652131
-1.1110953 9.9308634 2.582098
-0.55192298 8.9959297 2.7592499
-2.7926302 14.733926 2.2719221
-3.0999079 14.712997 2.4020023
-3.1349466 15.697205 2.3885548
-1.3087058 10.716196 2.3871746
-3.0100908 15.222629 2.6495304
-3.3316684 15.614156 1.9200933
-1.4216093 11.110842 2.3724465
-2.1116233 12.190502 2.2700679
-2.3576767 13.774969 2.5737329
-1.1742669 10.672009 2.6781106
-2.2830772 12.923502 2.714196
-1.201884 10.488208 2.5702689
-3.459677 16.333105 2.9209459
-1.5810484 10.711219 2.38186
-1.8752985 11.621598 1.8408391
-2.4031889 12.933018 2.3977568
-2.9155054 14.485401 2.4435983
-2.3411074 12.887922 2.3532207
-1.6011142 11.289251 2.0447574
-2.0171676 12.125769 2.420238
-2.1242216 12.899779 2.7521923
-2.8014257 14.710368 2.4793522
-3.0206051 14.493512 1.8806615
-2.1832964 13.007894 2.5797672
-2.8051429 13.966354 1.6474795
-2.152349 13.16432 2.382266
-2.7539518 14.798212 2.3958855
-3.2994442 16.010845 2.4198737
-1.7271633 11.902986 2.5596635
-1.61062 11.593322 2.3637576
-2.0806041 12.879025 2.3009512
-2.971065 15.492022 2.69258
-1.5283192 11.394382 2.1883898
-2.4365184 14.082823 2.8621786
-1.723699 11.892142 2.664207
-3.4371157 15.590344 1.9684448
-1.7220664 11.903854 2.7585716
-2.5763171 14.257139 2.3936849
-2.5190232 14.007669 2.6373508
-2.4509687 13.991146 2.3659635
-2.3149068 12.80278 2.3524337
-2.5509362 14.195668 2.4675303
-2.5548532 13.569967 2.4391618
-1.9111766 12.305765 2.7561462
-2.746747 14.703561 2.4617009
-2.3566263 13.788095 2.6510506
-2.8333063 14.188517 2.2609675
-2.2129776 13.20329 2.6528642
-3.0159242 15.2972 2.7644506
-3.0050037 15.2883 2.6495717
-2.550982 13.682942 2.3669343
-1.3992217 10.995635 2.489356
-3.011071 15.299992 2.2385175
-1.854002 12.381888 2.4662364
-2.4136879 13.715367 2.7613125
-3.0219035 15.305831 2.5523925
-1.1318313 10.587563 2.9576895
-2.1485786 13.172112 2.4721053
-1.3949078 10.858336 2.6967092
-1.6861498 11.692696 2.3527012
-2.249691 13.377548 2.3666253
-1.3158095 10.811012 2.7410853
-1.7228434 11.898851 2.8620615
-1.5861005 11.494708 2.8481221
-2.5062084 14.002372 2.8583577
-2.8657446 15.006469 2.4766927
-3.3014295 15.335439 1.7732637
-2.3351488 13.457099 2.1924918
-1.0680389 10.47324 2.7705188
-3.0098505 14.479137 2.0448198
-2.3055983 12.612389 2.4350543
-1.9110936 12.218343 2.4535966
-1.5332286 11.499887 2.5744977
-1.5215695 11.396001 2.7565467
-2.7013481 14.112424 2.708128
-1.5052466 11.211226 2.728864
-2.9090533 14.30224 2.3629091
-1.6880652 11.743263 2.462373
-1.6156679 11.603314 2.6615834
-3.036762 14.47595 1.6352124
-2.9597425 14.580729 2.358232
-1.6901678 11.7374 2.8121169
-3.1488602 14.888937 1.8645077
-1.9672356 12.786151 2.399271
-2.4993486 13.894566 2.7671871
-0.88890439 9.6950684 2.2625425
-2.2226803 13.206777 2.7718995
-1.3208419 10.890562 2.3571463
-0.63519573 9.1921587 2.6598055
-1.2085422 10.506893 2.4764204
-0.44356588 8.6902771 2.6573608
-2.1072598 12.895621 2.4705343
-1.5215377 11.486924 2.648664
-2.6937575 13.690875 2.4189835
-2.4314845 13.093525 2.2772222
-1.023096 10.002837 2.5613635
-3.0305064 15.376841 2.7446227
-3.0202746 15.586386 2.9527254
-3.3963251 15.628156 1.9027553
-2.7956486 14.701971 2.7751813
-2.3232446 13.495498 2.6537681
-2.8932204 14.502223 1.8695248
-2.2303708 13.297939 2.6564705
-2.4296577 13.441858 1.8466657
-1.3134348 10.987229 2.7479768
-2.5515783 14.278231 2.5590892
-2.7644558 14.183098 2.3961921
-1.2749468 10.855755 2.3604596
-0.50974554 9.1523924 2.4475009
-1.9932932 12.698474 2.1784286
-3.1976693 15.676171 2.3553805
-1.8085798 11.345043 1.8815823
-2.4137251 13.699969 2.3498921
-1.9617703 12.110319 2.8930354
-2.2358294 12.415528 2.0442433
-2.4431574 13.62502 2.2093709
-0.69969493 9.508131 2.9912529
-1.8334546 12.289048 2.5667694
-2.8438973 14.149019 2.1305676
-2.3866622 13.648211 2.9392254
-3.0390561 15.500405 2.5529163
-3.3530068 15.869805 2.1708837
-0.5712443 9.0885963 2.6693003
-3.2246342 15.914695 2.4370542
-2.3315434 13.695076 2.7550111
-2.3148315 12.892238 2.4541779
-1.9430678 11.878324 2.3618224
-1.9970486 12.600866 2.4649382
-1.0350565 10.283991 3.2852957
-2.0140646 12.596715 2.7696614
-2.1842251 13.11967 2.2466848
-1.9103835 12.37781 2.2771761
-2.9633744 15.385469 2.5809982
-2.6370552 13.921121 2.0614979
-2.9487886 15.162873 2.2531819
-1.7634628 12.296547 2.5460563
-1.8340968 11.698352 2.1603136
-3.2914374 16.004356 2.3791847
-1.4143727 11.111401 2.8609099
-2.8966115 14.542902 1.6898245
-3.3992507 15.60146 2.1757677
-1.7059472 11.799497 2.6478686
-2.6248713 14.50665 2.2691257
-2.2014873 13.127642 2.5520196
-2.2373068 12.605533 2.337877
-0.7885983 9.5124626 2.2941039
-1.6050818 11.587353 2.7517464
-3.3187408 15.326359 2.0352824
-2.101449 12.897623 2.3739038
-2.5769506 14.406544 2.4177325
-1.9133083 12.40955 2.4708476
-3.1392512 14.776462 2.0164404
-1.8671989 12.00956 2.1883302
-2.9079642 15.007346 2.5582871
-2.6166675 14.237323 2.2386169
-1.1985928 10.342329 2.4650197
-1.7095898 11.818899 2.8396688
-1.2188439 10.810716 2.9460802
-2.3208318 13.597957 2.5585191
-1.8226653 12.386167 2.8363323
-1.5168184 11.401132 2.3649619
-3.3567696 16.225954 2.7569051
-3.0042043 14.460347 1.952368
-2.3528924 13.701547 2.473145
-3.3197675 16.175442 2.6392331
-2.308362 13.618206 2.8360953
-1.6345605 11.710764 2.3700523
-1.3236171 10.902182 2.8779485
-3.3264606 16.213163 2.8861966
-1.3085282 10.815025 2.3596358
-1.3531127 11.013578 2.2725649
-1.4645302 11.28203 2.1996448
-1.8584613 12.094002 1.8716149
-1.055037 10.283232 2.5686691
-2.732969 14.591342 2.3512809
-2.9665797 15.361662 2.7749298
-1.7881141 12.107499 2.2730048
-2.1084056 12.124218 2.2628686
-2.1850021 12.624972 2.4180198
-0.67792463 9.413208 2.5024004
-1.1027446 10.205003 2.7819715
-2.1050291 12.098366 2.3345387
-3.0079379 14.394163 1.6655904
-1.7031804 11.794909 2.5740671
-1.2419968 10.801639 2.6594379
-2.6044269 14.191435 2.8352625
-0.94830948 10.272872 3.0198779
-2.3088162 13.612925 2.9500015
-2.6168454 14.2395 2.9169829
-1.4439123 10.60756 2.2738523
-2.7338805 14.604581 2.8587713
-1.2132267 10.790239 2.8398142
-1.9307032 11.801525 2.3455558
-2.4240601 13.797043 2.6612487
-2.5081961 13.918264 2.6436467
-2.5934646 14.125167 2.7500937
-1.4269096 11.088662 2.5602524
-1.6833969 11.68712 2.2788625
-2.6148934 14.198321 2.7481358
-1.4160722 11.101576 2.4714143
-2.9793093 15.357228 2.4423394
-1.1294172 10.399184 2.273591
-1.0649621 10.21047 2.2663975
-2.9621763 15.389244 2.6542656
-1.6368755 11.192314 2.4552519
-3.1735852 15.810066 2.355444
-3.1500559 15.343477 2.3110166
-1.6193237 11.597823 2.5626519
-1.5074191 11.295933 2.4598236
-1.1771363 10.611022 2.3828416
-2.3167026 13.50272 2.4587586
-2.0685132 13.191297 2.5049646
-2.6233737 14.3893 2.8296056
-1.697278 11.810684 2.363693
-2.8125405 14.571677 1.7559255
-1.7883227 12.031994 2.3932929
-2.1545391 13.274582 2.7467513
-1.8365173 11.685465 2.3713477
-2.3884034 13.402769 2.5791283
-1.9369241 12.234591 2.16326
-1.2919451 10.719402 2.5792208
-1.3999923 10.855104 2.224364
-1.4245951 10.935027 2.8346486
-2.6980183 14.378731 2.2606747
-2.6222565 14.489476 2.7600696
-3.0391858 14.777184 2.372689
-2.0833001 12.74268 2.7581494
-2.7319593 14.69091 2.6702147
-2.0042739 12.580507 2.3021131
-1.1378049 10.493475 2.4648523
-2.1361632 13.093622 2.7512779
-1.3885225 10.937687 2.5695
-1.5544658 10.980619 2.3624222
-2.3661809 13.796904 2.4547017
-1.5583429 10.657486 2.426434
-1.1101933 10.387349 2.4635761
-3.4508951 15.809211 2.2679024
-2.7188046 13.822023 2.2598085
-2.3321187 13.596157 2.6620927
-2.3146198 13.491906 2.376334
-2.3426571 13.698536 2.6628346
-2.5245523 14.105183 2.4745579
-3.3530188 15.61692 2.1825116
-2.7180486 13.7975 2.3686991
-1.6514207 11.180373 2.3566611
-2.7317071 13.989108 2.3663399
-3.1395705 15.606169 2.7633247
-1.5811073 11.406967 2.6094899
-2.1500437 13.085337 2.3740845
-2.7711041 14.201904 2.1195512
-0.7915113 9.5223083 2.4719272
-0.47426298 8.8818531 2.9414761
-2.4913664 13.817152 2.6725004
-2.4338548 13.794882 2.3648043
-2.2199554 13.115353 2.8392553
-2.3674374 12.992177 2.2663248
-1.7973347 12.088785 2.3716507
-0.74665278 9.4930868 2.5675581
-2.6633291 14.483775 2.3796384
-2.3880227 13.358207 2.3274534
-2.0421042 12.063054 1.8304284
-2.4343309 13.096615 2.3581817
-2.3628087 13.702189 2.8627634
-2.4293396 13.792524 2.4753571
-2.0940554 12.818963 2.4677091
-2.6025863 14.212109 2.553057
-2.1347218 12.388199 2.2713323
-3.518667 16.003942 2.3676832
-2.5210044 13.312603 2.3557534
-1.1073385 10.407993 2.8607843
-3.2086744 15.887348 2.6459184
-2.5222409 13.992097 2.7587044
-2.5119724 13.992741 2.3593743
-2.1489596 12.458912 2.2639728
-2.6252701 14.30072 2.6507869
-2.7391133 13.99339 2.259299
-2.6010206 14.031859 2.7234123
-1.9692857 12.790843 2.7483511
-2.6346939 14.398987 2.4662445
-2.819299 14.792951 2.3369305
-1.706165 11.902596 2.3510957
-1.7286643 11.997268 2.6502039
-0.97437996 10.247972 2.8273201
-2.257031 12.873198 2.463429
-1.6003237 11.705375 2.8500686
-2.0032218 12.59892 2.5652547
-2.0110462 12.806231 2.8338056
-1.624619 11.69936 2.5649052
-2.9378579 14.478048 2.2796917
-1.8366884 12.293007 2.6621745
-1.911024 12.403904 2.6580908
-1.8985685 12.403252 2.3666372
-1.7239196 11.997139 2.4532604
-1.8380222 12.207854 2.657979
-2.8961854 15.022963 2.3512537
-1.8945065 12.304456 2.6539629
-2.8421443 14.901741 2.35378
-1.9301379 12.592001 2.5664043
-2.031847 12.791955 2.3647077
-2.323247 12.918976 2.1650794
-0.79946512 9.6114168 2.7645757
-2.137197 13.09584 2.567353
-1.7109164 11.906734 2.4640625
-1.0032055 9.8560724 2.3851247
-2.932234 14.479884 2.348377
-3.2057307 15.03684 2.336638
-1.4265383 11.295449 2.7550378
-1.7984486 12.101377 2.4630477
-1.7883513 11.748054 1.9012935
-1.7035652 11.800022 2.7512782
-1.5673907 11.586693 2.366194
-1.9429766 12.482348 2.7453163
-3.0616796 15.595477 2.5704267
-2.3408933 12.986883 2.3707256
-3.1194952 14.807048 2.2692833
-2.1612065 12.837271 3.1322033
-2.3187203 13.071566 2.5511372
-0.56837088 9.0563507 2.4831684
-2.8660209 15.166795 2.7687297
-2.2413154 13.190139 2.9741549
-2.9683161 15.393959 2.8417921
-1.9281701 12.498239 2.4605649
-1.9879607 12.268953 2.84881
-2.6593513 13.894966 2.2407374
-3.2261899 15.38236 2.3801482
-1.9756719 12.157967 2.5600994
-2.6449199 13.995935 2.636425
-1.8977704 11.607828 2.3469889
-2.931771 14.693698 2.5927663
-2.6447613 13.86638 2.1176476
-2.1473904 13.379045 2.9634974
-2.1563129 13.357904 2.872335
-3.0226266 14.711731 2.5585406
-1.2460212 10.890999 2.8578968
-2.7134295 14.212279 3.0449164
-1.2351946 10.790411 2.7525852
-1.4288234 11.289665 2.5625992
-2.0502331 12.883779 2.7608767
-1.9359938 12.266288 2.9284
-1.7989657 12.313809 2.9427311
-1.8443298 12.388996 2.6591322
-2.7765124 14.333512 2.6427646
-1.4378793 11.284418 2.4653783
-1.9749522 12.857104 2.8423386
-1.8557903 12.494637 2.6635098
-1.6571175 11.89287 2.5695043
-1.2163641 10.889817 3.06195
-1.4210653 10.774241 2.5039742
-2.5111568 13.298038 2.1579292
-1.6520274 11.240499 2.2333362
-2.9506068 15.290847 2.4683726
-1.3577733 11.087917 2.4591012
-2.6599371 13.915214 2.3658328
-1.9519671 12.696857 2.4578011
-2.3743374 13.806193 2.2841842
-2.8861086 14.652012 2.6990151
-1.5328426 11.218065 2.2032743
-1.6344461 11.15486 2.1574297
-1.9685678 12.772167 2.5829802
-1.092716 10.501238 2.9696803
-1.0945435 10.193724 2.6700001
-2.9252784 14.434333 2.7766285
-1.7129816 11.569196 2.0701809
-1.4193411 11.293681 2.865063
-2.5223298 13.980964 3.0356553
-3.1105857 15.70795 2.8970635
-1.075743 10.474102 2.8446679
-2.7461433 14.325427 2.5997667
-3.1576085 15.106819 2.5802073
-2.0234165 12.73538 2.2356842
-2.1065798 12.71792 3.0114806
-3.1058695 15.38964 2.5478785
-1.6889052 11.631675 2.3788512
-2.9760931 14.678373 2.2594812
-3.0553429 14.789463 2.055459
-2.0985479 12.613424 2.9949176
-2.3256218 13.16538 2.6871197
-2.559767 13.228605 1.6265494
-3.0285525 15.399559 2.6533921
-1.5744764 11.677976 2.4770658
-1.8192945 12.190264 2.7397323
-1.9308548 12.063226 2.5387673
-1.8667202 12.547914 2.4766636
-2.6141706 14.2929 2.8485155
-1.1157016 10.121042 2.5547023
-0.88646537 9.7968817 2.7526977
-1.5667132 11.238997 2.111037
-2.6780546 13.97308 2.5172095
-2.1455176 12.52102 3.0789587
-3.1836607 15.502946 2.4137967
-2.5537422 14.283731 2.6571281
-0.77537465 9.6491041 2.8546646
-0.90454304 9.9062328 2.846015
-2.0259607 12.837006 3.0118296
-2.9224911 15.185353 2.566623
-1.6274879 10.99937 2.3436878
-3.0080094 14.688405 2.430897
-1.2206202 10.601765 2.5551097
-0.93906844 9.9952602 2.8609338
-3.065835 14.885582 2.0066326
-1.2607473 10.808547 2.272857
-1.6267492 11.417583 2.6633208
-1.2071524 10.423143 2.6511607
-1.4672853 11.247994 2.0754485
-1.9337242 12.060244 2.4641941
-2.2469721 12.791718 2.4725063
-3.281234 15.914981 2.5042439
-2.2334683 12.509525 1.9017513
-2.038486 12.89529 2.5733049
-1.264842 10.887667 2.479373
-1.3069453 10.120599 2.3952162
-2.0402775 11.974438 1.7845752
-1.7229599 11.197611 2.2887826
-1.2277418 10.598905 2.765296
-1.9526029 12.102543 2.3522305
-3.120441 14.974422 2.0566187
-3.2255116 14.989896 1.6723262
-1.9740981 12.801159 2.4634769
-2.1425104 12.492421 2.3601389
-1.5730474 11.793509 2.7562027
-2.0248294 12.590655 1.853372
-1.1679072 10.682963 2.7624588
-2.911236 14.219308 2.2731736
-2.1356673 13.088995 2.4622293
-0.87354398 9.8628845 2.4240644
-1.9393253 12.009809 2.452492
-1.201122 10.234699 2.6137807
-1.5336361 10.970037 2.4528937
-1.8551098 12.491218 2.7536728
-2.3518629 13.072271 2.3588417
-0.6731385 9.3861952 2.8115635
-1.2201526 10.597264 2.6545374
-1.1889533 10.45187 2.2213776
-3.0200098 15.389613 2.4684386
-1.4657657 10.738901 2.4868441
-3.2464066 15.307701 1.8396385
-2.0656538 12.889696 2.2491877
-2.0401654 12.798917 2.2618706
-2.2030644 12.460073 2.449708
-1.1375505 10.690859 2.8613138
-1.8415805 11.641111 1.7123934
-1.1245838 10.402485 2.6545193
-0.66415006 9.3884201 2.760335
-0.94250441 9.9995852 2.5548005
-2.9988499 14.402048 1.7953594
-3.290313 15.920785 2.5410259
-3.0472624 14.864142 2.7751167
-2.5685685 13.659244 2.4950049
-2.2351918 13.410666 2.661675
-1.1557961 10.592434 2.8530416
-2.4064336 13.614534 2.5950704
-2.5891638 14.04807 2.2745054
-0.76795048 9.6826172 3.0093377
-0.90976959 9.8933449 2.5655038
-2.1633513 13.286558 2.5642395
-1.159054 10.585928 2.6593995
-1.2160264 10.610192 2.8350143
-0.44637892 8.6951218 2.5621521
-0.46666506 8.780076 2.4776027
-2.7536922 14.695412 2.353271
-2.3784733 13.163267 2.394007
-0.41362408 8.7021112 2.8613248
-1.1162916 10.295692 2.5550461
-2.4863257 13.69844 2.1746869
-2.1231337 12.99217 2.8459442
-2.7929804 14.914868 2.1918552
-2.6842818 14.450042 2.2015786
-2.0110281 12.012929 2.2369916
-2.1595168 13.283485 2.6789367
-2.7334733 14.601574 2.6449261
-2.7150533 14.598401 2.7442815
-3.1158609 15.597918 2.4706664
-3.1281588 15.693285 2.4771154
-1.3502949 10.380824 2.3704581
-1.760552 11.4802 2.2786815
-2.7271695 14.583925 2.4509938
-1.919468 12.707891 2.9699755
-2.018954 12.704572 2.6524796
-2.7929633 14.706599 2.3570404
-2.7204466 14.60142 2.5527802
-1.3381928 10.302151 2.3594432
-1.5325128 10.907543 2.2656715
-1.14622 10.59388 2.7543766
-1.7501842 11.342695 1.9815236
-2.9685106 14.7411 2.4803283
-3.0015702 15.202986 2.5712914
-1.0580533 10.585179 2.5366418
-1.5820805 11.348062 2.9739285
-1.6585011 11.37128 2.7561269
-2.285017 13.329767 2.6695125
-1.5143635 11.50443 2.8473985
-3.0174458 15.230983 2.458961
-2.7345986 14.692559 2.5584743
-1.5461148 10.724855 2.2780552
-1.5160756 10.703114 2.3407044
-0.82758904 9.7009916 2.6568005
-2.2753572 13.673448 2.9104755
-1.5151016 10.882815 2.461638
-2.3446312 13.706465 2.3613811
-2.1626539 12.500972 1.9343351
-3.0904174 15.560047 2.3425798
-3.0280297 15.39051 2.5619473
-2.9512789 15.196275 2.364728
-0.89852017 9.8107471 2.5497446
-2.6831131 13.65404 1.7481635
-2.0231276 11.984481 2.3541749
-2.7334871 14.714713 2.8618031
-1.0761843 10.455927 2.6554933
-3.3846014 15.402229 1.6626767
-0.62219483 9.0935678 2.4640024
-3.4449809 15.782188 2.148912
-0.65525717 9.279398 2.6642215
-3.4039338 15.528859 1.6570323
-2.6553886 14.592209 2.670259
-1.6958164 11.154105 1.8529754
-1.8328755 11.581723 2.3525686
-2.3534274 12.869342 2.0225239
-2.5016267 13.203442 2.3603635
-2.1273434 12.306103 2.3458929
-2.2222915 13.288422 2.3744149
-3.3993902 15.493302 2.3729534
-3.02686 15.40052 2.3865001
-2.3184447 13.663005 2.2742417
-3.384742 15.413114 1.6004939
-0.55662835 8.9916801 2.5560639
-1.0198795 10.189051 2.8591604
-2.1741595 13.348648 2.7468088
-2.1437194 13.311823 2.8835926
-0.90792739 9.8277979 2.2515626
-2.5158734 13.215639 2.3001845
-2.7389345 14.588322 2.2883182
-1.0709155 10.388988 2.4693761
-1.599398 10.826265 2.3049016
-2.3345408 13.682184 2.580354
-3.4042435 15.530443 1.8422409
-2.183953 13.248776 2.9146457
-3.417912 15.484959 1.7270937
-1.2524261 10.518589 2.9119616
-3.0013616 15.200798 2.7245543
-3.1565881 15.384172 1.7892538
-2.117265 12.668806 2.1341572
-2.1501806 12.640288 1.680483
-2.1861367 12.556556 1.6824361
-0.97803473 10.197971 2.5442615
-3.4112675 15.513029 1.5433936
-2.4336965 13.04568 1.8062656
-2.8320928 14.076962 1.8515359
-2.6879203 13.637033 1.9575465
-3.5380929 15.913855 1.8307893
-3.3028321 15.378287 2.0011587
-2.1770518 12.399081 2.069721
-3.5529735 15.849357 2.012604
-3.4086096 15.499333 2.0703018
-2.7038565 13.695496 1.9476758
-2.7021263 13.739462 2.0410073
-1.6166716 11.002826 2.2712176
-2.8973393 14.198096 1.9123402
-2.5765131 13.416436 1.8479286
-2.7370393 13.733702 1.8337584
-2.4460883 12.89036 1.6992538
-2.7159164 13.741611 1.7023944
-0.83509636 9.6949387 2.4663148
-2.6151259 13.495537 2.4130282
-3.0072775 14.608821 1.8828828
-1.8113149 11.513704 2.0043561
-3.244597 15.289349 2.2561622
-2.0965297 12.351754 1.944914
-1.7272968 11.41416 2.1135364
-1.7669898 11.602735 2.2069786
-2.4549103 13.202685 1.8830618
-0.9737221 10.107553 2.4561648
-2.5826538 13.549962 2.1285248
-2.9205687 15.204165 2.7509103
-2.6164062 13.54684 1.9669113
-0.50702906 8.799468 2.3719602
-1.9427363 12.694021 2.7464092
-0.85158914 9.7970695 2.8585708
-2.1578524 12.910752 2.9914596
-2.4176254 13.607361 2.9952133
-2.9219408 15.197767 2.6591811
-0.78238964 9.536561 2.8149924
-2.660598 14.579677 2.4685063
-2.7995811 14.485954 2.404398
-1.7422711 11.582063 2.2889156
-2.8544297 15.060925 2.4824166
-2.9673719 15.256591 2.3554065
-1.9222056 11.748161 2.1521521
-2.3750417 13.518647 1.9311143
-2.6321318 13.537683 1.4326084
-2.0316482 12.359045 2.0327854
-2.7838295 14.638385 2.3074172
-2.8781738 14.360751 2.0189865
-2.5920057 13.416107 2.3381197
-3.3161552 15.379633 2.1088879
-1.7622505 11.609747 1.9798689
-1.5955577 11.381678 2.0802972
-2.5358939 13.902999 2.1659372
-2.5921631 13.528753 2.2696052
-1.9233526 12.248178 3.1366172
-1.6002138 11.680709 2.9605496
-0.58883733 9.0298939 2.7527027
-2.7857614 14.271897 2.7524736
-0.90627688 9.8066702 2.3882518
-0.55110836 8.9868517 2.6540515
-3.1223652 15.683519 2.7636023
-0.50343311 8.8361216 2.8705392
-2.6608377 13.563845 1.7447357
-1.0222968 10.22499 3.1353595
-2.6355677 14.493375 2.6551533
-2.6528547 13.69753 2.3458655
-2.9662278 15.275708 2.2451055
-3.101711 14.72667 2.1994772
-2.600316 13.418966 1.7721027
-2.6032336 14.593519 2.9210198
-0.49839628 8.7925539 2.7679975
-2.6129112 13.620696 2.4468069
-2.6424432 14.591822 2.8507235
-2.6584737 14.609944 2.575738
-2.6501019 14.48069 2.4841547
-2.6061931 14.491774 2.8640459
-2.6058321 13.385156 1.8138618
-2.646379 14.472671 2.5602415
-2.9268179 14.923635 2.3840592
-2.6098635 14.198213 2.4677
-0.79737109 9.5946198 2.5516274
-3.2215137 15.380294 2.4480431
-0.79681593 9.5130873 2.3623567
-0.63651925 9.2789011 2.9596694
-1.8627403 11.942551 2.7884932
-2.9860044 14.636287 2.4364693
-1.0438837 10.027776 2.8158996
-0.59300846 9.0122595 2.5449131
-0.92220938 10.113462 3.047123
-1.1935148 10.598557 3.0850933
-2.2698922 13.25831 3.1310604
-1.0657917 9.9850769 2.9967241
-2.5997097 14.506163 2.9234776
-3.3889153 15.922458 2.7815595
