# .PCD v0.7 - Point Cloud Data file format
VERSION 0.7
FIELDS x y z
SIZE 4 4 4
TYPE F F F
COUNT 1 1 1
WIDTH 1546
HEIGHT 1
VIEWPOINT 0 0 0 1 0 0 0
POINTS 1546
DATA ascii
45.230705 16.471079 0.51835275
45.231781 16.428774 0.38485682
45.241463 16.447359 0.97794342
45.247681 16.255001 -2.5159469
45.903557 16.62499 -2.1173832
45.413479 16.482695 1.0463127
45.617737 16.46492 0.706357
45.399483 16.135754 0.58697873
45.708416 16.579542 -0.5688498
45.358086 16.142223 1.406924
45.415112 16.38151 -2.2147913
45.283783 16.272415 -2.3033798
45.854836 16.197929 0.77115214
45.866386 16.297598 1.5604737
45.94429 16.009033 0.73841971
45.403111 16.409607 4.1531577
45.764668 16.177519 0.66352379
45.72411 16.259089 3.4216111
45.671307 16.42474 3.7047195
45.54496 16.412971 3.6782913
45.6516 16.088514 2.6348946
45.756023 16.398264 0.50192702
45.7271 16.317238 -0.040028926
45.720848 16.16662 0.54671913
45.729851 16.220222 0.90496558
45.662476 16.420933 -1.906091
45.94426 15.934586 -0.035676505
45.893406 16.082458 0.85760355
45.881496 16.16481 1.1424544
45.876957 16.200195 -0.61139083
45.574524 16.23946 0.8558234
45.886509 16.289812 0.90745014
45.869736 16.303883 1.1684296
45.886265 16.296839 0.3233369
45.680855 16.317162 2.8456726
45.833408 16.303778 1.1037858
45.714687 15.893109 -0.19759782
45.617702 16.139717 0.87039793
45.609489 16.010145 1.9012667
45.702549 15.90471 0.24600306
45.692013 15.94197 0.57132399
45.75563 16.198997 -0.81104022
45.835602 16.105879 -1.5807526
45.731258 16.264116 0.44349912
45.850956 16.097591 -0.33494326
45.882843 16.053844 -1.0992255
45.47982 16.192616 -0.41666365
45.860058 16.099854 -1.2221905
45.730816 16.258127 0.073667936
45.844875 16.106527 -1.0784928
45.755985 16.216112 0.45574787
45.77124 16.201984 -0.25564817
45.839817 16.177578 -1.0495622
45.838394 16.062815 -0.27614412
45.734222 16.254105 0.26202157
45.769215 16.178886 0.28510767
45.577137 16.220919 1.5597502
45.703529 15.914924 1.372673
45.680759 16.166185 -1.60207
45.718639 16.089109 -1.6234323
45.597343 16.100246 0.99625129
45.689152 15.927561 0.39664254
45.593369 16.145454 1.0810267
45.715904 15.886484 0.48359388
45.696831 15.906088 1.2343462
45.712067 15.86367 0.95556432
45.575932 16.111784 1.5362681
45.073402 16.301506 -0.87065268
45.267841 16.371723 -0.87748861
45.396664 16.458309 1.0099015
45.58448 16.079271 0.68780351
45.672131 15.910412 0.68301976
45.653572 15.910963 0.14893021
44.958801 16.266798 1.7062156
45.699364 15.902664 1.06918
45.709072 15.927605 1.1810999
45.793682 16.272814 1.7669472
45.356262 16.473316 -0.53569764
45.431217 16.226919 -1.352348
45.391129 16.482555 -0.015922226
45.410942 16.463177 -0.80614442
45.46093 16.468199 -1.3340374
45.618145 16.030659 -1.4204632
45.742573 16.191225 -1.7356914
45.722065 16.206257 -1.0236862
45.728577 16.180767 -0.76428878
45.734432 16.187271 -0.053618629
45.771564 16.112759 -1.6252506
45.70845 15.900852 1.4418343
45.598228 16.204178 1.7628349
45.68647 15.914975 1.5580213
45.599182 16.227133 1.4633236
45.35194 16.49733 -1.3316838
45.365677 16.492996 -1.5984328
45.677528 15.926052 -0.61773312
45.731487 16.085175 0.64313841
45.306408 16.347429 -1.3636925
45.682766 16.208487 -1.5218552
45.691505 16.095037 -1.5129105
45.683365 16.111746 1.9537321
45.612289 16.129759 -0.14515406
45.690071 16.09321 2.3504419
45.707138 15.920169 -0.46043593
45.707195 16.223732 2.6431203
45.696495 15.928837 -0.32690197
45.705978 15.927342 -0.93321013
45.644623 16.370798 2.5556054
45.685955 16.201521 1.9555112
45.741562 16.073362 1.1629786
45.679554 16.200768 2.0582023
45.691265 16.118404 2.1743727
45.728771 16.058695 -0.14178799
45.694939 16.10059 -1.3592811
45.695469 16.104427 1.351992
45.74477 16.181568 2.1521645
45.609211 16.099211 0.27148175
45.619511 15.974316 2.1173282
45.002048 16.291441 2.8448019
45.709419 15.906278 1.6843727
45.576488 16.116959 1.2448349
45.733418 16.160383 2.2730482
45.73732 16.084585 1.5439398
45.837059 15.806982 0.76076239
45.83744 15.969539 -1.5349872
45.81934 15.729766 0.25576258
45.658695 16.270206 3.3296723
45.632782 16.443485 3.2929487
45.765419 16.11116 2.4532833
45.663269 16.420774 3.3955071
45.692528 16.229317 2.5612984
45.646458 16.413868 3.1903911
45.56551 16.450359 3.0664697
45.692345 16.201712 2.1626737
45.673424 16.109131 1.4619122
45.649197 16.318487 2.7507348
45.413002 16.465986 3.5847607
45.699352 16.113718 1.8566474
45.55825 16.470661 3.8573532
45.677052 16.201664 1.3560143
45.614994 16.113113 -1.1223804
45.706066 16.111118 2.4409657
45.705318 16.219677 3.1921403
45.696007 16.198885 2.2749751
45.666702 16.299843 2.1639674
45.651398 16.399965 3.0347662
45.761459 16.102449 2.1565213
45.662231 16.185463 1.1626049
45.660683 16.197437 0.95542055
45.643341 16.414564 3.4370558
45.652962 16.376902 2.4537287
45.772919 16.19581 3.4679477
45.762257 16.109892 2.5572188
45.694656 16.098724 1.1596307
45.579746 16.451565 3.2719789
45.685822 16.324009 3.4436891
45.666718 16.29357 2.4563763
45.686012 16.311031 2.5573404
45.834835 15.869011 1.4593763
45.74535 16.07029 0.45345172
45.663452 16.402821 2.8943939
45.751106 16.186066 1.0531387
45.744404 16.077295 1.0567906
45.272446 17.000317 -0.62902063
45.750427 16.247782 -1.1073529
45.649818 16.289024 3.1800706
45.642345 16.334087 2.9688599
45.71825 16.119818 2.8639328
45.678925 16.197165 1.8607109
45.670288 16.191715 1.0661658
45.60952 16.204086 0.13408098
45.692711 16.204561 2.4408038
45.704399 16.182625 2.9012628
45.705132 15.912354 0.74790204
45.56295 16.421711 3.3746786
45.658314 16.29689 2.0581195
45.369198 16.447704 3.456964
45.591393 16.191204 0.68286371
45.58783 16.417961 3.2608109
45.668903 16.295765 2.3549039
45.599255 16.200722 2.2659473
45.632706 16.390945 2.9934056
45.018585 16.279362 3.4377675
44.983593 16.262232 3.1595612
44.99575 16.216562 2.7752414
45.733837 16.063681 3.1545308
45.557785 16.468855 3.7378383
45.648815 16.374905 3.7617071
45.533054 16.493172 3.5889134
45.643875 16.384296 2.6597447
45.864365 16.371613 1.3326757
45.649643 16.493479 3.1864443
45.642521 16.373266 2.2494342
45.575546 16.446398 3.168622
45.380203 16.37434 3.16991
45.382629 16.455574 3.6652248
45.169701 16.350021 2.8614035
45.833073 15.899265 1.2883146
45.618961 16.11027 2.790329
45.834763 15.818078 1.3743161
45.753986 16.153603 2.7354217
45.749809 16.284706 0.95603675
45.79641 16.271517 0.1882247
45.822014 15.951296 1.670109
45.775932 16.31625 1.492388
45.756149 16.383753 0.36087903
45.786594 16.354519 -0.23925181
45.777031 16.332809 0.53406072
45.683266 16.023289 -1.2371688
45.778809 16.010246 -1.4335482
45.757553 16.375444 0.68119168
45.833874 16.291729 -0.13591088
45.759838 16.393749 -0.73146641
45.730862 16.175325 -1.5111761
45.691753 16.102343 2.2833476
45.690487 16.110359 1.5644473
45.758152 16.110975 2.2653861
45.732643 16.076443 1.2597482
45.714088 15.905005 -0.54352665
45.711132 15.934872 -1.241762
45.886318 16.11187 0.64282358
45.743359 16.362099 0.98480296
45.658691 16.091089 2.0662661
45.749939 16.271427 -0.56106138
45.722214 16.274565 -0.32410964
45.675285 16.10684 1.7692952
45.871017 15.965309 -1.2538425
45.752132 16.302677 -0.216727
45.736233 16.162743 -0.51818812
45.738335 16.196724 0.18783626
45.75716 16.181946 -1.1514721
45.860451 15.986311 -1.1425163
45.826057 15.852356 0.69292462
45.951939 16.65737 -1.2659216
45.112648 16.270023 -1.9022428
45.689178 16.100918 0.96136785
45.821663 15.993967 1.188149
45.840611 15.875047 0.85661697
45.585617 16.171459 2.0735667
45.70768 16.001961 0.56790698
45.748009 16.071146 -0.63961774
45.750591 16.11278 2.7606206
45.666725 15.991313 1.9582658
45.684395 15.999269 1.5590488
45.853958 16.015909 0.75877184
45.765419 16.117538 2.6661389
45.743237 16.189398 -1.2513644
45.699051 16.004313 1.3555062
45.698956 16.000597 1.7692444
45.711514 16.035391 1.8171532
45.801685 15.817783 0.86176836
45.698448 15.821661 0.64976311
45.871948 15.889784 -1.7383046
45.672062 15.993907 1.6814666
45.756424 16.296429 2.877475
45.833397 15.815626 1.4541992
45.827347 16.005896 0.97176993
45.722038 16.373545 2.6823466
45.827789 16.008762 1.0708485
45.78059 15.896758 -1.528758
45.841553 15.811114 0.27210599
45.663258 16.198084 0.060478102
45.664242 16.192654 0.3587516
45.85611 15.863425 -0.74111074
45.68644 16.18582 -1.4386131
45.756874 16.082541 -1.5351087
45.730961 16.250416 2.4933951
45.697784 16.119312 -1.4313654
45.847015 15.866599 0.17157912
45.834854 15.873379 -0.23611094
45.855412 15.883236 0.46090364
45.733456 16.08025 0.053992476
45.841625 15.882087 -0.32887128
45.751118 16.190453 -0.46083024
45.743515 16.184725 -0.097188152
45.725071 16.24581 2.6153333
45.857372 15.875813 -1.6360162
45.721764 16.274914 2.532558
45.703491 16.028189 0.36232299
45.69762 16.000305 1.0756259
45.680496 16.097145 -0.63837618
45.675419 16.101034 -0.72678304
45.759842 16.001394 1.670235
45.851593 15.981507 0.25095445
45.673061 16.10816 -0.9408654
45.804005 15.820329 0.76360112
45.87484 15.985519 -0.53894627
45.583374 16.367294 -0.036729019
45.972294 16.599804 -2.2526083
45.367214 16.378521 -0.36065602
45.579098 16.367491 -0.2420602
46.118641 16.69787 -2.0294833
45.359024 16.223692 0.36332887
45.728733 16.170406 -0.93497443
45.067413 16.356213 1.0556779
45.281559 16.267729 0.75781
45.254715 16.228615 2.4703329
45.476112 16.234182 1.5511158
45.36578 16.223648 1.4665262
45.446178 16.212147 1.2578322
45.35767 16.217693 0.85077327
45.583263 16.207521 -0.24360044
45.585335 16.365719 0.46081042
45.24144 16.096785 1.880077
45.36525 16.21541 1.1752096
45.364864 16.222832 -1.0452837
45.469135 16.480698 -0.25676954
45.737377 16.16749 -0.65694404
45.417652 16.482826 1.8648102
45.378937 16.295374 -1.937204
45.375504 16.359211 -0.53784096
45.103897 16.350555 0.55442047
45.463211 16.314217 1.9579691
45.585495 16.368879 -0.13934147
45.774277 15.899959 -1.0413167
45.472839 16.390551 3.1367257
45.780552 15.916536 -1.6536322
45.77179 16.004173 -1.2473145
45.641338 16.455269 1.3519945
45.495716 16.362509 0.35929677
45.375336 16.298721 -1.3372227
45.372875 16.279385 0.86325037
45.743855 15.996924 0.35828876
45.373306 16.280848 -0.93393683
45.370186 16.307726 2.0621839
45.557278 16.450762 2.1648066
45.496681 16.360512 -0.54678023
45.793751 15.806359 -1.2356856
45.808331 15.804372 -1.4698986
45.469933 16.44943 2.1411226
45.268654 16.280804 2.0542309
45.372234 16.296703 1.6561573
45.375259 16.274084 -0.34074891
45.369785 16.296158 1.9587016
45.356133 16.217867 1.6640104
45.493496 16.365417 -0.34126082
45.283379 16.277328 -1.3320415
45.377758 16.293751 -1.4386384
45.363617 16.3615 -1.6378272
45.486691 16.372866 -1.3358312
45.367783 16.353659 -0.45674366
45.660595 16.184532 -0.33904833
45.577484 16.367836 -0.73915249
45.480606 16.372952 -0.13575886
45.356709 16.237282 -1.4180272
45.62426 16.493958 -2.1346102
45.266796 16.211096 -1.3349502
45.655052 16.508352 2.1468964
45.66127 16.195782 -0.64094168
45.167412 16.189306 -0.1391385
45.475418 16.374134 -1.5464073
45.699329 16.202375 2.3784878
45.091488 16.403862 0.01350146
45.49625 16.547115 1.0390575
45.238754 16.138897 1.1976202
45.357658 16.217518 0.76017773
45.789539 15.822374 -1.1337366
45.466915 16.224455 0.65664196
45.086914 16.26305 0.90267694
45.299728 16.375301 2.2656443
45.060032 16.304253 -0.54632556
45.096676 16.266174 -0.89563972
45.893921 16.494951 -2.2779174
45.275917 16.285126 1.9558698
45.373985 16.295244 1.5602297
45.286243 16.263695 0.16320953
45.735683 16.384045 1.4460702
45.014957 16.293409 0.052504092
45.270046 16.275669 1.3646653
45.285675 16.371391 0.93864852
45.26218 16.210535 -0.83712274
45.276154 16.271833 -1.0337319
45.638992 16.548321 3.1667843
45.079174 16.259741 -0.73833901
45.272564 16.271971 -1.1410718
45.691177 16.090515 0.669231
45.838188 15.810532 -0.14073882
45.568562 16.371876 -1.34049
45.29734 16.291466 -2.4209266
45.264946 16.215479 -0.037320804
45.282059 16.270178 1.2548136
45.322475 16.410709 0.34677604
45.352291 16.22707 -0.54945832
45.102921 16.312092 -0.32158038
45.365852 16.23345 -0.13489763
46.130119 16.639256 -2.4758878
45.373363 16.295624 -2.4575632
45.273754 16.23151 -2.0190878
45.367378 16.300402 1.8652644
45.565865 16.370319 -1.4398097
45.259644 16.215437 -0.44032916
45.356319 16.226257 -0.44710851
45.35714 16.230013 0.64861101
45.576824 16.370193 -0.83985806
45.573772 16.372913 -1.0384103
45.548309 16.512405 -0.71584475
45.267727 16.212048 -0.73581433
45.281517 16.26639 0.96006817
45.468487 16.305956 0.45991117
45.365715 16.296431 -1.6334717
45.285164 16.269894 -0.72356623
45.279305 16.264063 -0.83832932
45.361073 16.22978 0.55519044
45.564686 16.389105 -1.8442658
45.054001 16.296846 -0.01246594
45.467411 16.303576 -0.94213223
45.10146 16.258564 -1.0186683
45.348209 16.225315 -0.34045705
45.338753 16.233044 -1.7423238
45.179192 16.28433 2.2571354
45.26659 16.217283 -0.53600377
45.262329 16.212353 -1.9545336
45.268818 16.215328 0.85922563
45.357159 16.227854 0.26188391
45.365444 16.232632 -1.1418399
45.462914 16.304909 -0.83604693
45.366329 16.298105 -1.8276306
45.472351 16.306297 0.8588118
45.496529 16.372169 -1.7268407
45.654804 16.311138 -1.038362
45.350674 16.22484 0.46629849
45.338436 16.223331 -2.1460762
45.258774 16.364885 -0.52083397
45.263649 16.21426 -0.63676012
45.446323 16.214375 0.35158518
45.468609 16.308283 0.56176442
45.678375 16.536974 -2.281934
45.357288 16.29727 -2.0464907
45.470379 16.306036 0.96229464
45.548923 16.471861 -2.2956402
45.371334 16.295773 -2.2363188
45.161011 16.204527 -1.5341603
45.467934 16.364788 -2.6477661
45.458321 16.447838 3.6177764
45.076321 16.268778 0.34878784
45.283035 16.2871 -1.927212
45.737633 16.277431 -0.81930459
45.373192 16.276091 0.46072933
45.648636 16.294708 -0.038793873
45.362518 16.225452 0.061156441
45.335754 16.434217 -2.4904404
45.16489 16.192841 -1.6363776
45.719879 16.572805 -1.0510356
45.691418 16.097532 -0.13710837
45.170048 16.207037 -1.8357875
45.173897 16.209818 -1.7298403
45.468342 16.305769 -0.63486123
45.469677 16.300575 -0.73749638
45.266453 16.219439 -1.4403061
45.166832 16.190226 -0.83657146
45.682453 16.102329 -1.0300688
45.166733 16.193575 -1.0402874
45.549244 16.312567 2.3397026
45.2724 16.223635 -2.4998937
45.372177 16.369814 0.64439881
45.833359 15.989519 2.2797675
45.481197 16.378006 0.061058268
45.278538 16.291706 -2.2439167
45.353313 16.443758 0.54650021
45.451859 16.491392 2.4379547
45.286659 16.26338 0.26245642
45.371307 16.228661 1.8665199
45.371719 16.298235 -1.7368075
45.264114 16.221682 -1.5420607
45.676193 16.479595 -1.2251154
45.7029 16.488218 -1.3261421
45.281826 16.267324 -0.94321638
45.366478 16.188341 2.347203
45.27742 16.274719 -2.0337901
45.662697 16.193691 0.26548004
45.689175 16.087957 -0.036733408
45.687042 16.093916 0.056088433
45.64027 16.382032 -0.1329039
45.7393 16.180645 -1.6363659
45.366009 16.228535 3.2867794
45.372913 16.277554 0.6594798
45.687901 16.098663 -0.54099727
45.643509 16.382156 -1.3391697
45.691021 16.096909 0.25718066
45.68821 16.101685 0.16489577
45.088955 16.262741 1.3440958
45.685501 16.101391 -0.23471016
45.47974 16.361717 1.0581129
45.38871 16.369953 -0.26140451
45.688828 16.105499 0.46433997
45.63689 16.400105 -2.007504
45.383736 16.364977 0.75922239
45.264687 16.219267 -0.33833894
45.68314 16.098551 -0.84217584
45.682899 16.193964 -1.0429921
45.657787 16.204666 -0.43763292
45.782738 16.510279 -1.2318616
45.755558 16.494873 0.92631805
45.490875 16.366739 -0.63500482
45.284698 16.405373 0.18302704
45.693562 16.097126 0.37005675
45.662552 16.192137 -0.14517881
45.495659 16.364262 -0.84715444
45.553169 16.484592 0.95658666
45.259792 16.213478 -1.132772
45.368195 16.387562 -1.9355862
45.279133 16.262079 -0.34021339
45.2967 16.346745 0.68035924
45.381065 16.372889 2.2611365
45.664833 16.197649 -0.94194674
45.168461 16.277166 -1.7496165
45.26569 16.208599 -1.0359848
45.371967 16.388123 -1.7804161
45.368835 16.293627 1.4598838
45.660973 16.190643 0.1643319
45.375854 16.292889 -1.2357398
45.73727 16.091417 1.7642356
45.799274 15.823005 0.25567397
45.730568 16.074347 0.94939739
45.659309 16.188499 -0.53944653
45.392845 16.369987 -1.0157535
45.478951 16.317078 -1.8392725
45.480419 16.365711 -0.23697735
45.360504 16.212357 1.7563761
45.475121 16.312487 -1.3360204
45.465603 16.222204 1.3573049
45.190285 16.275492 -0.43272367
45.150223 16.389538 -0.12923165
45.251511 16.372707 -0.13810663
45.362022 16.306501 2.6717827
45.261021 16.22723 2.0518796
45.260002 16.215305 1.267506
45.371582 16.274315 -0.13696538
45.665649 16.193796 -0.73142654
45.260128 16.214796 0.063085258
45.455833 16.467819 0.86275965
45.368713 16.28533 1.1616294
45.257347 16.233379 2.8540523
45.469048 16.30368 -0.33972982
45.371319 16.278896 0.065056421
45.47739 16.375389 2.0622892
45.468884 16.30509 -0.042043883
45.264515 16.215057 3.0847955
45.380898 16.320795 2.4675534
45.38105 16.279985 3.434792
45.470375 16.304695 -0.24012634
45.282375 16.268803 0.051563628
45.375168 16.278231 -0.24063833
45.487598 16.370981 0.95021981
45.168739 16.197218 -1.138451
45.470833 16.307928 -1.1368839
45.285271 16.264992 -0.14175843
45.18716 16.264172 0.059585955
45.375866 16.283321 0.95729172
45.579212 16.37071 1.0604961
45.284306 16.212727 2.6545007
45.385792 16.337582 3.2190692
45.798458 15.818255 -0.041363768
45.694138 16.097887 0.55994701
45.571438 16.487263 0.56391704
45.493107 16.362818 -0.045011882
45.066998 16.267584 3.4669964
45.774006 15.992634 -1.3399322
45.37207 16.276268 0.26174974
45.376785 16.375521 2.9667337
45.259541 16.216438 2.2693846
45.472622 16.306864 0.76546997
45.362251 16.310598 2.7467065
45.19566 16.264845 0.7517761
45.371773 16.295628 1.7611439
45.662689 16.197176 -0.83528072
45.376999 16.278706 -0.53423858
45.387821 16.368313 -0.034842215
45.453709 16.2062 0.051000889
45.471664 16.305576 -0.43567857
45.199352 16.351297 1.6652093
45.146343 16.215622 -2.2433841
45.5676 16.320337 1.6644874
45.784744 15.879235 0.86305255
45.06892 16.309286 0.99610627
45.183811 16.259846 -1.5443329
45.184765 16.261538 -0.35329238
45.372406 16.278669 0.35931262
45.585884 16.366219 0.36329207
45.470524 16.304792 0.16403617
45.568363 16.32383 0.26001224
45.492577 16.367651 0.55877453
45.276291 16.133492 0.1704758
45.855404 15.985464 -1.044518
45.266327 16.215263 -1.2320559
45.483833 16.365725 0.75917274
45.281654 16.26137 0.36406618
45.567966 16.321457 -0.04047985
45.648674 16.37216 -1.0394126
45.569553 16.323685 1.0626416
46.00457 16.774628 -2.318706
45.369415 16.279057 0.15990528
45.391346 16.318178 3.0692692
45.793201 15.809105 -1.3210638
45.278904 16.266066 -0.2473449
45.377537 16.292377 1.359585
45.895081 16.262314 -0.52230519
45.790474 15.818453 1.3549645
45.466602 16.303165 0.26249826
45.364655 16.236576 2.5425267
45.475971 16.315523 -1.4411492
45.285004 16.265965 -0.63569862
45.165489 16.257387 -0.64621586
45.37804 16.370823 1.8489699
45.288647 16.276291 -1.7348329
45.382011 16.378675 2.5414402
45.279182 16.263273 -0.54491967
45.392067 16.370047 0.9794271
45.363186 16.312674 2.3502452
45.817928 16.234343 2.8200152
45.467041 16.385618 2.5574117
45.373184 16.28311 1.0626053
45.181606 16.279495 0.9435398
45.783417 15.890389 1.6523385
45.372223 16.276524 -0.43910423
45.783455 15.885567 1.0634918
45.270233 16.349304 -0.39218515
45.254162 16.38905 3.858943
45.593208 16.46447 0.06521602
45.09251 16.271057 1.1575421
45.331802 16.089813 1.7535208
45.158646 16.203964 1.8636816
45.733833 16.097868 0.36005968
45.536888 16.462181 1.6594853
45.170174 16.199928 -1.4280887
45.415276 16.492775 0.7555998
45.559498 16.561184 0.5462296
45.508904 16.217737 2.4085376
45.262562 16.296122 2.6595583
45.381985 16.35924 1.0614765
45.138371 16.38364 0.095996626
45.36261 16.278702 3.3641829
45.265293 16.217955 -0.23996176
45.184479 16.263865 -1.4382086
45.254452 16.286386 2.74031
45.259281 16.219994 0.56270266
45.187561 16.27162 2.7566135
45.174126 16.201376 3.2522175
45.159702 16.296507 3.171979
45.80048 15.817156 0.46484438
45.490314 16.362869 1.4656076
45.168861 16.220678 -2.1382611
45.253033 16.375984 0.22877599
45.184841 16.263668 -0.82783008
45.786037 16.50144 -1.3249574
45.447002 16.462027 0.73335123
45.60627 16.467196 0.45005113
45.485985 16.329443 -2.431983
45.385605 16.335363 2.9463
45.365128 16.303642 2.2565308
45.468742 16.306488 -1.2358744
45.788967 15.820384 1.5621655
45.58223 16.373081 1.1602854
45.580086 16.203699 1.9638766
45.165668 16.20434 3.3526943
45.161137 16.226494 2.9588668
45.360947 16.22514 1.9745842
45.383133 16.356865 1.7651068
45.102089 16.269939 1.6741253
45.639324 16.302723 -0.14433385
45.572411 16.375172 -1.1350007
45.604053 16.471853 1.7651334
45.15728 16.201761 2.064178
45.210125 16.494923 1.0838497
45.776665 15.896052 1.3569223
45.26244 16.316126 2.8679242
45.362442 16.374136 -0.72530144
45.330425 16.195837 3.1820967
45.260979 16.210527 1.6652777
45.172089 16.189972 0.061277438
45.754486 15.992331 0.86258626
45.469315 16.303957 0.061161138
45.787148 16.196789 2.3864746
45.161774 16.300922 3.2607403
45.087688 16.256859 1.5564026
45.173035 16.370295 -0.5328216
45.188766 16.252457 0.64619803
45.180199 16.350752 -0.26214081
45.269451 16.277924 -1.6360382
45.365326 16.367977 0.16790719
45.747097 15.985558 0.66563052
45.283276 16.261198 0.45966905
45.260506 16.380169 1.565269
45.486053 16.369818 0.16084394
45.80146 15.822105 0.55855668
45.648022 16.297335 1.459366
45.660305 16.473331 0.86833739
45.264061 16.217083 0.26399636
45.687706 16.098948 1.063347
45.259392 16.220335 0.7596066
45.742519 16.101923 -0.051390965
45.274021 16.228399 -2.6350994
45.471455 16.312937 1.4666716
45.284603 16.264179 0.66001254
45.270515 16.284128 2.5754912
45.26223 16.212849 1.0570284
45.269615 16.360907 1.7436304
45.079762 16.274031 1.4250597
45.433113 16.426888 4.0020618
45.425743 16.283836 -2.3193266
45.262051 16.218151 0.3601695
45.2658 16.402208 1.28461
45.394096 16.352108 0.44510925
45.640831 16.302969 0.067857899
45.104988 16.267639 0.1406751
45.174503 16.278582 -1.8306298
45.099457 16.271338 3.0604193
45.263275 16.222063 -1.6417049
45.085293 16.255394 1.7752525
45.495518 16.212481 2.0791919
45.261799 16.21578 0.66045731
45.467648 16.363897 -1.9258668
45.097359 16.285423 -0.11665916
45.252804 16.290207 2.3590086
45.580318 16.366512 -0.33743352
45.489613 16.36849 1.2585181
45.153915 16.216415 2.6611552
45.798412 15.818265 0.36288741
45.583069 16.47126 1.1156125
45.466866 16.237013 2.1775613
45.480225 16.39168 2.8710496
45.068024 16.312504 0.70976436
45.466442 16.389914 2.4536235
45.495785 16.360683 0.4576042
45.371094 16.321264 2.8646996
45.06786 16.200914 2.9581647
45.773808 15.890432 0.65945154
45.394341 16.355997 1.153697
45.555317 16.32542 2.1626408
45.674664 16.19524 1.7565328
45.474014 16.305508 -0.53852624
45.571499 16.318535 1.4671012
44.984089 16.312798 -2.0356114
45.477955 16.310616 -1.037132
45.294674 16.396456 0.85947716
45.275349 16.278755 1.8547854
45.192661 16.349266 3.2524443
45.362801 16.138412 0.2846753
45.788387 15.823204 1.4577544
45.453094 16.195787 -0.23009168
45.586437 16.208828 0.5656513
45.185062 16.267294 1.5686741
45.472702 16.308901 1.1592934
45.787975 15.817492 -0.53268439
45.78994 15.81844 -0.64037484
45.180347 16.261784 0.35352558
45.793793 15.82013 -0.73040885
45.150417 16.361099 -0.35919046
45.947948 16.178642 1.2398354
45.789345 15.818901 -0.44045496
45.474434 16.307926 2.0665553
45.777821 15.891976 0.5615868
45.195061 16.30344 3.3539989
45.096298 16.261272 1.9557588
45.165119 16.275814 0.16730979
45.573864 16.320459 2.476033
45.181858 16.26873 1.9693094
45.449577 16.381609 -2.4604273
45.457523 16.476662 3.8614833
45.533291 16.296368 -1.9193845
45.558601 16.293344 2.658196
45.56546 16.308762 2.0659039
45.353447 16.144569 1.4371338
44.990883 16.251816 -1.4241762
45.176815 16.265165 -0.23947589
45.80048 15.821419 0.664837
45.357014 16.226139 -0.94129455
45.643028 16.309313 -0.63756526
45.265564 16.214939 0.95873928
45.168167 16.208872 2.4443321
45.260586 16.215336 2.1676826
45.14352 16.220943 2.5557787
45.657089 16.192005 -0.039256912
45.279358 16.22644 -2.3470757
45.168369 16.188105 -0.93519229
45.643093 16.378469 -0.24038331
45.583229 16.364809 0.15922819
44.992466 16.309353 -1.3394877
45.590919 16.198265 0.98196405
45.773605 15.894804 -0.037764139
45.434776 16.339479 2.6680365
45.56472 16.403778 2.5628719
45.131886 16.226902 2.8423617
45.51754 16.464365 -0.42528808
45.570129 16.383307 1.6573777
45.550312 16.500574 3.4902291
45.187366 16.265774 1.3693156
45.373917 16.280794 0.76018184
45.305622 16.351427 1.8950053
45.153069 16.262426 -2.054085
45.778675 15.89089 1.4683036
45.774952 15.885331 0.46505278
45.168774 16.214418 3.1365864
45.401314 16.364269 1.2963829
45.197048 16.438444 3.0973637
45.772362 15.895094 -0.54321903
45.797203 15.818745 0.16717003
45.79718 15.820427 0.065525979
45.456127 16.316065 -2.1402607
45.779716 15.887894 0.16163424
45.380123 16.417294 0.050435204
45.560486 16.40029 2.9694271
45.486469 16.368904 0.86766779
45.773006 15.88693 -0.4291155
45.47187 16.309006 1.5595094
45.356384 16.30505 -2.131042
45.567486 16.319811 0.46410069
45.801865 15.82115 0.95471132
45.377659 16.284319 3.1694078
45.196609 16.268068 0.47117066
45.566643 16.401398 2.3577137
45.778622 15.890784 1.1581261
45.374866 16.287081 1.2616673
45.472778 16.305014 1.3609846
45.785194 16.479282 -2.1624894
45.487823 16.363335 0.67616892
45.181831 16.263445 0.85573983
45.176983 16.267296 -1.0312991
45.18087 16.277073 -1.1782722
45.274647 16.280123 1.6612177
45.470394 16.304146 0.36182639
45.366241 16.30665 2.55562
45.471718 16.31032 1.0635008
45.286438 16.267069 0.85931885
45.473827 16.305605 1.259522
45.389378 16.31419 4.1264715
45.354221 16.339716 3.5842497
45.198936 16.281385 1.0951365
45.80764 15.908171 2.1498358
45.797054 15.890347 1.8580946
45.440033 16.301365 3.2704728
45.252193 16.291349 2.4688704
45.169193 16.261818 1.2676628
45.16748 16.275436 -0.52377409
45.270206 16.269674 1.4734834
45.283596 16.261126 0.56354237
45.585079 16.367809 0.76148272
45.687073 16.102365 -0.42869854
45.474102 16.30755 0.66295445
45.26165 16.215256 0.15674385
45.735645 16.075172 1.4610749
45.08128 16.258606 -2.0226321
45.587708 16.447897 -0.42893156
45.583595 16.367739 0.56210101
45.163246 16.195122 1.2652317
45.477959 16.381786 2.2504404
45.101582 16.272289 -0.45045918
46.081013 16.701866 -2.3077955
45.765366 16.358635 -0.10990754
45.48003 16.375053 1.9634644
45.202499 16.262939 -1.9476686
45.166794 16.389631 -1.3236614
45.168442 16.264605 2.0605385
45.16964 16.194599 0.65894991
45.784916 15.826112 1.9356391
45.507553 16.515726 1.2935197
45.786041 15.889517 1.5628924
45.770985 15.889621 0.056277782
45.452862 16.220757 0.1511167
45.264202 16.217373 -0.13871868
45.393837 16.351368 1.3681409
45.654728 16.30567 -1.3371741
45.466034 16.302486 2.1701953
45.741505 16.083424 -0.2306608
45.457882 16.380201 2.7553949
45.78159 15.882923 1.2663416
45.563732 16.323242 1.2680485
45.430431 16.494928 -0.037006043
45.163277 16.195757 1.6602877
45.16777 16.19264 0.96101475
45.066772 16.195999 3.1638212
45.168789 16.192286 0.36128137
45.378471 16.280266 -0.73686105
45.166573 16.197857 1.562502
45.776386 15.887345 0.76711565
45.096508 16.357494 1.2873549
45.569717 16.384029 2.0612698
45.690006 16.104961 0.85063726
45.771591 15.886003 -0.14349787
45.738586 16.076084 1.3658705
45.381721 16.381668 -0.14809032
45.156212 16.19758 1.7578402
45.702129 16.575186 1.7413349
45.787613 16.007553 -1.6321033
45.164604 16.194489 1.1591808
45.747139 16.093933 2.0618951
45.446781 16.266941 3.8604774
45.742989 16.089699 1.9597061
45.642323 16.29657 -0.335154
45.796982 15.89855 1.9521182
45.56031 16.494289 0.1652588
45.163666 16.194908 1.3585297
45.493084 16.364916 -1.2510403
45.480301 16.369648 1.3587691
45.776085 15.884169 0.36545566
45.467659 16.319374 2.3633041
45.487247 16.36721 -0.93476117
45.488125 16.373697 -1.0367208
45.175262 16.297241 3.0557394
45.27808 16.265371 1.0566382
45.788937 15.913903 2.0715311
45.495003 16.365108 -0.7356199
45.096214 16.27825 0.47139841
45.775463 15.892612 -0.33742166
45.785172 15.886501 1.764172
45.443733 16.314117 3.1413317
45.781483 15.889067 0.96369404
45.350906 16.986404 -0.61661911
45.176998 16.261166 -0.063083515
45.188953 16.356848 3.1989629
45.381874 16.369436 -0.64121258
45.684345 16.099651 -0.33909386
45.790695 15.815698 -0.23656246
45.478462 16.366749 -0.43655455
45.465134 16.310532 -1.7268124
45.465343 16.391804 2.9556847
45.204712 16.253435 -0.74041724
45.067005 16.206223 2.6662602
45.471294 16.377764 2.670537
45.45694 16.400389 3.3600664
45.568363 16.319883 0.36381364
45.374344 16.309063 2.1558592
45.270702 16.212725 1.3596672
45.568672 16.322872 0.16256922
45.754185 15.992309 1.1578997
45.37595 16.281096 -0.83601683
45.082249 16.183041 1.7574173
45.188957 16.356421 -1.8913428
45.168346 16.194143 0.46201298
45.411602 16.361057 0.90538746
45.176437 16.278954 -0.14308627
45.175583 16.386368 -2.1236973
45.085148 16.168671 3.0405962
45.076332 16.187632 1.9584074
45.771381 15.993335 2.2583032
45.766109 16.003939 2.3618097
45.170761 16.193642 0.76124859
45.640194 16.289387 0.86314023
45.184101 16.274902 -1.343345
45.075874 16.211222 2.7574756
45.638828 16.376219 0.76373971
45.286179 16.265625 1.1652683
45.562572 16.310585 1.7550582
45.79961 15.906327 2.2910266
45.489395 16.368551 1.1591625
45.661015 16.190258 0.45759481
45.373707 16.282461 -0.63889092
45.077671 16.181992 1.8620467
45.464851 16.494823 -0.35344696
45.442707 16.498016 -0.16311792
45.468048 16.228148 -0.13977486
45.162106 16.192314 0.86211658
45.557281 16.499796 2.9000041
45.080921 16.184357 1.6628511
45.171577 16.368713 -1.1320485
45.675625 16.188292 1.6692939
45.179432 16.266672 -1.2424673
45.690868 16.110693 1.6732262
45.572147 16.384022 1.8572656
45.556805 16.466774 -0.005329974
45.641232 16.377432 1.7554847
45.173824 16.270525 1.6551328
45.184681 16.269154 1.1706693
45.074753 16.268881 -1.4099815
45.669006 16.491423 -1.026971
45.479992 16.41428 3.744524
45.191685 16.268898 1.8789335
45.658318 16.471956 -0.53434736
45.842094 15.834926 2.2503917
45.07711 16.215258 2.861774
45.196915 16.265646 1.76012
45.296509 16.351892 0.79238921
45.681324 16.09734 1.2570819
45.47971 16.373938 2.1602676
45.702038 16.013321 0.2432822
45.361851 16.226334 -1.5239776
45.682835 16.100016 0.76150429
45.470478 16.313726 1.8623992
45.560974 16.224798 1.1635695
45.792564 15.819475 -0.13637009
45.622833 16.45126 1.8878807
45.723312 16.480145 -0.55005592
45.36142 16.224428 1.0618732
45.781361 16.489624 -1.1494521
45.116756 16.29949 0.012442607
45.712524 16.013205 0.16220146
45.648808 16.370152 2.0667586
45.640457 16.290148 0.46432453
45.47559 16.448811 3.5925467
45.258141 16.22053 1.4624592
45.27681 16.311905 3.0636234
45.641418 16.472643 0.45210433
45.566662 16.391216 2.1627162
45.595795 16.549225 2.1257854
45.378887 16.480778 2.0898852
45.273491 16.09893 2.02073
45.186024 16.350777 0.52147579
45.745319 16.375166 0.2948319
45.568584 16.394913 2.2644925
45.184731 16.286036 2.461256
45.728794 16.099791 0.75571603
45.25589 16.120211 0.36178917
45.360447 16.21196 2.2833989
45.394524 16.507086 0.88713211
45.279594 16.385195 0.042696513
45.595913 16.578571 1.7284094
45.772846 16.21417 2.6494699
45.368664 16.518625 0.086586148
45.455841 16.467276 1.9549959
45.278984 16.36713 1.9597073
45.269653 16.354229 -0.66226035
45.32906 16.143749 1.1139818
45.24461 16.141737 2.7387376
45.457756 16.233644 1.9549205
45.259689 16.219723 1.7586949
45.449238 16.301987 3.3354254
45.590874 16.483276 2.9604931
45.370487 16.381962 2.8901031
45.161705 16.281897 2.8688462
45.483902 16.401777 3.2587204
45.402859 16.35644 1.563386
45.245171 16.334681 3.1789668
45.305195 16.361469 3.078125
45.581028 16.379087 1.5607343
45.56813 16.195986 2.9374533
45.58474 16.451216 2.6751246
45.477692 16.379721 2.364666
45.460087 16.316256 2.5681455
45.259716 16.206089 2.5319326
45.568054 16.311419 1.5679121
45.45982 16.23237 1.4560562
45.343002 16.413822 3.8597784
45.126839 16.280914 3.7757649
45.472672 16.391584 3.0607193
45.570614 16.315931 1.3572232
45.6455 16.307192 1.2677815
45.457554 16.306791 2.7317712
45.554855 16.403713 3.1455173
45.559479 16.319643 1.9728707
45.409767 16.35615 3.6374955
45.265823 16.31167 3.5527692
45.256882 16.214045 2.337841
45.183418 16.287386 2.9516225
45.08865 16.266973 1.0538495
45.272102 16.275568 1.5647115
45.275345 16.268156 -1.2423736
45.584419 16.364843 0.26003569
45.568512 16.378748 -1.2282411
45.695824 16.475246 0.24451374
45.58279 16.36974 1.262689
45.271679 16.227898 -1.8454987
45.637798 16.381878 1.0566344
45.350719 16.230366 -0.74145448
46.140244 16.692455 -2.3555217
45.703014 16.004839 -0.6347205
45.371723 16.274567 -0.036289398
45.363155 16.289757 -1.5455667
45.266647 16.219833 0.45918998
45.372643 16.281349 -1.039538
45.683121 16.00535 -0.95140398
45.165012 16.195147 -1.2436104
45.353382 16.226154 -1.2387208
45.173004 16.197582 -1.3358395
45.583759 16.365305 0.064591847
45.259335 16.220407 1.1529123
45.353046 16.1985 -1.8114717
45.262875 16.209213 -0.93492568
45.355221 16.223692 1.2562395
45.643494 16.310955 -0.73784959
45.372948 16.284124 -1.1356311
45.642063 16.369999 -1.1433204
45.47023 16.316221 -1.928714
45.639111 16.305204 0.75974685
45.48888 16.361948 -1.1476978
45.592987 16.46208 -0.27616417
45.640842 16.301981 0.16278347
45.272015 16.281139 -1.5265371
45.752495 15.994823 -0.23882142
45.062195 16.388863 0.49140587
45.349876 16.22311 1.3558043
45.281799 16.265131 -0.037568945
45.793591 16.359623 1.6007422
45.698669 16.449377 0.40778875
45.575348 16.372959 -0.94005471
45.534676 16.374512 -2.0403886
45.477291 16.369728 -1.6457645
45.591213 16.482737 -1.9333211
45.647923 16.295254 1.8681182
45.667999 16.193605 0.7575053
45.456207 16.197889 -0.59630221
45.653416 16.297522 1.7671509
45.103241 16.262398 0.74427056
45.546658 16.391609 -1.945659
45.374199 16.355162 -1.3071202
45.377659 16.370234 -2.328948
45.385391 16.385885 -2.1523671
45.277908 16.282358 -2.1389515
45.075508 16.253805 -2.1657948
45.267109 16.351389 -2.3228147
45.188358 16.268629 0.28788072
45.090187 16.280827 -2.3130777
45.563862 16.32111 0.060825147
45.643501 16.379448 0.9584018
45.278709 16.263214 -0.44564763
45.634224 16.386988 0.65235305
45.850033 15.967009 1.573469
45.637093 16.377916 0.85852027
45.176594 16.384264 1.2691774
45.647255 16.37635 1.5574083
45.637291 16.292088 0.65536034
45.661903 16.193586 0.56053305
45.654362 16.303022 1.9602507
45.647823 16.302923 1.3509715
45.166847 16.190664 0.56325525
45.641304 16.373993 2.3598521
45.524128 16.313723 2.8316967
45.169739 16.203781 2.7416601
45.639236 16.371969 1.8459198
45.641224 16.366322 1.9677784
45.35598 16.200401 2.1703982
45.353886 16.223265 1.5723116
45.392017 16.326777 -2.3275201
45.345757 16.231068 -0.64026582
45.69899 16.001535 1.1799822
45.169525 16.192646 0.25968575
45.278553 16.217508 1.9635994
45.645874 16.310364 1.550674
45.640831 16.379623 1.6545931
45.847763 15.861764 0.065755308
45.477657 16.375954 3.6889074
45.569592 16.225573 2.3469408
45.234676 16.117716 2.3011825
45.402706 16.268106 3.8351791
45.696735 16.014898 -0.13461478
45.557072 16.428038 3.5546546
45.666763 16.197382 1.5596671
45.75222 16.075336 -1.2493501
45.763634 16.087473 -1.7417496
45.613834 16.481045 3.3716674
45.369637 16.365959 2.6632156
45.105236 16.262079 -0.18896103
45.673691 16.101385 -1.2171359
45.744797 16.40274 -0.4308264
45.478096 16.417307 3.4641004
45.35619 16.222652 -1.3416412
45.662941 16.197214 0.65922332
45.104195 16.298429 3.5371482
45.582825 16.380711 1.7606721
45.016472 16.254944 -1.822345
45.470272 16.37178 1.8535682
45.402431 16.497173 2.3436456
45.829674 16.03301 1.9110804
45.570793 16.47942 -1.0452645
45.644524 16.378923 2.1683557
45.604214 16.452349 2.2500484
45.487625 16.371643 -1.448539
45.703575 16.005672 -0.73020083
45.662651 16.20616 0.8560015
45.69767 16.008558 -0.43535089
45.47715 16.453341 -2.0302355
45.80238 15.897291 -1.446647
45.790794 15.913995 -1.350691
45.775196 15.896643 -1.1280533
45.27692 16.403843 -1.0433422
45.700939 16.01203 -0.24563968
45.776463 15.886833 0.26265681
45.182095 16.261127 1.4785573
45.615246 16.140062 -0.64878064
45.35648 16.226248 -0.8441509
45.43589 16.216091 0.93568921
45.377136 16.392818 -1.8546058
45.564636 16.322138 1.1585059
45.742455 16.081499 -0.33139777
45.501625 16.370115 0.27238169
45.516598 16.46858 3.0368614
45.744698 16.089846 -1.0279273
45.745777 16.086699 -0.93623251
45.616119 16.112804 -0.93393689
45.464115 16.218601 0.48947656
45.822769 15.873487 0.96270561
45.260174 16.234442 -1.7346951
45.564106 16.324909 -1.2423519
45.264408 16.216391 -2.1377068
45.558685 16.329124 -2.1259236
45.170101 16.206472 -1.9297588
45.474983 16.315739 -2.0303633
45.640621 16.306383 0.9561305
45.353924 16.227036 -0.2439962
46.284496 16.666428 -1.9366117
45.742786 16.0777 -0.4400799
45.760475 16.298622 1.5685418
45.773655 15.894341 -0.2369498
45.267471 16.268417 -1.4312586
45.744339 15.988668 0.055619877
45.608833 16.213003 -1.2177337
45.352837 16.227249 -0.040794067
45.735886 16.091187 -0.73734939
45.74638 15.981398 0.56044126
45.746902 15.984768 -0.041116383
45.465549 16.311029 -1.6258404
45.596405 16.211138 -0.039217439
45.471386 16.301983 -0.14112614
45.262215 16.218302 1.5599597
45.569668 16.320995 1.8630352
45.550514 16.412535 -2.3310244
45.745415 15.978206 0.15974057
45.783264 16.429171 -2.0594459
45.450722 16.314205 -2.2265141
45.471699 16.38138 -2.0346143
45.302685 16.356506 -1.2362751
45.557617 16.479744 -1.2369723
45.772724 15.900373 -0.94449484
45.476482 16.370983 -2.1290338
45.458157 16.311211 2.2644801
45.762699 16.160994 -1.4233279
45.744484 16.075733 1.669084
45.773056 15.89362 -0.83698678
45.767632 16.396275 1.3080575
45.748718 15.984529 -0.13546628
45.738628 15.991681 0.46200529
45.750359 16.361282 1.755275
45.368996 16.278421 0.55883282
45.537918 16.390919 -2.2425263
45.829685 15.856527 1.399595
45.184547 16.349403 3.4939985
45.56472 16.320063 -1.4457088
45.219078 16.237055 -2.5572164
45.461567 16.231487 -1.1233356
45.084667 16.268274 2.8609278
45.554039 16.405144 -2.1379232
45.713795 16.569666 -2.1240292
45.646763 16.372709 -1.2316734
46.186485 16.650974 -2.1348677
45.17757 16.271118 -2.3270752
45.473141 16.365849 -1.830623
45.4664 16.380596 -2.3425522
45.310162 16.349463 -1.9997725
45.61982 16.446955 -2.0469387
45.184525 16.261524 -2.0994077
45.168518 16.289265 -2.2555597
45.294945 16.366152 -2.2545187
45.463219 16.387571 -2.2491109
45.587276 16.498219 -1.3191613
45.652546 16.472557 0.15380855
45.371861 16.36945 -1.5469973
45.437977 16.216166 -1.041405
45.740417 16.420105 1.6220695
45.986481 16.663893 -2.2925808
45.564259 16.318121 -1.1368232
45.245895 16.232159 -2.2271998
45.567013 16.32815 -1.857376
45.845242 15.808186 -0.040137578
45.700069 16.011036 0.065034188
45.679226 16.458462 -1.1425358
46.031681 16.559877 -2.2231255
45.750278 15.989076 0.26295325
45.177856 16.140644 2.8186262
45.769424 15.903994 -0.74796438
45.748596 15.985494 -0.44083321
45.533852 16.334005 -2.0373688
45.571201 16.384222 1.9691432
45.17001 16.348328 3.8007395
45.365437 16.228781 0.16327114
45.769672 15.891255 -0.63359803
45.274559 16.276218 1.7595427
45.838268 15.876429 1.5595678
45.742657 16.078905 0.85524464
45.607433 16.224197 1.3654966
45.568581 16.319069 -1.3454369
45.763641 16.196432 2.5512838
45.438427 16.240292 -0.82568002
45.738968 16.303732 1.3638693
45.729435 16.188894 1.7781632
46.090378 16.608912 -2.1169269
45.853855 16.530972 -1.4545125
45.755962 15.989086 1.3647736
45.105652 16.264593 2.6511769
45.653641 16.289351 1.6567721
45.264828 16.217295 1.8642772
45.436855 16.234901 0.27385476
45.422565 16.135561 -0.79186594
45.59877 16.205694 1.6790426
45.640152 16.297949 1.0653307
45.163555 16.202858 1.9637185
45.379108 16.349775 -1.2205303
45.18816 16.282654 0.57034498
45.501266 16.449142 -0.64380014
45.218807 16.981363 -0.61446458
45.53294 16.449671 -0.64520693
45.549183 16.457611 -1.4806398
45.545006 16.456057 -1.8831924
45.266323 16.297405 -1.8340147
45.112492 16.247503 -1.5350509
45.162643 16.197964 1.4597821
45.802811 15.989417 -1.542135
45.151642 16.208366 2.1615877
45.157543 16.21269 3.0507278
45.749886 16.00127 1.2667625
45.757889 16.012768 -1.0312853
45.308739 16.36743 1.3419513
45.780502 16.550905 -2.2361231
45.37122 16.234589 -1.5920149
45.412682 16.516989 -2.1076591
45.727905 16.204485 1.1765156
45.846043 16.585218 -1.137427
45.641811 16.303068 -0.23621596
45.591492 16.446341 1.98396
45.749828 15.985281 -0.53239244
45.194099 16.268936 -0.92904866
45.107265 16.25795 1.2939336
45.155491 16.198545 2.2608585
45.35038 16.145334 -0.40722716
45.111832 16.276676 -0.63868523
45.279522 16.487906 -1.3421582
45.760433 16.178722 -0.32361022
45.333138 16.499149 -1.509683
45.701462 16.0047 -0.84146762
45.161827 16.191067 0.16035712
45.169174 16.196711 1.0608915
45.476093 16.231794 -0.97582984
45.478111 16.238819 1.8381913
45.790524 15.819268 -0.34477219
45.562767 16.45471 1.8909593
45.751514 16.085499 -0.54163909
45.697445 16.009954 -1.0348413
45.751427 16.168955 1.4726775
45.402275 16.481712 2.1461127
45.848148 15.990207 -1.6323647
45.838589 15.817941 1.5583078
45.189384 16.282427 2.3537958
45.828468 15.871968 1.8458312
45.251614 16.288992 2.2611032
45.412441 16.490461 1.9543666
45.58419 16.300339 2.2528076
45.619347 16.131649 2.272404
45.794182 15.807299 -0.93688434
45.534946 16.236389 -1.8446153
45.844509 16.002993 -0.63049728
45.837143 15.819847 1.7529978
45.261192 16.374443 3.5394382
45.871983 15.822052 -1.7427256
45.565449 16.395981 2.45877
45.65506 16.307999 -1.2348363
45.761356 15.990772 1.5595553
45.651825 16.313547 -1.1337899
45.267857 16.358673 2.3714075
45.17725 16.288021 2.557147
45.852459 15.883381 -1.5353246
45.645214 16.30628 -0.43023089
45.744392 16.100252 -1.3437411
45.189674 16.280704 2.6655154
45.774029 16.545759 -1.3189071
45.755741 16.076851 -1.430629
45.794834 15.817717 -1.0168285
45.744217 15.992447 -0.3368856
45.642517 16.31551 -0.83832616
45.640453 16.31159 -0.54173219
45.840092 15.812181 0.66682148
45.84111 15.816328 1.6666446
45.83918 15.877326 -0.050314184
45.802269 15.982913 2.145102
45.658119 16.378071 -0.93048739
45.701874 16.015144 -0.044366136
45.291748 16.370258 2.8790195
45.695168 15.995583 0.94675958
45.708313 16.015808 0.47352451
45.740479 16.164459 1.9462219
45.758926 15.986581 -0.7332682
45.485344 16.456591 3.3391497
45.718025 15.838209 0.85622311
45.394653 16.355047 2.7506723
45.745678 16.086996 -1.1486547
45.693623 16.012882 1.2774373
45.741207 16.098074 -0.84424305
45.684586 15.97559 2.1545508
45.796196 16.291639 -0.10411479
45.655571 16.473494 0.1011153
45.647087 16.490967 0.64644754
45.649303 16.314672 -0.94374096
45.610741 16.1684 2.1649117
45.396664 16.413698 -1.4814186
45.271973 16.366199 -1.4521892
45.569618 16.502884 -0.50004232
45.768604 16.109989 2.3493371
45.567051 16.448572 2.404371
45.519329 16.463881 -1.0141553
45.662498 16.45998 0.75953078
45.760132 16.508099 -1.4192644
45.748474 15.991739 0.7616967
45.595482 16.449171 2.493011
45.161045 16.197542 -2.0378711
45.742878 16.185469 -1.3576659
45.687744 16.003645 0.6714583
45.700462 16.016098 0.85690248
45.64325 16.294556 1.149364
45.456322 16.234379 0.54583687
45.433136 16.21497 -0.32843405
45.076298 16.251453 -1.7327337
45.754333 15.992774 1.7658551
45.46579 16.241522 2.5494907
45.653152 16.518396 1.7088821
45.534168 16.390963 3.4602644
45.830406 15.889994 2.0584919
45.185116 16.26552 -1.6503015
44.915131 16.248772 2.8376195
45.212536 16.420641 1.0918123
45.71183 15.760914 0.55276513
45.730431 16.168707 2.0439363
45.693287 15.993298 1.4528384
45.706223 16.017126 0.76056635
45.56636 16.414143 2.7661631
45.094669 16.368305 3.7078753
45.27887 16.304237 3.3464561
45.521187 16.176397 2.6574502
45.487221 16.305321 2.940474
45.427128 16.276516 3.1018546
45.307922 16.361362 2.9791603
45.798748 16.28252 4.0284705
45.68845 16.462843 1.7715693
45.263542 16.365963 3.3527279
45.353813 16.407827 3.4385397
45.824604 15.999831 0.82614923
45.264832 16.314735 3.2380834
45.386227 16.392906 3.2646475
45.098091 16.295059 3.3626115
45.215378 16.356081 3.3777933
45.448463 16.450008 3.4674275
45.166935 16.29385 3.8509579
45.305855 16.384262 3.9360473
45.411057 16.390657 3.9519017
45.273232 16.322933 2.9564376
45.548992 16.42309 3.0538301
45.313992 16.16881 -2.4828684
45.248924 16.343987 3.856276
45.56348 16.402597 2.6523256
45.156845 16.299606 3.4956589
45.362122 16.380516 3.5661507
45.422943 16.409382 3.5487723
45.167267 16.370529 3.8538623
45.439575 16.468632 3.9151471
45.567986 16.458567 2.7274873
45.000038 16.219112 2.9708693
45.069725 16.27248 3.1657524
45.270813 16.36454 3.2638433
45.007816 16.247345 3.3853869
45.241718 16.338865 3.4224963
45.053825 16.277325 3.2629023
45.383869 16.403767 3.3287065
45.344032 16.464752 3.8494494
45.291527 16.35688 3.1976843
45.512585 16.446295 3.2352281
45.0667 16.266842 2.9661922
45.38876 16.378578 3.042763
45.746246 16.099047 1.8567512
45.755207 15.999438 1.4639089
45.750759 15.992292 0.95503175
45.767002 15.996514 1.9498785
45.745739 16.081766 0.57248229
45.752434 15.992821 1.0626931
44.977833 16.247913 2.0007467
45.742496 16.155983 1.552103
45.779743 15.993572 2.0699422
45.655304 16.456964 2.2267742
45.857834 15.848313 2.2244887
45.469719 16.218397 -0.041308746
45.69241 15.888684 -0.75969601
45.705193 15.990413 -1.5177474
45.693077 16.013737 -1.4422078
45.691265 15.928542 0.84066838
45.700634 16.011024 -0.54349023
45.678524 15.981986 -1.1322601
45.702797 16.010733 -0.33606645
45.822773 16.085493 -1.4857432
45.767414 15.997492 -1.1431377
45.677334 16.104265 -1.1396581
45.886211 16.151522 -1.1869533
45.340282 16.346498 -1.1881282
45.670303 16.194878 -1.1397415
45.746334 16.087761 0.16128875
45.663734 16.194319 -0.24010406
45.718563 16.206074 -1.7607138
45.767422 16.162342 1.8266699
45.723038 16.251488 1.949764
45.841217 15.812519 0.059458394
45.603115 16.13603 1.9598566
45.065632 16.247137 -1.8393528
45.186008 16.331547 -2.5605478
45.272392 16.371761 -2.5709507
45.239319 16.127893 0.43168843
45.759178 16.005783 -0.9386127
45.619808 16.127863 1.7261068
45.169868 16.268291 -2.3942771
45.756866 15.993132 -0.83377284
45.06197 16.260735 2.7846618
45.70108 15.999914 -1.3365728
45.597858 16.201572 1.8744532
45.259567 16.378403 1.1936476
45.705559 15.897345 -0.14089075
45.642551 16.293108 0.56210536
45.925304 16.697321 -2.2102187
45.585587 16.126213 1.7036963
45.857906 15.893329 0.274616
45.307171 16.130165 -0.9441492
45.729546 16.374588 1.3541121
45.874989 16.661125 -2.1205478
45.317169 16.483898 -1.9678211
45.71032 16.551027 -2.0594463
45.169384 16.205112 2.3453054
45.858223 15.949809 -0.96810842
45.831371 15.865007 1.7557588
45.835552 15.871769 -0.14222933
45.841747 15.815526 -0.23926504
45.167294 16.19021 -0.036713738
45.744934 16.391499 -0.074949786
45.467964 16.240479 -0.74156231
45.68182 16.304182 2.6601052
45.084618 16.259119 2.0601227
45.763405 16.197672 2.4849191
45.457687 16.219803 -1.2385858
45.063126 16.250534 1.8449271
45.665264 16.296936 2.2661114
45.850746 15.967215 -0.82519841
45.837864 15.872278 1.9553508
45.770588 15.883757 -1.2304479
45.828762 15.859209 1.6615378
45.841496 15.820438 0.95278758
45.844994 15.9546 -0.27549645
45.842785 16.007755 0.46964446
45.667152 16.195335 1.2636931
45.82217 15.960202 -0.72991228
45.7617 15.997919 1.8480291
45.837704 15.81416 0.36563945
45.877571 16.001101 -0.33830976
45.839714 15.824717 1.8589094
45.609894 16.217573 -0.12798579
45.839226 15.972126 -0.46639231
45.824295 15.977126 -0.049502593
45.655258 16.192842 -1.2302277
45.829819 15.86182 0.35154346
45.753323 15.996295 -0.64348829
45.841869 15.875051 2.1800597
45.860867 15.867455 -0.5412004
45.751099 16.082201 0.26019919
45.832855 15.874821 -0.43437937
45.848354 15.80823 0.15845928
45.689465 16.185127 -1.3520343
45.835094 15.814552 0.86941218
