# .PCD v0.7 - Point Cloud Data file format
VERSION 0.7
FIELDS x y z
SIZE 4 4 4
TYPE F F F
COUNT 1 1 1
WIDTH 817
HEIGHT 1
VIEWPOINT 0 0 0 1 0 0 0
POINTS 817
DATA ascii
15.284832 24.771294 -1.8490585
15.255092 24.743195 -2.0053787
15.283368 24.615208 -1.8354104
15.220725 24.836245 -1.7468759
15.248179 24.735361 -1.1182932
15.324497 24.890095 1.2406267
15.187183 24.829773 1.8798504
15.205573 24.689056 2.0733395
15.391513 24.6719 0.35553229
15.236565 25.05682 0.80602419
15.175901 24.707245 2.1364927
15.290211 25.179646 -0.70356327
15.116626 24.795853 1.2284786
15.33806 24.910027 0.90583867
15.107824 24.841665 2.2024806
15.157561 24.902054 -2.029166
15.231817 24.990789 -1.8954753
15.240399 25.053862 -0.97640824
15.368496 24.963961 -2.224714
15.330497 24.811537 -1.7625145
15.19 24.962641 1.158632
15.105193 24.943834 1.6715008
15.321941 25.082273 0.31172207
15.167506 24.822329 2.4350057
15.388834 24.667229 -1.9194412
15.092642 24.913486 1.4374179
14.96403 25.329754 2.5772204
15.263964 24.819229 -1.6408353
15.236187 24.677704 1.5420907
15.537603 24.568216 -0.6076377
15.264763 24.688934 0.13072735
15.329535 25.093927 0.76499784
15.381409 25.092211 -0.93429548
15.009304 25.320568 2.8041122
14.895717 25.411882 2.5692809
15.560196 24.600796 -0.94978195
15.24477 24.813931 0.15028766
15.62149 24.384266 -0.77779323
15.34568 24.690557 -0.63885742
15.135964 25.152996 0.036946714
15.130061 25.058767 0.61611933
15.400882 24.585028 -0.74977213
15.215596 24.897789 -2.2876368
15.401857 24.488232 -0.54350388
15.295413 24.597961 0.16183864
15.572092 24.555212 -0.73955768
15.14506 25.062727 1.1756648
15.157862 25.054556 -0.25661021
15.535993 24.592747 -0.32416353
15.27509 24.962421 -1.0247875
15.260632 24.856276 -2.1985424
15.345652 24.855654 -2.3284466
15.564554 24.642775 -0.57831144
15.15434 25.052832 0.46124637
14.955355 25.20178 1.2963951
15.183442 25.15727 2.334574
14.953965 25.618399 2.5513439
15.011169 25.184927 1.0120194
15.307854 24.847641 -1.9964476
15.19133 24.835827 1.9255961
15.327047 24.575544 0.1622272
15.240246 24.968515 1.9592717
15.259022 24.906202 -2.4704282
15.095818 24.997887 1.4450831
15.239847 24.984097 2.7672303
15.266312 24.925915 -2.5801442
15.378139 24.903463 -2.025847
15.07228 25.010805 0.22385854
15.271212 24.750584 2.0477078
15.200437 24.930399 -1.8226093
15.265431 24.958942 -0.73864365
15.130185 25.052166 1.3781943
14.982073 25.470629 2.2492235
15.27123 24.727249 1.7273594
15.203793 25.103611 1.885048
15.155157 25.074316 2.0506277
15.188816 25.056938 2.1552906
15.392648 24.905382 -2.1356344
15.533094 24.403015 -0.52106792
15.08497 24.965078 1.7839471
15.307756 24.809757 -0.2490897
15.239761 24.825455 -0.91876519
15.286828 24.891563 -1.6415521
15.262341 24.806055 -0.15147659
15.161327 25.100693 -0.023909276
15.280851 24.904615 -1.0388157
15.191749 24.91688 1.3646495
15.409554 24.406185 -1.0317388
15.412465 24.420631 -0.92712349
15.26894 24.96319 -0.93477118
15.285873 24.887867 -1.7217964
15.283484 24.890875 -1.5275327
14.978368 25.592941 2.4424958
14.986494 25.689531 2.4809124
15.479459 24.668018 -1.884501
15.006756 25.69846 2.2496939
14.985861 25.600182 2.3633778
15.16939 25.324831 2.2982156
15.002232 25.706734 2.3650477
15.196927 24.890783 -1.516748
15.214744 24.868336 -1.4269378
15.111051 24.946178 2.5790374
15.376766 24.785852 2.2710223
15.246117 24.924484 1.6661181
15.279929 24.902025 -1.2363639
15.278851 24.894648 -1.4344404
15.374012 24.971992 -1.935397
15.23705 24.831665 0.9578144
15.264215 24.810751 -1.3272537
15.188208 24.969917 2.1681378
15.27751 24.897524 -1.3356353
15.210451 24.778126 -1.2771344
15.239964 24.815533 0.66378522
15.218092 24.821018 -0.71870947
15.186745 24.793346 2.1857114
15.174024 24.796679 2.2406085
15.225967 24.808399 1.4853075
15.301201 25.32551 2.2598331
15.210734 24.811476 -0.86164343
15.213433 24.742718 -1.4245398
15.269154 24.721504 0.24407542
15.206411 24.748129 -0.94180429
15.228243 24.717009 0.61117959
15.256747 24.81991 0.039040126
15.154338 25.109135 -0.11955357
15.242813 24.71994 -0.56630981
15.189489 24.795589 1.7676423
15.272223 24.908045 -0.93782026
15.54939 24.493956 -0.76495153
15.270855 24.814661 -1.4341632
15.479933 24.569092 -0.35672715
15.212162 24.806883 -0.12220086
15.360799 24.90411 -1.9379182
15.214808 24.765617 -1.0164306
15.294121 25.109341 -1.242219
15.500529 24.670235 0.82486814
15.481821 24.589439 -1.0339503
15.466305 24.602634 0.66216993
15.065588 25.327606 2.5789406
15.482585 24.678539 0.58110905
15.487965 24.683674 0.6696344
15.334249 24.581146 1.6595948
15.257469 24.812012 -1.2479184
15.191547 24.82147 0.45124868
15.305885 25.072239 -0.46724376
15.284678 25.086489 1.1190615
15.285142 25.087959 1.0249052
15.489974 24.599167 -0.63906056
15.262274 25.066816 1.3641393
15.479877 24.60849 0.77432942
15.291887 25.068737 0.68673998
15.456407 24.424528 -0.64254743
15.441041 24.584082 -0.21828398
15.251978 24.82799 -0.54349363
15.467692 24.587547 -0.75283527
15.402949 24.484371 -0.43718195
15.273237 24.966366 -1.2257633
15.268761 24.970163 -1.1371909
15.165251 25.056715 1.243103
15.207082 24.969629 -0.42482838
15.515571 24.679703 -0.65823483
15.074443 25.584764 2.2707951
15.246243 24.968065 1.6558819
15.201468 24.968357 -0.032153204
15.194268 24.90362 -1.0422366
15.085885 25.572407 2.5537708
15.06386 25.489204 2.4680271
15.205944 24.747231 -0.062504739
15.197257 24.918768 0.66330242
15.459002 24.560041 -0.85983604
15.245715 24.963242 0.86035621
15.484054 24.56048 -0.42533481
15.201738 24.920017 0.96571642
15.074593 25.594023 2.370914
15.240823 24.820877 0.24854349
15.183407 24.813053 -0.53431582
15.242837 24.967157 1.5664483
15.25188 24.980078 2.1681602
14.901285 25.464638 2.7001376
15.252615 24.824835 -0.82566381
15.248953 24.98522 2.4577909
15.398637 24.480865 -0.23765719
15.30639 24.828203 -2.1229193
15.327705 24.967213 1.0199701
15.404 24.483849 -0.74001133
15.184357 24.980169 1.8724121
15.256625 24.963371 0.56982535
15.274673 24.802744 -2.0253022
15.198293 24.964918 0.7567364
15.102305 24.901802 1.7594556
15.211391 24.807495 0.76666057
15.257052 24.962065 -0.044009686
15.478945 24.576704 0.57078159
15.102503 25.128572 -0.5134092
15.253395 24.964544 0.76956141
15.34431 24.917126 -1.5299044
15.204521 24.914803 0.85093999
15.051318 25.49391 2.8488135
15.074006 25.065847 -0.98860556
15.185827 24.971756 2.055177
15.186751 24.914209 2.2540314
15.187701 24.99176 2.2600863
15.254136 24.961035 0.35612226
15.188284 24.97509 1.9639298
15.180372 24.913996 1.9611796
15.166463 25.062672 -1.0177413
15.246564 24.838472 1.8999927
15.404126 24.317816 -0.65055662
15.082397 24.909817 0.53947628
15.194144 24.96612 0.85036254
15.465811 24.470457 -0.63689512
15.24819 24.798157 1.5977738
15.126551 25.582966 2.3874688
15.542203 24.466269 -0.93538761
15.45717 24.471607 -0.33864397
14.985546 25.411671 2.3505743
15.141924 25.52659 2.2591794
15.271539 24.912167 -0.54147953
15.196464 24.917065 1.2513132
15.336061 24.896593 -0.33839816
15.170391 25.272598 1.9647661
15.35535 24.808218 -1.427909
15.462393 24.470146 -0.83853966
15.188164 25.210072 1.7749046
15.081211 24.997391 1.9592636
15.244621 25.063545 1.8653312
15.251055 24.919144 0.76079303
15.236917 25.216663 2.3806901
15.249744 24.920071 0.85932666
15.536986 24.418196 -0.7546804
15.266633 24.912226 -0.24134439
15.249125 24.918209 0.66462654
15.265006 24.910284 -0.13318972
15.242373 24.918806 1.3647225
15.532318 24.475519 -1.0220474
15.270245 24.836256 -2.3952928
15.183827 24.967999 1.5693506
15.247444 24.91543 0.95910567
15.299952 24.840576 -1.9390947
15.28334 25.065767 0.47785401
15.198661 24.960455 0.97242641
15.247454 24.918158 1.1574233
15.092847 25.006435 1.8815304
15.338611 24.999783 -0.64169413
14.883203 25.689856 2.0963778
15.108859 25.235518 -0.57601529
15.269398 24.817505 -0.74262857
15.401854 24.964252 -0.063474603
15.399082 24.410198 -0.43999344
15.250523 24.814152 0.71714056
15.279574 25.095093 0.56306684
15.338611 24.908924 -0.73947787
14.985313 25.470526 2.1606781
15.048422 25.32934 2.0794821
15.016889 25.343197 1.9722619
15.40122 24.404642 -0.737948
14.969547 25.326195 2.1458328
15.400787 24.412903 -0.53436422
14.984198 25.399006 2.1648555
15.405545 24.418804 -0.63182336
15.1085 25.102959 1.6027076
15.189045 24.971416 1.4685425
15.04871 25.28149 2.6761642
14.978097 25.088459 1.1436489
15.149249 25.087442 2.5089972
15.185391 24.978268 2.4557495
15.063188 25.088221 0.9789288
15.246886 24.91552 1.958317
15.330998 24.817493 -2.0421791
15.334627 24.916218 -1.1395521
15.262216 24.794968 1.7625867
15.112352 25.02639 0.43542463
15.243655 24.91419 1.4559821
15.089571 25.108383 2.1802883
15.184543 24.913067 1.563503
15.18433 24.988773 -0.22985663
15.051524 25.212151 1.6666403
15.189791 24.915823 2.5589261
15.075522 24.900635 -0.51921284
15.058347 25.198124 -0.072246902
15.156435 24.901424 2.8470097
15.117908 25.097223 -0.28989246
15.090443 25.233574 2.3486576
15.002827 25.335423 2.0439224
15.173014 24.803925 1.6917317
15.047698 25.154583 1.3194687
15.271701 24.909554 -0.64072889
15.467773 24.474697 -0.9342373
15.091486 25.199739 -0.14143908
15.404888 24.48654 -1.0481495
15.189476 24.971643 1.3684012
15.179506 24.925827 2.7363451
14.995324 25.194096 0.65557951
14.89905 25.740908 2.6553552
15.111494 25.003998 1.5696452
15.056814 25.288845 1.6794193
15.266634 24.961241 -0.53794491
14.912152 25.672523 2.4258792
15.06526 25.315838 2.2720301
15.251321 24.918125 1.0583525
15.143742 25.055935 1.5999359
15.072788 25.095976 1.1622475
15.240337 24.912762 1.8627847
15.254685 24.922337 2.0585573
15.186706 24.972361 1.6698489
15.290318 25.003788 -1.6460783
15.088009 25.339354 3.0227506
15.40885 24.652945 2.3751938
15.284833 25.183615 -0.5827685
15.182156 24.803431 1.2601334
15.363629 24.900309 -1.8342953
15.252902 24.915094 0.4622851
15.278294 25.064543 -1.3068974
15.054995 25.486139 2.3627429
15.258032 24.962292 0.16533357
15.408108 24.793779 2.3945355
15.170796 24.802511 1.1656106
15.090902 25.210291 0.36140874
15.245515 24.967253 2.2674732
15.255186 25.063557 1.5748471
15.273219 25.06641 2.0698068
15.245096 24.618917 1.0315971
15.179845 24.971439 1.7613404
15.567686 24.56481 -0.39705521
15.050129 25.475561 2.6464903
15.460032 24.470373 -0.73613566
15.180913 24.999964 2.5569589
15.202155 24.910439 -0.62212187
15.176525 24.910318 1.857795
15.213928 24.912674 -1.6402128
15.19564 25.073244 2.85323
15.198354 25.096117 1.9696419
15.202591 24.926069 0.56657064
15.194306 24.972488 0.66530037
15.080814 25.314899 2.3667107
15.336859 24.896559 -0.43281388
15.462208 24.421316 -0.94041109
15.068197 25.238857 0.12612391
15.264606 24.821978 -0.44703662
15.125913 25.074148 3.005661
15.213516 24.906981 -0.33744633
15.131268 25.12221 0.17835745
15.055138 25.064789 2.0240746
15.195914 24.911287 0.25428346
15.066077 25.319065 2.4720931
15.17469 24.89353 -0.83575565
15.483089 24.228525 -0.43337449
15.264359 25.086536 2.3525095
14.970368 25.694141 2.5615196
15.408438 24.408808 -0.84535319
15.330519 24.888819 0.1542813
15.360955 24.987127 -0.4441821
15.164308 25.053171 2.3594806
15.190867 24.915707 1.4588964
15.459595 24.422064 -0.73780644
15.10178 25.026211 1.2796392
15.059564 24.985626 -0.25045949
15.002355 25.336851 2.2719598
15.26479 25.078949 2.1994257
15.463461 24.423206 -0.84089768
15.053432 25.481808 2.060575
15.643966 24.510925 -0.87502301
15.188473 24.920645 -1.2211683
15.450113 24.29401 -0.40491074
15.231634 24.803499 0.54353279
15.255656 25.07753 2.2662106
15.176201 24.984507 2.3684742
15.353567 24.967272 -0.8346284
15.428161 24.339815 -0.8160876
15.40395 24.478264 -0.64185894
15.235006 24.842844 2.2812905
15.24597 24.966032 1.3670429
15.40334 24.47056 -1.1392307
15.25623 24.917835 2.5608292
15.403906 24.422007 -0.34462303
15.54533 24.426643 -0.461858
15.244786 24.772295 1.6526638
14.969578 25.478037 2.4564941
15.459472 24.343945 -0.35754582
15.184472 24.911184 2.0583251
15.054466 25.468798 2.1626613
15.18752 24.918716 1.6594166
15.455853 24.421913 -0.33826372
15.239071 25.081333 2.7772653
15.2032 24.900688 -0.24928987
15.345421 24.964106 0.60522079
15.077659 25.235147 1.9704937
15.282998 25.148058 -0.64995348
15.248821 24.922562 2.1589744
15.084102 25.08316 -1.8322837
15.459219 24.424082 -0.44216517
14.983564 25.401062 2.2617688
15.084453 25.104134 1.6551131
15.345046 24.901598 -1.2429931
15.349876 24.90226 -1.6368623
15.334935 24.919424 2.4683008
15.276699 24.907804 -0.84127212
15.135954 24.73365 1.171658
15.34471 24.899834 0.052921057
15.243301 25.066298 1.4731679
15.180462 25.005316 2.654753
15.264283 24.913937 -0.037121553
15.191174 24.890396 -1.3111709
15.329396 24.914288 0.24713033
15.191625 24.961554 1.0615885
15.338322 24.888229 0.32466763
15.268709 24.907213 -0.34081414
15.368998 24.600634 2.2980306
15.181177 25.00174 2.9573407
15.246421 24.977692 2.5584636
15.240214 24.788454 2.6627202
15.458524 24.471769 -0.43509784
14.976681 25.402142 2.562439
15.183936 24.979277 2.7562633
15.373607 24.555418 1.8418711
15.35876 24.900965 0.5873372
15.338427 24.692787 1.4392902
15.333381 24.975163 -1.0521989
15.198845 24.924091 0.76362705
15.258819 24.825115 2.5620883
15.074561 25.562227 2.9526715
15.112146 25.214367 2.0125446
15.160361 25.18047 -1.5434208
15.24297 25.045607 2.6978645
15.387656 24.573528 2.3736012
15.248482 24.914778 1.258086
15.153494 25.081242 2.5683475
15.275221 24.960436 -0.83226645
15.161499 25.013968 2.8428986
15.279251 24.826 -1.029574
14.976312 25.767076 2.3784513
15.130596 25.563 2.2387779
15.015985 25.855892 2.5847185
15.257534 24.825111 2.3843594
14.912726 25.407421 2.4715521
15.041213 25.30488 2.8387773
15.243484 24.92248 1.7485542
15.350472 24.918341 -0.037275288
15.187331 25.061171 3.0574729
15.078505 25.283993 1.8608986
15.085963 25.120209 -1.6562583
15.339242 24.906748 -1.0375804
15.335025 24.970974 -0.34432361
15.361828 24.663031 -1.5504303
15.038787 25.210018 1.1499252
15.284489 24.817047 -1.1600181
15.260085 24.913038 0.16269247
15.197466 24.967543 0.064022124
15.260377 24.910931 0.057964079
15.340128 24.969458 -1.5495691
15.074516 25.266447 1.9953935
15.257705 24.794443 2.1972263
15.253695 24.80806 1.0623186
15.180993 25.325619 2.5015328
15.336173 24.906275 -0.93718499
15.334939 24.64159 1.4894918
15.19525 24.913609 1.1673563
15.270066 24.963884 -0.64025605
15.253682 24.922577 2.2580452
15.275499 24.908943 -0.74031335
15.246688 24.96369 0.95996898
15.060616 25.170658 2.2386177
15.081679 25.110151 1.2458924
15.456246 24.42148 -0.54027307
15.095412 25.000881 1.1547228
15.334589 24.902411 -0.62829643
15.180409 24.908663 2.1610582
15.148902 25.061558 2.6614552
15.25237 24.919874 0.56421757
15.277513 24.902948 -1.1417838
15.279262 24.806974 0.34214619
15.053347 25.31484 2.1640294
15.184058 24.968271 1.2532133
15.535357 24.417175 -0.64478087
15.244752 24.919024 1.5625553
15.271503 24.909857 -0.43366963
15.100456 24.756905 1.9796379
15.333928 24.909126 -0.53520656
15.06424 25.019554 0.12017937
15.321638 24.914042 0.4752734
15.079774 24.994419 1.6386538
15.158629 25.0714 1.4118868
15.039433 25.330074 2.8062572
15.393763 24.483545 -0.34585559
15.114364 25.067907 1.8541604
15.254596 24.960272 -0.24457046
15.213887 24.787827 -1.1330458
15.084995 25.035982 0.69808757
15.199701 24.962187 0.55575275
15.347491 24.705347 -1.8136381
15.003853 25.786379 2.5325458
15.26203 24.959505 -0.33402863
15.08789 25.198795 0.060502511
15.085854 25.306076 0.38628626
15.0933 24.994898 2.0356002
15.304948 25.055048 -0.77258289
15.249618 24.920431 2.3632946
15.069819 25.215231 -0.25904274
15.258911 24.574068 -0.95490551
15.288385 24.718391 0.44367087
15.396827 24.49057 -0.83946282
15.25353 24.917253 0.35945845
15.205849 24.903147 -0.041786171
15.101318 24.922005 0.3325972
15.19045 24.904455 0.16650009
15.091107 25.024748 0.90332615
15.203556 24.965216 0.26123109
15.069378 25.297129 0.65053254
15.525035 24.342937 -0.94129282
15.242766 24.963209 1.1632183
15.24198 24.774834 1.3983488
15.25001 25.07567 1.6712801
15.342344 24.89596 -0.83741516
15.268791 24.828564 0.47018576
15.358458 24.908228 -1.7390747
15.2164 24.799183 -0.32436529
15.26977 25.062183 0.94713318
15.099354 25.055889 0.22434986
15.243082 24.974815 1.7543516
15.349665 24.890875 -0.24105339
15.114806 24.858093 -1.8492452
14.97372 25.469654 2.5561616
15.244383 24.966661 1.4654351
14.974619 25.488909 2.6533723
14.975876 25.483763 2.7752612
15.171098 24.912035 2.4588008
14.986814 25.468313 2.0599489
15.152195 25.032925 -1.8740463
15.265489 24.846546 -2.0974202
15.248631 24.967337 1.0582675
15.344397 24.830095 -0.33959964
14.98508 25.407879 2.6539791
14.987537 25.48844 2.375957
15.002901 25.81122 2.6584167
15.260716 24.957535 -0.43959725
15.096208 25.093927 1.7468715
14.980093 25.712736 2.6772151
15.256992 24.914835 0.26329938
15.188989 24.913427 2.3573287
15.565914 24.491699 -0.54108161
15.158319 25.074575 0.38685092
15.545651 24.419596 -0.95394242
15.061693 25.58267 2.4624479
14.98016 25.333822 2.3708997
15.001061 24.922911 0.21111548
15.529867 24.469334 -0.43516818
15.333356 24.968672 -1.2349399
15.48247 24.565228 -0.54069859
15.399626 24.485788 -0.94167155
15.239837 24.975618 1.8552392
15.082346 24.930412 0.85315722
15.096119 25.074816 1.48737
15.531603 24.336367 -0.4513008
15.242562 24.965418 1.2629983
15.098388 24.902655 2.6309848
15.538947 24.484451 -0.63355625
15.150059 24.915321 2.9526281
15.176579 24.911369 2.6543291
15.180947 24.916815 1.7565534
15.258651 24.960169 0.063601896
15.20791 24.918486 0.37026435
15.255241 24.965273 0.26687601
15.255475 24.961658 0.46212697
15.250443 24.979395 2.3552859
15.258852 24.964312 -0.13415207
15.261112 24.875387 -1.849103
15.052538 25.482533 2.5540409
15.051196 25.480925 2.2713962
15.334031 24.901394 -0.12774272
15.185614 25.174925 -0.63675368
15.200775 24.909994 -0.43718493
14.954624 25.728401 2.1085162
15.198295 24.918278 1.0616691
15.09539 25.004509 1.3258802
15.357626 25.06953 0.16779798
15.259104 25.071602 1.7832718
15.246908 24.959045 0.65752703
15.260295 24.818113 -0.016972389
15.347632 24.901007 -1.4402859
15.460471 24.472258 -0.54085684
15.190032 24.857885 -1.77924
15.205395 24.920435 0.46321788
15.397156 24.618279 -1.6078409
15.074806 24.970573 2.4709213
15.300757 24.493258 1.6881012
15.269102 25.068363 1.9746381
15.34085 24.899948 -1.3463007
15.362899 24.69825 -0.25363675
15.291162 25.057663 0.37445989
15.458018 24.274197 -0.55783349
15.535643 24.469969 -0.81779635
15.064561 25.080759 2.2466817
15.050629 25.101814 0.66000623
15.097898 24.964071 0.75838459
15.0878 24.96661 2.8394794
15.059442 25.407045 2.6578257
15.089543 25.122355 2.6930869
15.207102 25.136276 -1.388148
15.268943 24.970667 -1.4453715
15.354958 24.832733 -1.6158487
15.365621 24.834764 -1.2827753
15.270467 24.837603 -0.63954014
15.335836 24.828344 -0.65782762
15.440249 24.847958 -0.98152351
15.325346 24.827169 0.25274256
15.272779 24.834595 1.1671968
15.048013 25.655642 2.4268157
15.196118 24.737848 1.5318253
15.28686 24.602518 1.6499583
15.346819 24.655525 0.12056091
15.353214 24.956034 -1.4417752
15.330066 24.971622 -1.155455
15.338984 24.795994 -1.1548467
15.367636 24.814751 -1.3400742
15.351307 24.830759 -1.0810426
15.114088 24.910021 2.0649419
14.864894 25.697407 2.7775381
15.3338 24.95146 -1.2938961
15.183713 24.725521 1.509326
15.2319 25.22423 2.1397572
15.060205 25.668077 2.5208616
15.090489 24.906199 1.5780659
15.290536 24.507168 1.5893091
15.275536 24.838352 -0.33977598
15.197926 24.971153 -0.12651299
15.247843 24.924469 2.4598641
15.237248 25.223921 2.3086126
15.1896 24.90353 -0.1268418
15.25799 24.926716 2.6463511
15.335543 24.640423 -0.018062452
15.129577 25.148663 -0.044652566
15.11959 24.92034 0.42286748
15.248104 24.985197 2.6651525
15.247564 24.996443 2.8738008
15.239943 25.012459 2.9562314
15.277171 24.9296 2.9507515
15.227546 25.010473 3.0495114
15.314438 24.835665 2.8161075
15.009526 25.567415 2.7905016
15.110928 24.949108 2.7136958
15.269852 24.914898 2.7614973
15.223108 24.916061 2.8239827
15.324072 24.839142 -0.57525277
15.090274 24.886835 1.8993356
15.083804 24.912397 2.2563245
15.113642 24.935152 2.2098167
15.061378 25.108746 0.42415217
15.340635 24.975811 -0.73087835
15.332127 24.99119 -0.93400836
15.197267 24.965349 0.46763095
15.332325 24.964001 -0.5631339
15.34625 24.989206 -0.13640651
15.350963 24.985859 -0.21525636
15.19178 24.98661 -0.55306441
15.197114 24.977123 -0.33162242
15.061709 25.680841 2.2475319
15.203906 24.964754 0.36494693
15.082549 24.923161 2.3449585
15.196686 24.959551 0.16037364
15.093782 24.88937 1.9480567
15.299713 24.595562 0.47572383
15.168339 25.112452 -0.46596727
15.127671 25.139259 -0.37257794
15.130423 25.072165 0.084697723
15.243272 24.973858 2.0562568
15.166312 25.376118 3.0639324
15.2313 25.089542 2.8381441
15.289166 24.593403 1.2976222
15.31812 24.554802 1.4859583
15.081077 25.118555 2.5441978
15.342919 25.079544 -0.31263211
15.268587 24.666609 1.2397699
15.138498 25.419415 2.3684933
15.356985 25.081495 -0.28824955
15.208518 24.884974 -1.1310261
15.273459 24.971107 -1.3350891
15.375856 24.587576 -0.41793016
15.420709 24.951149 -0.51470751
15.403529 24.594078 -1.1413158
15.366836 25.098394 -0.56395566
15.193647 24.989517 -0.73062718
15.198201 24.980846 -0.65278816
15.170996 24.896572 -0.73612893
15.354996 24.604553 -1.066552
15.339804 24.742048 -0.46554884
15.199022 25.167173 0.2528975
15.202019 24.893124 -0.53315282
15.117597 24.869978 1.1946317
15.139166 25.175053 0.45187503
15.14453 25.171049 0.36286438
15.152321 25.092888 1.7454424
15.149613 25.050941 0.85355181
15.120137 25.208069 1.9068935
15.131208 25.077093 1.6530199
15.181678 25.204613 1.9990494
15.031447 25.694448 2.1504884
15.205455 24.931814 0.067518465
15.282058 24.70591 1.8384794
15.273935 24.692265 1.6469828
15.18541 25.083521 -0.54721564
15.167543 25.059731 -0.72859818
15.156339 24.798498 2.8082502
15.043568 25.67581 2.8454597
15.075394 25.334005 2.9806809
15.209753 24.800516 0.19316578
15.171059 24.808393 1.4509783
15.035179 25.670292 2.7885985
14.97474 25.703915 2.7781496
14.976943 25.307741 2.8517523
15.321912 24.816856 -0.87834471
15.288396 24.700905 0.079201698
15.258673 24.843861 0.88308734
15.188919 24.808271 0.93430573
15.16003 24.792847 0.87502372
15.340594 24.57725 0.084776551
15.195498 24.912348 -0.94762081
15.351519 24.592546 -0.34175426
15.418838 24.563404 -0.28187689
15.364742 24.603243 -0.82235867
15.06012 25.410799 2.4582922
15.351875 24.546299 -0.93925393
14.892959 25.566355 2.6602569
15.246286 24.694191 -1.2496399
15.314377 24.591064 -0.31684795
15.34229 24.645472 -1.2107991
15.283721 24.619413 -1.0819434
15.325388 24.618172 0.22368802
15.366879 24.654888 -1.1237693
15.249045 24.706812 -1.3620241
14.914395 25.445543 2.5999508
15.296331 24.725336 -1.5021675
15.276203 24.830406 -1.5686209
15.175782 25.023205 -1.1406314
15.189123 24.828518 -1.5997764
15.11973 25.072664 3.0251939
15.054815 25.415028 2.0583725
15.200373 24.973808 -1.4302619
15.058668 25.409557 2.1537855
15.157893 25.08688 -1.4646597
15.168756 25.006533 -1.2079079
15.322638 24.962311 0.87470609
15.245107 24.890209 -1.9392011
15.071866 25.412102 3.0693462
15.166224 24.905098 -2.3419867
15.056117 25.40696 2.2705059
15.056433 25.414553 2.3551073
15.165757 24.911652 -2.5329206
15.188126 24.893438 -2.1093976
15.26517 25.282595 2.3255315
15.215261 24.83213 -1.5756422
15.146305 25.371336 2.2548575
15.193591 24.815685 -2.0051041
14.915869 25.321512 2.2415297
15.321278 24.961514 0.30982369
15.161247 24.997246 -1.8980857
15.198726 24.99374 -0.85513812
15.331071 24.84486 -1.9336234
15.208662 25.020426 -0.97163731
15.212474 24.971617 -1.0213957
15.303306 25.027082 -1.565933
15.242324 24.896713 -2.6405041
15.100908 24.942476 1.2437149
15.512629 24.586872 -0.96127856
15.261933 25.068882 1.2939559
15.055227 25.499247 2.7540584
15.319334 25.065464 0.064539254
15.201948 24.842743 2.0441058
15.219924 24.843933 1.3519655
15.325402 25.053818 0.9315629
14.876419 25.748495 2.6023605
15.336395 24.581093 -0.15053168
15.28593 25.04595 -0.51468116
15.214336 24.691486 1.3598368
15.169698 24.833313 2.3140965
15.35256 24.961166 -1.8314457
15.221416 24.730322 1.17274
15.397041 24.949713 -2.0237932
15.185127 24.800055 1.0759212
15.206573 24.730917 0.986341
15.289311 24.566669 0.95418984
15.208362 24.627874 0.90834296
15.459556 24.913677 -2.224786
15.008007 25.084484 1.0312945
15.203714 24.712862 1.2239403
15.300864 24.947372 -1.823699
15.389309 25.056759 0.67525065
15.322118 24.555977 0.58330834
15.269383 24.60178 0.36578161
15.282557 24.519779 1.4164969
15.268991 24.624926 -0.60182023
14.980906 25.086681 0.9065668
15.259012 24.540257 0.39127797
15.224897 24.587925 1.3698547
15.315722 24.503799 0.61083007
15.301465 24.522449 1.1202018
14.880994 25.603163 2.5361233
14.912385 25.603788 2.3995445
15.112058 25.048473 2.8393805
15.058211 25.585875 2.8704948
15.058212 25.566864 3.0571656
15.050732 25.560068 2.6613882
14.96051 25.563303 1.9690747
14.981369 25.640488 2.6675296
15.340212 24.950081 -1.6211573
15.272902 24.671627 -0.83635598
15.136417 24.981171 -2.2311795
15.185495 24.994396 -2.3406656
15.20591 24.892563 -2.4404731
15.252038 24.880314 -2.3880355
15.205726 24.963001 -2.589138
15.255632 24.96183 -2.3713365
15.190578 24.967403 -2.1566811
15.353736 25.045773 -1.0480989
15.305838 25.086988 -0.16318145
15.215111 24.798269 0.054808855
15.210983 24.832256 0.39481303
15.064126 25.496143 2.9536371
