# .PCD v0.7 - Point Cloud Data file format
VERSION 0.7
FIELDS x y z
SIZE 4 4 4
TYPE F F F
COUNT 1 1 1
WIDTH 1611
HEIGHT 1
VIEWPOINT 0 0 0 1 0 0 0
POINTS 1611
DATA ascii
17.375372 15.108072 2.365416
16.079294 14.660987 2.7513509
17.874264 15.300266 1.8788595
17.861879 15.310622 2.6554079
16.979937 14.97069 2.0555446
16.975044 14.970077 1.9671105
17.61031 15.250913 2.371022
16.929028 14.967758 2.9560437
14.155115 13.893106 1.8611035
17.50423 15.177273 1.8653338
17.475269 15.16819 1.764393
17.305113 15.153171 2.6715078
13.675783 13.373313 2.442579
13.797422 13.799385 2.0392992
16.988308 14.964603 1.8578888
13.807826 13.457572 2.1597145
20.54071 16.346113 1.7809665
13.292952 13.26172 2.2429774
19.46517 15.940422 1.8442806
14.182321 13.565957 2.3582668
14.175562 13.566866 2.1685843
16.687576 14.856203 1.9620253
14.635024 13.73328 1.8785787
18.985439 15.765182 2.7487099
19.995672 16.156734 2.3669262
20.52981 16.40901 2.0506804
14.170856 13.561373 2.4507761
17.440775 15.136776 1.8578862
18.781122 15.679134 1.7716318
19.378891 15.947053 2.4162557
14.146152 13.530127 1.9739622
19.878069 16.072664 2.2585227
14.112798 13.90715 1.7937858
14.061937 13.909217 1.7066438
14.572093 13.740521 1.7075852
14.472458 13.677337 1.6956093
19.277653 15.870811 1.8584938
14.001418 13.851468 1.8224014
14.471917 14.073874 1.7746623
14.086891 13.906997 1.8531165
19.96093 16.134911 1.7158623
13.520088 13.352491 2.2448695
13.582116 13.360899 2.2617614
13.799318 13.453099 2.0301332
13.918405 13.8563 1.749478
13.861671 13.823246 1.7625633
14.09123 13.561094 2.1711936
13.502742 13.354327 2.1229475
13.992348 13.883155 1.7561852
17.449383 15.187379 1.6724045
15.575211 14.417562 2.3549337
14.390653 13.662267 2.3506486
14.004812 13.551976 2.1796315
13.777111 13.447315 1.9783986
14.574035 13.757474 2.1601243
20.108864 16.169874 1.8512114
13.300977 13.252838 2.1756482
14.101414 13.548177 2.2704096
13.801455 13.465999 2.2510824
13.28902 13.25817 2.0779688
14.499145 14.054291 1.9005806
13.663819 13.396158 1.8951453
14.381354 13.657548 2.1583219
13.590231 13.362585 2.050034
13.585052 13.356826 2.1676702
17.404413 15.155076 2.2270479
14.240691 13.539598 2.1911964
19.188843 15.779571 1.99244
14.17927 13.572637 2.0653641
13.457767 13.242002 2.1132128
13.564146 13.312308 1.9975966
14.578787 14.025636 2.9596291
14.548548 13.644426 2.5743599
18.783657 15.720768 2.8735991
15.04063 13.824225 2.567687
15.339529 13.939331 2.3711905
20.049892 16.130018 2.5524681
14.258986 13.533867 2.0992582
14.584173 13.750877 2.3931739
20.374891 16.20664 1.9520649
14.258725 13.531891 2.5360749
13.771187 13.390182 2.452261
13.649569 13.331251 2.4325919
13.566079 13.318966 2.2633555
17.473087 15.17957 2.5618465
13.860089 13.418742 2.3606005
13.672167 13.372451 2.3436375
17.37203 15.164499 2.3327019
13.675599 13.376205 2.2586005
14.145596 13.5174 2.083276
14.234399 13.53101 2.4491029
15.803173 14.550473 1.9749221
14.367543 13.602487 2.4491165
14.273405 13.580571 2.3529003
14.243985 13.534389 2.3738801
13.865229 13.413747 2.2570407
14.650106 13.691624 2.5538883
14.364455 13.603911 2.3570437
14.260353 13.530069 2.2712264
13.861629 13.42152 2.1601079
14.266017 13.592919 2.1714635
18.402008 15.435473 2.0380247
14.53837 13.635004 2.0709414
20.293497 16.262474 2.3570843
18.575251 15.583632 2.3601925
19.993528 16.15801 2.5750656
13.673662 13.330888 2.2699687
20.28826 16.259153 2.4749591
15.766406 14.513967 2.5582201
20.660723 16.375864 2.190562
14.567985 13.697354 2.2565522
14.179703 13.579811 1.9594339
14.373026 13.621905 2.0555868
14.362357 13.616096 2.1666114
15.555811 14.407707 2.1648843
14.268348 13.600857 2.0728865
20.060497 16.103363 1.8406495
20.659407 16.37796 2.4566691
20.286245 16.221134 1.9353387
15.795879 14.55712 2.576637
17.560566 15.25807 2.7363174
19.967651 16.113743 2.5559003
14.570861 13.706418 2.1686954
16.878586 14.971851 2.1241167
14.17223 13.905558 3.046587
18.029099 15.465257 2.5325775
15.163059 14.29069 2.5781548
14.365258 13.615205 2.2595825
15.770308 14.497949 2.2599671
20.472939 16.301266 2.3713017
20.318373 16.269566 2.0217769
20.491575 16.347704 1.7600831
14.664919 13.712746 2.3590796
17.874859 15.363817 2.9058249
19.265017 15.803092 1.8579773
13.777876 13.402834 2.2595003
19.281517 15.872904 2.55529
19.249712 15.829206 2.5526826
19.944891 16.186079 1.9888042
14.67007 13.720189 2.4479687
20.37134 16.267601 2.1846182
14.579498 14.057175 2.4668331
16.14246 14.629918 2.5393798
14.304013 13.963462 2.3358679
18.901035 15.727591 2.0222144
18.18557 15.454625 2.3430438
14.774585 13.785583 2.1685698
19.972197 16.112978 2.4577415
18.872513 15.693045 2.4602644
18.789902 15.668593 2.3741186
18.570623 15.584249 1.9583887
17.33996 15.115494 2.1519942
14.096109 13.874541 1.9255836
19.084511 15.779942 2.0937467
18.086861 15.451132 2.6557484
19.969692 16.109018 2.3690319
16.678318 14.872112 2.1727667
14.577965 14.07706 2.5699713
14.376634 13.9851 2.501354
14.181833 13.90374 2.4586506
14.103806 13.88598 2.280297
18.28904 15.471593 1.8847116
18.877441 15.685086 2.251837
18.578035 15.569108 2.1885955
18.463839 15.497905 1.984067
13.885254 13.80602 1.8300903
14.202198 13.502256 1.7790656
19.755384 16.026392 2.4543545
19.545574 15.933531 2.3771675
18.751211 15.630009 2.4550529
18.475895 15.530709 2.1686409
18.161385 15.417348 2.361594
18.057276 15.369761 2.1622682
14.360905 13.976568 2.3424363
17.468699 15.171995 1.9459261
18.163748 15.406093 1.8678012
19.156792 15.773312 1.8748534
19.031588 15.735062 2.3788636
18.473522 15.528466 2.3603163
18.152485 15.392967 2.0648205
17.16028 15.020295 2.268404
17.435795 15.122141 2.4572115
19.262756 15.829211 2.3727992
18.77639 15.624784 2.0582793
20.047005 16.130352 2.2521083
18.905483 15.676959 2.1636117
18.793785 15.619247 2.141376
18.653534 15.606367 1.9445139
16.867674 14.921 2.5597849
20.351006 16.23443 2.3672917
13.671206 13.38533 1.9785832
17.381536 15.152782 2.4810328
18.661472 15.628684 2.6565673
20.582178 16.362143 2.3715565
18.070789 15.390662 2.462249
17.450249 15.123766 2.3659983
16.75001 14.823395 2.24189
14.489811 14.072096 1.9368364
14.188797 13.948935 2.1015091
14.266594 13.910368 1.8535029
14.287123 13.947348 2.1149623
14.768913 14.156559 2.3520317
20.369232 16.274036 2.2888613
20.352928 16.22562 2.2861121
20.291821 16.270123 2.2969632
20.191435 16.182219 1.9775913
20.167685 16.186796 2.2704484
19.763042 16.02137 2.2757382
19.507975 15.962056 1.7106334
18.996 15.757369 1.9568492
13.665889 13.3286 2.0557449
17.17054 15.071399 1.9414256
13.865314 13.425909 2.4390485
14.336016 13.937267 2.1619747
15.771079 14.586191 2.8262157
16.776711 14.872359 2.265085
16.361984 14.718231 2.4651892
15.772684 14.501069 2.4551589
14.129897 13.516641 1.8789158
14.52579 13.639997 2.2830784
16.869013 14.915316 2.4602864
16.763638 14.882827 2.4620175
16.477449 14.785322 2.4601076
15.187887 13.96319 2.2571304
16.475218 14.77888 1.8634093
20.470779 16.315578 1.7533913
20.378181 16.269997 2.371037
20.264587 16.215696 2.3644941
20.154196 16.180355 2.058012
14.363499 13.616003 1.8571724
17.763239 15.286177 1.9481261
17.380993 15.149108 2.1433601
16.975655 14.976023 2.3662915
16.895832 14.965799 1.8700296
16.756952 14.878269 1.8687078
20.067364 16.135914 2.45295
15.468059 14.388366 1.8745079
14.256863 13.909891 2.1459613
14.17095 13.890305 1.9563956
15.385158 14.36641 2.3752589
14.19445 13.905517 2.0542295
18.570446 15.577332 2.2686067
17.773773 15.280227 2.1816983
19.068495 15.774664 2.1468968
15.075709 14.219108 2.3657377
18.074612 15.375071 2.2552197
17.465082 15.133699 1.9625049
20.157906 16.179611 1.8536443
19.742504 16.021156 2.1718969
19.091618 15.778564 1.8408872
18.770256 15.630185 1.8629466
18.451332 15.522089 2.0618005
18.361572 15.485685 1.861546
19.175724 15.787904 2.1594868
19.084656 15.744829 2.1900876
18.795574 15.660171 1.9683917
18.754152 15.614858 1.9375675
18.56144 15.573354 1.8636642
18.439962 15.52198 1.8609626
17.67168 15.248995 1.9787562
17.175411 15.058981 1.7298225
16.874161 14.9117 1.9559195
16.685501 14.860929 2.2596521
16.695705 14.864622 1.7386949
16.465158 14.793513 1.9676901
14.371569 13.970621 1.9517101
14.395564 13.971634 2.0560255
17.165421 15.025795 2.1659722
16.664108 14.828037 1.8714056
13.860065 13.425618 1.9731697
14.575768 14.028151 2.1518636
14.403778 13.979284 2.1584241
20.290146 16.205681 2.1844492
15.373285 14.337498 1.9511917
17.557358 15.24822 2.9264655
14.377558 13.616354 1.6236768
18.153408 15.415508 1.7731699
16.871433 14.914092 1.7537241
15.769849 14.491862 1.7542714
15.481158 14.39726 1.7611645
19.972383 16.107515 2.2645688
19.476833 15.925514 1.9892023
18.751316 15.635086 2.2592211
18.361956 15.479898 1.9437389
18.274437 15.471365 2.2645185
13.65407 13.335749 1.976377
14.501797 14.067451 2.4748306
17.146412 15.022989 1.7848532
16.661394 14.827683 2.0553963
20.264664 16.218809 2.4638934
16.695887 14.867858 1.8695812
16.67581 14.872401 2.3658068
16.276155 14.695176 2.3596604
19.462055 15.893425 2.0728185
18.868061 15.685545 2.3730381
14.59265 14.061233 1.8650903
19.401764 15.908041 2.0726161
19.292379 15.864645 2.0601375
19.170647 15.802202 2.366472
13.714567 13.726725 2.3086283
14.466099 14.063251 2.5645487
15.177407 14.276119 2.3556151
14.281979 13.582845 1.8612565
16.466852 14.763702 2.1630759
16.170223 14.653075 1.8498604
15.764656 14.503434 1.8727565
15.479494 14.397878 2.4546161
14.595774 14.071578 2.3547432
16.366999 14.712958 2.0402126
17.160334 15.076042 2.0602584
16.966738 14.973309 2.2615769
16.903988 14.955808 2.0471358
16.87657 14.908438 2.0522811
16.067398 14.65894 2.2377167
15.779549 14.49592 1.9718462
13.841894 13.439658 1.815766
15.142452 14.347343 2.4295058
18.062618 15.394734 2.3632228
17.672014 15.265679 2.3607419
17.389032 15.172541 2.0924914
17.384153 15.159864 2.6591814
17.294415 15.084172 2.057699
17.068661 15.006585 2.5657392
16.975834 14.977593 2.5617881
16.481199 14.783729 2.3597336
16.485386 14.785445 2.283643
16.176594 14.662812 2.0680878
14.267486 13.607752 1.9772197
16.473211 14.773614 2.0758142
16.17865 14.669931 2.352603
13.859985 13.416498 2.0573707
16.17296 14.680881 2.5613692
15.778781 14.505903 2.0704241
15.765507 14.501528 2.3744359
15.470482 14.405393 2.5711396
15.375215 14.369354 2.0654352
14.368325 13.98521 2.264982
14.287968 13.97275 2.2640173
14.134083 13.960356 1.9852767
17.466337 15.124882 2.1566818
17.153955 15.052849 1.8628976
14.528808 13.642366 2.4515691
16.980421 14.968956 2.1457562
16.966913 14.966536 2.4650316
17.686312 15.218795 2.0642571
14.074929 13.529012 1.9794164
15.466221 14.380443 2.2607491
14.779419 14.158904 2.2409821
14.576928 14.065148 1.9608243
15.465132 14.390564 2.0598457
15.362827 14.322822 2.2679095
15.36309 14.363561 1.7629346
15.177952 14.277578 2.2683861
15.059377 14.222114 2.0623832
15.175198 14.288235 2.4511576
15.17511 14.284443 1.8675923
15.173593 14.280392 2.1628077
13.675313 13.376827 2.1604471
13.474322 13.298676 2.1521847
16.375332 14.725158 2.3672957
14.962029 14.196465 1.9613733
14.970417 14.195966 2.273581
18.069267 15.380684 2.0401378
13.872915 13.46875 1.8654802
18.56793 15.601263 2.8667951
19.58308 15.980507 1.7629408
18.080248 15.369921 1.7602122
14.559001 13.715847 1.9660586
18.557722 15.570024 2.0614088
18.525536 15.721143 2.0728567
16.445414 14.744228 2.4216545
13.662777 13.329395 2.3643937
18.441294 15.571141 1.9430454
13.635983 13.685846 2.965483
19.088402 15.788942 1.965912
20.374712 16.263079 2.0707335
14.557441 14.012896 2.8697209
13.532042 13.76422 2.0066531
18.289248 15.40922 1.9709282
19.850067 16.05942 1.9855307
20.396139 16.284014 2.8414378
14.563086 13.690935 2.3626807
20.373846 16.277925 2.7595983
19.486528 15.94673 1.9705585
17.800709 15.268141 2.2714159
16.277315 14.691631 2.0671051
16.280781 14.693281 1.8792547
18.733646 15.633299 2.6519699
15.563792 14.416098 1.882814
14.275174 13.603224 1.7987795
17.781616 15.268401 2.0554657
14.159943 13.517871 2.2568185
16.614424 15.00209 2.2176239
14.971397 14.193492 2.1697237
15.597627 14.471226 2.4708812
18.602972 15.676126 2.8888509
15.065928 14.26287 2.3706777
15.262399 14.318366 2.561295
14.582002 14.026958 2.6857641
17.280548 15.08605 1.8607562
17.285992 15.074169 2.2658582
17.272566 15.08706 2.652601
17.881271 15.303522 1.7757852
17.861439 15.319805 2.3806405
14.456203 14.02715 3.0221643
14.177918 13.902474 2.3622146
18.235231 15.43524 2.46029
15.710866 14.549323 2.6342921
16.172049 14.656436 1.9590493
17.773346 15.289766 2.3684292
20.453373 16.237486 2.6469061
14.521577 13.621244 2.3520372
18.438553 15.571055 1.6864003
14.557703 14.029113 2.4624853
16.579269 14.857949 2.3796122
17.266077 15.186942 1.7536511
17.880005 15.295388 2.053812
19.02145 15.741493 2.4327998
14.559322 14.028881 1.9639608
15.768476 14.507656 2.6623733
18.264524 15.443097 2.1362431
18.664459 15.737934 1.9249605
14.550483 14.022839 2.0508873
15.095716 13.957689 2.1502881
16.359945 14.723094 2.5677476
17.678896 15.223322 1.9530492
18.239996 15.427235 2.2643068
16.85347 14.911593 2.3685281
17.703318 15.270371 2.1580086
18.239128 15.482664 2.0955648
18.184334 15.464944 2.747941
15.321043 13.932677 2.2137537
15.055303 13.836334 2.1349583
14.576177 14.065519 2.2436936
17.249193 15.179029 1.6589565
14.576352 14.064742 2.1714008
14.268411 13.586943 2.2618098
17.294577 15.208179 2.2441177
14.355568 13.621484 1.9728081
17.371857 15.094121 2.0439405
13.570804 13.317488 2.1542382
14.366624 13.93378 2.2226944
15.754073 14.55767 2.3576779
16.652075 14.825064 2.4655018
15.795052 14.547915 1.7414922
16.663246 14.834261 2.5599005
18.381897 15.508653 2.3686354
15.558805 14.423735 2.4486196
19.759069 16.022182 2.0836444
17.850592 15.299069 1.6865555
18.566874 15.704466 2.1926606
18.293808 15.467082 1.7633369
17.158278 15.023994 2.3748033
14.675495 13.764622 2.3670931
19.575308 15.953593 1.7042403
16.277039 14.751837 2.7220597
15.276912 13.961555 2.4441042
14.347761 13.939106 1.8841093
18.026567 15.332079 2.0650439
13.377379 13.265464 2.1657765
13.887204 13.468136 2.3519681
18.260166 15.458006 1.9645596
18.577667 15.60237 2.754607
18.570194 15.603254 2.6514509
18.572811 15.585313 2.5583706
14.181957 13.912086 2.8480389
13.564351 13.313696 2.3580656
14.578783 14.029467 2.7522705
15.808682 14.550157 2.7687829
19.868685 16.080177 2.458781
15.350535 14.327329 2.1519852
20.072147 16.15538 2.2839403
17.690472 15.269207 1.7667727
14.175664 13.906117 2.167145
13.562372 13.323465 2.0765679
15.071388 14.226433 1.9473615
18.521822 15.538254 2.4002242
19.975538 16.157499 2.7317204
13.766431 13.414203 2.0720422
17.771727 15.282911 2.5625668
16.773409 14.88378 2.0646906
14.155045 13.883261 2.2428682
13.765769 13.396958 2.1701303
14.66357 13.724255 2.1604707
13.956976 13.818019 2.8628829
15.985062 14.594639 2.3579438
18.666397 15.611217 2.4563055
13.880365 13.4638 2.2611375
15.632907 14.433234 2.677212
14.240041 13.905336 2.8475976
14.565908 14.02407 2.5711493
16.163801 14.621053 2.2564673
16.907101 14.972847 2.9841981
19.582615 15.96657 2.3690739
17.480688 15.162688 2.3490188
14.023994 13.841395 3.0976756
14.659967 13.720216 2.2611578
17.481936 15.172932 2.4716444
15.087928 14.269187 2.4561987
17.447186 15.179762 2.1301379
18.172539 15.41691 2.2673085
19.299191 15.859181 2.2384651
14.875345 14.184948 2.5784237
19.292959 15.856721 2.3799424
13.691624 13.314548 2.5984294
17.376698 15.17048 2.5821946
15.08393 14.265259 2.5383739
14.572151 13.712432 2.0658863
14.443664 13.691476 1.8520565
19.264025 15.817863 2.167804
17.548965 15.18583 1.8932831
19.576288 15.978086 1.8642861
17.590757 15.262297 2.5459478
17.457167 15.267292 1.9058491
17.213943 15.192899 2.1884017
17.056772 14.992991 1.9796821
19.49379 15.952362 1.7995555
16.714176 14.8837 3.0367053
14.884954 14.18518 1.9655361
16.055323 14.610608 2.8641019
14.755881 13.734911 2.4422812
14.375309 13.96798 1.8585942
15.074779 13.904354 1.9734077
18.68084 15.591625 2.0879934
14.348963 13.929268 1.9684594
15.067026 13.902255 2.0660965
14.851995 13.744144 2.5348403
14.493111 14.050219 2.1758761
16.575867 14.811788 2.4700646
18.786232 15.660305 2.265573
19.871016 16.073233 2.3604012
14.900151 13.851624 2.3661845
17.745802 15.229353 1.6883128
13.875902 13.472272 1.5587959
19.000107 15.721516 1.9673245
19.248734 15.838583 2.0761936
17.859802 15.242067 1.7234392
15.64932 14.412772 2.2391384
14.817884 14.162751 2.04333
18.741936 15.628125 2.3719246
14.75748 13.703021 1.7569922
15.171915 14.278061 1.958613
14.736494 13.728039 2.0504413
14.507429 14.064777 2.3092117
14.794662 14.154408 1.8693452
14.748732 13.732631 2.1693969
17.18441 15.071268 2.4689188
14.592676 13.755832 2.0533392
15.179121 14.278144 2.0635369
17.744854 15.228703 1.8612878
19.362001 15.880227 2.2456186
17.588623 15.190029 2.0593562
17.833113 15.240383 1.8777051
17.479099 15.178836 2.6573448
15.58813 14.46279 2.9486728
17.169352 15.084474 2.159013
14.793565 14.156417 2.1755033
14.675182 13.765038 1.7838869
14.903008 13.846162 1.8533996
15.652491 14.421116 2.4347031
17.070391 15.001764 2.0632553
17.27986 15.093868 2.3594635
17.772856 15.282612 1.8641517
13.56758 13.328888 2.4571466
15.849771 14.520247 2.1586409
15.345526 14.326158 2.4702613
18.3766 15.530804 2.8641145
14.749091 13.733958 2.5295272
17.063356 14.997583 1.8724978
17.066046 15.001241 2.3665462
19.006546 15.773664 2.0364182
15.16331 13.908343 2.3576427
17.28665 15.032622 2.5150833
16.365866 14.755898 2.0601676
13.349699 13.586966 2.9644313
19.663452 15.986248 2.1618543
17.15835 15.029459 2.5696514
13.799242 13.735538 2.7468734
15.983521 14.586919 2.0580518
17.595512 15.247152 2.494503
14.892479 13.80923 1.7756151
18.235296 15.434649 2.3484325
16.566429 14.812451 2.3610735
19.434467 15.935476 2.9273746
19.77733 16.030088 2.7617927
16.067308 14.602017 2.0460854
17.180178 15.066454 2.5589778
17.570913 15.192686 1.958567
13.67528 13.748761 2.7738771
13.947498 13.431483 2.582727
16.874241 14.963923 2.549407
14.889977 13.855143 2.2570252
18.985157 15.716089 2.1960883
17.149212 15.076417 1.6500505
14.887336 13.858814 2.1516018
14.895894 13.865262 2.0631061
15.852878 14.520188 2.3516936
15.570462 14.417714 2.7418611
16.761793 14.882278 2.3720059
20.563181 16.325577 2.3659594
18.999989 15.791499 1.7914621
15.158964 13.920396 1.9646822
16.088669 14.651423 2.0854988
14.734529 13.74055 1.9051237
15.569999 14.429523 2.8616192
16.106827 14.658325 1.9414009
14.861895 13.789211 2.449703
18.97962 15.714463 1.8617314
17.378773 15.103988 2.2501817
16.065586 14.623674 2.764195
15.87828 14.519009 2.4701989
19.471716 15.919879 2.64377
16.46771 14.788859 2.5610511
15.271814 14.317774 1.8702358
14.864135 13.817924 1.9673007
14.669579 14.084063 2.0594139
14.676174 14.079955 2.352067
16.563959 14.856509 1.8134304
14.75003 13.729037 2.2726436
15.789104 14.56777 2.0546651
14.62141 14.032983 2.1055145
19.39584 15.885408 2.1862283
17.148056 15.022231 1.8705579
15.043763 13.837245 2.2591791
15.975107 14.571943 1.957973
17.871262 15.301085 2.2578065
19.370924 15.891687 2.7588332
17.249464 15.081891 1.6794139
19.03618 15.745354 2.6709282
16.06744 14.614364 1.8777447
15.566621 14.41499 2.6682687
13.328804 13.544327 2.7736807
15.967463 14.593181 2.4605212
18.152939 15.415207 2.1961703
18.863859 15.715155 2.8450124
19.68292 16.002787 1.8654873
16.852737 14.915185 2.1625178
15.183452 13.968881 2.1550779
13.707665 13.748408 3.0006189
17.741627 15.230555 2.6470535
20.174704 16.192774 2.4631686
17.774054 15.262232 2.8408108
15.142367 14.238433 2.2069285
15.869829 14.531363 1.7847035
14.581614 14.061116 2.0645828
16.576424 14.863987 2.1497419
18.662191 15.585261 1.8746966
20.082426 16.169582 2.4676135
19.51759 15.946903 2.3413677
15.16551 13.92341 2.1662209
17.678473 15.265507 2.5591016
14.561975 14.075912 2.7437124
20.171349 16.194273 2.5514803
17.669716 15.264517 2.6633012
18.895746 15.747245 2.5066519
18.968075 15.719792 2.2809129
15.991094 14.583768 2.2681987
17.435196 15.139767 2.7543578
17.580101 15.182459 1.7634981
16.979464 14.976157 2.6662209
15.556204 14.417809 2.0552988
15.912571 14.584906 2.9818289
19.154999 15.802398 2.0644696
20.49431 16.296698 1.9709704
18.771509 15.798317 2.2825184
16.563744 14.877166 1.9447
17.164255 15.022889 2.4678435
16.968723 14.985271 2.7470939
16.560377 14.794169 2.1776445
13.765842 13.400172 1.96259
13.683034 13.75633 2.5142663
19.569347 15.968225 2.2592742
14.160175 13.529392 2.1612947
16.580263 14.805072 1.9554157
17.566727 15.208705 2.6579671
18.068357 15.394477 2.5606089
14.072227 13.505697 2.2597611
15.939053 14.542378 2.6770844
18.091572 15.435229 1.8336802
17.76445 15.268745 1.7444243
16.555611 14.803003 1.8703439
15.666494 14.484668 2.5385273
14.983466 13.867191 2.2518449
15.671586 14.46959 2.1770971
14.679937 14.087086 1.9662554
14.261737 13.915042 2.2723744
17.985405 15.316258 2.8982167
15.577125 14.472504 2.6458759
16.066257 14.616258 1.9613622
20.491106 16.312151 2.8361228
13.754328 13.422467 1.8780726
13.500526 13.225522 2.3003149
16.233292 14.643187 1.9657888
15.170352 14.301407 2.6591375
13.474244 13.294645 2.25228
17.565449 15.196018 2.4677649
17.600138 15.255353 2.6711774
16.447292 14.737953 2.3942595
15.157902 14.232227 2.0716212
17.456787 15.134915 2.5592685
20.638811 16.36845 2.6400328
16.902218 14.955477 1.7601411
17.743715 15.226394 2.2747622
19.415192 15.93103 1.7555835
16.570061 14.805754 2.6633434
14.841594 14.128317 2.2693796
13.686827 13.782894 2.6717515
13.362869 13.233316 2.4587266
15.588921 14.455732 2.2643037
15.265866 14.364582 2.7595515
17.2717 15.081945 2.4676247
18.882704 15.698295 1.9383672
14.96787 13.867655 2.3556874
18.372885 15.505929 2.4623566
20.175739 16.249947 2.6526053
17.973518 15.329462 2.794955
14.406235 14.047629 2.0145454
17.997051 15.371978 1.8528655
20.37348 16.276276 2.5558369
19.795052 16.085161 2.038578
18.187906 15.451646 1.6815521
15.671932 14.445071 1.7798878
15.669735 14.481515 2.670702
19.86628 16.088438 2.7555461
20.567322 16.326923 2.2693772
15.871346 14.522979 1.9518656
18.071049 15.401033 2.6653829
18.367872 15.508205 2.5576077
18.364832 15.509327 2.0726094
14.575063 14.09581 2.9406431
20.215881 16.247004 2.3767211
14.824083 14.123421 2.5666318
13.869611 13.467211 1.9596052
14.676986 14.104383 2.470773
14.596413 13.738442 1.7257725
13.360221 13.233329 2.3524356
18.358557 15.501617 2.2824793
13.863834 13.465835 2.0635419
17.176611 15.063562 2.3875291
17.657406 15.270224 2.8674538
16.659962 14.82891 1.9629494
13.980479 13.477966 2.4476585
14.489232 13.678207 2.358722
17.986364 15.365105 2.4686415
19.380678 15.871078 1.8640872
15.569976 14.422008 1.961023
14.571501 13.714842 1.8797919
19.376242 15.90168 2.6488712
20.293007 16.265757 2.7382598
18.361229 15.504142 2.158144
19.075735 15.775247 2.2498624
15.176113 13.886067 1.6787604
15.61269 14.472648 3.0337787
14.526315 13.641098 2.1921809
17.257915 15.077025 2.1546733
15.280389 13.976274 2.3542984
16.770044 14.888615 1.7590873
14.379255 13.661592 1.9555616
14.598752 14.155 1.9651406
17.986874 15.362525 1.9681623
19.451159 15.884909 2.1559541
16.669195 14.877235 2.0752485
15.470589 14.391386 1.9639161
15.874416 14.568552 2.3638303
19.070316 15.784776 2.6567693
15.060658 14.273853 2.8429704
16.088131 14.652845 2.3658686
19.251163 15.829337 1.9560233
13.872478 13.412223 2.5219553
16.174253 14.67778 2.2586379
14.638176 13.722161 1.9835168
13.972983 13.494897 1.9675153
14.459893 14.014458 2.8606441
15.06991 13.899728 2.1622059
15.687053 14.48715 2.3594947
14.873017 14.169247 2.1610653
16.900244 14.959836 2.2947772
14.787804 14.165681 2.5681903
15.966221 14.536402 2.1788764
20.378094 16.268538 2.4602129
14.38183 13.992847 1.7566053
16.263868 14.69061 1.9587033
14.394241 13.659333 2.2566433
19.459892 15.915728 2.5619216
15.673008 14.483815 2.8440683
14.375628 13.660885 2.0813522
14.864886 13.801973 2.3554373
13.752642 13.338994 2.361063
19.479761 15.954732 2.7353187
15.063505 14.227674 1.8788737
18.752941 15.631956 2.5535676
17.466085 15.137478 2.6461375
19.53158 15.932114 2.2800684
15.258066 14.362594 2.0116563
13.654482 13.703917 2.6493838
19.974146 16.130627 1.8569635
14.480476 14.077214 2.7719417
13.467685 13.298912 2.0746262
15.055851 13.83639 2.4666593
19.999947 16.159571 2.6538539
14.743623 14.13153 2.777081
20.370226 16.275524 2.6497242
15.542935 14.466147 1.7531178
19.162584 15.806996 2.5512698
18.245329 15.593005 1.7941622
14.677886 13.725404 2.0735326
15.663115 14.477707 2.0643156
15.063025 14.2218 2.1688769
13.358999 13.231128 2.2720809
13.975367 13.475245 2.3655198
16.888767 14.965495 2.4627295
19.670708 16.006191 2.8538101
19.831295 16.038155 2.4117472
19.465141 15.910605 2.2518117
13.750362 13.33976 2.2933273
15.271808 14.294552 2.3474851
19.047108 15.720461 1.8781762
16.762293 14.871633 1.9613236
13.390274 13.272896 2.2582223
13.67496 13.381996 2.0678043
16.56214 14.811773 2.5645986
17.008383 15.005848 1.671435
15.146418 14.237603 2.2666724
13.739877 13.340837 2.0751839
14.236012 13.953149 1.7745607
15.068676 13.917295 1.8829954
16.37068 14.723525 1.8707337
15.464311 14.382837 2.3630404
16.564484 14.809749 1.7672411
17.686426 15.281338 2.7358012
13.372648 13.677282 2.7344813
18.448002 15.533088 2.6573851
18.567484 15.573254 2.4652104
13.96754 13.486758 2.0706408
16.905312 14.967177 2.3518281
14.976741 14.201703 1.8789003
16.873657 14.953169 1.6567372
17.623415 15.239768 2.1544685
14.31031 13.659547 1.7799909
17.570324 15.199968 2.3639159
14.661732 14.146977 1.9588046
19.750561 16.050581 1.9882213
17.986782 15.370526 2.0882139
19.6831 16.05648 2.6538463
15.640465 14.431113 2.8493819
19.856314 16.074671 1.8888156
15.039463 13.843841 2.0683353
13.37254 13.27457 2.3597202
16.269306 14.702142 2.5548038
15.695345 14.4998 2.9355555
17.938742 15.329985 1.6951052
15.580718 14.468691 2.3718033
15.593427 14.463029 1.9523631
14.859954 14.135411 1.8870456
14.974828 13.882564 2.0728641
14.876194 14.165754 2.053515
20.563183 16.308071 2.1614668
20.054493 16.174305 2.0740266
15.268055 13.984966 2.1631863
16.768394 14.891939 2.5645285
14.485736 14.010198 2.666615
17.958637 15.33143 2.4588611
16.330753 14.753904 1.7706954
14.864457 13.813059 2.0668423
13.734348 13.342403 2.2002714
16.581341 14.800749 2.0582514
18.951464 15.72639 2.65411
15.466727 14.382466 2.1520388
13.909376 13.847402 1.9410752
18.889236 15.699329 1.865137
14.476211 14.008286 2.5719142
13.372566 13.658546 2.9777679
19.208256 15.847185 2.8199019
18.279875 15.473717 2.1663816
16.005249 14.596499 1.755479
15.474298 14.457874 2.3655965
15.578867 14.463367 2.1836901
17.961325 15.326125 2.386451
15.164413 13.916764 2.2535808
13.417301 13.700282 2.6054516
18.279408 15.469724 2.4581103
16.969906 14.974775 3.025902
13.377039 13.274081 2.0786884
14.478278 14.012106 2.3337874
18.45977 15.564305 2.1671357
19.465595 15.914406 2.3698871
13.88798 13.466896 2.1519825
17.589785 15.180763 2.1390262
14.810082 13.761592 2.6518962
13.975003 13.479476 2.260648
17.38192 15.108459 1.8697122
13.943478 13.439651 2.0046792
18.962582 15.724469 2.4581423
17.657862 15.214349 2.4689775
20.650581 16.383512 2.5442858
17.903137 15.371166 1.8445355
14.771229 13.780446 2.3519993
14.779449 13.782784 2.4656041
17.676949 15.211091 1.7682897
18.07563 15.399355 2.8565345
15.168516 13.912333 2.4528775
14.065981 13.501737 2.3551321
17.352476 15.145602 1.6940297
19.918783 16.148151 2.6297781
13.770388 13.400236 2.3517759
14.880386 14.121597 2.3327105
15.624666 14.439534 1.6972739
15.352602 14.325121 2.0521667
19.347065 15.843233 1.9605925
19.457663 15.930714 2.8778358
15.120705 14.242002 1.91108
20.453259 16.289827 2.9364481
17.164864 15.049906 2.2698827
14.48871 14.065649 2.6858234
15.28126 14.360016 2.4617214
15.96892 14.582017 1.8538283
14.77527 14.117249 2.3720777
20.214216 16.308455 2.0669799
13.964677 13.430979 2.2734573
17.568569 15.193816 2.5689313
17.672556 15.209978 2.2640023
16.398323 14.757019 1.9665825
19.857609 16.022631 2.2484312
18.954552 15.780213 2.8655367
14.95894 13.828071 2.3488979
17.753807 15.237896 1.7939749
16.664867 14.872381 2.7565622
14.877525 14.177724 2.4684763
14.286176 13.968508 1.8864652
16.554874 14.81493 2.7527237
15.597401 14.456427 2.0776477
14.162521 13.521583 2.3595397
14.476812 14.00795 2.0668969
13.474277 13.300013 2.3604951
19.665953 16.00178 2.2470984
16.365374 14.72088 2.1688657
15.759018 14.503367 1.6787342
17.691227 15.266115 2.9198146
16.815771 14.939093 3.0586023
14.015224 13.504094 1.7014143
15.680406 14.458494 1.9655873
17.729837 15.235252 2.4671798
14.679624 13.763445 2.1583962
14.95708 13.828048 2.0569458
16.39362 14.768879 2.2916622
14.474677 14.007983 1.9673952
14.98728 13.844255 1.6489187
17.776749 15.282274 2.456002
13.955153 13.479563 1.87831
13.350445 13.684017 2.6424456
17.358438 15.111278 2.4728434
14.974916 14.193719 2.0559957
19.761385 16.054354 2.7439477
14.962892 13.822971 2.2620449
16.560984 14.801424 2.2846429
14.772594 13.780205 2.2577946
13.947083 13.427799 2.1528883
13.94682 13.42285 2.4577901
13.964417 13.436908 2.3719506
15.67425 14.486409 1.7523425
14.875592 14.169026 2.2603841
17.733685 15.349008 2.8168905
18.296942 15.552596 2.7962606
20.476904 16.309729 2.7564347
17.370207 15.196795 1.9250679
16.845478 14.913561 2.2539506
14.971481 14.214393 2.556699
15.675594 14.476731 1.8758203
18.002579 15.378601 1.7666103
16.617041 14.851147 2.2859054
14.972717 14.168204 3.0137527
13.927443 13.440079 2.0903451
14.164404 13.519085 2.4565313
17.66375 15.208754 1.8500664
13.358686 13.219542 2.5617967
17.522038 15.133914 1.8146329
13.974297 13.488878 2.1600308
16.431568 14.726015 1.9709727
18.497124 15.671756 1.7281832
13.38291 13.669671 3.1423488
19.375532 15.886281 2.4644351
14.978092 13.81237 2.5576773
14.807325 14.159567 1.9469322
14.676042 14.084691 2.2459815
20.465536 16.353996 2.634661
20.498749 16.345739 2.4833975
13.4759 13.300306 2.455158
19.460339 15.919946 2.7478695
20.494471 16.356483 2.5656815
20.076134 16.167114 2.5532138
17.577179 15.206034 2.7552271
16.082361 14.658908 2.5594223
14.451633 14.009899 2.7486002
16.677441 14.868583 2.8574233
14.962717 13.828496 2.171699
14.101604 13.558488 1.964631
17.959293 15.324811 2.0669086
14.859323 14.130568 2.6481214
14.878714 13.821296 1.8626925
19.485537 15.961924 2.9247026
17.956774 15.316345 1.8445764
17.626844 15.242574 2.915194
14.848673 13.730533 2.2019448
17.968758 15.327107 1.9731662
17.607185 15.281771 2.8303292
17.080746 14.999334 3.0323186
14.865265 13.805983 2.2531524
14.678493 14.100425 2.1520267
14.45112 13.624104 2.2532949
18.965593 15.726274 2.5486505
15.669563 14.490095 2.4482367
15.089447 14.268871 2.6527886
13.872194 13.795163 2.3875155
18.963152 15.718237 2.3696046
17.725569 15.231422 2.525939
16.953865 14.924705 2.2608111
15.561129 14.416952 2.268399
13.968338 13.836941 1.798732
14.442035 13.623353 2.1806781
14.468121 13.631614 2.5427752
17.367247 15.184551 1.5964513
13.568345 13.774592 2.6508138
14.586495 13.670154 2.5261636
15.068789 13.891096 2.3580389
17.482765 15.174556 2.875493
17.873688 15.291577 2.1628113
15.974183 14.598465 2.7510252
14.474746 13.68541 2.0746834
15.571673 14.412004 1.7778068
15.071216 13.8921 2.2628667
17.122667 15.147225 2.3247571
14.648119 14.041948 2.667134
15.073835 13.882009 2.4515212
14.872073 14.170875 2.3532617
14.855891 14.129854 2.0456207
14.759067 13.727399 2.3700619
19.674786 16.018053 2.9420736
19.444618 15.954389 2.8460891
14.183676 13.571645 2.2525284
14.083116 13.474153 2.5202925
16.271414 14.684816 2.1580303
15.956727 14.579641 2.8626323
20.085182 16.168856 2.6516438
14.928183 13.791763 2.6203699
14.685831 14.099575 2.9251952
15.96769 14.579471 2.1589503
18.521032 15.53986 1.8836288
17.176422 15.166399 1.9749409
16.164686 14.629267 1.9498762
15.770492 14.569762 2.6595535
16.14802 14.625247 2.4772377
14.054427 13.523305 1.8529192
14.96986 14.206331 2.6550419
15.084483 14.259673 1.9551091
20.460588 16.290607 2.2866714
14.596077 13.757046 1.9531503
16.040285 14.620469 2.9534085
15.063089 14.229748 3.0217175
15.551098 14.426944 2.5662212
16.149998 14.62376 1.882756
14.062729 13.510838 2.1635711
16.063536 14.605696 2.3577218
20.081692 16.164238 2.3715928
15.65577 14.435143 2.3514028
15.265229 14.306067 2.0633447
14.068946 13.494358 2.4502809
16.374565 14.772869 2.5612681
19.489674 15.96745 2.4755359
16.144342 14.621756 2.0603681
14.486794 13.667249 2.4567008
19.567932 15.91294 1.887843
14.682944 13.764764 2.2564473
15.597279 14.505478 2.8634794
16.075525 14.602279 2.1573284
15.659778 14.427929 2.1489947
14.684006 13.771392 2.0617917
15.367794 14.357432 1.8634198
15.377423 14.374079 2.4486687
15.367973 14.368546 2.1683519
15.372809 14.36306 2.2581208
13.696291 13.765518 3.0609736
14.088395 13.867607 2.0589433
15.362711 14.337952 1.84995
18.067144 15.403037 2.7434392
14.081072 13.561332 2.0527608
17.874617 15.307563 2.466809
15.796117 14.536377 2.9792356
15.349375 14.337976 2.3731782
17.289454 15.030568 2.0070558
14.76465 14.11924 1.9561968
14.281313 13.960918 2.0948136
17.255096 15.042072 2.2339039
14.460964 13.620789 2.4446995
15.654026 14.491922 2.7723315
14.965182 14.204302 2.4589672
15.76296 14.491948 2.1684778
20.143202 16.233328 1.7626581
14.447252 13.627487 2.0752468
15.97135 14.544426 2.0815876
14.664316 13.776648 1.9519035
15.370176 14.389029 2.5755651
14.953804 13.834426 1.9533744
14.769076 14.103748 2.9404204
17.084093 15.002885 2.1664
14.960514 13.810647 2.4634767
14.468294 13.667418 2.2646022
20.067808 16.183163 2.1826041
14.775782 14.116566 2.652427
14.575826 13.680794 2.4546704
13.678251 13.761679 2.2668278
19.476038 15.962812 2.657362
17.180717 15.160801 1.7732434
14.782499 14.192985 2.9334042
20.365517 16.268238 2.9400892
14.582762 14.032138 2.2532845
15.486238 14.457378 1.6786184
15.276392 14.347399 2.3689268
14.433893 13.609823 1.8588223
17.770788 15.287686 2.6593199
17.666758 15.228576 2.5642297
20.58111 16.364637 2.4695137
17.664541 15.233389 2.6560512
17.661625 15.222059 2.3660388
15.680479 14.470268 2.2575662
19.296394 15.914432 2.0057199
13.780452 13.73409 2.8555648
20.510567 16.382437 2.356014
20.513262 16.359818 2.7390649
14.866035 14.183417 2.9264731
20.275454 16.256563 2.5537016
19.258165 15.830074 2.4476318
14.77624 14.124645 2.0643907
17.687769 15.272547 2.4553566
17.695009 15.270557 1.8766642
17.484276 15.168381 2.0550089
14.758101 14.114356 2.2582512
15.051936 13.842726 2.360276
18.104893 15.475681 2.5104828
13.340717 13.231051 2.1537642
15.641655 14.435849 1.9573164
14.476846 13.679357 2.1631253
17.766394 15.297418 2.7459888
19.777597 16.033022 2.8435986
14.676178 13.773829 1.874921
15.160984 13.921925 2.0730951
20.058943 16.134439 2.3734229
14.058879 13.508982 2.0597553
15.179961 13.965911 2.0613689
17.913427 15.338389 2.8574314
18.280968 15.467713 2.365284
19.478033 15.961452 2.5583832
15.166862 13.93381 1.8667567
19.473139 15.920675 2.465683
15.35195 14.391423 2.942883
14.559381 13.759757 1.7863568
14.571386 13.752338 1.8525202
19.835186 16.038635 2.6615663
14.564337 14.035036 2.3787384
14.75729 13.78039 1.765908
15.169321 13.960137 2.3629234
17.260769 15.080602 1.9646912
14.755766 14.11821 2.4766397
17.873684 15.327343 2.7444828
13.45273 13.603554 2.8463454
14.768351 14.121618 2.5615458
15.175903 13.964465 1.9664078
14.959922 14.192361 2.3558111
15.574726 14.463756 2.7818017
15.582168 14.462039 2.562274
18.583605 15.515935 1.9743246
18.461063 15.528528 2.4693515
14.160998 13.923842 2.6709955
18.682735 15.656917 2.75016
16.666327 14.838902 2.1564136
16.674021 14.82838 2.3613863
14.761791 14.115235 2.1550341
19.170862 15.802829 2.2561071
20.122328 16.143242 1.7600605
19.9792 16.156075 2.4742455
15.633825 14.426002 2.5594749
17.179993 15.185522 2.2754593
16.167606 14.672516 1.7477164
14.764262 13.803366 1.9668235
19.368465 15.881069 2.3734367
19.770573 16.026564 2.6446056
13.580366 13.355351 2.3671057
14.753554 14.106365 2.8439438
15.078687 14.258054 2.1706965
14.440363 13.62142 1.9644663
17.656702 15.225392 1.5863756
17.270594 15.096193 2.5613232
15.67152 14.482596 1.6608728
19.761179 16.025745 2.5546496
18.071095 15.450909 2.0292196
19.669449 15.991965 2.3687809
14.778104 13.797487 1.8809694
17.977192 15.349924 1.6578522
19.369488 15.894057 2.5520999
17.974186 15.339272 2.9131904
14.778513 14.16256 2.6551421
15.390435 14.370385 1.9694784
18.779425 15.677816 1.8473607
14.671732 14.156704 2.9474635
14.45434 13.627415 2.360889
19.563339 15.973183 1.9583019
20.64682 16.334705 2.4914715
14.691999 14.086827 3.0405455
15.426351 14.449053 1.9401197
14.284071 13.979188 1.954259
15.086172 14.263818 2.2641385
14.275363 13.939324 2.0588219
14.260462 13.912002 2.7610815
18.693359 15.666306 2.3359158
15.267209 13.978806 2.2543778
14.666841 14.104875 2.5630782
18.395708 15.553436 2.5486841
17.478146 15.17024 2.2456563
14.459164 14.007781 2.2554998
15.08658 14.258736 2.0506527
14.868484 13.807146 2.159517
14.839308 14.127961 2.1580441
16.951324 14.936583 1.9640075
14.482072 14.000452 2.1532023
17.870945 15.316496 2.5680723
18.45467 15.559553 2.0624828
15.27276 14.304234 2.160851
15.282018 14.310963 2.4553206
18.67181 15.603236 2.1700091
14.847943 14.134129 1.9657776
20.462227 16.300528 2.6532412
15.769263 14.559713 2.4490483
13.656946 13.326715 2.1735616
15.013037 14.246673 1.963526
15.260389 14.305491 2.2584372
15.293394 14.358665 1.9519892
14.988634 14.248805 2.4842603
14.883206 13.796297 2.5448945
15.848182 14.523657 2.05269
13.433455 13.229926 2.4084365
15.251716 14.3116 2.8516607
17.680576 15.235703 2.8602238
16.003811 14.661036 1.9564196
17.638475 15.219906 2.7534139
15.295936 14.35756 2.6468036
14.777786 13.792068 2.0659323
18.976938 15.76611 2.6521225
16.846972 14.92436 2.868546
20.26902 16.217447 2.5509658
16.885572 14.963766 2.7607305
16.851261 14.924462 2.7556767
13.587948 13.676332 2.6612835
15.373384 14.327076 2.7606337
17.891562 15.352612 2.5302377
19.859484 16.096399 2.921123
19.779579 16.066792 2.6513469
19.603756 15.998329 2.8449883
17.848162 15.360956 2.9132259
13.577117 13.688414 2.5742559
13.554992 13.688622 2.7610738
18.22583 15.592737 2.2936127
16.672857 14.867969 2.5610878
15.364636 14.326874 2.8697879
15.330959 14.323339 2.5651457
19.660814 16.02471 2.0702443
16.649971 14.889911 2.953063
14.973769 14.27654 2.7256007
15.670789 14.546717 2.2945974
13.677494 13.712662 2.7695723
15.354477 14.32728 2.6746619
16.106903 14.674753 2.1513634
18.906755 15.749534 2.5660341
14.858019 14.136861 2.7293723
17.644287 15.350901 2.4029372
19.782862 16.061777 2.4691598
16.686172 14.883882 2.454576
15.373799 14.379179 2.6522329
18.862049 15.707447 2.6568017
18.530859 15.53656 2.2969387
17.175119 15.068818 2.7740002
14.666694 14.093463 2.6718462
14.658916 14.161676 2.5839686
14.162095 13.898403 2.5556116
15.767154 14.515534 2.8735394
14.672474 14.084842 2.7573378
13.538416 13.621988 2.8019223
15.371385 14.372691 2.7694795
15.058813 14.231828 2.4556053
15.380134 14.373077 2.8697853
15.417837 14.383563 3.0638962
17.61507 15.235844 2.9178243
14.57198 14.075924 2.6685584
14.158199 13.896622 2.7662246
17.472143 15.181462 2.934799
15.262709 14.307081 2.7671087
17.557903 15.197345 2.8534627
15.25842 14.323989 2.6411061
19.076336 15.767948 2.3723516
14.664569 14.097398 2.8597727
13.472392 13.624093 2.7723498
13.367 13.587826 2.5602775
14.182055 13.952969 2.6859877
14.62842 14.153861 2.7463818
13.441012 13.613813 2.5901349
15.967551 14.582014 2.6594751
17.083942 15.066902 2.7446187
16.140001 14.624865 2.1473525
18.676901 15.658104 2.5015247
16.066357 14.613476 2.6559925
16.369152 14.75474 2.3459005
15.695415 14.556712 2.5359325
16.0734 14.669434 2.4740827
13.880449 13.867075 2.6746364
18.477089 15.569186 2.565104
14.168663 13.949575 2.5186896
14.206957 13.948451 2.7599332
17.221685 15.034167 2.4161556
14.056458 13.814981 2.670306
19.549215 15.937845 2.6603849
15.300385 14.335065 2.9796255
17.370594 15.175219 2.778877
14.176162 13.974595 2.8304591
19.706701 16.057938 2.4634542
13.458335 13.626428 2.6578355
16.655025 14.825628 2.6598289
13.374668 13.608931 2.6612487
13.446832 13.581524 3.0024788
15.75523 14.506177 2.7494261
20.540428 16.322798 2.6570215
16.680553 14.835121 2.75001
13.586072 13.676105 2.8589451
20.554115 16.365482 2.7519021
18.273182 15.481764 2.7582314
18.894823 15.765032 2.6635551
18.755188 15.668424 2.1821487
19.544716 15.932806 2.453485
20.468855 16.297907 2.4547849
20.334995 16.230978 2.7203927
20.329977 16.23315 2.6800241
14.778755 14.159535 2.45785
14.782534 14.167196 2.8611052
18.901756 15.750034 2.7323756
16.569389 14.81249 2.8519368
15.756008 14.658624 2.3372023
20.347324 16.229944 2.4756179
20.574951 16.355387 2.2572355
13.619254 13.763687 2.9060206
20.569416 16.360945 2.5617213
18.380983 15.584703 1.9593141
19.552202 16.006372 2.0966294
20.595531 16.348436 2.1769066
18.638819 15.648731 2.0652432
20.354412 16.228987 2.5541654
13.45333 13.685871 2.2867253
14.657283 14.175931 1.8204989
17.831705 15.357714 2.0944655
17.899069 15.369642 2.3555465
19.873825 16.083012 2.5565109
18.688471 15.683311 1.8836565
18.595039 15.715273 1.7037081
17.061323 15.074855 2.1969762
17.879799 15.349218 1.7998507
16.306543 14.760346 2.3176239
18.871916 15.700388 2.5572569
19.579041 15.983279 2.1739049
18.706934 15.675765 1.8059658
15.06687 14.275799 2.7430534
15.278015 14.356488 2.5938087
13.479469 13.680015 2.4708998
16.449352 14.733339 2.542402
13.353621 13.233632 2.0696249
14.186485 13.896981 2.9672658
16.472658 14.738955 1.8942817
18.440174 15.525592 2.7504132
16.185627 14.64443 2.8580489
19.826025 16.040249 2.3166671
15.086354 14.301602 2.9657135
16.69622 15.01212 2.1943696
19.766754 16.027027 2.3631153
19.795431 16.063921 2.3772197
18.406647 15.572177 2.4645219
18.361746 15.509836 2.6593783
16.372503 14.726309 2.6584606
13.776937 13.766008 2.965661
13.86978 13.792357 2.4854572
13.862352 13.791527 2.7737021
19.729025 16.099588 2.1688776
13.725003 13.717482 2.6541014
16.373257 14.70734 1.9601275
19.7889 16.057924 2.2885401
13.55922 13.746856 2.7124171
18.834803 15.700916 2.922817
18.383156 15.558275 2.7391379
17.945423 15.362151 2.1207333
20.469948 16.303396 2.5537181
13.881825 13.809761 2.9594615
13.869627 13.780527 2.5639327
20.559479 16.357935 2.678401
13.864648 13.783132 2.6549211
13.27398 13.595289 2.761946
13.688516 13.724048 2.869868
18.870735 15.712826 2.7394271
18.480732 15.567003 2.3661003
20.564749 16.3253 2.4606278
20.553764 16.319937 2.5470464
19.823084 16.023211 2.566221
19.570118 15.978102 2.6442661
19.5734 15.978869 2.5574284
16.772205 14.895476 2.7494314
19.576202 15.966444 2.7573724
19.582527 15.970623 2.4613516
19.668472 15.998913 2.4604661
19.069756 15.783194 2.5624316
19.711502 16.056402 2.5572927
20.626219 16.334932 2.5563838
19.215868 15.855229 1.7314284
19.076672 15.795661 2.7525504
19.075474 15.777785 2.4531088
20.264666 16.266672 2.6577451
17.954214 15.336432 2.6520112
16.964674 14.982832 2.8557723
17.499054 15.260322 2.8288534
16.928907 15.079179 1.5951328
17.184906 15.057468 2.8437769
16.183846 14.67163 2.6568003
16.158281 14.636833 2.6393802
17.090229 15.064817 2.5635064
17.070301 15.072474 2.6666451
17.098989 15.063976 2.4759996
17.078684 15.105371 2.8518026
19.826277 16.114309 2.850898
17.071913 15.017931 2.7650065
19.870138 16.087034 2.6545579
17.878054 15.303598 2.9114203
19.190382 15.869124 2.6771073
13.197703 13.552691 2.9846387
17.022461 15.012477 2.9232197
16.879524 14.961489 2.8568256
16.88833 14.960662 2.6569884
17.287376 15.103189 2.9219205
17.245701 15.042421 2.6281936
16.892635 14.952677 3.0272143
17.264982 15.093913 2.7513549
17.064732 15.001704 2.6634071
17.259541 15.104837 2.8644867
15.276659 14.388638 2.9539163
17.470488 15.17952 2.7452815
16.428329 14.74399 2.1840873
17.062197 15.002624 2.474247
14.580625 14.082029 2.8506908
19.663876 15.986075 2.7547724
15.873956 14.532733 2.5392687
14.957796 14.204398 2.9488676
14.942829 14.280196 3.0189037
16.142403 14.643392 2.9184852
16.155312 14.635883 2.773706
19.671938 16.006084 2.6504929
15.874743 14.533605 2.8601115
19.66811 16.00346 2.5510762
16.571194 14.870493 2.8376613
15.131319 14.24266 2.8367043
18.114727 15.459988 2.7503977
16.595154 14.85222 2.7273793
14.314753 13.614189 1.6601474
16.575876 14.867977 2.9652498
16.742775 14.840528 2.8041139
16.587305 14.855839 2.6659033
16.491526 14.8733 2.44873
18.695938 15.661894 2.5576448
20.169115 16.184364 2.3731956
20.165545 16.189556 2.6418858
20.059362 16.128828 2.6572902
20.271557 16.220552 2.6556115
20.547516 16.324837 2.7767265
19.288441 15.866215 2.8575239
19.78141 16.066746 2.5532122
19.966927 16.108944 2.6473494
18.770264 15.681365 2.7514977
18.776127 15.677397 2.6595786
18.987389 15.765841 2.5642509
19.767754 16.067101 2.8696876
20.189939 16.207073 2.7305195
19.280697 15.877139 2.6529121
19.286245 15.863631 2.4744887
18.154842 15.426951 2.6612844
18.163948 15.420068 2.5610414
18.455635 15.525562 2.2631309
18.665558 15.61531 2.558357
19.334686 15.844397 2.5711362
17.975016 15.36615 2.571836
18.488815 15.558763 2.4595633
18.67206 15.622991 2.7669408
18.671747 15.66288 2.6667802
19.17938 15.828463 2.8263202
19.167309 15.806555 2.4632943
17.952608 15.328057 2.5612283
18.168871 15.416914 2.4687009
18.152008 15.417006 2.7447252
18.364481 15.513656 2.7559536
18.461622 15.535252 2.5556815
19.175924 15.826412 2.7469864
18.273273 15.479947 2.5630119
17.976322 15.368897 2.370012
18.274607 15.482337 2.6634417
18.769829 15.672595 2.5637186
17.980339 15.375537 2.6640742
19.161968 15.81286 2.6471412
15.470119 14.401512 2.8619328
16.161295 14.672729 2.8483295
16.267048 14.703074 2.6569779
16.635223 14.837232 2.8421059
18.269512 15.477283 2.8264585
18.781477 15.663986 2.4649031
16.467003 14.783045 2.6460693
19.526451 15.933826 2.742713
15.258359 13.927852 2.4659801
13.959083 13.822003 2.7520492
14.000219 13.860336 2.7581992
14.066949 13.875778 2.466583
14.084536 13.893448 2.9653242
19.014935 15.751698 2.3619192
13.3624 13.588946 2.7756629
17.974762 15.382634 2.7456322
17.981895 15.385961 2.921464
18.189983 15.464 2.5754838
13.278645 13.566745 2.8802443
13.262898 13.584152 2.4496465
18.476238 15.574281 2.6645274
16.478477 14.873772 2.3925688
13.264532 13.587412 2.6744199
13.410887 13.659514 2.4669054
13.463425 13.683804 2.6825693
14.875644 14.182899 2.6736987
14.9882 14.263486 2.6801612
16.463215 14.791909 2.853441
17.178379 15.07516 2.656126
18.394375 15.57896 2.8819163
18.462399 15.594804 2.899241
19.264275 15.875375 2.7448258
18.377436 15.558026 2.6733527
18.979477 15.763003 2.470149
19.186831 15.854985 2.5551291
16.177341 14.677754 2.7505364
17.343565 15.135773 2.9251485
14.990914 14.204363 2.7563672
17.978588 15.379908 2.2846241
18.175833 15.465849 2.4729908
20.147144 16.201279 2.1992109
15.188082 14.285179 2.7702937
16.354168 14.728101 2.7570715
16.384678 14.768058 2.4770787
16.765196 14.897428 2.6607869
17.368425 15.114031 2.560812
17.360514 15.112323 2.6528001
17.372902 15.121793 2.7550383
16.263603 14.686219 2.4689984
16.107735 14.65975 2.6452215
16.370407 14.726132 2.8501468
16.385015 14.762076 2.6441326
16.478773 14.787003 2.7530351
15.155108 14.286205 2.834914
16.865009 14.920759 2.6554503
18.23473 15.432085 2.6310191
13.364929 13.587464 2.873301
13.286959 13.565754 2.5718765
18.951973 15.736423 2.7388849
16.294678 14.764002 2.5344901
17.882275 15.353205 2.4825706
17.87628 15.35934 2.6648829
19.197157 15.863165 2.48859
17.151886 15.024042 2.6659393
15.463187 14.387695 2.7606611
15.478774 14.403032 2.668236
14.285301 13.977208 2.849936
14.360509 13.983605 2.6601422
14.349842 13.969441 3.0610998
14.375252 13.988276 2.8594177
14.784008 14.113937 3.036762
17.9643 15.376264 2.8598189
14.581933 14.027163 3.0627942
16.382055 14.757961 2.7472725
17.138472 15.034009 2.7741802
16.383055 14.764751 2.8607512
16.767807 14.900505 2.8460813
17.139187 15.035713 3.0190051
17.180222 15.055772 3.0155871
18.031582 15.388136 2.977257
18.227592 15.429528 2.9005425
19.555155 15.968187 2.9400289
19.813803 16.06435 2.9487569
14.018153 13.814157 2.9685967
14.076057 13.878551 2.7421019
15.160189 14.278152 2.9401398
15.353737 14.330307 2.9258111
16.271866 14.701864 2.7472296
14.047187 13.828661 2.5524106
14.079538 13.871923 2.3586662
14.095657 13.839887 2.8187587
15.074707 14.215926 2.8518057
16.944988 14.934011 2.6518798
15.879657 14.579303 2.2525425
13.310287 13.581332 2.9955878
13.723127 13.72359 2.9831977
13.781819 13.760798 2.7616401
15.962753 14.570462 2.9177375
17.267651 15.161186 2.8580375
13.746086 13.765491 2.4495592
13.762616 13.765184 2.8691385
13.781424 13.783005 2.6361606
14.008363 13.855621 2.8541412
14.080016 13.883055 2.6508012
15.500473 14.467817 2.7488651
