# .PCD v0.7 - Point Cloud Data file format
VERSION 0.7
FIELDS x y z
SIZE 4 4 4
TYPE F F F
COUNT 1 1 1
WIDTH 918
HEIGHT 1
VIEWPOINT 0 0 0 1 0 0 0
POINTS 918
DATA ascii
54.819572 29.549999 -1.1230344
54.806137 29.562706 -1.7907808
54.690678 29.570572 1.5754501
54.761257 29.344231 0.48337236
54.865982 29.381079 0.46181983
54.767681 29.421913 -1.5682024
54.919949 29.442616 -0.57783401
54.85302 29.428457 1.387381
54.73497 29.517799 -2.1217511
54.584236 29.455025 -1.6329527
54.737396 29.552864 -2.0661991
54.868355 29.435383 1.2527775
54.583408 29.472696 -2.1310766
54.79678 29.554466 -1.5184596
54.911625 29.371042 1.4803149
55.235325 29.487242 -0.13528903
54.726547 29.440523 1.965914
54.750435 29.53377 3.0202532
54.82597 29.557762 3.0400765
54.763798 29.526581 2.8681889
54.850353 29.537033 2.8897343
54.959522 29.534258 2.1887984
54.744926 29.550074 0.98660672
54.791153 29.569633 1.5254861
55.229603 29.751547 0.83872646
54.545639 29.434496 3.084682
54.644756 29.439781 2.9076545
54.771713 29.513077 2.9577034
54.187405 29.296219 3.2199278
54.632023 29.432325 2.5636168
54.156834 29.260696 3.1193595
54.403603 29.236019 1.8557407
54.879353 29.564583 -1.4455874
53.224854 28.910954 2.3146479
54.572765 29.45314 -1.4479108
53.517857 29.055964 2.2931244
53.293907 28.957088 2.5807636
53.241318 28.928841 2.4614902
53.567856 29.062046 2.6673636
53.721508 29.111891 2.9306412
53.379539 28.980667 2.5650051
53.844994 29.161999 2.7698965
53.350212 28.966995 2.4606204
55.106857 29.656431 0.72032619
54.72464 29.445272 2.4949088
55.045208 29.539082 -0.90536511
55.143906 29.63302 1.1641481
54.766537 29.426464 -1.1131899
55.145313 29.625477 0.57735717
55.174023 29.65316 0.824543
54.711311 29.428829 -1.4224662
55.026955 29.541319 -0.83845466
55.129639 29.529579 -0.139993
55.073891 29.545277 0.17269866
55.155083 29.602551 0.033051576
54.650158 29.680145 -1.7688785
54.596516 29.545996 -1.6546128
54.483868 29.473249 -1.725949
54.607666 29.550091 -1.7647618
54.688404 29.618069 -1.6786608
54.70565 29.576658 -0.99586135
54.712166 29.588232 -1.7078387
54.652142 29.42 2.4731803
54.091991 29.247967 2.051322
53.81654 29.146152 2.1545935
55.145744 29.597355 1.0659076
53.893009 29.150894 1.964654
53.937992 29.141129 1.8780335
53.958313 29.136066 1.9483322
53.604736 29.048258 2.2981031
53.318722 28.950272 2.278877
54.659424 29.406555 1.9449538
53.441948 28.927229 2.0457389
54.643951 29.426964 2.2409186
53.625374 29.044899 2.4787025
55.038776 29.535698 1.6521754
53.948303 29.133335 2.07686
53.842339 29.122139 2.5385599
53.656261 29.045282 2.5535908
53.433891 28.932274 2.165431
53.906395 29.166618 2.0962427
53.269718 28.913788 2.2620745
54.733078 29.573456 1.7349559
53.949516 29.135523 2.1660719
53.952045 29.141037 2.475657
53.373962 28.933002 2.3329449
53.48539 28.971598 1.894331
54.741192 29.583134 2.0546546
53.399807 28.950783 1.9728861
53.783306 29.079071 1.8619394
53.653946 29.035454 2.2467678
53.287636 28.913177 2.153827
53.657574 29.03817 2.3636293
54.059299 29.192102 1.8530658
53.936382 29.138536 2.2800939
53.68996 29.059439 1.9736389
53.392776 28.959091 2.1713817
53.369827 28.928482 2.1463652
53.391441 28.965313 2.2460239
53.865082 29.117054 2.0579462
53.359798 28.927193 2.249083
54.376785 29.313375 1.870223
53.87645 29.130848 1.873728
53.814972 29.148113 2.3526955
53.47163 29.022242 2.5487051
53.477493 28.993212 2.3544865
54.388489 29.300573 1.8024369
53.874027 29.120846 1.8055243
53.7733 29.08308 2.0571043
53.655666 29.029333 2.0512104
54.648682 29.436922 2.3722272
53.573097 29.009882 2.0671248
54.402409 29.352924 2.062573
53.682709 29.062836 2.1636045
53.581001 29.023056 2.2572858
53.473778 28.972132 1.9694151
53.366455 28.922728 1.9691136
53.376938 28.963573 2.3488913
53.79071 29.138201 2.8467822
53.644939 29.036306 1.975173
54.110107 29.251686 2.1736507
53.472786 28.98917 2.2510641
53.684151 29.102083 2.7367656
54.660305 29.432518 2.0652184
53.564964 29.008509 2.1539779
53.56472 29.026989 2.3455045
53.547428 29.029623 2.5474975
53.861977 29.128567 2.361443
53.768845 29.113682 2.6527526
53.600933 29.056196 2.1417625
54.059544 29.219772 2.453526
54.073212 29.213936 2.6498675
53.848858 29.12808 2.465498
53.768253 29.113832 2.4574559
54.367012 29.318462 2.1577337
54.064476 29.199287 2.07284
54.062313 29.217335 2.5591004
53.76931 29.104649 2.3509722
53.678528 29.06101 2.0683293
53.606155 29.061888 2.4437909
53.570061 29.030785 2.438122
53.48304 29.004871 2.4558671
54.074657 29.207064 2.1612146
53.88121 29.159925 2.3575103
53.868954 29.120937 2.1594486
54.073338 29.27076 2.6589265
54.05254 29.297005 3.1663716
54.08403 29.260721 2.5651171
53.976952 29.196949 2.557539
53.80125 29.157484 2.5702245
53.67939 29.065733 2.2614806
53.704163 29.144693 2.8134148
54.261559 29.356491 2.7606449
54.181301 29.340109 2.9857361
54.066414 29.268333 2.7189772
53.972427 29.194443 2.4516439
53.859283 29.202425 2.9642212
53.803879 29.151173 2.4528348
53.784199 29.174715 2.9584534
53.666367 29.076611 2.4477696
54.084915 29.248621 2.3102698
54.074112 29.211252 2.2596464
53.774681 29.162455 2.8263085
53.770958 29.111454 2.5508771
53.76815 29.096828 2.2624555
54.101513 29.253702 2.4485743
54.066406 29.214632 2.3593862
53.882191 29.158251 2.163255
53.771145 29.158852 2.6473992
53.769081 29.091984 2.1555376
53.680061 29.095947 2.6657095
53.671127 29.073011 2.3570788
53.59341 29.059067 2.3829236
54.388187 29.359375 2.1686537
54.285133 29.352812 2.613687
54.156563 29.302971 2.8563099
54.097424 29.25724 2.352011
54.0709 29.28639 2.8505056
53.943165 29.253857 2.8754506
54.278786 29.357176 2.4596443
54.250839 29.397959 3.0291481
54.661407 29.554424 3.0958385
54.744286 29.570782 2.251888
55.265999 29.757641 0.78048581
55.057114 29.675592 1.0541276
54.953197 29.650997 1.5895598
54.78056 29.548473 0.42610767
54.616425 29.552805 2.6752532
54.451263 29.471714 2.3572295
54.380409 29.475077 2.9159148
54.327904 29.451775 2.9056609
54.287926 29.39086 2.8966832
54.277321 29.383593 2.3305812
54.693356 29.588413 2.9414704
54.758862 29.568457 2.3661535
54.960712 29.499836 -1.1386298
54.62759 29.506695 3.0832253
54.644466 29.525803 3.1588678
54.493546 29.460459 2.8542876
54.365349 29.416304 3.099299
55.090633 29.534609 0.28613514
54.638718 29.615227 3.2123477
55.036045 29.539412 0.96604902
54.569252 29.440102 2.7374556
55.035835 29.617258 2.0453439
54.880688 29.442413 -0.6217714
54.655254 29.420387 1.7495655
55.054222 29.542696 1.1890049
54.988323 29.65337 2.4930811
54.493828 29.457401 2.5580633
54.600254 29.451525 1.4728539
54.857368 29.584051 2.6380301
54.807167 29.534246 2.6183736
54.579338 29.516758 3.2865865
54.645866 29.316427 -0.30454504
54.566681 29.487513 2.8562539
54.854294 29.433065 -0.72940785
54.993805 29.654362 2.5281789
54.622589 29.549044 3.1682298
54.836033 29.436371 -0.44155389
54.395699 29.451454 3.0781202
54.501102 29.468761 2.6584935
54.751938 29.520004 2.3441758
54.465317 29.472383 2.9758282
53.399776 28.959059 2.0600092
54.590191 29.462835 2.2751601
54.491505 29.451475 2.4483483
54.874237 29.570324 2.7522535
54.788567 29.521008 2.7292762
54.825378 29.437519 -0.25312448
54.392906 29.356281 2.2695506
54.85368 29.533049 2.1613412
54.478203 29.472294 3.1635616
54.851814 29.422384 -0.0072300411
54.826748 29.425318 0.7464419
54.377731 29.39015 2.9635084
54.352779 29.328596 2.571898
54.490063 29.481487 3.0518417
54.934437 29.611063 2.6391251
53.474289 28.976822 2.1587629
54.55933 29.497068 3.051635
54.754498 29.435583 1.5702178
54.666622 29.420292 1.5521009
54.869476 29.569973 2.4768071
54.577747 29.459101 2.4563391
54.386883 29.403673 2.8615894
54.584717 29.494568 2.9470572
54.85413 29.519386 2.2506652
54.482098 29.450127 2.7591085
54.667515 29.513397 2.7588949
54.879436 29.568188 2.0577762
54.904285 29.554279 1.2681546
54.945904 29.598991 2.5599322
54.389568 29.396152 3.143826
54.564945 29.494488 3.1784863
54.7542 29.516758 2.450367
54.850426 29.530525 1.858524
54.385849 29.39185 2.7666035
54.579712 29.437305 2.8178148
55.049694 29.619406 1.9402751
54.669151 29.505936 2.6661544
54.363747 29.319925 2.2518401
54.966129 29.609446 2.3700821
55.05761 29.585793 1.3584354
54.889423 29.558104 1.7623285
54.594643 29.46352 -1.1130874
54.888699 29.552502 -0.74433082
55.026329 29.535856 0.67104357
55.023766 29.516817 1.5151824
54.774277 29.557877 -0.32856762
55.039528 29.542122 0.72576016
54.774731 29.547052 -1.3070492
54.818153 29.556839 -0.25683308
54.816757 29.546141 -0.68928003
55.016399 29.67329 0.86778116
54.7967 29.572662 -0.8287577
54.892632 29.605854 0.14261271
55.009686 29.682529 0.60285771
55.010365 29.648859 -0.10484494
54.068851 29.198784 1.9645978
54.612247 29.457266 0.45909148
55.029728 29.663368 0.84547371
54.759693 29.434086 -0.43336231
55.04953 29.535683 -0.14629018
55.050716 29.595434 1.6610488
54.593964 29.492914 0.32450008
55.052742 29.537792 0.46765661
55.057964 29.540039 -0.020251591
55.057545 29.538639 -0.22522974
55.027782 29.544781 1.0463325
55.045712 29.523987 0.85288817
55.048954 29.577574 0.36152843
54.977131 29.60713 2.256947
54.975479 29.593445 2.0516829
54.870197 29.571892 2.2613704
55.051819 29.607229 1.7589061
54.894268 29.561274 0.46099591
54.677471 29.458256 0.95820469
54.678802 29.473602 1.6586107
54.688408 29.460884 0.059184376
54.757133 29.514055 1.9683802
54.877808 29.563953 1.9622405
55.056335 29.588112 1.5596976
54.984943 29.569027 -0.438723
54.599503 29.453625 1.7484241
54.745331 29.516447 2.2754297
54.954044 29.524078 -0.83259469
54.671795 29.413961 -1.1361004
54.847969 29.523766 2.0666084
54.976536 29.592916 2.159255
55.056 29.581066 -0.43668556
54.889969 29.557953 0.96264601
54.980644 29.578686 1.6616472
54.670403 29.425947 1.4572966
54.968163 29.581947 1.7697455
54.870033 29.509418 0.958193
54.900692 29.556246 1.1377555
54.675587 29.461187 1.3624623
54.863728 29.518784 1.6610909
54.89315 29.562471 0.28221706
54.89362 29.561239 1.0424052
54.978119 29.526649 1.2508576
55.049145 29.607407 -1.0348479
54.678776 29.454075 1.0573382
54.565357 29.412115 2.160764
54.787991 29.546021 3.0142362
54.546326 29.416363 2.3569643
53.577721 29.0672 2.74143
54.685223 29.457994 1.2704046
54.658882 29.601095 -2.1415358
54.670235 29.472307 1.5565779
54.679802 29.458555 1.1682807
54.953789 29.528921 0.25453568
54.935558 29.400299 0.39367476
54.954933 29.52861 0.36115479
54.95969 29.520765 1.3647919
54.967663 29.529936 0.1611423
54.956562 29.525805 0.45126855
54.96397 29.529984 0.66118079
54.932182 29.442347 0.010174835
54.490196 29.380119 1.7589315
54.686668 29.465717 1.4585297
54.466156 29.468613 -0.035428803
55.17749 29.703478 0.76511645
54.482834 29.471514 0.057241466
54.481041 29.488729 0.45802006
54.475567 29.304092 2.0601695
54.558556 29.442635 2.955121
54.57476 29.470358 2.5507333
53.975807 29.166012 2.0639575
54.958714 29.527637 0.56203169
55.052433 29.582794 1.0623307
54.692944 29.461529 -0.14092235
54.773624 29.480577 -0.83620495
54.76231 29.501146 -1.4257336
54.759708 29.485283 -1.3254298
54.140148 29.223106 1.873197
54.47282 29.470608 2.1507425
54.562935 29.405834 1.9534963
55.033775 29.540504 1.2458377
54.95031 29.467634 -1.3784431
54.961128 29.529436 -0.73948699
54.494198 29.462988 -0.25443289
54.859722 29.529886 1.9718071
55.048687 29.602121 -0.93577737
55.053555 29.587805 0.96611851
54.561359 29.425489 2.2680981
54.661217 29.416023 -0.93344343
54.980705 29.568914 -0.14027463
54.991653 29.572521 -0.045913141
54.963085 29.527691 -0.93313396
54.65897 29.419245 -1.2224191
54.97176 29.582886 -0.94285214
54.66927 29.421328 -1.3306614
54.983574 29.588081 -1.0351491
54.983822 29.522335 -1.4082476
54.661827 29.425257 -0.2468147
54.658504 29.415483 -0.34455824
54.964954 29.529755 0.065666236
54.962666 29.522892 -0.2354686
54.981762 29.528036 -1.2267377
54.692905 29.463947 0.86382514
54.562916 29.389811 -0.63525969
53.969688 29.181454 2.3547721
54.48938 29.466732 0.56489301
54.655735 29.418896 0.86978048
54.481346 29.476482 -1.2167573
54.477589 29.386164 2.0605891
54.457962 29.385828 2.3660338
54.482822 29.472759 1.566281
55.144077 29.600473 0.98152989
54.890991 29.562014 -1.0432947
54.473804 29.468035 -0.63958865
54.904503 29.554588 1.4613025
54.956177 29.529465 -0.54203039
54.962677 29.527164 -0.4292551
54.560013 29.403242 1.860491
54.441616 29.457102 -1.3149344
54.772579 29.492323 1.4558508
54.768967 29.489412 1.3601174
54.770443 29.48214 1.1604729
54.412361 29.539919 1.9827538
54.84668 29.520815 2.4355683
54.960567 29.5285 0.85833168
55.127693 29.639801 0.69079465
54.476852 29.468464 3.2451627
54.752277 29.426956 -0.82494199
54.976254 29.59474 1.9503962
54.979618 29.589304 1.8566139
54.987473 29.569164 0.16531937
54.453995 29.441019 3.1768696
54.955765 29.600143 2.4739826
54.766342 29.506817 1.8628138
54.547161 29.43055 2.4558992
54.561039 29.422243 2.6542642
53.963997 29.198446 2.6582689
54.690254 29.46382 -0.23923236
54.57098 29.475065 2.6582165
54.755726 29.514801 2.0615115
54.603783 29.460653 -1.7354451
55.050529 29.581884 0.06139911
54.713135 29.599398 -1.9700555
54.507664 29.464947 -0.75081688
54.479397 29.507202 -0.42941454
54.465454 29.310801 2.2591925
54.478096 29.49119 -1.8436484
54.893322 29.555515 1.6866456
53.650986 29.026793 2.1640155
54.357433 29.326759 2.3586686
54.84808 29.511116 -1.0379978
54.468597 29.45722 -1.399695
54.683228 29.457808 0.77054429
54.863068 29.51417 -0.92528594
54.871956 29.510788 -0.73506147
54.186447 29.262314 2.2558527
54.656704 29.423487 0.16656993
53.862869 29.126047 2.258517
54.758739 29.424438 1.363656
54.694557 29.584557 2.3655591
54.760525 29.520798 2.5749865
54.773605 29.428066 1.6770566
54.479931 29.382233 1.9596983
54.683609 29.492136 2.2686777
54.680908 29.476 1.9717315
55.041904 29.612484 1.8616165
54.991013 29.571192 -0.23702258
54.746262 29.423275 0.38629347
54.286003 29.316662 2.7693119
54.688873 29.471176 -2.1283932
54.986485 29.569704 0.86091793
54.676022 29.47076 1.7616796
54.745071 29.5509 2.5626068
54.14782 29.224827 2.3466389
54.005539 29.254763 2.5772071
54.960045 29.700409 2.1266134
54.873428 29.505711 -0.24540175
55.151562 29.631857 0.76688004
54.142757 29.217842 1.6802703
54.390057 29.486115 -1.4341815
54.767998 29.495943 1.6616873
53.678932 29.08407 2.5594049
54.564171 29.393528 -0.43804997
53.98764 29.253654 2.6469014
54.958736 29.525473 0.76121652
54.651871 29.422468 0.75864577
54.947552 29.410053 -0.75261056
54.781593 29.442369 -1.3965679
54.269577 29.284943 2.1619287
54.985973 29.569866 -0.33882886
54.865852 29.576214 2.3583627
54.468922 29.380123 2.2673018
54.157482 29.231415 2.1623497
54.685764 29.494343 2.3563046
54.58844 29.456074 1.6772425
54.88493 29.577169 -1.2338195
54.582653 29.464481 2.0676849
54.562107 29.38872 -0.53599793
54.961441 29.531307 -0.035187725
54.689217 29.596046 1.689203
55.042362 29.524933 0.041121338
54.359024 29.331055 2.4651134
54.48719 29.382099 1.8611912
54.577034 29.493629 0.15203142
55.137218 29.592793 -0.43472198
53.961609 29.236843 2.972522
54.466385 29.376637 2.1575587
55.046524 29.536068 -0.54800832
55.050175 29.582554 -0.23086834
54.885445 29.57486 -1.7388507
55.055729 29.585194 -0.13746038
53.780647 29.106823 1.770821
55.053638 29.592026 -0.53864378
53.979275 29.178698 2.2599671
54.593277 29.457695 1.9572984
55.05798 29.582209 -0.33615682
54.564758 29.394073 -0.037383582
54.876408 29.563494 1.8636411
53.979706 29.169317 1.956706
54.672813 29.485243 2.0498528
54.498047 29.487627 1.3452463
55.042919 29.601734 2.3890896
55.014713 29.654884 1.9803823
54.979897 29.523811 -1.9279811
54.892941 29.556517 -0.028074602
54.979305 29.569946 -0.53906345
54.879456 29.564718 -1.5365562
54.772007 29.56908 2.7247453
54.961708 29.533049 1.5655687
54.565201 29.395472 -0.93433541
54.652393 29.506561 2.8598413
53.769142 29.084967 1.9646252
54.751602 29.565397 1.8651499
54.173553 29.282053 2.5606792
54.164307 29.228687 2.0732379
54.751247 29.430958 0.14327207
54.956985 29.50489 1.6457438
54.494736 29.464359 -0.16046217
54.88446 29.529127 2.3407848
54.134415 29.233988 2.5576699
54.949524 29.533844 2.0427001
54.956478 29.671242 2.3536248
54.752663 29.505543 2.1547337
54.770824 29.496441 1.7658261
54.578625 29.469706 2.1636682
53.958336 29.227001 2.8373332
54.694584 29.601805 1.3646407
54.954433 29.527477 1.05786
54.992294 29.569248 0.058026351
54.988434 29.581472 1.3647823
54.447052 29.487513 1.7594187
54.976875 29.433023 0.6371724
53.971298 29.21138 2.7486768
54.562771 29.391808 -0.24399191
54.874882 29.564369 2.1577687
54.562214 29.39072 -0.13734236
54.560638 29.39418 0.059627011
54.545193 29.467031 0.072514147
54.858265 29.518314 1.7488518
54.680786 29.46377 -0.84468758
54.747593 29.425993 -0.73501396
54.965015 29.503708 -1.5630955
54.689751 29.580051 2.8606038
55.142807 29.606215 0.88939089
54.72345 29.442879 -1.2300166
54.749981 29.428984 1.267928
54.536453 29.484819 1.2572174
54.448544 29.469723 -1.1419752
54.98801 29.564886 0.56051087
54.570347 29.45508 -0.55462897
54.539013 29.473391 0.64623708
54.568264 29.453201 0.84746355
54.172672 29.273804 2.4541917
54.571968 29.46936 0.76978016
54.854462 29.415049 -1.0765094
54.175049 29.268875 2.3665025
54.773102 29.491039 -1.2385942
54.863998 29.572657 1.5661148
54.165901 29.227036 1.9747126
54.382797 29.36097 2.3509538
54.588131 29.463102 1.1458317
54.375668 29.504251 -1.3041651
54.857204 29.525671 -1.5394527
54.563828 29.392759 -0.3396703
54.304516 29.354122 2.5764632
54.676186 29.465302 -0.93334496
54.565159 29.476271 0.9418447
54.492527 29.3048 1.9549781
54.669296 29.505266 2.9616475
54.567608 29.476053 2.7684627
54.390121 29.290585 1.6799818
54.86692 29.506847 -0.63360804
54.267662 29.276611 1.9767803
54.990177 29.566502 0.46110797
54.754959 29.430555 -1.0431864
54.238625 29.244993 2.1727443
54.949192 29.52799 -1.0238566
54.774525 29.431602 1.1824802
54.759315 29.647417 1.4323707
54.671982 29.483461 -1.1379766
54.833839 29.501314 -2.1890271
54.992538 29.567591 0.35893971
54.265278 29.273729 1.8782897
54.552738 29.449104 1.520869
54.763973 29.431259 1.4581044
54.968136 29.597271 -1.5345579
54.155468 29.233305 2.4545238
54.558167 29.471809 0.25836447
54.593014 29.47193 -0.14518067
54.977478 29.500889 -1.7181902
55.124725 29.536169 0.19241284
54.61195 29.5502 1.4775151
54.878551 29.576502 -1.6312344
54.360317 29.314148 1.9666154
54.388142 29.388887 2.6389389
54.38092 29.364552 2.5667808
54.950466 29.437691 1.112245
54.690708 29.574816 2.7949209
54.188919 29.265383 1.9614551
53.590233 29.068768 2.5694401
54.185204 29.258493 2.1640925
54.974045 29.526377 1.4622169
54.969276 29.530058 1.1562128
54.531754 29.613605 1.51753
54.875874 29.525019 -1.7019979
54.772045 29.481783 -0.036951881
54.692753 29.461649 0.65735245
54.186184 29.256321 2.0719666
54.770855 29.570353 2.4550457
54.95789 29.530125 0.96146387
54.833637 29.502705 3.1059527
53.975819 29.172266 1.8569762
53.871078 29.195431 2.8635418
53.885971 29.161987 1.8643795
53.87075 29.174953 2.6429749
54.783905 29.582123 2.6425095
55.038441 29.538666 0.57956076
54.662552 29.418148 1.3648971
54.890144 29.557648 1.3655566
53.565662 29.005154 1.8824309
53.882862 29.177515 2.5484157
54.865208 29.521723 1.3603973
54.17577 29.26012 1.8699782
53.886162 29.172884 2.4531014
54.88343 29.56554 -0.24522457
54.56348 29.390423 -0.83776534
53.565842 29.00699 1.9761914
53.361355 28.925314 2.0606673
54.687763 29.465813 -0.63163954
54.76886 29.477835 0.96008974
54.875702 29.565659 -0.3274591
54.657436 29.421366 -0.73361039
54.983929 29.573168 -0.73887575
54.886604 29.570492 -0.1403057
54.870941 29.512939 1.1591794
54.771233 29.480293 0.16684391
54.768024 29.496878 -1.1348876
54.884991 29.568449 -0.54572117
54.866825 29.50675 -0.44179013
54.867123 29.507221 0.057167966
54.663898 29.425306 1.1629456
54.679062 29.473675 -1.5268199
55.045712 29.58112 0.86127657
54.97823 29.583714 -0.83768529
55.049324 29.581789 0.46407795
54.986248 29.564709 0.6632669
54.894371 29.560074 -0.85050553
54.900345 29.561539 -0.42435557
54.773251 29.481045 -0.33742031
54.77174 29.488647 -0.93720615
54.775326 29.486567 0.36668533
54.870022 29.505722 0.46306771
54.866043 29.506775 -0.82968205
54.657188 29.320488 -0.12804933
54.765381 29.41444 -1.3373597
54.551888 29.483995 -0.021372061
54.7687 29.512152 -1.526466
54.763325 29.429262 -0.02497595
54.757095 29.428785 -0.24428773
54.955643 29.52706 -0.63779056
54.870663 29.509205 0.16005722
54.660282 29.423521 1.2614155
54.771908 29.475269 1.262991
54.795486 29.569658 0.88759738
54.577011 29.476078 -0.62678438
54.58411 29.462166 -0.43837959
54.698143 29.464102 0.46269277
54.777836 29.481457 -0.6353544
54.680458 29.46319 -0.44315836
54.77248 29.477598 -0.43801713
54.659901 29.422712 0.35355526
54.738914 29.432453 -2.0980687
54.667023 29.427069 0.55889618
54.873756 29.509104 0.76541686
54.664398 29.423464 0.65974104
54.770954 29.481529 -0.7356714
54.592102 29.460005 -0.83872986
54.445076 29.459017 -0.55359399
54.752522 29.434498 0.65762472
54.749126 29.43441 1.0503258
54.78577 29.555656 -1.2668139
54.923523 29.396994 -1.3001997
54.581711 29.469814 -1.9611731
54.53941 29.454891 0.56183594
54.379978 29.503498 -1.1904591
54.492718 29.381191 1.6579132
54.384869 29.368727 2.4630489
54.39883 29.370958 1.9712068
54.733772 29.445013 2.3602343
54.406437 29.404579 1.6996875
54.375515 29.313139 1.5726576
54.75473 29.439434 1.7464888
54.655769 29.404192 1.8705015
54.565002 29.40497 1.7644697
54.149635 29.281252 1.6955082
54.6824 29.481588 -1.4418592
54.267826 29.298626 2.4467978
54.969437 29.676085 1.6949912
54.566521 29.456545 -1.0564274
54.729267 29.432749 2.0266054
53.973564 29.172731 2.1645627
54.274265 29.288605 2.261678
54.260902 29.304302 2.5661907
54.268196 29.276159 2.0629284
54.45853 29.489382 1.6720169
54.463238 29.601622 0.9257437
54.487125 29.475073 -0.8608259
54.469505 29.397572 2.4598794
54.49588 29.475117 0.16040428
54.430733 29.584091 0.19118886
54.480335 29.419811 3.0651941
54.568977 29.454466 -0.9473502
54.484299 29.574947 0.44826844
54.269001 29.296305 2.355063
54.871231 29.518078 -1.6161255
54.636475 29.594862 1.4360639
54.510635 29.480042 2.0268471
54.813564 29.597061 1.1212802
54.152798 29.231655 2.253583
54.667328 29.546026 0.56418192
54.778522 29.48049 0.66849637
54.670441 29.382332 2.7927885
54.868248 29.523451 2.5518212
54.771687 29.495638 1.5589012
54.67263 29.499462 2.5618129
54.805138 29.607887 0.76985145
54.464775 29.464657 2.2799048
54.726048 29.613701 1.0927813
54.248924 29.241823 2.0631275
54.673286 29.595257 -0.034385923
54.60146 29.463028 1.8443618
54.657185 29.42148 2.1585455
54.465755 29.312935 2.1427474
54.982971 29.574947 1.4674808
54.867271 29.507441 0.56274265
54.73608 29.568398 2.1493621
54.884136 29.569832 0.64135295
54.682171 29.577604 2.6390796
54.571438 29.469461 -0.75531733
54.651051 29.587332 0.40662053
54.679279 29.467726 0.37048948
54.596607 29.4776 1.3426715
54.572052 29.466629 2.3746557
54.900242 29.665842 1.3938839
54.872337 29.51368 -0.03821975
54.774975 29.481398 0.86645406
54.865513 29.508677 1.0557209
54.893543 29.561922 -1.131742
54.770603 29.477884 0.76497626
54.787525 29.577297 0.12985477
54.760746 29.610842 0.64395756
54.88483 29.570795 0.75038928
54.77047 29.576914 -0.014485853
54.451012 29.462017 1.8569852
54.667324 29.561596 0.8906098
54.763985 29.58205 0.35700139
54.80978 29.581524 1.3677895
54.696526 29.460087 0.55959499
54.980473 29.582371 1.5602874
54.464878 29.401857 2.5541613
54.259846 29.30723 2.6649802
53.662552 29.031406 1.8650817
55.054359 29.650801 0.64696044
54.560535 29.455044 -0.22373949
54.939011 29.522945 2.4678731
54.684715 29.463669 -0.53535104
55.052345 29.585501 1.1560789
54.882828 29.561415 0.3424772
54.876797 29.571039 2.5352652
54.562817 29.432669 2.5468352
54.878056 29.553761 0.56032586
54.989807 29.574671 1.1583703
54.901009 29.560188 0.86582541
54.876972 29.521935 -1.1384597
54.656471 29.426435 -0.13347887
54.97327 29.596272 -1.2339283
54.767696 29.478333 -0.23291299
54.778847 29.481432 -0.14370878
54.680851 29.47744 1.8657235
54.791485 29.56588 1.6457286
54.873138 29.562912 -0.62186563
54.667053 29.489832 2.4593582
54.661022 29.425013 0.45872098
54.557716 29.416977 2.0646563
54.657787 29.41581 1.6608179
54.467537 29.420862 2.6647563
54.473412 29.423769 2.9517617
54.99403 29.567858 1.0597298
54.885231 29.574512 -0.95432514
54.298355 29.3361 3.1031482
54.85675 29.601587 -1.8372319
54.179268 29.28684 2.6538
54.167789 29.30331 2.7251866
54.987968 29.570496 0.95909995
54.67778 29.468893 -0.3343305
54.863365 29.505833 -0.33716378
54.988194 29.569815 0.75570565
54.771019 29.480137 0.058095176
54.661339 29.422583 1.0652457
54.669292 29.415003 -1.0291566
54.974087 29.590954 -1.1274185
54.6586 29.419065 -0.43724009
54.744167 29.435154 0.85481173
54.661846 29.419538 -0.53466487
54.748997 29.426155 0.57296991
54.870407 29.511471 -0.53790337
54.872692 29.504383 -1.2375525
54.865021 29.509199 0.86404711
54.979389 29.600096 -1.4391705
55.047356 29.582489 0.56352872
54.677597 29.475103 -1.735652
54.752975 29.424515 -0.64692748
54.752739 29.432365 0.23474728
54.657566 29.421661 0.055502057
54.77327 29.504107 -1.9658651
54.669544 29.417124 -0.83952427
54.753361 29.428486 0.055672433
54.776104 29.476694 0.55868798
54.867428 29.509636 -1.4364867
54.713772 29.429115 -1.845602
54.861732 29.506437 -1.8266433
54.974651 29.602171 -1.3359631
54.672665 29.457018 0.25905952
54.772358 29.473993 0.2619763
55.058468 29.593204 1.4586152
54.664459 29.425449 0.25883216
54.986794 29.569199 0.26328638
55.045559 29.583633 0.75776958
54.739262 29.428343 0.75320709
54.669853 29.47035 -1.3289578
54.890041 29.560087 -1.3188646
54.78307 29.492821 -1.8474051
54.667309 29.48521 -1.9387715
54.689156 29.461439 0.16268234
54.681644 29.411928 -1.6670226
54.775196 29.48139 -0.54014909
54.683502 29.457916 -0.73793352
54.677589 29.471849 -1.0399185
54.67543 29.485703 -2.0450211
54.687679 29.462248 -0.040499747
54.77729 29.515945 -1.7422087
54.897514 29.552923 0.043420918
54.658611 29.4209 -0.035035063
54.76733 29.493923 -1.0389322
54.769081 29.517143 -2.0378222
55.054657 29.581463 -0.040448379
54.664307 29.493166 -1.8261756
54.867229 29.507566 1.2589011
55.055813 29.584263 1.2624593
54.769249 29.477276 1.0645266
54.872478 29.510393 0.26058516
54.982296 29.571899 1.2619298
54.941315 29.521688 1.7610795
54.866222 29.514557 1.5557374
54.748482 29.431519 -0.3416501
54.958092 29.528063 -0.3368367
54.743637 29.433842 -0.12633774
54.760239 29.495794 -1.6643425
54.775185 29.482019 0.45735949
54.642021 29.416304 -2.1581426
54.668003 29.480385 -1.2366136
54.810276 29.443567 -1.9213208
55.045528 29.583181 0.65653831
54.685326 29.420555 -1.7302063
54.873085 29.565327 -1.9603018
54.875847 29.51334 -0.14085752
54.872772 29.508732 0.65704066
54.584923 29.466503 -2.0468614
54.789383 29.504461 -2.1935351
54.749538 29.431366 -0.55925286
54.436195 29.490816 -2.164304
54.644238 29.551136 -1.8503215
54.578831 29.472418 -1.2351481
54.567078 29.461323 -0.32921094
54.753887 29.426367 0.96237719
54.871723 29.505177 0.36367369
54.751816 29.429625 0.4678334
54.869549 29.519537 -1.3399023
54.958256 29.529346 -0.14038214
54.978779 29.602634 -1.6311102
54.661442 29.419996 -0.63279146
54.871994 29.672422 -0.90975243
54.870857 29.51498 1.473032
54.917789 29.427971 -0.17554232
55.057331 29.533417 -0.3372747
54.65073 29.43606 -2.2446265
54.662506 29.422976 0.95958591
54.838284 29.434977 -0.78935397
54.796558 29.557375 -0.1273859
54.853157 29.394268 0.15029925
54.983212 29.522169 -1.8800474
54.776501 29.561672 0.60580391
54.859642 29.535442 -1.9135792
54.760662 29.434446 -0.93875724
55.043751 29.750256 0.74381566
54.66774 29.488058 -1.6364067
54.565132 29.495193 -1.8336952
54.725193 29.427183 1.8349271
54.577442 29.488392 -1.3550093
55.031937 29.53726 0.39253595
55.022621 29.537323 1.3355632
53.26395 29.001734 2.3303826
54.417011 29.433342 1.8344731
54.397839 29.381935 1.7991726
54.375427 29.46212 2.3624511
54.409351 29.465618 1.5998744
54.405048 29.461264 1.8979485
53.897404 29.157316 2.2590661
53.475712 28.97471 2.0616512
53.308899 28.963444 2.0623808
53.68758 29.070507 1.8765941
53.718472 29.115402 1.6935244
53.259155 28.945566 1.8874865
54.6782 29.486214 2.1688716
54.742363 29.574141 1.9752262
53.864632 29.117111 1.9724377
53.629166 29.046104 1.7810745
54.690323 29.563503 1.7941332
54.604324 29.460712 -1.5128689
