# .PCD v0.7 - Point Cloud Data file format
VERSION 0.7
FIELDS x y z
SIZE 4 4 4
TYPE F F F
COUNT 1 1 1
WIDTH 1004
HEIGHT 1
VIEWPOINT 0 0 0 1 0 0 0
POINTS 1004
DATA ascii
37.725933 22.640627 -2.8953435
37.776882 22.491894 -2.9007146
37.708294 22.706779 3.872484
37.8951 22.289059 3.7845416
37.761417 22.665119 2.4475024
37.861862 22.522453 -2.7162156
37.849934 22.595726 -2.7603154
37.601448 22.782892 -2.7733042
37.939846 22.469917 -2.3383384
37.745396 22.522751 -2.8414094
37.713608 22.62249 -2.8100302
37.874149 22.3232 -2.6617184
37.695229 22.633385 -2.4378991
37.81535 22.278692 1.1569604
37.71413 22.596619 0.16319215
37.746883 22.316315 0.86879098
37.680355 22.642363 0.51713324
37.565628 22.77211 0.96646583
37.5718 22.844833 0.19758175
37.687035 22.592512 0.85773873
37.720024 22.373343 0.7126472
37.711468 22.610743 0.66702187
37.592461 22.930563 0.4703154
37.505692 23.009005 0.15666412
37.470844 23.000767 1.5988948
37.513363 23.063593 1.8804122
37.511662 23.007551 0.43633658
37.835804 22.877838 -0.9718225
37.604683 22.737045 -1.3559124
37.501301 22.843771 -1.2587376
37.566254 22.72267 -1.7183548
37.599506 22.982588 0.65292168
37.834148 22.924305 2.0115991
37.74889 22.791327 1.1615965
37.678253 22.481848 0.8424238
37.646862 22.711369 1.4414945
37.799294 22.423698 0.95427388
37.75848 22.69191 2.5664949
37.796497 22.403114 1.3595686
37.582634 22.765564 3.7170365
37.610264 23.06517 1.9471537
37.590454 22.916262 0.65788507
37.703678 22.695053 1.6435691
37.57214 23.075663 2.2790732
37.717262 22.598602 2.7343745
37.600746 22.833534 1.270066
37.798107 22.506029 1.3538526
37.834965 22.664783 -1.150045
37.832405 22.668394 -0.57910359
37.830463 22.692646 -0.93748844
37.678211 22.681278 2.3501778
37.757881 22.325052 -1.9281101
37.776211 22.426826 -2.1508253
37.705318 22.587982 1.3746996
37.704258 22.69734 -1.5403683
37.70039 22.599024 -2.1346653
37.798664 22.499649 0.65759331
37.764149 22.690224 0.25821614
37.697823 22.703711 -1.6387116
37.800632 22.41337 -0.33272195
37.706772 22.709099 -0.64467585
37.682709 22.680492 2.8348229
37.598263 22.914463 1.570825
37.7617 22.693356 0.36481079
37.745514 22.602211 -2.4448628
37.8554 22.361048 -2.4335554
37.654682 22.781242 -2.8193383
37.597527 23.07058 1.6751873
37.757523 22.414118 3.0771585
37.762199 22.694712 0.45750406
37.800655 22.507212 0.56141847
37.762806 22.497156 -2.7430353
37.795906 22.500721 -0.038789846
37.694447 22.799826 -0.4370659
37.69883 22.804502 0.065555908
37.615826 22.91036 -0.32411036
37.794315 22.499014 -0.23619086
37.786018 22.491684 -0.74158603
37.792351 22.685162 2.6710465
37.800728 22.504177 0.45433095
37.739529 22.885927 0.9605487
37.675095 22.713428 2.9525001
37.601517 23.065323 1.5152864
37.829124 22.658321 1.2510724
37.690311 22.802164 -0.73582208
37.709106 22.62055 -2.7506704
37.678112 22.335993 3.2359004
37.794704 22.496187 -0.44244924
37.688618 22.697195 1.3558013
37.805435 22.320282 -2.1894705
37.835129 22.673037 0.86555254
37.791267 22.497158 -0.83659643
37.596931 22.833082 0.25533739
37.840195 22.679871 1.3608476
37.701889 22.814035 0.75999069
37.747219 22.521204 -2.6336284
37.576603 22.804234 -2.6713076
37.692116 22.80159 -0.63269216
37.665764 22.577862 3.0691118
37.702805 22.697927 -2.3441103
37.749802 22.600658 -2.0320041
37.800484 22.502565 0.75697011
37.793274 22.600891 1.4510537
37.794514 22.497368 -0.14230065
37.77401 22.591311 -1.0396786
37.651451 22.786999 -2.6307445
37.57975 23.063215 1.4566803
37.801956 22.414867 -1.5442668
37.692928 22.704912 1.5534737
37.705986 22.630312 0.35076764
37.831909 22.671511 -0.45370746
37.760075 22.692816 -0.43757337
37.694138 22.426718 -0.011294521
37.78046 22.596655 -0.33855605
37.872448 22.686302 0.77363944
37.802689 22.500376 1.1601708
37.673294 22.863091 3.9044528
37.617424 22.911133 1.4447279
37.798885 22.504494 0.36504751
37.80014 22.412985 -0.93425125
37.776413 22.59934 -0.44277504
37.600002 22.991148 0.7542268
37.77375 22.403605 -2.4380884
37.784737 22.491646 -1.6391701
37.753178 22.786732 2.1614397
37.60815 23.060413 2.0509164
37.927376 22.67593 1.7387186
37.930645 22.708044 1.8131952
37.700657 22.707649 -0.73975819
37.698338 22.688614 -0.92680508
37.841934 22.561947 3.053932
37.565083 22.79224 3.0363481
37.79953 22.412401 -1.0397743
37.843307 22.673283 -1.3162911
37.804337 22.414131 -0.14220212
37.753613 22.792433 -0.93769652
37.797749 22.41502 -0.53980494
37.798019 22.414549 -0.64040595
37.798676 22.409763 -0.23492233
37.599117 22.985117 -0.74241078
37.777195 22.69029 1.5602745
37.739704 22.574633 -2.5310855
37.82637 22.898848 -0.6355691
37.834904 22.590334 -0.045357186
37.693169 22.602629 1.2784858
37.700703 22.806414 0.56602353
37.756329 22.994804 1.5561517
37.756199 22.791004 1.8621596
37.759895 23.002207 1.657735
37.596146 22.990925 -0.039655734
37.59716 22.987988 0.46109852
37.870674 22.674295 1.5526501
37.841328 22.578403 0.95026296
37.766174 23.011044 2.484951
37.758011 22.559792 3.8420274
37.602333 22.908846 -1.5337918
37.699535 22.703123 -1.8404206
37.810558 22.414793 3.811815
37.680069 22.682339 -2.2232268
37.692928 22.703316 -2.0215054
37.683636 22.680475 -2.132472
37.768494 22.79166 2.5919611
37.7495 22.771318 2.2752414
37.785847 22.691256 3.0548136
37.619282 22.794336 -2.4977636
37.71862 22.692642 3.6038475
37.688602 22.664465 -2.6644754
37.668381 22.816582 3.6942956
37.678722 23.067398 1.4714274
37.785614 22.407158 -1.9248614
37.605846 22.983578 0.8702963
37.759876 23.009836 1.7630265
37.829636 22.704636 -0.21903345
37.553234 22.624779 3.1848674
37.802349 22.429672 3.2429562
37.688789 22.902143 0.96270478
37.692287 22.903585 0.76289576
37.862076 22.416395 -0.44003126
37.837364 22.581551 1.0565524
37.604008 22.917746 -1.4291924
37.836399 22.678837 -0.13596988
37.687836 22.779129 3.2684014
37.852367 22.906057 -0.83124065
37.659641 22.900599 -1.5392079
37.664677 22.986441 2.8755703
37.784779 22.595884 -0.14070407
37.762547 22.697392 0.55676848
37.66608 22.982006 -0.63677973
37.689644 22.793304 -1.3432854
37.840359 22.678207 -0.74882019
37.790245 22.600481 1.2602217
37.781612 22.491838 -1.9345276
37.745296 22.676588 2.8443332
37.594936 22.920275 -1.3473778
37.612392 22.805058 -1.7316552
37.778141 22.698812 1.8613461
37.773224 22.692287 2.9432092
37.659019 22.877382 3.2416844
37.673241 22.903078 -1.0389999
37.796486 22.491835 -0.63911355
37.610073 22.844776 3.4472718
37.597984 22.878418 -2.3056259
37.86377 22.475143 -1.5376941
37.837967 22.582228 -0.34040806
37.670174 22.978941 -0.23632628
37.690903 22.803013 -0.8440221
37.613304 22.702822 3.229753
37.662907 22.892868 -1.7390835
37.617611 22.789946 3.332948
37.857738 22.893013 1.8493774
37.677341 22.9046 -0.43889564
37.754543 22.792444 1.4635826
37.670589 22.898436 -1.3384445
37.685314 22.803135 1.9601667
37.786068 22.60116 0.65973324
37.785206 22.600412 0.061830811
37.77206 22.695791 1.0610245
37.690201 22.899311 0.36402461
37.601471 22.989307 0.26153591
37.798195 22.501467 0.26041102
37.844349 22.587444 -0.82981336
37.689285 22.90506 0.56180531
37.693478 22.806915 -0.34098589
37.605408 22.825787 2.7721281
37.773376 22.695015 1.7589116
37.839184 22.5924 -0.4410809
37.575775 22.881084 -2.5089118
37.764359 22.693415 -0.53800452
37.687016 22.806389 -1.2411499
37.751961 22.566694 3.2752006
37.690327 22.798622 -1.0394071
37.709938 22.542971 0.70696068
37.694077 22.805138 0.66891247
37.801403 22.479837 3.1758699
37.512379 22.933584 2.8121817
37.805744 22.400436 3.4898608
37.554272 22.923103 0.93654037
37.868294 22.420782 1.2611195
37.817665 22.343119 -0.46023017
37.535034 22.790277 -1.5909874
37.809952 22.408808 0.76097405
37.759308 22.697495 0.067345195
37.779877 22.602333 -0.037103716
37.794682 22.425312 -2.7022491
37.757168 22.692997 2.762908
37.800468 22.505369 1.2578479
37.857189 22.420475 0.35880911
37.676857 22.786957 -2.4217393
37.705036 22.711266 -1.1416922
37.79113 22.595701 1.6516757
37.80814 22.415976 -1.4269571
37.802601 22.418325 1.4667003
37.743286 22.887821 0.75673538
37.744164 22.709103 2.2502558
37.850018 22.479008 0.25909385
37.671524 22.709526 3.3558617
37.868397 22.412182 -0.93726206
37.739067 22.881714 1.6619091
37.675274 22.907829 2.0620866
37.697327 22.808851 1.2682372
37.719566 22.703262 2.5237973
37.683483 23.062403 2.266412
37.855167 22.420252 0.25821131
37.790051 23.092293 2.1610463
37.691895 22.905539 1.1576574
37.777588 23.188046 1.568238
37.652767 22.975088 2.7678096
37.861507 22.419266 0.96100628
37.866566 22.415371 -0.63498044
37.784527 22.593164 1.9572861
37.598282 22.994179 1.5636648
37.703838 22.704073 -1.2480108
37.669384 22.896767 2.5636184
37.763832 22.692747 -0.64150453
37.679073 22.900799 -0.33366242
37.682316 22.794249 2.6466022
37.790298 22.482464 2.9327235
37.693729 22.791025 -1.4335706
37.857758 22.698215 0.25817591
37.802273 22.49749 1.0647526
37.604233 22.992271 2.9426889
37.768429 22.597576 -1.2311186
37.862888 22.420572 1.1639475
37.801964 22.501575 1.4568024
37.747345 22.689455 2.3714027
37.671364 23.002192 2.3553019
37.806686 22.500273 0.85951382
37.873104 22.41049 -1.1374562
37.685341 22.587301 2.6767859
37.640274 22.525211 0.99501705
37.710449 22.639078 3.777401
37.605316 23.013618 2.6542077
37.758934 22.591738 -1.8308668
37.61235 22.918884 -0.40122667
37.773487 22.594193 -0.74202037
37.754307 22.400444 3.1883025
37.790401 22.594606 1.7676893
37.840759 22.571411 0.66539264
37.85857 22.480963 -0.53852093
37.704388 22.702852 -0.2421236
37.775879 22.700285 1.6564209
37.708164 22.692223 2.1578369
37.852234 22.404001 -2.1404364
37.673931 22.904055 -0.53875113
37.794548 22.411743 -2.815444
37.598576 22.878643 -0.015402783
37.670593 22.798925 -2.0372939
37.671375 22.980608 0.15974759
37.856915 22.411804 -1.7379665
37.581898 22.901161 0.58705658
37.75317 22.793835 1.9469426
37.775787 22.601675 -0.93695742
37.722057 22.839941 3.3483088
37.670071 22.979151 0.36177731
37.851768 22.481134 0.45917597
37.826832 22.69475 -0.34909603
37.842583 22.593 -0.94146353
37.758316 22.58993 -2.1384835
37.779858 22.499153 -2.0358829
37.86124 22.402258 -1.8370031
37.7672 22.59499 -2.2453301
37.675694 22.90049 -0.83925325
37.7784 22.592211 -0.83693409
37.864685 22.410549 -0.83764744
37.684769 22.905483 0.46433446
37.772606 22.602036 -1.1409374
37.748333 22.604656 -2.3421023
37.76828 22.694254 0.86326635
37.868927 22.40181 -1.9341706
37.781334 22.600103 1.8536812
37.672138 22.981997 0.45764777
37.768463 22.696558 1.1572464
37.776321 22.491121 -2.1383486
37.596058 22.98608 -1.0513232
37.766983 22.611334 3.3779418
37.68539 22.713776 2.6462755
37.838421 22.586538 1.5585613
37.680328 22.905064 -0.23911358
37.612255 22.914322 -0.84089106
37.859135 22.417896 -0.23929416
37.677551 22.991282 1.860085
37.672764 22.90682 2.8504899
37.613655 22.894182 2.5738382
37.75956 22.697603 -0.13741568
37.862709 22.420195 0.76700068
37.859272 22.48348 -0.64242184
37.750416 22.789982 1.2570485
37.686832 22.903784 0.66133893
37.865795 22.676561 0.046320837
37.696823 22.606056 -2.2157013
37.733788 22.873575 0.36146921
37.683475 22.795481 -1.5396873
37.76886 22.693359 0.95926172
37.758701 22.598505 -1.6420689
37.755371 22.797203 1.5568035
37.826881 22.464775 -1.9634684
37.875469 22.412361 -1.0388205
37.66872 23.008226 2.1517036
37.842274 22.581488 1.8459469
37.671566 22.697426 3.2652249
37.674862 22.816538 1.8639601
37.727104 22.773304 -1.8513085
37.858631 22.487194 1.2620652
37.842007 22.590288 1.2666562
37.778114 22.598293 -0.24288613
37.752254 22.846478 2.613138
37.840363 22.680912 -0.022526206
37.832428 22.671137 0.34182703
37.750202 22.895813 -1.1383611
37.742458 22.891972 1.5639477
37.674652 22.801994 -1.7322221
37.855186 22.401613 -2.2333236
37.857281 22.417082 0.064437613
37.788242 22.501671 -1.3396599
37.844143 22.489948 -1.8451505
37.673969 22.907946 -0.6396417
37.684124 22.901852 0.064041294
37.698753 22.702454 -1.7270449
37.853237 22.483034 0.86015409
37.642288 22.679413 3.1332984
37.616997 22.924307 -0.73759782
37.588875 23.06115 2.3555803
37.853485 22.483879 1.1583897
37.608463 23.087566 -0.76302379
37.752777 23.084623 2.56217
37.694454 22.704391 2.265727
37.780533 22.596142 -0.53394681
37.758598 22.620062 3.1962478
37.800819 22.42622 -1.8312123
37.692657 22.907694 1.4580148
37.690159 22.803856 1.5608931
37.778355 22.495708 -1.8323195
37.77602 22.57185 2.6704762
37.78553 22.599079 0.25874573
37.845436 23.169315 1.9585644
37.687244 22.900999 0.16277847
37.867805 22.485111 -1.0366472
37.760124 22.692734 -0.23894136
37.758396 22.692621 -1.435288
37.766346 22.693771 0.75806212
37.739311 22.882317 -0.13183658
37.674267 22.997478 2.0597193
37.76469 22.59692 -1.4437168
37.84832 22.688005 -1.0385283
37.747269 22.786739 -0.83309251
37.793591 22.494318 -1.2508924
37.670818 22.979689 -0.035279237
37.838028 22.576822 0.2581135
37.757874 22.582541 2.5645957
37.838886 22.678223 1.1560516
37.737343 22.889378 -0.23637134
37.694107 22.796535 -1.1443093
37.786804 22.595203 0.36409795
37.839897 22.827236 -1.788659
37.858177 22.489025 1.3636535
37.694206 22.90369 1.3549346
37.76268 22.69437 1.9492714
37.750195 23.004772 2.1546037
37.670208 22.980106 -0.33454505
37.874485 22.856489 -0.37093437
37.699387 22.807323 -0.13926919
37.821297 22.60078 -1.6546603
37.76894 22.581303 2.7505364
37.851086 22.482557 0.7650069
37.855225 22.482332 -0.33647117
37.739422 22.88146 1.0703286
37.67728 22.675638 -2.8633089
37.870583 22.407972 -1.6305256
37.850201 22.484556 0.96308535
37.675816 22.900824 -0.73622572
37.607212 22.831869 -1.0674994
37.854099 22.766825 0.1128301
37.795345 22.503874 0.9660154
37.84058 22.584841 1.3616954
37.68037 22.900301 1.9542389
37.844185 22.588043 -1.0347126
37.669331 22.983095 -0.43648437
37.748421 22.811285 2.0474837
37.690857 22.901188 1.0610801
37.735664 22.884108 -0.036690947
37.673584 22.980062 0.55840194
37.670696 22.80438 2.5557711
37.845634 22.47213 -1.7287898
37.668568 22.97942 -0.13970876
37.73698 22.876125 -0.53693306
37.70829 22.602772 3.6504633
37.843483 22.58107 0.46016127
37.795208 22.49806 -0.33702829
37.676975 22.792681 -2.242687
37.666698 22.806108 2.2594409
37.597626 22.990984 0.067171998
37.741936 22.886236 -0.64100808
37.685375 22.798895 -1.632277
37.839294 22.578285 0.36281788
37.850376 22.486824 -0.23586351
37.822182 22.483921 2.9131384
37.866528 22.399332 -2.045902
37.803017 22.506016 1.559495
37.689098 22.788467 -2.3471811
37.693676 22.662025 -2.7507272
37.676556 22.779579 3.8074913
37.838589 22.58567 1.4580709
37.656506 22.833479 3.3667462
37.826828 22.794153 -1.0319568
37.685631 22.90283 0.25912073
37.788719 23.081339 1.8578306
37.743607 22.788967 0.66508257
37.865871 22.421446 1.0669332
37.771309 22.697248 1.2605647
37.863781 22.41493 -0.53603142
37.69009 22.902029 0.85872549
37.794018 22.493164 -1.0361714
37.671169 22.980808 -0.53720737
37.866512 22.400911 -1.5362127
37.741966 22.79146 -1.4334981
37.741856 22.788794 -0.23894267
37.840057 22.577183 0.86049342
37.664825 22.900093 -1.2366576
37.704376 22.690931 2.4715743
37.684254 22.797823 -2.1430447
37.603725 22.896034 -1.0205528
37.877239 22.404366 -1.2373294
37.860058 22.486937 -0.73608214
37.837734 22.590546 -0.74377984
37.861153 22.480692 -0.93883878
37.847397 22.48011 -2.0307248
37.801697 22.385469 -2.3427737
37.841515 22.586172 0.072619483
37.775108 22.592592 -0.64074254
37.855911 22.481663 -0.037099455
37.79118 22.601961 0.76082844
37.860359 22.41905 0.46037975
37.792019 22.489151 -2.3316183
37.828686 22.588388 -1.7218068
37.855663 22.419453 0.56040406
37.698971 22.807583 0.36275387
37.858891 22.480879 -0.83757132
37.842194 22.475504 -1.6414517
37.855549 22.486956 -1.4401115
37.851078 22.485523 0.060690001
37.847366 22.448654 -2.2424579
37.696468 22.78544 2.4431009
37.859634 22.48362 -1.1416789
37.85173 22.483898 -0.43506333
37.696762 22.6108 0.75939929
37.854443 22.48246 -0.13372712
37.838818 22.58609 -0.53959805
37.753445 22.791885 -1.0363069
37.728413 22.774227 -1.9090967
37.739559 22.889677 0.042503875
37.789436 22.422403 -2.0401034
37.602455 22.994205 -0.82789624
37.740864 22.8874 0.26193625
37.747234 22.790823 -0.44034946
37.791214 22.599718 1.15501
37.740028 22.786295 0.063878402
37.838303 22.583094 0.76552188
37.760433 22.792419 -1.1410899
37.583439 23.068508 2.1343832
37.580078 22.876459 2.4771459
37.759933 22.792402 -1.3355722
37.588444 22.78508 2.8399432
37.737202 22.891809 1.8575943
37.691967 22.692089 -1.9525726
37.790363 22.59688 0.86114794
37.858192 22.418293 -0.038152579
37.794769 22.600817 1.3576033
37.837601 22.598522 -1.5336568
37.863625 22.422449 0.85864985
37.826042 22.809086 1.1393962
37.704227 22.713093 -0.3348524
37.873501 22.400719 -1.440477
37.742672 22.688292 -1.6390817
37.676403 22.984646 1.3605247
37.609024 22.923952 -0.9407686
37.699127 22.806026 0.45731983
37.712727 22.597731 1.1444603
37.814625 22.658672 3.1305547
37.675732 22.801708 -1.9419844
37.739822 22.698929 3.3256421
37.702877 22.808313 0.26300523
37.794361 22.5977 1.061674
37.748753 22.792852 -0.64246112
37.822189 22.603146 -1.8178395
37.74456 22.788988 0.86303192
37.874481 22.482452 -1.2459
37.698849 22.800316 -0.23552695
37.78651 22.597729 0.16521035
37.792194 23.193224 1.8736475
37.703465 22.697708 -0.83865249
37.78828 22.598093 0.45812154
37.673439 22.98171 0.66298449
37.801506 22.410959 -0.74130636
37.853611 22.813551 0.04904338
37.847549 22.467346 -2.1571534
37.800774 22.415445 -0.43522674
37.731144 22.751238 -1.9992254
37.742546 22.78898 0.26088321
37.600857 22.99674 1.6577456
37.831345 22.57217 0.16826606
37.850998 22.48752 1.0646787
37.745224 22.790205 0.75971818
37.849392 22.481367 0.56010222
37.745087 22.794012 0.96107483
37.735329 22.899822 -1.231869
37.846428 22.680733 1.0773389
37.77166 22.600697 -1.3327647
37.69519 22.473488 3.2589917
37.7542 22.590742 -1.945258
37.845585 22.58279 -0.62819445
37.611366 22.900761 -0.53904009
37.735279 22.874166 2.81548
37.614021 23.054073 1.8554513
37.586353 23.001089 2.5427783
37.789795 22.600483 0.56066734
37.613468 22.913727 0.27596009
37.604336 22.990353 0.36581004
37.674053 22.9942 1.9616938
37.79026 22.505093 -1.1379559
37.600178 22.919479 -0.66200674
37.592976 22.996643 1.4572927
37.605297 22.893375 1.1459687
37.680496 23.055342 1.7622192
37.688072 22.806934 -0.93070108
37.852798 22.378513 -2.3215721
37.700722 22.813366 0.85690558
37.754372 22.591255 -1.7394401
37.742622 22.889431 1.357251
37.679134 23.007057 2.265702
37.736698 23.004993 2.6919899
37.59222 22.835226 -1.4487076
37.856644 22.417845 0.16067764
37.819359 22.368124 3.7208142
37.663677 22.803457 2.3636017
37.608994 22.766136 -1.3163689
37.7743 22.895929 2.7193687
37.609146 22.799086 -1.5182037
37.600651 22.985966 1.8657883
37.851093 22.586851 -1.2279408
37.850422 22.412565 3.5417526
37.724926 22.653027 3.6956742
37.730206 22.548223 -2.6426005
37.772232 22.523382 3.6682694
37.881035 22.408854 3.645829
37.861538 22.420071 0.66359591
37.730171 22.590263 -2.7379878
37.763199 22.50325 3.7488976
37.774094 22.697197 1.4623144
37.593861 23.003963 2.0635204
37.607552 22.638811 3.2990124
37.853477 22.599388 -1.3202837
37.85128 22.482462 0.16534771
37.73349 22.777704 -1.6395135
37.845783 22.707071 -1.4320689
37.759777 22.695948 -0.83731335
37.762726 22.588804 -1.5402321
37.846447 22.68932 0.56002015
37.76157 22.696016 -0.93840384
37.800194 22.532213 3.2815769
37.771286 23.095327 2.4637742
37.869446 22.414486 -0.73844296
37.797531 22.420561 1.1449728
37.760513 23.001429 1.8675454
37.656322 22.847136 3.3635836
37.846184 22.480259 0.35780022
37.750851 22.549654 -2.8542371
37.759197 22.494087 3.4135816
37.765484 22.696722 -0.73408568
37.615124 22.912998 3.8353806
37.86124 22.416395 -0.13853042
37.699913 22.811325 0.95505017
37.57814 22.876064 2.248704
37.775227 22.325535 1.0415151
37.849701 22.668457 2.3431344
37.684933 22.612068 1.072376
37.575291 22.80962 3.2324939
37.827633 22.900276 -0.43456814
37.799591 22.417898 -2.6238947
37.66291 22.901493 -1.8454558
37.873573 22.406639 -1.3347157
37.697433 22.802071 1.1631312
37.671925 22.90266 -1.1405426
37.848442 22.487627 0.66333634
37.574032 22.922148 2.6486416
37.79937 22.500803 0.16174906
37.80043 22.408487 -0.82622516
37.743435 22.878813 0.15383296
37.837708 22.688982 2.2926371
37.594616 22.984146 1.264652
37.740982 22.889654 0.86607152
37.798332 22.41781 -1.74379
37.739323 22.889931 1.7522953
37.759415 22.698011 2.0581672
37.73518 22.88978 0.65956205
37.702427 22.526817 -1.388388
37.696899 22.574612 2.9694667
37.75309 22.687603 2.1707859
37.618317 22.832941 0.51272804
37.738373 22.897505 1.1525722
37.848049 22.702436 0.4739913
37.748703 22.667866 -2.3145409
37.829254 22.660055 1.8385932
37.667408 22.981157 -0.84090185
37.706387 22.706436 -1.3357426
37.665783 22.90568 -1.4371308
37.692101 22.902786 1.2596034
37.73772 22.694649 -2.2351978
37.745152 22.8936 1.9598904
37.601822 22.999552 2.3362737
37.744881 22.894945 -0.33857617
37.597988 22.998249 2.2929676
37.693287 22.805943 1.4626428
37.710209 22.714109 0.7528981
37.767078 22.784309 2.6941168
37.740833 22.788761 0.36497945
37.595009 22.789394 1.6451194
37.743382 22.783895 2.7208755
37.830849 22.990265 2.5433965
37.601032 23.005655 2.4524286
37.70528 22.626482 -2.6788163
37.812679 22.791662 2.9476979
37.774239 22.789227 2.3739657
37.744141 22.788271 0.55995703
37.787548 22.495663 -1.5316069
37.595139 23.011759 2.1595998
37.743248 22.785408 0.46274287
37.600601 22.98567 -1.2355434
37.576046 22.779808 -1.2114303
37.695473 22.711443 -1.0369792
37.752903 22.793144 1.6628042
37.753845 22.793196 1.7643549
37.599953 22.989069 -0.34130883
37.593758 22.988129 -0.43544224
37.687321 22.90399 1.7636615
37.606709 22.973904 0.56081831
37.595051 23.004526 1.958586
37.744728 22.79063 -0.036054686
37.841759 22.67289 0.67251581
37.701321 22.802528 -0.038385246
37.700825 22.8106 1.0724034
37.74646 22.676172 -1.8391131
37.606869 22.989304 -0.93585533
37.742069 22.887173 1.4601399
37.703381 22.718069 0.057601437
37.739346 22.912764 2.3498909
37.704494 22.714743 -1.437746
37.685616 22.80574 2.7562411
37.595177 22.977541 -0.13718103
37.8241 22.416174 3.4681845
37.683556 23.059336 2.0743876
37.683861 22.907255 -0.039641488
37.751217 22.873489 2.4787638
37.711666 22.639507 -0.57507145
37.716232 22.618851 0.49269027
37.673325 22.905668 -0.93868262
37.611832 22.997841 -0.25145102
37.680588 22.905048 -0.14158809
37.711502 22.414486 -0.14078613
37.785233 22.601452 2.9415751
37.693066 22.797541 -0.53633332
37.785671 22.587124 2.8408649
37.684258 22.807617 2.8494523
37.726147 22.870327 3.3408611
37.690437 22.810593 1.7645659
37.864487 22.903793 -0.24565348
37.758579 22.694887 -0.33663842
37.708191 22.704029 0.36220059
37.842724 22.579052 0.55913013
37.675285 23.071243 1.8594241
37.72509 22.720448 -2.4018979
37.603821 22.984531 0.16831714
37.721107 22.649273 -2.5663192
37.74184 22.673407 -2.0415397
37.835609 22.515022 3.0377221
37.720905 22.683674 -2.732537
37.744247 22.685505 -2.1492562
37.7449 22.6996 -1.931618
37.671326 22.980911 0.26294518
37.669315 22.980291 -1.0375425
37.671124 22.817194 2.9691057
37.766895 22.329798 0.055484843
37.862385 22.416544 -0.33995289
37.801605 22.415529 -2.5263746
37.672356 22.989834 1.7567611
37.67522 22.990438 1.6597137
37.675049 22.988956 1.458271
37.77739 22.693422 1.359814
37.700096 22.645149 -0.11838694
37.691364 22.456255 0.35033572
37.661652 22.786297 -2.7321897
37.750652 22.521492 -2.5336957
37.743111 22.885387 1.2578306
37.789787 22.498106 -0.53076094
37.74202 22.483356 3.3393507
37.837944 22.825691 1.9037803
37.798702 22.619434 3.0309319
37.763313 22.697525 -0.036031574
37.701477 22.804226 0.15342408
37.612389 22.843035 1.0644429
37.597576 22.92161 1.2566798
37.674786 22.593126 0.058818366
37.756557 22.787951 -1.239898
37.673775 22.609169 2.442889
37.741638 22.792444 0.1622256
37.844521 22.581436 -0.14095309
37.839169 22.57958 1.1657891
37.690002 22.576117 1.0001085
37.699505 22.81806 1.3640485
37.764492 22.695366 0.66667461
37.777153 23.092974 2.2546463
37.805756 22.420265 0.56374067
37.791527 22.600101 0.96135825
37.680599 22.798721 -1.838931
37.687546 22.89126 2.9562349
37.825333 22.609591 -2.0501368
37.848537 22.759975 -1.3754487
37.653137 22.81764 2.1706665
37.699444 22.715149 -2.4348743
37.736046 22.398558 2.9592743
37.699936 22.577959 -3.0188079
37.751804 23.005272 1.9538397
37.782368 22.509611 -2.2292876
37.579266 22.890026 3.1240959
37.587467 22.87487 3.2407496
37.675591 22.989975 1.5595598
37.743122 22.897469 -1.0360212
37.865921 22.790834 -0.7675482
37.849304 22.709095 2.1091361
37.843655 22.792953 0.85318011
37.682003 23.065262 2.1655235
37.651314 22.984369 3.1550853
37.878315 22.669392 2.9369557
37.841755 22.766315 1.7211354
37.670132 22.97916 -0.73756194
37.696518 22.594971 2.5386724
37.838371 22.686068 -0.62993491
37.754822 23.009087 2.2542496
37.777679 23.091595 2.3571212
37.823654 22.665222 -0.83505166
37.850624 22.786835 1.4860156
37.874043 22.713749 0.98062551
37.868565 22.803091 0.77715564
37.790077 23.095236 2.0618405
37.732948 22.502216 3.0602651
37.850929 22.929543 1.6560905
37.701859 22.476574 0.046825189
37.585651 22.793365 1.3778712
37.732639 23.027246 2.8226938
37.632256 22.914375 2.7689664
37.698341 22.701187 0.6602971
37.80386 22.417755 0.65274531
37.634201 22.464487 3.1746135
37.536701 22.759493 3.2014079
37.790901 22.406794 1.0620623
37.689152 22.704889 1.087782
37.847248 23.180164 1.8641763
37.687458 23.066479 1.6710082
37.596134 22.990221 3.1534774
37.842945 22.591536 1.6578203
37.663971 22.548706 3.2111983
37.835144 22.792477 1.2742109
37.746178 22.873913 2.5857537
37.747242 22.757147 2.8393781
37.796482 22.417925 0.057186432
37.541077 23.119692 3.9296985
37.662704 23.003651 3.0420523
37.733341 23.033199 2.5980229
37.692841 22.904562 1.6537678
37.695648 22.899073 1.8616427
37.766731 22.693577 -1.0365065
37.847752 22.582258 1.7498876
37.751495 22.690729 -1.7477205
37.608879 22.907206 0.85456896
37.676853 22.542019 1.3286356
37.604553 22.907898 -1.6391717
37.705112 22.720602 0.56709838
37.743832 22.790388 -0.13614395
37.85326 22.337339 0.34818619
37.705589 22.712952 0.26034993
37.708378 22.714336 -0.13074438
37.74242 22.894539 -0.73373395
37.80732 22.407808 -1.1358572
37.800198 22.425285 0.35624474
37.746742 22.792374 1.0676843
37.802723 22.413754 -0.041600149
37.781536 23.083172 1.9627974
37.771118 22.418043 1.2894599
37.845127 22.589041 -1.1373696
37.831928 22.68347 -1.2293345
37.826878 22.667282 1.4515313
37.822582 22.564749 -1.9583319
37.735001 23.030149 3.0886688
37.632511 22.861191 3.0259385
37.678787 22.983223 2.968267
37.608826 22.87509 3.0590532
37.854568 22.734085 1.7607243
37.643085 22.984676 2.6667709
37.611572 22.95569 3.4900539
37.836178 22.726049 2.7568443
37.680683 22.422476 3.1932912
37.68874 22.595356 3.2199302
37.676907 23.07275 2.3576546
37.591072 22.923576 1.6272523
37.742863 22.778797 -1.7314715
37.828617 22.553183 2.9270215
37.788845 22.499092 -1.4321837
37.783073 22.500874 -1.7390079
37.569748 22.90493 2.9073083
37.671337 23.090883 2.8685105
37.726799 23.00337 2.7176614
37.671677 22.890114 2.2695565
37.731361 22.74699 -2.2347884
37.742191 22.887419 -0.9404155
37.673588 23.067308 2.5538473
37.75296 22.691008 -1.3378936
37.753269 23.021622 2.3787129
37.682388 22.704857 -2.5400724
37.659058 22.809326 -2.5557337
37.696541 22.603926 -1.9364487
37.82431 22.672926 1.6446786
37.7803 22.483147 -2.4402041
37.745834 22.885975 -0.44364467
37.762508 22.696646 -1.1435691
37.704365 22.703279 -0.4369919
37.679386 22.894579 2.1489568
37.756897 22.787735 1.3625305
37.668644 22.980955 -0.93779707
37.710602 22.603596 -1.6332242
37.688107 22.632895 -1.2158954
37.710217 22.606987 -0.73385185
37.704063 22.512323 -1.6263446
37.796417 22.418264 -1.6452732
37.555706 22.791605 -1.8696728
37.683743 22.584986 -0.20497395
37.706081 22.515966 -1.4598247
37.586945 22.830069 -2.2420874
37.785023 22.404982 0.86872363
37.704464 22.71418 -0.050218094
37.708794 22.522869 -0.83883452
37.713291 22.440361 -2.1207511
37.799259 22.41824 -1.2418197
37.594147 22.89348 -1.1407645
37.593594 22.806698 -1.963619
37.703674 22.600527 -1.0955471
37.687946 22.479118 -1.9141008
37.759312 22.692196 -1.2385111
37.810249 22.419655 0.46565631
37.698997 22.705837 -0.5458833
37.800579 22.414688 0.1591904
37.804066 22.423744 0.25470856
37.842682 22.309402 0.95987034
37.704117 22.61026 -1.4524599
37.711628 22.590078 -2.0088818
37.708218 22.617268 -1.8505716
37.692802 22.603201 -0.86613536
37.693909 22.611814 -1.7450105
37.713627 22.59889 -0.46228251
37.603058 22.988167 -1.1452346
37.586281 22.822807 -2.3052676
37.71986 22.510876 -2.1968122
37.691929 22.814186 1.6506717
37.704079 22.637365 -1.5259815
37.716976 22.539692 -2.1000865
37.828358 22.523439 -2.3461492
37.700626 22.435049 1.1826131
37.673786 22.588705 2.86151
37.614212 22.931503 -1.2745184
37.745369 22.691248 -1.5377067
37.6842 22.685707 2.7484736
37.596783 22.978018 -0.6354357
37.60046 22.983681 -0.53680313
37.694897 22.705151 0.8439067
37.760857 22.695116 0.15945242
37.787106 22.596539 1.5624627
37.856506 22.679373 0.1537627
37.926186 22.681564 -0.74893087
37.851082 22.753492 -0.13805149
37.708694 22.7069 0.45448935
37.60722 22.991852 1.3639746
37.611919 23.162756 3.9430041
37.74493 22.792818 -0.53905952
37.681061 22.618412 0.25940609
37.797386 22.495298 0.061352979
37.839218 22.760012 -0.50314301
37.680153 23.066713 1.9739124
37.612801 22.925646 -0.11289579
37.613239 22.905252 -0.25624877
37.672394 22.996164 2.5566819
37.705593 22.685059 1.2524338
37.60474 22.920902 0.023207368
37.70808 22.708918 0.16679458
37.702087 22.58881 1.574264
37.698822 22.581228 1.4623687
37.664852 23.07946 2.7379601
37.737282 22.785809 -1.5356054
37.834766 23.009453 2.1705587
37.660355 22.877598 2.6720531
37.655052 22.999771 2.4610243
37.713516 22.573048 -2.5475593
37.600506 22.917686 1.0856206
37.68742 22.901497 1.5541128
37.610405 23.062519 2.6574638
37.713779 22.456579 1.2086422
37.661182 23.067728 2.6556437
37.596107 22.99597 1.7703094
37.549263 22.979927 2.8350346
37.582649 23.010912 3.048897
37.607452 23.012146 2.7513113
37.661812 23.067253 2.4464006
37.611855 23.068577 2.462801
37.74065 22.895525 -0.84292495
37.562477 23.058792 2.8840232
37.667038 22.893402 2.3582327
37.505417 22.911837 3.5246027
37.561935 23.057703 2.8027897
37.65913 23.110016 3.2485752
37.583237 23.080067 3.06299
37.580826 23.047491 2.5533195
37.588428 23.07383 2.9769564
37.671455 23.068624 1.5825173
37.742748 22.792532 -0.33653221
37.738274 22.802677 2.441648
37.835514 22.587425 -0.24949114
37.67709 22.883492 2.447803
37.753864 23.004503 2.0570781
37.756966 22.792883 -0.73406136
37.801548 22.415611 -1.3439806
37.661388 22.903332 -1.6420666
37.714733 22.628012 -0.63287479
37.711819 22.632504 -0.29646045
37.862953 22.341026 1.1036272
37.739677 22.90332 2.2725928
37.712234 22.602119 -0.94284314
37.793415 22.494932 -0.93882
37.704948 22.709835 0.95893884
37.683033 22.694328 1.1696583
37.715946 22.631212 -1.3492279
37.671402 22.982763 0.063493527
37.686653 22.540161 -1.8191071
37.719112 22.487446 0.13689555
37.68858 22.455898 0.30210617
37.648949 22.456377 -0.22577766
37.859123 22.339151 -1.837522
37.826382 22.436895 -2.531635
