# .PCD v0.7 - Point Cloud Data file format
VERSION 0.7
FIELDS x y z
SIZE 4 4 4
TYPE F F F
COUNT 1 1 1
WIDTH 1280
HEIGHT 1
VIEWPOINT 0 0 0 1 0 0 0
POINTS 1280
DATA ascii
-8.2519341 31.603029 2.2072678
-8.2647238 31.627272 2.2968063
-8.3408823 31.414492 1.6189061
-8.3629704 31.450817 2.206069
-8.3797007 31.529066 1.5446851
-8.3272362 31.523495 2.0597501
-8.3311157 31.608727 2.0691941
-8.5892725 31.844198 -0.52279639
-8.572813 31.949745 -0.26930436
-8.6947203 31.753836 1.2447404
-8.3389931 31.409117 1.9633425
-8.365818 31.457497 1.0373063
-8.4521465 31.278416 0.50447726
-8.3620625 31.420088 -0.062750667
-8.3264551 31.348568 1.359098
-8.4248962 31.343267 0.30963871
-8.3673611 31.446661 1.3500576
-8.3723097 31.330395 0.28529593
-8.5832825 31.753733 0.33084732
-8.6063662 31.902679 0.14734077
-8.6552095 31.878832 0.42180789
-8.5942364 31.783203 -0.3185339
-8.6312151 31.864035 0.23757699
-8.4362459 31.418276 0.77955067
-8.6403818 31.953615 0.18767248
-8.5821581 31.789919 -0.11124808
-9.2024326 31.554426 -0.48433888
-8.5596056 31.875294 -1.0268334
-8.9386711 31.565954 -1.0415052
-9.1861753 31.633352 0.37698799
-8.8157539 31.208189 0.07509008
-8.6287251 31.895529 -0.045785416
-8.6077061 31.859352 -0.64677429
-8.3345413 31.425299 0.95785767
-8.2661219 31.635014 2.0411291
-8.2764769 31.617964 1.7946558
-8.5439339 31.890926 -0.72190511
-8.9391785 31.316786 -0.23612754
-8.5157042 31.623465 2.0852633
-8.6378469 31.878782 1.3652399
-8.9153948 31.37154 0.26156771
-9.1175146 31.48955 -1.0490854
-8.9484901 31.326262 0.751252
-8.753706 31.342228 0.54566157
-8.7276287 31.307249 -1.9384869
-8.7160215 31.381638 -2.0359967
-8.7507906 31.307003 -1.8046488
-8.791626 31.34351 1.4442751
-8.9272223 31.372297 0.065670215
-8.7181473 31.403795 -2.1285987
-8.8970747 31.579084 -0.47857553
-8.9392776 31.553007 -0.34145775
-8.7182665 31.410313 -1.7441772
-8.8812742 31.551287 -1.108297
-8.8848648 31.549097 -0.57635731
-8.9672384 31.545858 -1.4643543
-8.6397219 31.415649 -1.7413293
-8.6343203 31.46385 -1.656922
-8.7344284 31.322105 1.1766303
-8.8483782 31.319799 -2.3000262
-8.7316837 31.393282 -1.5316669
-8.7211466 31.392172 -1.9246458
-8.6268215 31.481388 -1.7579068
-8.73176 31.403673 -1.828491
-8.4587727 31.271566 -0.34666181
-8.2379932 31.307615 -1.434298
-8.7420425 31.308588 -0.43590334
-8.4327402 31.402933 1.3471193
-8.6052332 31.822817 0.86682332
-8.7431841 31.303989 -0.85209799
-8.5233212 31.491026 1.9296362
-8.6244488 31.429779 1.9328861
-8.5348606 31.45956 2.0530529
-8.9025278 31.553492 -0.25260347
-8.7291021 31.409294 -1.3411671
-8.6594286 31.341522 -1.707106
-8.8234158 31.466833 0.44893155
-8.7075338 31.318958 1.2730651
-8.8396273 31.311752 -1.9342353
-8.7203627 31.403971 -1.648725
-8.8258886 31.31727 -1.1483539
-8.6255474 31.481256 -1.4278202
-8.7202349 31.464983 -1.4380512
-8.7114744 31.473709 -1.3473866
-8.8186226 31.332834 -2.1108532
-8.6288643 31.427851 -1.852693
-8.7152796 31.462589 -1.1457747
-9.0292473 31.360809 -1.1724154
-8.6193542 31.479635 -1.339232
-8.6249695 31.481367 -0.83627951
-8.7266712 31.468811 -1.2376086
-8.6297073 31.40053 1.7240107
-8.7103672 31.46167 -0.84023166
-9.032939 31.513781 1.3524764
-8.4251318 31.51203 1.8906354
-8.3380737 31.613388 1.8655058
-8.8243418 31.397223 -0.83320606
-8.5442181 31.492832 1.8502982
-8.7098131 31.465487 -0.53941059
-8.8288088 31.384581 -1.2440599
-8.7337446 31.397245 -1.4280008
-8.8381929 31.296907 -1.5476521
-8.9294348 31.375879 -1.4400498
-8.4137449 31.424225 0.27759898
-8.8236189 31.395905 -1.0286101
-8.8260384 31.377184 -2.1955495
-9.1679602 31.62495 0.5490917
-8.9368334 31.51919 -0.14155839
-8.52211 31.487463 -1.8626318
-8.448535 31.524742 0.25776899
-8.6234035 31.478556 -0.64343482
-8.6318731 31.478218 -0.73704553
-8.7150717 31.468609 -0.13363317
-8.6330843 31.475157 -0.94016087
-8.4358883 31.436729 0.47222084
-8.7240887 31.329445 -0.73197401
-8.4251032 31.530928 2.5034471
-8.7247896 31.32262 -0.56768334
-8.7423725 31.228378 -0.44560897
-8.5204144 31.308527 -1.0388199
-8.6347752 31.418566 -0.33799905
-8.7102089 31.314413 -0.66654283
-8.9730349 31.622417 -1.5001696
-8.6253262 31.417511 -0.42954612
-8.8315458 31.32641 -0.8461473
-8.8392954 31.307249 -0.42961791
-9.1164532 31.461533 -0.23412454
-8.6276331 31.473192 -0.33785525
-8.7356777 31.404837 -1.2320055
-8.8309135 31.385725 -1.1400841
-8.8491535 31.307535 -1.227797
-8.7658424 31.206547 0.44072646
-8.5275688 31.48052 2.3326807
-8.7153015 31.40271 1.5701433
-8.5601416 31.443399 1.4539142
-8.4112148 31.304836 -1.2473148
-8.6405163 31.431772 0.36856809
-8.6347542 31.429565 -0.64221412
-8.8285027 31.379791 -0.93961507
-8.6268492 31.430376 1.3575286
-8.639184 31.421951 0.25995809
-8.9452238 31.317493 -0.54289883
-8.7284765 31.328373 0.37342018
-8.7488604 31.323698 0.43235236
-8.4126415 31.306425 -1.0307382
-8.6520281 31.419853 -0.55003911
-8.9371624 31.313318 -0.93389601
-8.9266062 31.315407 -0.83299363
-9.0271378 31.308363 -0.23915878
-8.8293543 31.296143 -1.0180664
-8.9347563 31.320194 -0.72908247
-8.9347286 31.318954 -0.34281173
-9.0336361 31.306908 -0.33861133
-8.9323673 31.316507 -0.13234034
-8.2752247 31.621632 2.329941
-9.1932373 31.561357 1.2991456
-8.5226707 31.484646 -1.7461126
-8.6406116 31.426739 1.1709225
-8.4430962 31.238726 -0.33896762
-8.3292818 31.292446 -1.3413599
-8.5356655 31.408001 -1.6559092
-8.7156258 31.664116 0.65441442
-8.4642143 31.229885 -0.2573514
-8.6521053 31.413124 1.2725153
-8.518651 31.415676 1.3392997
-8.2520676 31.285027 -1.5189555
-8.7360849 31.217924 0.15938674
-8.7250938 31.318274 -0.041941814
-8.8983831 31.555439 0.074526429
-8.5193682 31.597824 -1.3352023
-8.7383528 31.300777 -1.5414777
-8.5178699 31.608868 -0.93990892
-8.7190704 31.568939 -1.1239523
-8.6343498 31.324183 -1.5431719
-8.525651 31.593834 -1.2291417
-8.5095053 31.602802 -1.1396898
-8.3145542 31.309116 -1.2386291
-8.5134468 31.603237 -0.84333915
-8.5106039 31.598471 -1.4298534
-8.9375572 31.496933 -1.4291124
-8.8321953 31.560472 -1.0404359
-8.5877161 31.664064 -0.84153175
-8.7250462 31.578444 -1.2513418
-8.7289753 31.214577 0.042803936
-8.4948654 31.214836 -0.72702205
-8.3560562 31.23275 -0.92143631
-8.3333855 31.292055 -1.0341998
-8.3082533 31.293491 -1.1272817
-8.6103458 31.608847 -0.83934426
-8.6057415 31.581684 -0.99509358
-8.8327045 31.502977 -1.2391671
-8.4566717 31.218849 -0.53057235
-8.4344387 31.225502 -0.75098443
-8.4333944 31.286991 -0.74591035
-8.6293192 31.628771 -0.73111606
-8.9032211 31.527927 -0.85382551
-8.4558229 31.233234 -0.65260148
-8.5163012 31.593567 -0.54018784
-8.3534174 31.236761 -0.7174269
-8.5141821 31.599251 -0.63817686
-8.438489 31.282591 -0.63477725
-8.4307709 31.235195 -0.44934595
-8.3447104 31.203796 -0.64902842
-8.6658421 31.232073 0.25337827
-8.724267 31.469002 -0.93322307
-8.6921101 31.654284 0.99176127
-9.20117 31.493147 1.1642385
-8.4183502 31.316496 -0.9264546
-8.7684946 31.622971 1.7865665
-9.0027657 31.554871 1.550853
-8.8230524 31.477755 0.15821974
-8.4261866 31.696085 2.2692506
-8.6251459 31.669886 0.87348366
-9.223176 31.412766 1.0644649
-8.6277637 31.69545 1.575382
-9.0392523 31.512753 1.1591477
-9.1404848 31.495922 1.1623014
-9.1297932 31.455229 -0.44111201
-9.1066875 31.377642 0.87131137
-8.8056898 31.618752 1.6388205
-8.6132927 31.677212 1.4659045
-9.1412001 31.485645 1.0597326
-9.1448393 31.488194 0.95117074
-8.751689 31.633553 1.5436113
-9.1301088 31.485739 1.2553911
-8.931572 31.558636 1.3561342
-8.7282658 31.612116 0.76562011
-9.2477665 31.420393 1.1652205
-8.7485056 31.630299 1.45514
-8.609705 31.674944 1.0541493
-8.6291637 31.676111 1.1630573
-8.6172953 31.66844 0.94031507
-9.043334 31.498194 0.85730916
-8.7503376 31.624672 1.3626955
-8.6149864 31.674255 0.56059062
-8.7136383 31.461992 -0.43526146
-9.1459532 31.476768 0.75869137
-8.8357201 31.5812 0.9558689
-8.6176577 31.66958 1.3577441
-9.1333723 31.463968 0.36393848
-8.6143074 31.669563 0.75877184
-9.1374321 31.470924 0.85756004
-9.1243477 31.47097 0.16335492
-9.128459 31.465313 0.55795926
-9.1221962 31.465952 0.067434639
-9.0339546 31.49807 -0.23473483
-9.023488 31.502016 0.65742427
-8.8277779 31.583775 1.1516119
-8.3197842 31.711376 -0.13507845
-8.6021471 31.66819 0.16053532
-8.9121122 31.552559 -0.75213021
-8.7440376 31.628677 1.057139
-8.5162134 31.770931 -0.13615465
-8.7377663 31.403713 -1.1396013
-9.0342474 31.361237 -1.320528
-8.8422756 31.309193 -0.9431448
-8.5954838 31.630184 1.5428658
-8.5044899 31.319874 -0.63728261
-8.8172235 31.553856 -1.135329
-8.9058895 31.565777 1.1613989
-8.5016804 31.215153 -0.62585044
-8.5418396 31.302923 -0.4490926
-8.8139963 31.448315 -0.14234486
-8.942914 31.523594 0.3707976
-8.6328669 31.411316 -1.5352414
-8.9253635 31.37772 -1.3191034
-9.2347679 31.407616 -0.4331921
-8.9269085 31.375822 -1.0385957
-8.8131847 31.612246 1.4754685
-8.8417797 31.304974 -0.7265678
-8.5098896 31.599726 0.15759817
-8.5230103 31.781498 -1.0370276
-8.9257298 31.555937 1.0652677
-8.717721 31.299591 2.3017387
-8.5261393 31.89061 0.047679365
-8.3897161 31.435194 1.4230754
-8.5310736 31.396507 -0.64335263
-8.8295031 31.577927 1.2615256
-8.4478712 31.694668 0.86419934
-8.8376808 31.369923 1.8513227
-8.9214983 31.681553 1.1945738
-8.4235725 31.512466 -1.5360658
-8.7332363 31.613369 0.95733833
-8.5267258 31.507032 -0.033310905
-8.6285801 31.315702 0.7639935
-8.839632 31.370455 -1.9327701
-9.1247587 31.468437 -0.93123245
-8.9288549 31.367859 -0.14033414
-8.7934923 31.392269 2.6820934
-8.6852007 31.649254 1.1085284
-9.0059662 31.36297 -0.14001971
-9.1572886 31.442467 -0.83529335
-9.1337757 31.45705 -0.6366111
-8.6355991 31.274302 0.43064818
-9.0289936 31.490223 -0.84422147
-8.450717 31.697105 0.95944309
-8.9392405 31.31389 0.65904939
-9.2285156 31.31007 -0.071952522
-8.8258829 31.392365 -1.3384801
-8.805788 31.423399 2.7526481
-8.528286 31.514189 0.86469358
-8.9357862 31.526642 1.3399975
-8.513648 31.789104 -0.75191736
-8.7345896 31.465759 1.5573089
-9.031373 31.307777 -0.1439869
-8.8031178 31.380985 2.352114
-8.6268501 31.480341 1.360548
-8.6135902 31.673759 1.2486705
-8.6298866 31.480455 0.65871644
-9.035305 31.310371 0.66430712
-8.9365396 31.317078 0.463532
-8.9351978 31.400078 -1.8630662
-8.4372053 31.692688 1.6568676
-8.8872986 31.571507 -0.15507534
-8.9188023 31.309456 -2.3195236
-8.627553 31.482876 0.86115539
-8.8157969 31.483372 -0.33085138
-8.6428947 31.415636 -1.3574196
-8.4404392 31.523849 1.0536404
-9.0269499 31.594864 -1.3512626
-8.8250418 31.455839 0.58978307
-8.9223423 31.366053 -1.1425186
-8.5186148 31.511614 1.1560223
-8.6328411 31.482882 1.4538974
-8.6242123 31.48595 0.46026248
-8.6254854 31.476736 -0.54222351
-8.4283714 31.517979 1.462073
-8.353241 31.615904 1.4545946
-8.3247824 31.71969 -0.23706973
-8.3162928 31.713131 -0.033595275
-8.7226486 31.427225 2.1763432
-8.8247042 31.574316 -0.24296612
-9.015543 31.357361 -0.42743599
-8.6476879 31.621338 0.5462659
-8.4550085 31.521999 0.66632515
-8.7075071 31.338989 0.77160269
-8.6422424 31.411276 -0.7388829
-8.525939 31.505451 -0.23218626
-8.5321512 31.507206 1.4535292
-8.5224438 31.515869 0.76030725
-8.9257784 31.370493 -0.93138051
-8.4478579 31.519251 1.3653483
-8.7441635 31.410057 1.6733776
-8.4443579 31.694225 0.45936909
-8.9540081 31.512283 -0.92189455
-9.0364609 31.482019 -0.62749183
-8.7368946 31.40897 -0.8387239
-8.7132616 31.647465 1.1418835
-8.9444656 31.492996 -1.1590048
-8.5968695 31.676497 -0.71890062
-8.5245705 31.695253 1.2622108
-9.2176113 31.490067 1.0355593
-8.7335901 31.220713 0.26435167
-8.7267885 31.33287 -0.3572523
-8.5217323 31.695391 1.1607771
-8.6252842 31.482969 -1.2386416
-8.6880035 31.656763 1.4290795
-9.017684 31.363052 -0.22265133
-9.016675 31.363628 -0.84211659
-8.5142584 31.696625 0.86559606
-8.5519266 31.483387 -2.0396748
-8.5314436 31.42325 -1.158128
-8.6149244 31.595169 0.9729172
-8.5212669 31.688276 -0.53865504
-8.4395618 31.522614 0.95606822
-8.4016409 31.241076 -0.90563649
-8.7059326 31.652521 1.3715721
-8.4340372 31.5937 0.9590922
-8.3259382 31.708303 0.86652339
-8.5263691 31.416437 -1.03455
-8.8253212 31.583168 0.76290429
-9.0160112 31.373693 1.2525095
-9.3367195 31.392099 0.95093596
-8.4495096 31.524748 0.1589735
-8.5928288 31.624454 1.270239
-8.9082909 31.457317 1.4402642
-8.9358778 31.521612 -0.43159309
-8.8170815 31.329189 1.3627107
-9.2193222 31.51074 -1.0555124
-8.5172157 31.694569 1.3603185
-9.0379877 31.480255 -0.7374633
-8.3924837 31.307505 1.3547478
-9.0190105 31.352432 -1.0618173
-8.4195013 31.599972 1.9495757
-8.4516602 31.524294 0.062675014
-8.266614 31.700356 -0.13960241
-9.0200958 31.4984 -0.12842174
-8.6463566 31.286373 0.14592935
-8.9428501 31.324659 0.56204277
-8.7758017 31.3405 0.69214743
-8.9128218 31.567062 0.26358557
-8.5084162 31.495409 -1.6409791
-8.7332573 31.599609 -0.13996068
-8.8333044 31.390539 -0.54060215
-8.7134552 31.463444 0.94901055
-8.8657227 31.540091 -0.60947764
-8.7175064 31.462807 -0.331698
-8.4420481 31.693966 0.16042627
-8.8311901 31.312702 0.67126542
-8.5113935 31.77212 -0.53796417
-8.4482784 31.692255 -0.1384764
-9.0204973 31.494333 -0.33043021
-8.9170418 31.306662 -2.1426871
-8.4256744 31.514551 1.6544172
-8.5051708 31.604292 -1.5405135
-8.5001612 31.590626 1.456714
-8.5143499 31.605032 -0.74322718
-8.6805573 31.457479 2.6658473
-9.0220184 31.497311 0.56070912
-8.7112036 31.449587 1.6580876
-8.5117407 31.507568 1.3546933
-8.8983841 31.558239 -0.015622612
-9.1347303 31.426649 -1.1993417
-8.6032324 31.675396 -0.63131332
-9.2331648 31.405771 -0.12958908
-8.5233946 31.509186 -0.13743927
-8.6625423 31.627327 0.46092162
-8.5330877 31.409611 -0.82168871
-8.4331474 31.611725 2.3571899
-8.9250164 31.549065 0.17175226
-8.3254442 31.703014 -0.33708021
-8.5257282 31.50878 0.56087285
-8.7348175 31.419262 -0.7408042
-8.8190317 31.474068 -0.03366686
-8.7189665 31.464405 0.75987047
-8.8319788 31.396185 -0.63315392
-9.033473 31.310055 0.26012436
-9.0096693 31.361456 1.3493167
-9.1523056 31.414402 -1.1582398
-8.6610355 31.283216 -0.77668762
-8.5045576 31.594873 1.5566207
-8.6931381 31.64743 -0.38686061
-8.4359436 31.588999 0.56445694
-9.0435019 31.481722 -0.44225952
-8.4382076 31.778997 0.15998878
-8.5270023 31.507187 -0.6366877
-8.4390926 31.588129 -0.2379912
-8.6229162 31.311308 -0.4409219
-8.5389051 31.429607 0.3614372
-8.7152119 31.46089 1.0505646
-8.531415 31.492104 -1.53711
-9.0890961 31.434792 -1.3683546
-8.9394712 31.513855 -0.72599846
-8.8249702 31.393211 -0.44236648
-8.8199282 31.57431 0.062388446
-8.6327868 31.616957 -0.53046274
-8.8183632 31.320839 -2.0397
-8.6314802 31.61998 -0.65165854
-8.9317694 31.514641 -0.6289283
-8.8405914 31.511356 -0.54133636
-8.5104809 31.697821 1.0631843
-8.9032621 31.549469 0.53431213
-8.5258598 31.50815 0.060770385
-8.7271757 31.694038 1.5451889
-8.8316383 31.394133 0.66311806
-8.7820511 31.358461 -2.3923919
-8.8295746 31.390963 -0.73356777
-8.6940975 31.46747 1.77328
-9.1991272 31.465464 1.2252628
-8.9128838 31.560566 0.87617272
-8.5077848 31.603756 0.96192718
-9.0450687 31.473507 -1.0278962
-9.1447716 31.423029 -1.0602043
-8.5019398 31.597733 1.3570384
-8.6447554 31.41398 -0.93670499
-9.1249743 31.46261 0.26721442
-8.4428463 31.689032 -0.64162862
-8.4329653 31.592548 1.0569419
-9.115716 31.465897 0.67407942
-8.4376488 31.594625 -0.34010908
-8.4098816 31.383451 0.93653619
-9.0306044 31.467659 1.6511128
-8.9420614 31.323835 0.95614904
-9.0151434 31.364386 0.35864055
-9.0302706 31.510811 1.4627062
-8.9216919 31.384344 1.2574039
-8.4297571 31.614271 2.0587018
-8.5251408 31.419498 -0.94058168
-8.5199394 31.494734 1.7489288
-8.6458731 31.618408 0.76445162
-9.0314169 31.309954 0.76039147
-8.522192 31.51223 0.66127169
-8.6291409 31.423592 -2.1242776
-8.9228535 31.378052 1.554682
-9.0307331 31.403099 1.9515687
-8.4452782 31.696928 -0.24101657
-9.1527929 31.423389 -0.22878498
-8.5396299 31.2188 -0.43562704
-8.4325495 31.608368 1.8611957
-8.7298336 31.606089 0.46178374
-9.1478014 31.425585 -0.4475795
-8.4327354 31.609411 2.4697666
-8.8274965 31.387672 1.6616745
-9.1719055 31.428452 -0.93889368
-8.7221365 31.470551 0.56512272
-8.503541 31.614729 1.9853597
-8.5252924 31.232349 -0.33829504
-8.7443457 31.588749 -1.0424966
-8.9305801 31.372149 1.0636761
-8.9256678 31.370035 -0.031845652
-9.0129108 31.376844 -0.029746402
-8.9453497 31.321566 -0.030604582
-8.6475391 31.61762 -0.9428215
-9.1278057 31.467829 -0.73037845
-8.6229391 31.480352 0.056606375
-8.6345844 31.585712 -1.1302053
-8.7195425 31.458345 -0.23718803
-8.6931744 31.663389 -0.48195824
-8.9926672 31.355799 -0.62597013
-8.9225407 31.372898 0.96388721
-8.817688 31.382435 -1.8325951
-8.4408321 31.694983 0.064040579
-8.418623 31.521872 1.7648466
-9.0119467 31.35606 0.054749127
-8.7108545 31.333666 1.3555107
-9.1308565 31.470444 -0.82812381
-8.9480619 31.321657 1.0525908
-9.0146093 31.358757 1.0679919
-8.4323959 31.600103 1.2633395
-8.4475918 31.528698 0.46482259
-8.5266333 31.50271 -1.3398974
-9.0326452 31.305716 0.45799085
-9.0342722 31.371124 1.4618946
-8.9224367 31.367924 -0.23522866
-8.5262156 31.500006 -1.1419021
-9.0082464 31.356998 0.85438609
-9.0329895 31.307858 0.5627597
-8.4408274 31.593046 0.061204646
-8.7313757 31.471148 1.4505571
-8.4891052 31.631584 2.6995363
-8.5147324 31.697628 0.96139687
-9.1150293 31.465487 -0.14160804
-8.5031824 31.593168 1.1629248
-8.9238319 31.369677 -0.33704913
-8.8297215 31.405405 1.4493173
-8.5965691 31.697588 -0.93514252
-8.7223082 31.465191 1.3467612
-9.0227079 31.372215 0.45784378
-8.7993565 31.372307 -1.6431119
-8.6269588 31.511284 2.7079167
-9.0268316 31.485514 -0.54217225
-9.0494432 31.488787 0.77869463
-8.4427853 31.499243 -1.7384501
-8.8202267 31.409071 1.2584749
-8.4363909 31.592434 0.66107082
-8.7235498 31.611179 0.26232266
-8.4415455 31.696384 -0.74176896
-8.7181911 31.466927 0.25143403
-8.8346596 31.394144 1.3638113
-8.8366995 31.609625 1.3877703
-9.0254793 31.495338 -0.028667025
-9.1198187 31.461266 -0.54879504
-8.453083 31.521317 0.76258808
-8.5281582 31.507982 -1.2411386
-8.8066654 31.376823 1.7508869
-8.442934 31.689398 -0.035009895
-8.5065594 31.599131 -0.23675847
-8.435667 31.587862 1.3650733
-8.4405909 31.587927 -0.1420377
-9.1435337 31.42996 -0.75107265
-9.1505003 31.424389 -0.5422464
-9.0041046 31.357828 -0.74171937
-9.1909819 31.641514 0.54571003
-8.4330292 31.594078 1.1604816
-8.5115099 31.691008 -0.23733066
-8.7377796 31.603479 0.15754937
-8.9274645 31.363642 -0.72960949
-8.9258385 31.372959 -0.84395444
-8.4826097 31.635273 2.4766679
-8.9229708 31.36602 -0.53905427
-8.5284014 31.302389 -0.53839403
-8.4082069 31.233648 -0.82973206
-8.5041103 31.596466 1.0612136
-8.9260483 31.370508 1.853496
-8.9209509 31.371771 0.56893378
-8.7320604 31.603065 -0.037098221
-8.4369717 31.58812 0.35755998
-8.5261755 31.507519 0.36102977
-8.9399433 31.372589 1.755728
-9.0081892 31.36977 0.96649098
-8.9436169 31.364513 -1.9280002
-8.5254087 31.511261 0.16325651
-8.7327003 31.406357 -0.94101417
-8.5205412 31.508085 1.2619413
-8.9302979 31.371353 1.6658539
-8.4400711 31.689505 0.55859077
-8.4366217 31.590437 0.86026895
-8.6334553 31.481848 0.76256162
-8.3529272 31.631109 1.568777
-8.4358015 31.597425 1.5622537
-8.8332167 31.363192 -1.7577691
-8.4290934 31.513184 -1.6344935
-8.9324875 31.380728 1.4599028
-8.4314709 31.599688 2.1513665
-8.4340191 31.589003 0.26333186
-8.5268345 31.50816 0.26047063
-9.0808563 31.524075 -1.1186434
-8.6451921 31.428394 0.68054062
-8.7052746 31.648207 1.2272478
-8.4346189 31.58824 0.46008903
-8.840168 31.321281 -1.7488135
-8.3426161 31.614841 1.7577575
-8.4581261 31.415543 1.6571442
-8.8280163 31.332478 1.8617816
-8.56703 31.421955 -1.741298
-8.5035276 31.60247 1.2595298
-8.937645 31.363749 1.9304444
-8.5669909 31.44433 0.2639547
-8.4958677 31.310362 -0.82838553
-9.0169783 31.36931 0.76965284
-8.5015221 31.770752 -0.34348568
-9.1357002 31.466806 -1.2341895
-8.8228817 31.36689 -1.5288985
-9.0383348 31.502195 0.95212322
-9.0269175 31.391325 1.1648108
-9.331871 31.371759 -0.12648408
-9.3274822 31.376028 -0.03604047
-8.4317875 31.595003 1.7544459
-9.032197 31.495846 1.0883276
-8.6207581 31.636652 -0.33115643
-8.6879673 31.507416 2.4435682
-8.8393354 31.384096 1.9593719
-9.0332851 31.488607 0.45040077
-8.5111713 31.77062 -0.44177172
-8.7236328 31.613182 -0.23632929
-8.5068274 31.21801 -1.0358452
-8.7197599 31.468075 -1.0455178
-8.5150003 31.22583 -0.52877498
-8.7219448 31.604675 -0.3487615
-8.7220478 31.317339 0.048544955
-8.8336468 31.403507 1.060438
-8.8324223 31.301031 0.16500524
-8.5008383 31.331808 -0.71789336
-8.8347616 31.323179 -1.6327373
-9.0208855 31.367077 0.26203978
-8.431097 31.604761 2.2658715
-8.6820107 31.649231 -0.045899238
-8.5119839 31.787756 -0.6374734
-8.6074591 31.305084 -0.50866795
-8.718914 31.466537 -0.72792965
-8.6335611 31.416731 -1.2318784
-9.0559492 31.557716 0.48822135
-8.9221706 31.376871 0.75764549
-8.4280252 31.785221 1.5638732
-8.6422195 31.396671 1.473533
-8.5148468 31.781216 -0.23785527
-9.1264229 31.455637 -0.33665636
-8.9285383 31.526524 0.16005424
-8.9534626 31.528347 1.2731764
-9.0383072 31.306019 0.36713821
-9.0336132 31.493418 0.359698
-9.2316113 31.409788 -0.23455487
-8.6244678 31.414167 -1.4379886
-8.4419889 31.691372 1.3581581
-8.8495169 31.340008 2.2573507
-8.5114603 31.696777 0.36027533
-8.9027205 31.487013 1.9174517
-8.9358463 31.525532 0.95570946
-8.9307346 31.524195 0.26297146
-8.9257936 31.454788 1.8885727
-8.2634563 31.790802 -0.036675729
-9.0109138 31.547884 1.439785
-8.8286247 31.391945 -0.23834364
-8.8322906 31.399895 0.9583509
-8.9343328 31.524616 -0.05206402
-8.9379549 31.522589 0.46270385
-8.7174654 31.460926 1.145712
-9.1547327 31.417023 -0.34440723
-8.9357624 31.539103 1.1815221
-9.2284908 31.404907 -0.6353485
-8.944849 31.522753 0.6696353
-9.1628866 31.545879 1.3927245
-8.5232954 31.49473 1.6598021
-8.6263571 31.482851 0.55948776
-8.5172157 31.599773 -1.0336548
-8.739645 31.423105 0.86895174
-9.0373297 31.308073 0.86345351
-8.9412642 31.52519 0.56221443
-8.9439116 31.517023 0.052934125
-9.0286961 31.515272 1.2477512
-8.4435892 31.695362 0.26062658
-9.0292358 31.491596 0.16851753
-8.7653961 31.45001 2.123781
-8.9610138 31.526644 1.0697283
-8.9251204 31.37533 0.86968684
-9.1701956 31.639423 0.43524504
-8.6510324 31.320688 -1.1508844
-9.1379242 31.490358 1.4673141
-8.444026 31.688992 0.7596882
-8.8256159 31.569895 -0.42846856
-8.580718 31.300331 -0.67630017
-8.843276 31.313383 0.89990819
-9.1136103 31.283949 -0.43760598
-8.626606 31.481318 -0.029551085
-9.1479807 31.491592 1.3551966
-8.9120159 31.556538 0.4737317
-8.9049368 31.558386 0.34923309
-8.6259937 31.475782 0.36049137
-8.6252384 31.475286 -0.23225023
-8.718626 31.466412 0.17311873
-9.1907778 31.447369 -0.96276128
-8.5932455 31.66749 -0.23538086
-8.9384785 31.32869 0.85042858
-8.6283751 31.475479 0.26351175
-8.7218447 31.632809 1.2600398
-9.2043886 31.407873 -1.1425126
-8.8397617 31.287426 1.2599423
-8.8392725 31.501928 -1.4138136
-8.8481865 31.584286 1.0451951
-8.9403677 31.315172 1.1522613
-8.5450983 31.430626 0.170118
-8.6322746 31.481689 -0.13944381
-8.4115505 31.290136 -0.84027427
-8.6332188 31.766941 -0.036557112
-8.6063337 31.588423 1.3524197
-8.5109272 31.69313 0.25960213
-8.4189529 31.295679 -1.1439844
-8.6187391 31.514206 1.5653565
-8.6082697 31.655222 -0.34342244
-8.6234245 31.476023 0.16148156
-8.4253368 31.693344 2.3569276
-8.8207951 31.457378 0.33936965
-8.8366613 31.572412 -0.73779851
-8.734643 31.59358 -0.92151326
-8.8319187 31.47546 -0.44283172
-8.4533806 31.697899 1.0620102
-9.0454388 31.379526 1.77262
-8.8250322 31.306494 0.26128784
-8.4318695 31.515907 1.562824
-9.1838503 31.446333 0.7806524
-8.6481037 31.410479 0.16134198
-8.7310724 31.612938 0.056224164
-8.6252975 31.413307 -1.9317509
-8.6276751 31.613457 0.18206412
-8.7227402 31.333485 1.6708761
-9.0317984 31.497488 0.27158907
-8.6480694 31.426712 0.94942826
-8.3487558 31.705698 2.2700915
-8.3384218 31.612486 1.3588629
-8.4202614 31.701101 2.4631147
-9.1524124 31.439032 -0.63868248
-8.8252611 31.57 -0.84080696
-8.6307983 31.483179 1.0559202
-8.346365 31.700823 2.3571866
-9.2566633 31.41293 0.96270657
-8.8242502 31.396563 -0.036316216
-8.346591 31.701117 2.1584325
-8.7081623 31.436991 2.5749767
-8.8187256 31.398777 2.29287
-8.506876 31.600946 0.56306785
-8.4302263 31.600578 1.6584966
-8.5151548 31.595583 -0.34262997
-8.8291111 31.393665 0.56347024
-8.8327713 31.40057 1.5546881
-8.3513136 31.701878 1.8628311
-8.7366371 31.418028 1.1608473
-8.5043755 31.599979 0.45803374
-9.1207275 31.46398 0.45455292
-8.7090197 31.462889 0.66170806
-8.8226204 31.408831 0.86681986
-8.5077581 31.688553 -0.94442809
-8.4403744 31.693951 1.5654505
-8.7237606 31.463598 0.85925591
-8.7198353 31.48196 1.2712872
-8.833621 31.396235 0.76346189
-8.6939669 31.651016 -0.96262401
-8.4243736 31.695011 1.9540401
-8.4112272 31.770641 2.2554111
-8.7413263 31.423885 0.95793539
-8.7400942 31.596966 1.1479681
-8.6524134 31.431461 0.75199205
-8.5148106 31.692095 0.061567567
-8.4369564 31.59775 1.4619215
-9.2083254 31.409424 -0.93838084
-8.8336325 31.392805 0.46024165
-8.6297626 31.703066 1.6654418
-8.8026943 31.475994 1.3761053
-8.5053864 31.600401 0.66217685
-8.4431496 31.691256 0.6590482
-8.446887 31.694258 1.1584147
-8.8228073 31.393024 0.36418453
-8.4295597 31.693302 2.0646365
-8.5055304 31.596252 0.86455327
-8.5189342 31.691587 0.56084013
-8.5090494 31.598198 -0.13336441
-8.8278875 31.395271 0.062729575
-8.5044527 31.595377 1.6493713
-8.7220278 31.472633 0.45528892
-8.8217688 31.472649 1.1640815
-8.7265291 31.420715 1.4429115
-8.8529644 31.31345 0.56291068
-8.5081568 31.602705 -0.035315797
-8.506772 31.692368 -1.0430925
-9.0425091 31.306974 0.060776923
-8.5198908 31.692545 0.66200525
-8.4235897 31.698521 2.1655788
-8.4439316 31.68659 -0.53689194
-8.653758 31.427963 0.86178678
-8.6228914 31.492064 1.260568
-8.830328 31.391399 -0.14067484
-8.4451723 31.700294 0.35793567
-8.8168879 31.457693 1.4590677
-9.1150837 31.28277 0.059612252
-8.5093861 31.594982 0.36435857
-8.5211926 31.788683 2.2534511
-8.5086117 31.599567 0.26408914
-8.8438997 31.397251 1.1510171
-9.1141167 31.285629 -0.035322051
-8.8042288 31.460079 1.5281655
-8.5097961 31.690889 -0.13837485
-8.4315634 31.778603 -0.13805243
-8.5137348 31.693445 0.4604938
-8.4398899 31.691242 1.7592634
-9.3278599 31.372065 -0.33678943
-8.5409155 31.758148 2.3390307
-8.6025867 31.665335 0.66362417
-8.4340353 31.777868 0.061545253
-8.4957495 31.694836 2.2597075
-8.5137138 31.696432 -1.2361289
-8.4256306 31.599236 2.6543326
-8.4226437 31.61978 2.543664
-8.5035782 31.599815 0.060079932
-8.5105114 31.690077 -0.033523295
-8.4312439 31.69178 1.8618323
-8.3287373 31.613138 2.4534345
-8.5184355 31.692575 0.75793463
-8.5127602 31.701502 1.4544063
-8.6401653 31.43491 1.0720485
-8.3475809 31.617458 1.669451
-8.4907799 31.701509 2.4766374
-8.5094614 31.696032 -1.1331072
-8.4402866 31.592196 -0.03427757
-8.9240055 31.372355 0.46173638
-8.8132744 31.451466 1.6506685
-8.6254559 31.483688 1.7468469
-8.3361235 31.611467 1.9724784
-8.7139769 31.458986 -0.6394127
-8.5126514 31.689556 0.15898055
-8.5062027 31.711246 1.6541965
-8.7461662 31.21183 0.35775197
-8.8453636 31.336691 2.0624061
-8.9208307 31.372526 0.36261222
-8.4929104 31.690716 2.359231
-8.5370884 31.299265 -0.9160068
-8.8307209 31.392927 0.26605308
-8.6242294 31.482265 1.672031
-9.1291628 31.3969 1.174971
-9.0187082 31.367496 0.14757341
-8.5963411 31.221855 -0.32481614
-9.1433125 31.399483 0.6600616
-8.4867649 31.759529 2.4200459
-8.9216261 31.373144 0.16228107
-8.492342 31.755749 2.1617217
-8.7932568 31.457396 0.87855393
-8.4809475 31.72578 2.5202572
-8.516057 31.928627 2.3232374
-8.5057306 31.708076 1.561042
-8.6165438 31.597694 0.86347461
-8.8196678 31.485273 0.66867685
-8.8066149 31.509415 1.058401
-8.4971399 31.699657 1.8666598
-8.5021114 31.710506 2.0625155
-8.5038366 31.706121 1.7499672
-8.5011368 31.752926 1.9608603
-8.5108671 31.783743 1.6548691
-9.1206875 31.387636 1.0602984
-8.515605 31.783512 0.36090827
-8.5140305 31.769003 1.4670725
-8.819418 31.578548 0.55910033
-8.5119219 31.779579 1.5602043
-8.4928608 31.698246 1.9468633
-8.646327 31.416908 0.57304376
-8.7323771 31.416674 1.3595886
-8.5072823 31.780607 0.45693913
-8.5078382 31.695015 2.1548364
-8.3386898 31.601608 2.1675866
-8.8458347 31.305151 0.45121947
-8.5084934 31.775408 0.5584963
-8.9256697 31.373907 0.65772265
-8.5086689 31.770363 0.65879214
-8.5075541 31.775177 0.16328526
-8.8364086 31.309835 0.08671651
-8.923646 31.382919 1.3533337
-8.8173981 31.209435 0.1800209
-8.5055552 31.777205 0.26272899
-8.7350512 31.28846 0.25273883
-8.721015 31.468557 0.36793658
-8.8187647 31.571503 0.26023552
-8.613616 31.873014 0.37246323
-8.3356495 31.496546 2.8036754
-9.1573524 31.419296 0.15058489
-8.8296423 31.572132 0.45350477
-8.6601143 31.231339 0.15812291
-8.9190331 31.516249 -1.039417
-8.4301701 31.780481 -0.036950897
-8.6638794 31.433811 1.6350381
-8.9280052 31.371672 1.1556122
-8.4486008 31.522289 0.35563993
-8.6978788 31.654972 -0.88360482
-9.1849461 31.4534 0.17304462
-8.8773394 31.28631 1.1466806
-8.7120733 31.466591 -0.041178208
-9.234889 31.404819 -0.043076236
-8.8545313 31.313093 0.73396373
-8.7215347 31.466587 0.064778633
-8.7272768 31.608664 0.37260559
-8.5127096 31.773621 0.064727806
-8.6423702 31.625042 0.361682
-8.6384354 31.62825 0.2541886
-9.1397018 31.419741 -0.037583832
-8.660202 31.414228 0.4570823
-9.095253 31.566179 0.16640189
-8.8361187 31.326626 0.94719386
-8.4272423 31.780935 -0.53896916
-8.5111294 31.691484 -0.34186915
-8.6272068 31.622122 -0.23700576
-8.4293423 31.782898 -0.64299196
-8.5192509 31.687721 -0.44156814
-8.5158243 31.696375 -0.63511425
-8.4237213 31.78409 -0.43823412
-9.2773123 31.518589 -0.024259312
-8.4341211 31.775234 -0.73867011
-8.5144148 31.693438 -0.73550987
-8.4259748 31.780041 -0.33891267
-8.5108786 31.698065 -0.83430254
-8.8411827 31.305216 0.36359456
-8.6006002 31.675213 -0.5294801
-8.622138 31.657547 -0.44645423
-8.615983 31.672787 -0.038255263
-8.6186848 31.669743 0.06669046
-8.6095238 31.673746 0.27937064
-8.6108541 31.660065 0.35226536
-8.6012745 31.678394 -0.13019355
-8.7180262 31.606161 -0.54345661
-9.2231121 31.407701 -0.74315757
-9.1062031 31.46567 -0.046498388
-9.1415424 31.404791 0.067468956
-8.8241673 31.574398 0.36440328
-9.2136927 31.409435 -0.84365922
-8.5134621 31.777834 -0.036516957
-9.2383432 31.402788 0.16613653
-9.1530399 31.425226 -0.13869762
-9.2337866 31.407898 0.060857184
-8.8911686 31.558708 -0.84606117
-9.2135696 31.409607 -1.0383989
-8.9066648 31.557474 -0.61651176
-8.8239346 31.496199 0.76075333
-9.143672 31.418488 0.4652248
-9.0329409 31.493027 0.064461812
-9.1429195 31.406761 0.54526371
-9.1187868 31.376482 0.77460492
-8.8143282 31.494354 0.25631893
-8.8313494 31.571819 -0.34130043
-8.6298771 31.609545 1.0471271
-8.6479578 31.590887 1.1450357
-8.81672 31.579655 -0.90464103
-9.1526031 31.428017 0.25978008
-8.6104679 31.688944 0.45014662
-8.6502476 31.623112 0.66752249
-8.8273249 31.57246 0.15627392
-8.8091154 31.576384 0.64857888
-8.8251476 31.484224 0.058535952
-8.8311529 31.579746 0.84966278
-9.1930914 31.612177 1.0654901
-8.6168051 31.873341 1.4888234
-8.6877804 31.465958 2.056515
-8.5639477 31.415825 -1.9249125
-8.7762575 31.341055 -1.6244625
-8.886075 31.349073 -2.160161
-8.865653 31.329023 -2.1958051
-8.4276371 31.41785 -1.6202304
-8.47507 31.441263 -2.3142242
-8.7413216 31.324444 1.4939423
-8.5465355 31.408218 -2.3132825
-8.643671 31.406584 -2.3449941
-8.6417103 31.417429 -1.6380107
-8.8364258 31.322821 -1.3387306
-8.6074638 31.457586 -1.96185
-8.731348 31.387251 -2.2931869
-8.80334 31.374338 -2.1261106
-8.6346474 31.465841 -2.0358863
-8.6157494 31.481588 -2.3431878
-8.5059299 31.603762 1.8674655
-9.1526279 31.589745 1.1382139
-8.3289032 31.610376 2.2642684
-8.8084908 31.455873 0.94537735
-8.8006048 31.45686 1.2429519
-8.7345724 31.529274 1.883568
-8.5269003 31.514318 1.5607289
-8.8440399 31.572361 -0.16723821
-8.8152132 31.575657 -0.03285253
-8.8340521 31.381166 -2.0410857
-8.5132732 31.439362 0.96085942
-9.0422287 31.552456 -0.7398122
-8.8766689 31.331654 1.5620258
-8.5309124 31.431719 0.086962879
-8.5405626 31.40814 0.4387134
-8.6389666 31.305326 -1.6614312
-8.8144484 31.461277 -0.21832766
-8.4112768 31.41213 -0.043483835
-8.4214554 31.32423 -1.5283066
-8.5193377 31.314425 0.42884749
-8.3786497 31.447338 1.8872308
-8.424818 31.407078 -1.0350435
-8.6320286 31.576698 -2.2260466
-8.756875 31.311026 -1.0261207
-8.7575693 31.340569 0.90822965
-9.0342073 31.364773 1.6727297
-8.519227 31.785881 1.8507029
-8.549469 31.899239 0.30658895
-8.5185499 31.911703 -0.43822291
-8.7095947 31.673302 -0.21386606
-9.0410995 31.593384 -0.94939852
-9.0296888 31.357117 -0.94868159
-8.562048 31.43335 -2.0009494
-8.3388901 31.296467 -1.4302021
-8.6000919 31.636335 1.6121372
-8.8326063 31.318066 -0.33901161
-8.37076 31.473583 0.1658037
-8.7398996 31.422813 0.65924752
-8.8269796 31.303839 -0.15491442
-8.8997622 31.358896 -2.0196686
-8.8297472 31.321814 -0.51826251
-8.6236286 31.492161 1.1517055
-8.6157932 31.220242 -0.52445245
-8.5991182 31.816635 0.76512313
-8.7317753 31.414944 -0.43602365
-9.1124315 31.279114 -0.33304909
-8.413209 31.366314 -1.1126204
-8.7213526 31.411413 1.746263
-8.7374706 31.41881 -0.034340128
-8.5072956 31.602348 0.75265121
-8.5174179 31.777231 -0.93923134
-8.7283525 31.692377 0.51193136
-8.5271702 31.418098 0.7320742
-8.4948578 31.164566 -0.87157977
-8.3720303 31.526476 0.23022261
-8.6002064 31.802214 0.48336893
-8.6344604 31.773794 0.17972736
-8.6278372 31.816658 0.67641521
-9.2162247 31.600937 0.71559781
-8.8215151 31.684782 1.0053904
-8.4160547 31.302126 -1.3224782
-8.4113569 31.196362 -1.0010383
-8.7154284 31.687529 0.22887263
-8.3493633 31.200579 -1.2344203
-8.6901855 31.678703 -0.16623989
-8.7061224 31.69931 0.79691589
-8.7443771 31.753223 1.5259695
-8.7841005 31.661407 1.6395344
-8.8272505 31.44619 1.7138156
-8.446104 31.69199 1.462579
-8.4874182 31.483341 -2.1243646
-8.3315353 31.606981 2.5546925
-8.6053085 31.781511 0.95347995
-9.1809664 31.445835 0.88091135
-8.5931387 31.44519 2.111073
-8.5257015 31.423168 1.2210922
-8.455162 31.439718 0.56072044
-8.6346226 31.62541 -0.44576144
-8.5079088 31.593334 1.748787
-8.626689 31.616278 0.071099989
-8.3235149 31.618591 2.3635259
-8.6138659 31.450161 1.9202471
-8.5033274 31.623409 2.1644218
-8.307126 31.517996 1.7871132
-8.370616 31.51008 2.4769332
-8.6753616 31.332138 1.0887028
-8.9215746 31.373816 -0.43260282
-8.5217533 31.414333 0.5438242
-8.8342361 31.570452 -0.62965536
-8.4240808 31.411879 1.1611003
-8.4129505 31.691849 2.5617671
-8.5510139 31.415474 1.6374706
-8.515729 31.422184 0.66183281
-8.6724939 31.31218 1.2825823
-8.7368374 31.3027 0.16815339
-8.8525724 31.23971 -0.17505927
-8.3373365 31.53261 1.9781634
-8.3539076 31.2404 -0.56994408
-8.3517542 31.509325 2.3485754
-8.5266476 31.855862 -0.27189356
-8.9029951 31.370787 -1.5218304
-9.0379953 31.366125 1.5523486
-9.2133265 31.492283 0.076859355
-9.1849318 31.461655 0.41164988
-8.515173 31.850561 -0.056596786
-8.9186287 31.366442 -0.63202357
-8.9121075 31.511059 0.84340715
-8.5993462 31.817749 0.25711939
-8.4550085 31.52561 0.56170928
-8.5419102 31.428827 -0.030165944
-8.5897694 31.803171 -0.2862435
-8.6328115 31.86644 0.55409843
-8.410759 31.403473 0.70829022
-8.5978374 31.719511 1.8499968
-8.5503254 31.859356 -0.3408612
-8.9293537 31.373426 -1.2376238
-8.4762001 31.429495 1.0711542
-8.5449486 31.499449 -2.2815323
-8.5263033 31.510614 0.46364033
-8.6088943 31.473528 -2.2659061
-8.7117958 31.72336 -1.0000987
-8.4242897 31.405533 1.5285529
-8.5180216 31.466722 -1.9504287
-8.559907 31.432087 -2.2223673
-8.5082836 31.619274 2.2395227
-8.8452454 31.490919 -1.3401517
-8.5936184 31.548594 1.4975234
-8.6261778 31.491266 1.85665
-8.628912 31.325935 -2.311625
-8.4817362 31.410589 1.9258881
-8.5237474 31.434626 1.9075948
-8.6590366 31.546177 1.8535993
-8.5496979 31.344172 1.7212591
-8.4212713 31.486458 2.5583062
-9.0328951 31.304049 0.16199061
-9.0349255 31.306286 -0.039245661
-9.0270939 31.477888 -0.93593776
-8.8354158 31.474764 -0.7361595
-9.1196222 31.285746 -0.14314607
-8.7098856 31.612989 0.86055815
-8.4489117 31.510239 1.2697858
-8.9331846 31.315252 -1.044609
-8.4123068 31.309765 0.83813316
-8.519043 31.379545 2.2637749
-8.9387693 31.318642 -0.63583338
-8.4270697 31.530661 2.3423352
-8.6012182 31.7589 1.3284295
-8.637785 31.331142 -1.9323616
-8.4434748 31.500729 2.1835146
-8.7320528 31.415428 0.35551265
-8.8286648 31.539011 -0.82688832
-8.4486961 31.501844 2.2506621
-8.6016397 31.802317 1.2866554
-9.220932 31.411299 -0.53815967
-8.4021111 31.321499 -0.061624408
-9.2032509 31.317928 0.16514346
-8.5465422 31.410189 1.196232
-8.7039518 31.464348 -1.8593987
-9.1762924 31.557163 0.97686297
-8.7177563 31.357027 -2.1907661
-8.6390839 31.423681 -2.0118492
-9.1918087 31.475386 0.96584368
-9.1296234 31.552805 1.0269098
-8.7343702 31.40959 -0.1415697
-8.8174467 31.466778 -1.0492538
-8.6240788 31.481575 0.96183789
-8.6384277 31.41988 -1.1441909
-8.6424484 31.617222 -0.13658816
-8.7069635 31.212997 -0.034949563
-8.567296 31.382101 2.3536122
-8.7279758 31.603645 0.55381894
-8.7474747 31.309929 -0.95324707
-8.3520365 31.379829 0.55877423
-8.990653 31.467651 1.7511983
-8.7397299 31.418579 -0.64135092
-8.4431505 31.52054 0.86278415
-8.4375992 31.518488 1.157775
-8.7193689 31.312895 -1.2435222
-8.7607746 31.398132 1.9582515
-9.3400106 31.36272 -0.53913045
-8.8525906 31.498678 -0.91849053
-8.3399506 31.389786 1.0429786
-9.0193024 31.365532 0.57000917
-9.0348692 31.601065 -1.451911
-8.7264967 31.317757 -1.0958452
-8.9324064 31.520435 -0.54025817
-8.8881569 31.560223 0.66762781
-8.9369793 31.549866 0.80727625
-8.9315243 31.309063 0.26054266
-8.9085674 31.560575 0.94975853
-8.9385967 31.528509 -0.33186898
-8.4003 31.441416 1.9100485
-8.9088306 31.568127 1.2645125
-8.9384899 31.31209 0.15793122
-8.9419155 31.321457 0.064016715
-8.4470596 31.339664 2.2931006
-9.1907778 31.682867 0.43892047
-8.7351561 31.424673 0.76479
-8.8194704 31.388704 -1.4301637
-8.711071 31.460155 -1.7773309
-8.5246849 31.511904 1.0625334
-8.5951729 31.853546 -1.0131681
-8.4742718 31.399296 1.2853899
-8.4494801 31.51631 2.0793214
-8.6631498 31.482208 2.1238689
-8.7360306 31.603638 0.65938991
-8.8279457 31.395638 0.16892655
-9.0275116 31.348137 -1.2353169
-8.7207289 31.417377 1.8639622
-8.7364292 31.415636 0.26359698
-8.6386595 31.40995 -0.84048152
-8.446002 31.695925 -0.33935025
-8.7337446 31.417435 -0.543028
-8.7316275 31.417282 -0.33747998
-8.7413378 31.422493 0.56038111
-8.7362633 31.415127 0.46076652
-8.7319269 31.41036 0.16133457
-8.7444077 31.42082 1.0646203
-9.2173023 31.592899 0.8776139
-8.8243504 31.304873 -1.437008
-8.6359158 31.620161 -0.044260457
-8.5006971 31.882933 -0.63051635
-8.7055683 31.454124 -1.6881416
-9.2806406 31.46162 0.92109638
-9.0156851 31.36561 -2.1476879
-8.7169437 31.333221 -2.089422
-8.6053715 31.785128 0.058958963
-8.5869703 31.809088 -0.44914091
-8.7344389 31.413973 0.061454736
-8.5433578 31.885906 -0.51088077
-8.763073 31.367035 2.2615042
-8.5845652 31.946342 -0.047931518
-8.9047489 31.387215 -1.7542558
-9.2033062 31.480036 0.65690869
-9.2252398 31.670946 0.56959212
-8.583127 31.897562 0.023540704
-8.8337698 31.490185 -1.1494091
-8.4384642 31.591944 0.16008519
-8.5119581 31.601696 -0.43619657
-8.3735018 31.297293 1.189629
-8.3890896 31.428759 2.3735931
-8.8321161 31.564169 -0.52892697
-9.0600014 31.503792 1.5378182
-8.4811993 31.578644 2.7290285
-8.38906 31.532719 2.7890334
-9.0426855 31.581591 -1.4904816
-9.0056057 31.592319 1.3357904
-8.9370775 31.508387 0.75185633
-9.2346334 31.468863 -1.1231583
-8.3506355 31.224375 -1.0331535
-8.7248049 31.411572 -1.0346239
-8.7431889 31.325853 -1.339564
-8.9425144 31.524021 -0.22972761
-8.5194979 31.511076 0.95687169
-8.7054415 31.399532 2.6983163
-8.9069891 31.502945 -1.3335103
-8.7424088 31.221439 -1.1354525
-9.2290506 31.406076 -0.33383179
-8.9387665 31.316244 0.36529022
-8.665514 31.341791 -0.88300419
-9.3280506 31.403078 1.0591972
-8.6688395 31.311899 -1.0163611
-8.6559687 31.330141 -0.93187141
-8.5543633 31.458424 2.2631307
-8.7388868 31.416002 1.2626016
-8.8310976 31.39027 -0.34220487
-8.6343689 31.296179 -2.0844004
-9.0203609 31.375647 -0.32691991
-8.7179518 31.606171 -0.43229529
-9.0215063 31.361376 -0.53369492
-8.5180349 31.443129 1.5540296
-8.813652 31.575718 -1.2647899
-8.4806976 31.533045 2.5443945
-8.6354837 31.46641 2.4641907
-8.4860172 31.537018 2.1281242
-8.6093435 31.466757 2.2323613
-8.6576424 31.420792 2.6165547
-8.9211617 31.568996 1.4341459
-8.7607403 31.30961 0.9135409
-8.6219921 31.56127 2.4334798
-8.3206844 31.709463 0.063077465
-9.1251154 31.28207 -0.23518203
-9.1902962 31.424711 -1.2082957
-8.5847178 31.205887 -0.41817397
-8.7468987 31.380692 -2.4025874
-8.6248503 31.480011 -1.1313027
-8.9380054 31.320366 -0.43518949
-8.433259 31.277517 -0.44011393
-8.6798601 31.337278 -2.1739047
-8.6255388 31.475092 -1.034938
-9.0123138 31.498611 -1.2096963
-9.0263968 31.479523 -1.1571026
-8.4356604 31.409893 2.1591253
-9.0680027 31.451443 -1.3503798
-9.019846 31.49398 -1.4175755
-8.9151754 31.353861 2.5158405
-8.6245518 31.457043 -1.8313932
-8.4371185 31.497059 1.9691033
