# .PCD v0.7 - Point Cloud Data file format
VERSION 0.7
FIELDS x y z
SIZE 4 4 4
TYPE F F F
COUNT 1 1 1
WIDTH 1339
HEIGHT 1
VIEWPOINT 0 0 0 1 0 0 0
POINTS 1339
DATA ascii
15.744119 19.071838 2.2506402
14.188888 18.3356 1.3511056
14.16726 18.335917 1.0495554
15.60984 18.807306 -0.73288202
15.628641 19.01889 1.776294
14.324574 18.423641 0.82825482
15.626383 18.907261 1.301235
15.541162 18.992094 -1.7572356
15.779712 18.940645 1.0557624
13.922354 18.227304 1.8969615
13.883018 18.369019 0.80189264
15.546466 19.055365 2.5430274
13.957668 18.469643 1.099282
15.38326 19.070284 0.85749245
13.786257 18.247164 0.83304971
16.163452 19.148447 1.512781
15.398026 18.992809 0.36040369
15.176722 18.894812 0.31288925
13.674342 18.195633 0.85503548
14.773236 18.872374 -1.5708323
13.995049 18.326393 1.13557
15.386334 19.096397 1.5759561
15.456947 19.115995 -1.4283968
15.032516 18.963091 -1.4306452
15.483465 19.146332 0.25917572
14.720676 18.52149 0.81497061
15.685192 19.178087 -1.1414042
14.672442 18.51775 0.78029972
15.739331 19.182535 -0.24320185
15.453295 19.090084 -1.6720816
15.457994 19.112183 -1.7152019
16.472807 19.426643 0.85774779
15.488461 18.831131 0.78715253
15.494044 18.790245 -0.9645285
15.405829 18.965881 1.2510186
15.270837 18.898544 0.63252056
16.444889 19.27898 1.3690169
15.477654 19.152912 -0.15910763
16.451754 19.242165 0.66906196
15.145378 18.779694 1.2793341
14.550879 18.485434 1.3575603
14.854564 18.672628 0.66787064
14.570115 18.498655 0.75144804
15.360329 19.092651 0.06546621
15.142575 18.750263 1.3364965
14.008533 18.402252 0.2810446
15.27485 18.81007 0.6734975
14.003475 18.386665 0.56558126
15.533273 18.934841 -0.48797959
15.541087 18.962221 -1.0298105
15.526035 18.909121 -0.52108657
15.039768 18.887316 -1.2351856
14.002495 18.383932 0.86138207
15.036448 18.884554 -1.1276407
15.529387 18.914478 -1.1340741
15.40698 18.920395 1.5799866
16.434343 19.239523 0.87908453
15.505961 19.157476 -0.23222539
15.262046 18.900551 -1.3328215
15.220007 18.936518 1.3484209
15.375219 19.099138 -0.12939681
13.665276 18.185917 0.64811063
15.068085 18.968918 -0.24448043
14.227262 18.44223 1.2980046
15.044515 18.890474 -1.4361799
15.038629 18.887812 -1.3411206
14.000452 18.373817 0.66055226
13.664192 18.198294 1.2728007
15.402977 18.915253 1.2619195
15.243441 18.876068 -1.6100819
15.288432 18.800959 1.1477262
13.660351 18.186077 0.94979459
16.172651 19.163359 0.87718058
15.220386 19.037176 -0.65510291
15.656718 19.196957 2.6346638
14.048011 18.327042 0.87180585
15.638468 18.927198 0.66338009
15.636131 18.932457 0.34362847
13.895849 18.26516 0.45946118
15.753835 19.267509 -0.65601695
15.469435 19.168901 -1.4582685
15.648071 18.929192 0.54332471
15.557565 19.162695 -0.42699754
13.662051 18.179043 0.4494378
14.557042 18.523972 0.86384279
15.987121 19.100052 0.84759438
15.190382 19.014231 -0.035900299
15.744354 19.179321 -0.94087183
15.24497 18.892275 -1.2611301
15.358357 19.07732 -0.46628249
15.169312 19.003487 -0.31184658
15.456359 18.833519 1.3441081
15.175828 19.027767 -0.24711631
15.649902 19.194609 2.833456
15.650991 18.933128 1.3755651
15.366058 19.093494 0.16213281
15.056661 18.708923 0.74187893
15.646296 18.933559 1.4953892
15.28884 18.788479 0.74783665
15.660881 19.176958 -1.8303292
15.456203 19.069195 -1.352088
16.451664 19.215334 1.3522131
13.65624 18.177956 0.76841879
15.031919 18.89171 -0.7389549
15.050373 18.840328 -0.54146624
15.465736 18.91864 2.4490235
14.591162 18.525602 1.0746295
14.45598 18.441196 0.6701228
15.095434 18.711714 1.242312
15.164347 18.720352 0.68122703
15.78469 18.995195 1.248032
15.785189 18.919067 1.2625625
15.345513 19.073776 -0.24468221
15.260132 18.906887 1.0518471
15.598175 19.105074 1.565294
15.400283 18.973902 -0.37432384
14.354371 18.434092 1.4189283
15.739886 19.176132 -0.73572773
14.900935 18.956554 -0.93647832
15.752899 19.182161 -1.1349407
15.045105 18.964584 -0.53855145
15.481314 19.173101 -0.33836886
15.741632 19.179373 -0.83674443
15.542766 18.993259 1.5739172
15.640808 18.913242 1.1525019
15.766491 19.068439 1.3399903
14.572561 18.566143 1.154388
14.553623 18.516178 0.47805983
15.5273 18.907291 1.1260381
15.753305 19.181086 -1.2376134
15.5474 18.972244 2.6727707
15.554072 18.904562 2.6453001
15.165565 18.777201 0.55148625
15.545765 18.9736 1.7461811
15.461301 19.010723 -1.9246807
15.468323 18.977552 -1.6400763
15.674586 19.264338 0.15861976
15.492569 18.82597 0.86187798
15.181978 18.735706 1.2454336
14.570759 18.548157 0.86594355
15.589279 19.061813 1.3495835
15.335477 19.092741 1.3052528
15.761387 19.017355 -0.93913692
14.372018 18.484774 1.243724
13.65542 18.188961 1.156129
15.083041 18.711044 1.1881528
14.455801 18.44232 0.59820378
15.782115 18.981148 1.0733844
15.660964 18.911797 1.0606332
14.282789 18.3983 1.1569165
14.432181 18.425516 1.2318764
15.387275 18.972357 -1.4345325
15.468837 18.968975 -1.3405296
15.585504 18.913841 2.280174
15.53566 18.921642 1.8718235
15.054237 18.704781 1.0693444
15.556397 18.896564 2.3793013
15.985405 19.059599 1.2577658
14.357927 18.423878 1.1651233
16.450325 19.227806 0.99288291
15.405979 18.965435 -0.55372876
15.72038 18.917995 -1.1722586
14.767389 18.598047 0.95433968
15.410235 19.09425 1.1694082
13.707612 18.219969 1.3251295
15.442224 19.127653 -2.0011809
15.28025 18.884476 0.92471129
16.483124 19.292622 0.8644377
14.764227 18.895557 -1.7548747
15.285999 18.953457 -1.0575905
15.075726 18.703947 0.86831522
14.061081 18.326132 0.76268345
15.26838 18.91787 1.1845732
15.271867 18.876827 -1.0871198
15.230712 19.02247 -1.8908027
15.546672 18.961334 2.2861631
15.284474 18.812334 1.3483653
15.552111 18.893419 2.4576383
15.397481 18.968792 -1.0392723
13.558553 18.178368 0.76974738
15.962825 19.088139 0.9553709
15.929236 19.04813 1.6850694
15.22174 18.931904 -0.79532057
15.380434 18.949913 1.6426301
13.872033 18.275187 0.56660718
16.46925 19.285435 0.96431834
15.681952 19.127966 -1.1376314
14.977658 18.884291 -1.4375587
15.54282 18.99049 -1.3271337
15.734705 19.131964 -0.9439345
14.390834 18.433933 1.3423812
14.801483 18.610394 0.27547061
15.400411 18.906639 1.6668185
15.757836 19.114801 -2.0482614
15.669983 19.184454 -2.0346818
15.400827 18.971502 -1.1481754
15.400892 18.981297 1.159958
15.37174 19.074566 0.33448887
13.662225 18.35578 1.0525781
15.250494 19.020012 -0.51045895
15.895205 19.273394 -1.990873
16.071327 19.176128 1.0549712
14.379951 18.433128 0.74093294
15.6815 19.181267 -1.7347353
15.139134 18.880451 -0.43351018
15.551783 18.903456 0.57136977
15.556764 18.920256 1.7482018
15.571117 19.001446 -1.9542263
13.889449 18.282864 0.67379302
13.578165 18.126091 0.7492162
15.287265 19.069031 -1.4263508
14.748863 18.605438 0.38338065
14.961926 18.832874 -1.0321507
15.385496 18.888968 0.46393877
14.337012 18.437231 0.54074913
15.57592 18.907816 1.0567111
16.41264 19.245775 0.64881176
15.68271 19.177237 -1.2388132
15.734775 19.181374 -0.14200178
15.374319 19.088839 -0.069486544
15.267881 19.076796 -1.3619189
15.264018 18.957716 0.86916792
14.065135 18.31546 0.3733016
15.198885 19.049669 -0.47905234
15.164152 18.916588 -1.1396348
13.767547 18.498919 1.6977155
16.125376 19.248013 0.84278178
14.064634 18.331417 0.55635214
14.001281 18.37657 0.76597536
13.867943 18.263212 1.1337554
13.981049 18.312574 1.7716213
14.949326 18.643539 1.0496054
15.027354 18.812523 1.3678887
13.896103 18.271854 0.85939825
15.012366 18.696104 0.44621599
15.679598 19.288715 -0.036917582
14.706861 18.85792 -1.7640532
13.740402 18.330456 1.772193
14.597169 18.561157 0.61209619
15.04413 18.82918 -1.2289495
15.346641 19.056799 -0.53587449
13.900223 18.285393 1.456795
15.398217 18.901167 0.66653651
14.00942 18.236528 0.66192716
13.990872 18.230139 1.2685475
13.984005 18.242191 1.6917194
15.735323 19.188215 0.36530301
13.577772 18.135117 0.5644449
15.612774 19.207899 -1.0072006
13.578029 18.16946 0.56585133
14.933755 18.688538 0.70515859
15.623414 19.025274 -0.61866593
15.514938 19.085253 -1.2442902
14.486683 18.503403 0.47025046
15.091217 18.821144 0.92744076
13.881454 18.266121 0.95863944
15.579522 19.073168 0.25705475
15.579666 19.007225 -0.44872135
15.239931 18.879669 -0.9152652
13.649849 18.387888 1.4571244
15.544342 18.991926 -1.1279024
15.370485 19.111744 -0.59273618
14.973842 18.689335 0.84639806
15.37692 18.788757 -0.93431151
16.274578 19.213163 1.3734827
16.481199 19.279888 1.045826
15.739879 19.182222 -0.034759268
13.593697 18.17124 1.0498375
14.771785 18.658722 1.0599458
15.737055 19.176126 0.055543367
13.543509 18.192682 1.1722604
15.400027 18.906046 1.1716456
15.171103 18.773212 0.85262722
14.365758 18.437748 0.67790961
15.465684 19.097843 -1.5221748
15.402759 18.906969 -1.3345592
13.544504 18.16938 1.3771393
13.861627 18.223454 0.78893626
14.376207 18.48362 0.75752836
15.389563 18.98008 0.16010433
13.755097 18.215725 0.87901944
15.057921 18.998661 0.15673073
15.579379 19.08189 0.96642113
14.397661 18.464561 0.47736079
15.169632 18.920345 -1.077961
15.293299 18.824053 1.2648277
15.048275 18.989485 -0.33105046
15.402365 18.971466 1.8711152
15.677683 19.262684 -1.9153018
15.575498 19.082432 -0.53441191
15.052138 19.004297 -0.11704105
15.604237 19.109581 -0.66242778
15.547177 19.00602 0.15541106
13.849667 18.22374 1.1961662
15.625998 19.016367 -0.86026478
15.853651 18.989639 1.4501657
15.264471 19.063911 -1.5429807
13.834917 18.220434 0.92291862
14.763461 18.611984 0.66495413
13.677607 18.145422 1.340986
15.458895 19.066498 1.5444543
14.87955 18.612579 1.2437322
14.961486 18.822388 -0.24190781
13.875443 18.273489 1.3368841
13.88151 18.222366 1.2323933
13.904077 18.28063 1.2714574
13.863964 18.282808 1.0657012
15.388468 18.990189 0.064297892
13.835258 18.228058 0.8308236
15.666842 19.306692 -0.67239791
15.736073 19.145384 1.4523149
15.65126 19.260321 -0.54077953
13.628743 18.140078 1.2590231
14.5472 18.498657 1.1819289
14.587818 18.567858 0.93827832
14.571889 18.525721 0.97912687
14.571823 18.49851 1.2656747
14.585863 18.562365 1.3706701
15.584538 19.070444 2.7072675
13.850732 18.239185 0.66942769
16.053576 19.097328 0.97207725
15.561464 19.090076 -0.73550475
13.849398 18.210407 1.0517725
15.036551 18.891918 0.45362163
15.183417 18.796186 0.64626569
15.670609 18.981253 2.4252882
15.121614 18.750731 1.2014111
14.468222 18.424541 0.83570331
15.74826 19.136368 -0.44834721
15.395752 18.905296 0.067375541
15.553922 18.898113 0.37856358
15.408811 18.973522 -0.74635834
15.638338 18.947659 1.4206132
14.67144 18.563005 0.97830755
15.687687 19.015734 1.3123934
14.671458 18.582207 0.44553623
14.686959 18.586391 0.65170193
14.682773 18.577995 0.56075966
16.126516 19.229965 1.1279554
13.594093 18.162466 0.66456211
15.150943 18.76786 1.0450007
15.174111 18.776262 0.94820273
15.464215 18.964638 0.85823309
16.101103 19.190639 0.97590005
14.974362 18.978765 -0.044142295
15.746922 19.133295 -0.73307955
14.966985 18.692198 0.95987469
13.772798 18.38381 0.66495204
15.378048 18.894686 2.7430787
14.96287 18.693235 1.2600845
15.257941 19.108364 0.27186006
15.53999 18.907021 -1.35209
15.587504 19.088263 -0.35295236
14.861075 18.655102 0.8506434
15.692177 19.180792 -0.041294638
13.766219 18.219593 0.79312593
15.225975 18.884998 -0.21070987
14.062096 18.38718 0.65963209
15.581694 19.062046 0.35864964
16.452797 19.228495 1.0566535
14.770257 18.604971 1.0480632
15.31285 18.916811 -0.55534029
14.96449 18.828821 0.26429993
15.268244 18.907438 -1.1405604
15.831616 19.176521 -2.077143
14.170436 18.406294 1.0731699
15.262394 19.001467 -1.8685222
15.638748 19.044851 -0.41598299
13.767673 18.208557 0.6558919
15.460263 18.966337 -0.14115489
15.572688 19.065367 0.57946324
15.566041 19.097525 -1.2255485
15.660666 19.107063 1.5765394
14.662953 18.566063 0.86738998
15.667121 18.906063 -1.0429387
15.36537 18.990316 2.0307422
15.37794 18.992933 2.1356208
15.402506 18.910938 0.86037803
15.576978 19.101866 -1.9534783
15.458598 18.963892 0.16548601
15.679011 19.129341 0.87208891
15.595699 19.085119 0.66280675
15.058896 19.066135 0.5705632
15.664247 18.996548 0.35258394
15.693281 19.184685 0.058818605
15.694809 19.186922 0.26258796
15.563426 19.099688 2.3629334
15.402651 18.969542 0.87500769
15.678145 19.124283 1.0728137
16.145363 19.094763 1.6322144
15.238362 19.072851 -0.65759522
15.237231 19.029057 -0.23239687
15.413466 18.926378 2.2673163
15.505097 18.929123 2.5589106
15.475446 18.917681 2.0570848
15.406709 18.963337 1.9647245
14.980714 18.969444 -1.3560531
15.476184 19.08054 -0.82574761
15.574313 18.915556 0.65737373
15.597786 19.095161 -1.1427782
15.537849 18.983074 2.3590267
15.188206 18.894985 0.76464051
15.407143 18.901556 1.7553197
16.095963 19.117149 1.4940156
15.263145 19.051895 -0.54137921
15.688246 19.181009 -0.74259615
15.7486 19.129841 -1.1380271
15.049153 18.874382 -1.7338753
15.545706 18.988064 1.0707157
13.666345 18.32309 0.98380005
15.477941 18.975771 2.3628891
15.433887 19.093971 -0.42400303
15.37577 19.003233 -0.013290611
15.673601 19.113071 0.066175118
15.397173 18.967316 -0.83645612
15.187891 18.888157 -0.71037304
15.399066 18.961922 -0.93539602
15.410284 18.965422 -0.12753984
13.654978 18.284637 1.1470625
15.78751 19.267599 -0.716263
15.56335 19.118383 -1.7353343
15.859715 19.004017 0.67345035
15.608064 19.17169 -0.35173133
15.030234 18.968674 -0.43634132
15.577457 19.21069 -1.95827
15.675358 19.142332 2.5634313
15.651253 19.224634 -2.0910439
15.679602 19.300461 0.3709079
13.534316 18.308077 0.23042709
15.732423 19.191231 0.76279849
15.038006 18.984341 0.071054108
15.363067 18.819508 0.84918582
13.990719 18.467438 0.65166682
15.493422 19.059668 -1.0538261
13.730506 18.283058 1.1724348
15.547629 18.979967 1.8437238
15.69278 19.188461 0.66514868
15.350681 18.837513 0.66257811
15.377982 18.814535 1.3667186
15.550559 18.979969 -0.13806799
15.665831 19.28013 -0.34952784
15.776833 18.981384 0.67403579
16.134153 19.107046 1.7275902
15.378369 18.81378 0.97624284
15.054842 18.897797 -1.5220069
15.458098 18.966209 -0.43745661
15.459158 19.067764 -0.63398796
13.541683 18.129025 0.85785574
13.977489 18.309353 0.66545063
15.469604 18.969305 -1.2390792
15.226118 18.862316 -1.7073803
15.457321 18.968397 -1.1360824
15.341457 18.811777 1.1487583
15.457543 18.97006 -0.64289641
14.292892 18.4772 0.48022771
15.49923 19.084459 -0.32652065
15.091413 18.973082 -0.024564236
15.395461 18.931732 2.6436148
13.571217 18.168129 0.37052369
15.468285 18.921152 2.2694724
15.494202 19.06395 2.5909522
15.564905 19.076963 0.44004601
15.65176 19.034853 -1.1385045
15.459617 18.920843 -0.5382244
15.664908 19.113403 2.6474555
15.605619 19.199564 2.0711367
15.180882 18.931705 1.0903244
15.305558 19.10037 0.98351502
15.690756 19.177759 -0.43844125
15.663986 19.216236 2.7664347
15.362684 19.102169 0.26687169
15.583641 19.169569 -0.21488273
15.700721 19.020475 -0.55970562
15.394795 18.907238 1.0626855
14.994466 18.695444 1.4576468
15.698712 18.984501 0.038913973
15.176163 19.013203 -0.42038643
15.044313 18.889393 -1.6324387
15.539671 18.925343 -1.0347372
14.973847 18.971613 -1.1299713
15.470022 18.919788 1.2621121
15.753102 19.129698 -1.0309339
15.469643 18.971973 2.451246
14.638634 18.516499 1.0809562
15.461387 18.919369 1.161237
15.054434 18.753777 1.1308079
15.898438 19.030434 0.7659139
13.571246 18.123127 1.2644812
15.472878 18.919926 1.66123
15.658011 19.184084 -1.9266889
15.740164 19.178514 -0.53840727
15.273841 18.921793 -0.74218863
15.275324 19.091125 -0.2175622
15.647965 19.121271 2.2290096
16.437534 19.242954 1.1804659
15.46222 18.91991 0.26326826
14.463867 18.47938 0.77278173
15.560275 18.92103 0.7547574
15.586444 19.085115 1.9714049
14.435834 18.444279 0.78127205
15.401197 18.962067 -1.2414424
14.564294 18.523237 0.66330457
15.660043 19.270277 0.093043834
15.066637 18.982811 -1.5196445
15.570174 18.995949 0.84899557
15.73766 19.174961 -0.4338994
14.46909 18.481426 1.1527147
15.68473 19.128645 -0.64894432
15.404868 18.967577 -0.63329971
14.970517 18.879068 -1.2362956
13.675236 18.323315 1.6088217
15.077298 18.629698 1.1736257
16.120739 19.196836 1.2392274
15.689246 19.180058 -0.83928913
15.67629 19.284958 -0.83431864
14.253007 18.494459 0.67314351
15.463528 18.969604 0.36639634
14.980684 18.961401 -0.23311405
15.53537 18.986898 -0.64269978
15.035768 18.819899 -0.65078712
15.747976 19.125557 -0.64672238
14.964618 18.884979 -0.53992635
15.467446 18.967295 1.2625026
15.539686 18.925362 -0.23206931
15.686486 19.127073 -1.04406
14.948813 18.824965 -0.34838027
15.691833 19.123808 0.44069377
15.472471 18.973921 2.1515088
13.852891 18.245293 1.3223079
15.745535 19.114674 -0.23873599
14.956529 18.821636 0.85855854
15.587317 19.087452 1.7323474
15.581544 19.006233 1.4579248
15.680779 19.125917 -0.83343381
15.679832 19.130232 -1.2335104
14.059066 18.388754 0.96081048
15.547407 18.999249 0.37263152
15.684038 19.128355 -0.44189647
14.963838 18.832434 -1.1373591
15.360773 18.831203 1.4606798
14.968087 18.882196 -0.93836856
16.144917 19.193037 1.3232104
15.049505 18.811655 0.88547117
15.688605 19.276878 0.46381506
15.401875 18.961039 1.7724814
13.777927 18.508356 1.770411
15.755015 18.992683 0.85966974
15.54158 18.927296 0.8679747
13.68591 18.178802 1.5905585
15.679485 19.129498 -0.74084008
14.451396 18.567541 1.0141468
15.562363 19.099592 0.87581217
15.532403 18.909113 1.5692463
16.058247 19.109047 0.87135828
14.147092 18.388075 0.84658968
15.551403 19.010406 0.058556296
14.143691 18.383413 0.7550568
14.956766 18.88567 -0.034168359
14.961989 18.831324 -0.9479903
14.24525 18.483772 1.0375726
15.682548 19.120663 -0.54605734
15.54766 18.894245 0.47993055
15.390734 18.896439 2.043395
15.68037 19.113768 -0.038037974
14.970599 18.888393 -1.3355147
15.183023 18.773796 0.76692808
15.739556 19.10919 0.88707632
15.057042 18.817282 -0.83651412
14.899498 18.825069 -1.3469663
15.032914 18.808649 -0.35073802
14.172911 18.301853 0.98504686
15.587627 19.160723 -0.52791494
15.688294 18.919395 -0.6131494
15.690658 19.179449 -0.53981704
14.962669 18.881367 -0.33917177
14.075056 18.332001 0.94642735
14.183624 18.494555 1.1590599
13.957219 18.198112 1.1089667
14.067951 18.31942 1.2588055
15.56037 18.907427 1.4743308
15.049398 18.816471 0.49384874
14.969598 18.885296 -1.533628
14.95507 18.675064 0.57010722
14.380891 18.477602 0.5489102
14.809868 18.672787 1.2891574
14.953061 18.950979 -0.76646054
13.674172 18.200867 1.4389112
15.375753 18.801029 1.0861
15.682219 18.989864 2.0730164
14.904849 18.886494 -0.84196877
15.549687 18.999058 -0.84762305
16.469772 19.276529 1.1350189
15.693359 19.187191 0.16512062
14.44839 18.4839 0.65767604
15.369354 18.827709 1.8603338
15.396418 18.824875 2.0303593
15.403693 18.909885 -0.33699405
15.470347 18.915735 1.9632723
15.666491 18.969288 2.4013472
15.500787 19.062988 -1.0918531
16.067425 19.078016 0.76650453
15.473883 18.974724 1.7586368
15.465585 18.917517 0.95658714
15.045286 18.820869 -0.9707371
15.061663 18.797157 -0.25951895
16.366968 19.212982 0.68241769
15.467484 18.975424 1.8552366
13.889801 18.220467 0.51126575
15.676668 18.939831 0.74168992
15.613761 19.22423 -0.65770739
15.681848 19.124146 0.15579468
13.591372 18.176474 0.85752803
15.648338 18.986792 0.88644421
13.586525 18.182301 1.2555628
13.662729 18.317993 1.4895186
13.554624 18.112532 1.3534877
15.463851 18.917616 -0.93705893
15.543618 19.003937 1.9800107
13.982171 18.310917 0.95794564
15.64296 18.878204 0.43889299
15.747265 19.130196 -0.55042422
15.036709 18.898903 -0.23572266
15.060398 18.813951 0.57924122
15.606172 19.165749 -1.2248818
15.670222 19.122776 0.35561264
15.879021 19.065456 0.94388705
15.557617 19.085472 -0.21765715
15.408038 18.910501 -0.64478719
15.057871 18.799908 -1.6084526
13.773663 18.2068 1.1635904
15.262461 18.909573 -0.63054037
15.500709 19.150356 -1.1617395
15.462166 18.967302 -0.53824723
15.826209 19.065908 -0.91384679
15.535779 18.996382 -0.94510382
15.748656 19.130461 -0.83627069
15.395554 18.904198 0.76435602
14.155664 18.380611 1.1586393
14.986279 18.954853 -0.92562956
15.399372 18.905966 -0.44129708
15.021194 18.826733 -1.556801
15.170289 18.994717 -1.6332245
15.461957 18.968052 -0.84087545
15.53496 18.90012 -0.73788428
15.538593 18.901436 -0.95918357
14.471864 18.479118 1.2799653
15.464444 18.92074 1.562007
15.680742 19.133144 0.6349014
15.617674 19.252808 -0.81019944
15.691123 19.180773 -0.13850646
15.758049 19.133057 -1.2405649
15.583253 19.190483 -0.13005887
15.402331 18.912636 -0.74099416
15.461718 18.922997 0.05793586
15.46585 18.913357 2.1669834
14.968922 18.978552 -1.0434663
15.560012 18.982754 1.6539196
15.615876 19.10445 1.8704996
15.694082 19.188887 0.46063986
16.288887 19.222282 0.46345031
15.55837 18.906797 1.2610872
15.67483 19.124311 0.26299712
13.56628 18.175251 0.46833497
15.459375 18.967442 0.26015088
16.10182 19.395065 -1.7259202
15.524206 18.911049 -0.84603918
15.562323 18.972317 -1.2245394
15.467546 18.973328 1.9576756
15.563972 18.962837 2.1548729
15.178085 19.047949 -1.3566604
15.693868 19.185606 0.36443937
14.661618 18.577972 0.78729808
15.461531 18.915518 -1.134984
13.469503 18.311438 0.25959438
15.629092 18.923241 -0.27439505
14.066678 18.33082 1.0667429
13.642913 18.135599 0.77194118
14.969026 18.971067 -0.83802927
16.065542 19.101376 1.0615809
15.463172 18.969343 0.45681396
15.004544 18.991606 -0.47579369
14.966137 18.880461 -1.0388438
15.693949 19.190786 0.56324917
15.882217 19.025299 1.3566034
15.741412 19.120956 -0.15130435
15.557652 19.00342 -0.74008113
14.758156 18.592264 1.1685967
15.36435 19.065681 0.53626734
15.467593 18.91877 0.86092567
15.147062 18.990734 0.079862095
15.683874 19.128523 -0.93575656
15.661885 19.019148 -1.3499185
15.466364 18.920498 1.4633268
15.453567 18.968088 0.06309887
15.462358 18.917915 -1.2355797
16.280636 19.214333 0.65902615
15.465939 18.967815 0.96148753
15.548926 18.991955 -0.53730869
15.467475 18.974691 -1.441018
15.481853 18.924461 2.6610901
15.736659 19.18326 0.26450241
15.85675 18.982256 1.2831241
15.465941 18.967812 1.1605378
15.740292 19.133606 -0.34657446
15.576729 19.07856 -1.3524691
15.541525 19.019779 -1.8586724
14.075884 18.325407 1.1577543
15.673973 19.111162 1.3631154
15.03783 18.886518 -0.93331909
14.970025 18.962141 -1.2451729
15.307346 18.940405 1.3595378
15.29924 18.923937 0.570512
14.681889 18.586756 1.2205368
14.563305 18.559299 0.4685916
13.537724 18.170942 1.5493073
15.028621 18.826614 -1.1315736
14.881608 18.675568 1.0565559
15.511465 19.191227 -1.899269
15.535957 18.966768 1.3600814
14.96085 18.833267 -0.82409877
14.957066 18.826859 -0.038061857
14.697994 18.538744 1.1642264
14.076587 18.320694 0.46204397
14.853507 18.620951 1.3360778
15.464154 18.918079 0.56210113
15.694427 18.824091 0.7097553
15.353775 18.781244 -0.80280828
14.957526 18.881109 -0.23800924
15.470272 18.918892 1.7583182
15.678466 19.27356 0.25129583
15.460728 18.92185 -0.33874878
14.963476 18.882906 -0.63813424
15.538383 18.979448 0.67940766
15.739794 19.181358 -0.33959988
15.727798 19.120815 0.46908957
14.704544 18.534388 1.2480359
15.691728 19.194487 0.86129373
15.53297 18.916868 -1.2414783
15.636333 19.189766 2.9561746
15.028805 18.882992 -1.0386271
15.462923 18.91818 -1.0373821
15.385603 18.968925 -1.534152
14.486739 18.491133 1.0701885
15.467088 18.916979 0.66155571
15.919806 19.090532 1.1241901
14.403041 18.472565 0.63737023
15.462231 18.966118 -0.2459238
15.534366 18.987795 2.0678267
15.554759 18.986483 1.2521924
15.565923 18.998117 1.1799451
15.689031 19.179138 -0.24013978
15.585178 19.11974 -1.6235807
15.387488 18.990316 -0.2360812
15.466326 18.966312 0.65986001
15.582428 19.089989 -0.052627772
15.465567 18.921183 0.46133983
15.502338 19.090954 -0.77550536
15.682611 18.97793 1.1764565
15.474167 18.969522 1.5580373
14.656 18.510738 0.86622822
14.961692 18.832249 -0.63915581
15.459699 18.966801 -0.73030609
15.850591 18.994921 0.83586752
15.462054 18.919468 -0.43801901
15.56682 19.099897 -0.81427222
14.908984 18.827818 -0.23445284
14.879819 18.813026 -1.4396712
15.680063 19.124046 -0.34042487
15.693278 19.191101 0.76415211
15.466141 18.965857 0.76398671
14.059991 18.464336 1.155602
15.217887 19.050289 0.243239
14.159063 18.318733 1.158727
15.468375 18.969572 1.0564358
15.753335 19.26948 0.25735456
16.039387 19.279844 1.1732106
16.081236 19.148602 1.1521126
14.899113 18.894894 -0.14276327
15.548637 18.997057 -0.24356323
15.464948 18.918999 1.0607207
15.764968 18.967901 0.71512169
15.462036 18.968138 -0.042557504
15.686742 19.17724 -1.0357517
14.061584 18.38965 1.2601142
13.779478 18.220127 1.5679972
15.460257 18.9727 -0.33575866
15.311138 19.083675 0.13565134
15.464976 18.918745 1.8551426
14.28404 18.534805 0.86675477
14.28695 18.416557 0.96853077
14.005819 18.391653 1.2598408
15.576017 19.092041 -0.1526147
15.561781 19.005896 0.75520533
15.371815 18.806807 1.2766122
15.478927 18.967724 2.057034
15.630686 18.910782 1.8334179
15.684443 19.128601 -0.23573855
14.956169 18.884272 -0.13438918
15.681531 18.991306 0.65892702
15.647576 18.963612 0.76401067
15.398961 18.96454 -1.3280647
15.464606 18.968628 -1.0367221
15.692026 19.177668 -0.63991684
15.865362 18.9897 1.1649628
15.604508 19.252047 2.2708004
13.683711 18.304785 1.6552167
14.057531 18.32917 0.66260338
14.158572 18.321463 1.2771277
13.624003 18.328337 1.7985673
15.460464 18.965118 -0.9354884
15.517578 18.838953 -1.117934
15.725289 19.079662 1.1001892
15.464533 18.919571 0.3607986
16.398964 19.216415 0.71946973
15.591479 19.086205 -1.0452794
13.755488 18.355146 1.7513666
15.495008 19.110298 -0.23424259
15.596841 19.086576 1.6529469
15.463217 18.96566 0.55552214
15.730655 19.132862 0.69388604
15.171746 18.958614 0.56924307
13.696618 18.252966 0.62378091
15.680924 19.108309 1.6538481
15.076251 19.065638 0.065201193
14.777139 18.601645 0.55380416
15.476307 19.108267 -0.058115557
15.751112 19.034088 -0.35846359
15.472904 18.966316 1.3623357
15.599605 19.082865 -0.95522308
15.28471 19.073223 -0.3191286
15.284875 19.06575 -0.16076633
15.860942 19.010355 1.071034
15.564538 18.984278 0.45354068
15.396208 18.968893 -1.6616884
15.171056 18.99361 -0.57123244
15.75191 19.119921 1.1384671
15.677023 19.124849 -0.13918203
15.68182 19.113384 1.2602936
14.868964 18.629868 0.66080898
13.961583 18.286243 0.7481305
15.668522 19.115696 0.56319875
15.461732 18.916916 -1.3398834
13.491623 18.191837 0.3752431
14.964546 18.883005 -0.83584327
15.396427 18.907991 1.4633369
15.471998 18.973566 1.4599491
15.470703 18.975634 2.5577452
15.64779 18.971624 0.46819535
15.692287 18.963491 0.17095695
16.162308 19.079206 1.1528739
14.155252 18.378349 0.67202705
16.151756 19.110397 0.6556145
15.662864 19.009506 0.54383278
14.151294 18.400158 0.96867746
15.545062 18.910854 -0.65532291
15.461357 18.919561 -0.038757693
16.3428 19.21138 1.3282638
15.637061 19.09845 2.0252929
14.075965 18.478205 1.0700649
13.995891 18.325691 0.86887521
14.902109 18.825111 -0.82949585
15.569586 19.069574 0.77600932
14.171183 18.285328 0.75732559
15.55388 19.003445 0.57659984
15.470551 18.970333 1.6601002
16.105574 19.153278 0.62290996
15.385918 19.003435 0.25594154
13.584002 18.118048 0.50860327
13.68452 18.499222 1.3184305
14.986884 18.694834 1.0577697
15.186594 19.028023 -1.504687
14.853307 18.623671 0.54954308
15.560675 19.10627 0.043309476
16.160685 19.124905 1.0455687
15.664275 19.115644 1.4546955
15.046155 18.806479 -1.0470134
15.574332 19.109062 -0.41939944
15.523293 18.894817 -0.35740587
15.754431 19.009659 -0.72992635
14.65523 18.510216 0.62458396
16.175396 19.124115 1.3834469
15.551755 18.999804 0.97150147
15.64983 19.114967 1.9309602
14.392585 18.473322 1.0559418
14.255885 18.405499 1.0674242
15.37962 18.818222 1.5573393
15.61922 19.219856 2.6358776
13.639177 18.467655 1.2569705
15.391689 18.904099 0.96601933
14.062978 18.387762 0.86188334
14.059109 18.391079 1.1613733
15.661992 18.900595 1.7148333
15.401192 18.920174 2.1586263
14.200373 18.239792 0.74728119
15.617728 19.220556 2.7646942
15.380478 18.978846 1.0416368
13.597786 18.538923 1.4679589
15.685892 19.113953 -1.9420896
15.075849 18.972404 0.62108767
15.568855 19.010078 -0.330957
13.579367 18.112139 1.0771754
15.690043 19.184946 -0.34139192
15.042143 18.707706 1.3580827
15.590632 19.0914 0.14989282
13.704708 18.453453 1.8098084
15.687068 19.096973 -2.0494039
14.000911 18.378685 1.1644573
15.46377 18.918846 0.76015437
15.271536 19.164686 -0.37881723
15.304673 19.086172 0.059871938
15.037157 18.896772 -0.44582146
15.760232 19.098413 0.072677508
15.113373 18.69982 1.4553419
15.166255 19.030321 0.14784591
15.66106 18.93289 2.0867453
13.7111 18.484068 1.8195102
13.722978 18.061056 0.66200793
16.415092 19.247513 1.2719066
14.267001 18.380848 0.55437559
14.894381 18.886141 -1.4435501
15.20041 19.090677 -0.23700124
15.459044 18.97263 2.8449209
15.403664 18.973679 0.67896366
15.090918 18.774529 1.0777433
14.958714 18.833136 -1.3329375
15.035161 18.920412 -0.33966094
15.639732 19.247395 -1.9974207
15.205378 19.048925 -0.061014503
15.070272 18.719128 0.6653626
14.861921 18.664803 0.54023468
13.534993 18.368752 1.5602133
15.737037 19.183924 0.16120563
13.701506 18.290514 1.1096298
15.607758 19.183781 0.14090854
13.884323 18.389881 0.94248939
14.956189 18.977558 -0.12354168
15.041471 18.887253 -0.82417923
14.005306 18.375797 0.96292317
15.765042 18.988314 1.1490612
15.596834 19.254559 0.62588817
16.020147 19.391428 -1.9552299
14.906957 18.878319 -0.94247669
14.968507 18.826155 -1.4418994
15.154222 18.882797 -0.33985618
15.409845 18.915634 -1.0400232
14.89997 18.884583 -1.3299252
15.581528 19.325987 2.4213629
14.968354 18.830088 -1.2338635
15.35643 18.937881 2.8676255
15.052097 18.89764 0.061241388
14.974037 18.817507 -0.43296576
14.863187 18.62262 1.1756392
15.066192 18.902521 0.53632635
14.95771 18.836254 -0.53755546
14.752476 18.645622 1.1931614
15.400421 18.955633 2.7838485
15.281513 18.912634 0.36130667
15.597434 19.285635 -0.0404201
15.250206 18.891132 0.08453951
15.281818 18.908335 0.85730016
16.092728 19.092808 1.6750429
15.033884 18.826408 -0.74743372
15.675943 19.116692 1.160859
14.670925 18.788414 -1.6404529
15.284059 18.865955 0.74717402
14.242375 18.340172 0.81145155
13.591509 18.127848 1.1782615
15.40661 18.965099 2.9505191
16.079199 19.10807 0.66021174
15.399173 18.909395 0.33930841
16.178593 19.128651 0.94016838
13.783873 18.255306 0.64388472
13.631413 18.412409 1.5315665
14.460609 18.48127 1.3543253
15.035076 18.975792 -0.8079226
15.732245 19.190577 0.55740201
15.595609 19.161299 -0.72517335
13.584316 18.459169 1.5512848
14.14759 18.411104 1.2598205
15.675013 19.031284 -0.026136454
14.155591 18.354612 1.3113148
15.544267 18.920206 -0.013204125
14.473262 18.485008 0.96262866
13.630451 18.436115 1.771065
15.29924 18.929207 -1.4882661
15.275743 19.016504 -1.6082857
15.16612 19.01474 -0.14667098
15.390169 18.995678 0.46511316
14.900576 18.893448 -0.23516887
13.632288 18.139912 0.54881912
15.030356 18.892008 -0.02937001
15.399752 18.916925 -1.2369415
15.043103 18.8969 -0.54203272
15.39187 18.913551 0.26302484
15.401985 18.910572 1.3565443
15.123817 18.919483 -1.3202065
15.672365 19.119669 0.7689684
15.672043 19.119211 0.97206181
14.060111 18.387661 0.76343435
13.635455 18.486908 1.6208993
15.520474 19.203426 2.2783301
16.189077 19.155983 1.0511421
14.390933 18.390732 0.44579434
15.729177 19.120182 1.6046588
15.979295 19.082645 0.66480207
15.362416 19.089102 -0.33597425
14.896259 18.690243 0.94573706
15.994331 19.098333 0.77815807
13.779444 18.209782 1.0663136
15.371083 19.087854 -1.5374819
15.397163 18.916775 -1.1350424
15.459773 19.085495 0.07738924
15.734472 19.12273 0.94941252
16.174145 19.162506 0.67072797
14.871486 18.799038 -0.35397211
14.966728 18.69482 1.566522
14.94225 18.615522 0.77277333
14.90841 18.879253 -1.544885
14.001981 18.376446 1.0606806
14.263048 18.400543 0.76637948
16.492577 19.43029 0.66171789
14.968679 18.833584 0.05848363
13.679801 18.367861 1.9318745
15.394827 18.917278 -1.4470088
15.399494 18.902977 1.9475906
14.271902 18.242798 0.79701447
15.479687 18.978863 2.7526929
13.995042 18.397049 0.37577635
15.617282 19.185024 1.9848654
13.604953 18.11969 0.62135094
15.0398 18.887199 -0.63518786
14.952185 18.833223 -0.13493133
16.222824 19.137571 1.3880173
16.312841 19.190166 1.4869267
15.603674 19.303576 0.56958491
15.471178 19.116941 -0.14214528
15.402359 18.909462 0.55128282
15.216152 19.06036 0.1286654
14.364993 18.474434 0.87387919
15.180711 18.992802 -0.65969878
13.828691 18.223139 1.5226285
14.963891 18.823977 -1.5455542
13.857727 18.221291 1.4233973
13.62632 18.130474 1.0816768
13.897112 18.270237 1.7706866
14.465031 18.489252 0.87713563
15.688465 19.179102 -0.93711281
16.077402 19.094322 1.1647551
15.399994 18.971872 -0.44176838
14.880404 18.688248 1.2461041
14.968318 18.891207 -1.6336905
16.275162 19.192957 0.5466904
14.968622 18.883894 -1.1393402
16.270544 19.189148 0.9607771
15.474157 18.972849 2.2605617
13.564583 18.173832 0.95646971
15.690055 19.111826 -1.8241937
14.783075 18.60586 0.86049426
15.263627 18.792767 0.35389611
15.461662 19.096737 2.1787953
15.698482 19.24678 -0.73833501
15.219927 18.970411 -0.81671846
14.559853 18.516541 0.56096059
15.68581 19.123741 -1.738109
14.959296 18.881844 -0.44022834
15.47175 18.890602 3.0711918
15.5146 19.10952 -0.91411519
15.476792 19.092077 2.3827181
13.783092 18.374029 1.3372598
15.031456 18.900358 -0.16427808
15.391597 18.98317 1.3470969
15.046782 18.987492 -0.94935763
13.800898 18.222084 1.334597
15.850991 19.004446 0.94887269
16.47938 19.430073 0.75977927
15.406904 18.916204 -0.93686706
14.935328 18.71278 1.3573557
14.96286 18.881275 -0.73845893
15.131725 18.861582 -1.5792515
15.332682 19.106045 1.6472982
16.245501 19.27224 1.2549092
14.652743 18.518372 0.5528329
14.988855 18.694235 0.75419825
14.924112 18.638508 0.6802572
15.460991 18.919598 -0.73639101
15.314405 18.903645 1.2439777
15.603709 19.239298 0.059763309
15.459545 19.077469 0.40389949
14.060174 18.388889 1.065622
15.202787 19.069475 -0.13290581
14.066274 18.391212 0.55987579
15.30511 19.193937 0.042220131
15.459764 18.920668 -0.84200925
13.677648 18.186743 0.55958021
15.61816 19.205715 -0.84787047
15.405235 18.918779 -0.83760852
15.472007 19.101751 0.17798565
15.615114 19.176695 0.23843917
13.981804 18.304218 1.0716096
16.073057 19.094486 1.2496411
15.032813 19.011885 -1.1702083
14.760841 18.672049 0.85520411
13.755026 18.210798 0.47407117
13.985721 18.315477 1.2727754
15.496903 19.051769 0.26763746
15.409959 18.901012 -0.54339433
15.526782 18.903498 1.3306829
13.771088 18.207455 1.2575221
14.791469 18.742157 0.53307325
13.773258 18.214581 0.57261938
14.301209 18.404568 0.64620674
13.770449 18.290411 0.53346854
16.046814 19.393719 -2.0040059
14.278728 18.403038 0.85626739
15.732902 19.107561 1.2810924
15.572238 19.004717 0.26321709
14.545932 18.853327 -1.844509
13.629483 18.378065 1.6725345
15.073969 18.720711 0.47671348
15.605754 19.218834 0.56966722
14.463376 18.481646 0.57093471
15.389215 19.090799 -1.4420177
15.173281 18.94416 0.11421092
15.771142 18.998543 0.96101856
15.263638 19.009258 -1.5456311
15.229051 19.041651 -0.014721288
14.755718 18.608925 0.76586807
15.39319 19.069649 0.62042379
15.872596 19.143744 0.82131249
15.043135 18.809643 -1.367115
16.209713 19.185724 1.6713496
16.202295 19.164183 0.96516341
15.773847 18.955347 1.489657
14.651087 18.612206 1.4236822
15.691204 18.982367 0.96955335
13.789038 18.229128 0.95498806
14.882883 18.94911 -1.2767361
15.746535 19.259996 0.35349408
15.658979 18.92931 1.5704683
13.726605 18.40789 1.4664383
15.165078 19.019053 -0.89684075
16.371792 19.201395 1.4624618
15.570578 18.897713 0.96027589
15.605541 19.093775 1.0709577
15.078959 18.777302 0.76484716
15.874626 18.99227 1.6428277
13.858058 18.272326 1.6785607
15.184165 18.980213 -0.72693831
15.464359 19.073751 2.2452879
16.391273 19.264431 0.85629016
15.959949 19.16003 1.1412491
15.683732 18.914896 2.3773828
16.383295 19.255306 1.05548
14.973954 18.70178 1.1687932
16.289234 19.137753 1.0958319
15.467358 19.079958 1.8667443
15.530346 18.836319 1.0581105
15.674362 18.956539 1.0645642
15.778975 18.941881 1.504993
15.665725 19.134535 2.1491926
15.121001 18.896431 -1.2641551
15.136631 18.754488 -0.69720125
15.878165 19.069122 1.0555754
15.400463 18.945957 2.2235825
15.96112 19.037628 1.6078655
14.553308 18.471304 0.33279082
14.005744 18.393074 0.47335434
15.176885 18.784597 -0.36393341
15.06089 18.723215 0.94784176
15.394208 19.007721 0.57358897
13.772375 18.219372 1.439072
15.934978 19.040834 0.6469143
14.871112 18.628248 0.87163109
15.408587 18.984562 0.96479899
15.444821 19.008186 2.9254212
15.340144 19.107492 2.1444526
15.544576 18.96718 2.4526455
13.906435 18.316029 1.5507865
14.604231 18.582462 1.2238847
14.772556 18.620255 1.2409844
14.85202 18.628065 0.46469936
13.633674 18.185665 1.0790261
13.811486 18.255909 0.80087554
14.839229 18.606373 0.74326307
14.579652 18.571041 0.55817181
14.898798 18.68018 1.1728415
14.862829 18.654495 0.45651278
15.66493 18.999804 1.2638202
14.366963 18.427269 1.0405589
14.854971 18.609249 1.030038
14.332632 18.422432 0.99697673
15.674472 19.163116 -2.250469
15.150205 18.740877 0.49883512
14.303047 18.492544 0.56291109
14.647225 18.55674 1.1495092
15.131625 18.982655 -1.7707403
15.381615 19.0746 1.3768382
15.048949 18.951422 -1.315842
15.047763 18.979086 -1.2083935
13.774662 18.256027 0.93820846
13.979383 18.31019 0.55502099
16.152987 19.131508 0.79856628
15.477624 18.996548 -1.8245153
15.435596 18.834679 -0.79820657
15.466483 19.103323 0.81804907
14.532842 18.436819 1.0264512
14.083603 18.21974 0.73796505
14.288069 18.325569 1.0640363
15.31944 19.003311 0.80647343
15.253841 18.799671 1.0405045
14.440501 18.55097 1.2408755
15.276689 18.79282 0.98536944
16.152996 19.185413 1.4909108
16.282999 19.261293 0.79938209
15.295233 18.804945 0.82389081
15.49302 18.975601 2.6606395
16.234678 19.169155 1.6023762
15.307457 18.996605 0.15005425
15.535945 18.969597 2.5473406
16.249071 19.182154 1.249396
16.296558 19.191475 0.86772937
16.290276 19.197819 1.152163
16.395576 19.265087 0.96065551
15.293805 18.967693 -1.1156143
15.537066 18.959948 2.7704177
15.275824 19.03256 -1.3532915
16.199039 19.143679 1.6028947
15.552687 18.926798 2.5802279
15.560091 18.89204 2.7487447
15.249707 19.031338 -1.4435714
15.948921 19.03437 1.2866862
15.956954 18.998192 1.3202248
15.87631 19.02869 1.5794814
15.943084 19.037739 0.84371626
16.263248 19.171108 1.0371885
16.275352 19.164225 0.35317308
15.757236 18.991209 1.5692301
14.861315 18.614149 0.96059465
16.127203 19.099958 1.4804337
15.335399 19.055759 0.50733328
15.200246 19.012245 -1.4438603
15.465484 19.09473 0.935386
15.092327 18.840006 1.5782336
15.9449 19.044409 1.036675
15.640984 18.923428 0.99357414
15.462346 19.073627 1.2650734
14.366255 18.504921 1.1866704
15.189478 18.959246 -1.1775045
15.146729 18.716766 1.0300905
15.440973 18.844114 1.5724858
16.145588 19.131386 0.87016952
15.197548 18.93034 -0.10082765
15.407007 18.950104 0.77665168
15.171576 18.87953 -0.9040094
14.705937 18.571854 1.0366871
14.366229 18.575821 1.0312289
14.396162 18.470909 0.96790117
13.628862 18.13625 1.0108303
16.341349 19.199551 0.86533546
15.41987 19.050432 2.7964344
15.157929 18.728954 0.96632302
15.531841 18.958656 2.9741232
14.942375 18.61305 0.94208658
15.593468 19.19157 0.67163706
14.870683 18.614016 0.38923085
13.9819 18.243813 0.87926471
15.408098 18.857164 2.369539
15.48606 19.057537 1.3813883
15.51935 19.049749 1.9355114
14.486982 18.462875 1.4738035
15.070841 18.791367 0.63269484
14.249502 18.345476 1.0100095
13.881582 18.320827 0.76797557
13.760015 18.267454 1.3360814
13.810348 18.268471 1.0459454
14.708197 18.648724 0.7713291
15.128201 18.701899 0.74092972
14.518237 18.545696 0.532363
16.405905 19.20307 1.1607084
15.766491 19.199663 -2.043643
15.488443 19.18412 -2.0177956
15.468396 19.061047 1.4666145
16.259521 19.135227 0.88106418
15.449445 19.096048 0.77504551
15.477387 19.118727 0.67676747
15.374446 19.184826 -0.052791771
15.484242 19.055977 1.7497802
15.482123 19.095905 1.6628885
15.451505 19.119902 0.44707879
15.461937 19.076235 1.1631716
16.312399 19.185301 0.71683151
14.967099 18.837221 -0.7410146
16.423244 19.231108 0.72924447
16.068924 19.14934 1.4651489
16.313517 19.304251 0.82758975
15.158963 18.967434 0.50513065
15.496193 19.111355 1.0466971
13.913069 18.397242 0.51468825
15.157955 18.742931 1.1780907
13.861639 18.346375 0.47969919
15.147217 18.745178 0.56126976
13.915925 18.417952 0.17134079
14.53497 18.559685 0.73810244
14.367915 18.470192 1.5210168
14.867321 18.687746 0.75771785
15.135613 18.699152 1.3921138
15.600874 19.21558 2.1603506
15.574449 19.066341 -2.1257658
15.590276 19.099646 -1.7994809
15.495491 19.051764 2.0925574
15.774052 19.098076 0.76690507
15.60376 19.198698 2.3382897
15.529905 18.920338 2.1801567
16.258652 19.458542 -1.8364344
15.559741 19.049835 2.2225425
14.882194 18.961397 -1.0445254
15.578819 18.882252 2.8656869
15.981449 19.051929 1.1697707
15.469165 18.837093 1.24435
15.201539 18.893179 -0.25419462
13.751658 18.307325 1.4551966
13.896309 18.363613 0.36305103
13.914232 18.349531 0.83214927
14.068216 18.238428 1.3527728
15.471903 18.803783 1.1494827
15.181881 18.915157 0.030636609
13.89806 18.359962 1.5154662
16.188129 19.171328 0.78025538
15.540105 18.929218 2.9419973
15.96796 19.074289 1.4403594
14.873941 18.676363 1.360379
16.039469 19.094696 1.7670479
15.988499 19.071777 1.082839
15.449719 19.050291 0.59116417
15.396685 19.104305 -1.8447688
16.368631 19.193321 1.0539353
16.354044 19.217785 0.94203573
15.960278 19.056683 1.3788414
15.376874 19.110153 1.4700999
