# .PCD v0.7 - Point Cloud Data file format
VERSION 0.7
FIELDS x y z
SIZE 4 4 4
TYPE F F F
COUNT 1 1 1
WIDTH 1531
HEIGHT 1
VIEWPOINT 0 0 0 1 0 0 0
POINTS 1531
DATA ascii
13.051953 43.112877 0.85742277
1.7587441 38.824928 -0.077454016
4.254436 39.770206 1.2611527
33.37677 50.19635 -1.8399345
1.2944136 38.596928 -0.035861582
10.070942 42.002045 1.4667052
-0.65466702 37.356289 -0.56173706
1.6654187 38.130791 -1.1455003
32.176487 50.461987 0.40636653
0.071360514 37.576046 -1.7368288
4.1927533 39.708126 0.76315731
8.0426226 41.226898 1.2447858
14.677609 43.769508 0.46128887
-3.0376234 36.945107 -0.23394267
-1.7425841 36.824707 -1.4433081
2.1568007 38.317345 -2.5452025
2.3978937 39.028446 -0.84189582
25.568087 47.211571 -1.0448036
24.383684 47.50222 1.251915
9.7357445 41.625736 0.35701078
-1.4148676 37.683552 -0.54312462
2.787241 38.653015 -1.3554077
4.7754149 39.921989 1.1348641
-0.64292347 37.229195 -0.63261509
6.9779739 40.776543 -0.63121122
0.52815807 37.748772 -2.5926149
9.7611589 41.870163 0.86163628
25.961847 47.484982 -0.027165385
-3.2593594 36.234035 -0.83513242
0.17196934 37.608749 -0.15184516
-3.731961 36.689144 0.17211048
-0.36372882 37.330544 -1.7299014
24.99577 47.06094 -2.0098171
10.168432 42.004784 -0.46340412
33.833218 50.977276 0.64118057
9.4774904 41.784416 -0.83737868
-3.2220006 36.88924 1.9804147
2.5679712 39.046425 -0.98951155
12.572144 42.975563 1.0548213
26.175774 47.512398 -0.44359151
-0.829027 37.80579 -0.44208661
9.6708841 41.720047 -0.13639237
34.769634 51.408348 1.3546143
-1.6090548 36.96273 -0.41861728
20.533123 45.357201 -2.0220318
23.079466 46.367626 -1.5284562
-1.2001557 37.797161 1.5460753
3.9927239 39.770844 0.10098426
0.24215311 37.528946 -1.2128645
31.945534 49.62962 -1.341028
0.88084567 37.88237 -2.3257442
18.977333 45.374607 -0.19797173
20.982819 46.174397 0.46158463
-0.0475372 38.030853 1.156936
-2.5095582 37.179649 1.1742432
32.055149 50.387798 -0.94432622
-1.2385522 37.028267 -1.1400412
25.664604 47.991478 -0.52779257
20.081932 45.85046 -0.34185371
20.032766 45.859516 0.83313704
0.56259853 37.722042 -1.3344264
4.1815424 39.765488 1.4632652
1.3542439 38.59227 -0.039472062
1.2954942 38.597515 0.058576416
14.064677 43.512188 0.46556252
31.970648 50.38533 -0.54129338
7.0631232 40.731018 0.95346928
4.1928496 39.768692 -0.040015779
26.760695 47.618416 -1.4322013
21.375782 45.709053 -0.33235255
34.460686 50.542183 -1.9241017
32.899708 50.815529 -0.76491171
-4.7180042 35.76561 -0.63253117
18.0917 45.089115 -0.22984584
-4.2354655 36.471279 0.36059752
0.84348154 37.811798 -2.0267189
13.940091 43.40707 2.420558
-3.5310316 36.197212 -0.8401165
4.6817045 39.91444 -0.85064542
9.3514595 41.715324 0.87258816
21.171844 45.662449 -1.3130407
-1.2997065 37.634937 2.2918077
25.961956 47.325912 -2.2410696
34.077782 50.423206 -1.7361497
35.761986 51.702576 0.53340018
10.956039 42.505264 2.2555871
22.550611 46.528332 0.62854731
-1.2374789 37.61504 2.3629186
16.861351 44.575195 -0.44141081
6.7730246 40.871098 0.35352933
0.2844815 37.667278 -0.73951811
14.094322 43.558105 -0.44469529
2.1782444 38.462757 -1.3373364
-2.8295302 36.976063 -0.040562835
-0.35293382 37.943047 0.36870167
26.750551 48.3671 -0.96690249
2.2699699 38.477356 -2.8839207
-3.6142411 36.755035 0.084540956
25.272177 47.180546 -0.93802422
-0.43156707 37.453423 -2.4845679
35.150414 51.497662 0.17390189
0.95195675 37.823097 -1.326071
29.690594 49.505203 0.65509421
16.438234 44.382755 -1.1121119
-2.9185863 36.468227 -1.3273382
0.70815623 38.464336 0.20819487
7.8691678 41.170738 1.0476881
-0.036739841 38.072857 0.5623197
-0.042719193 38.072922 1.8521163
1.8662692 38.221146 -1.7393214
6.7830286 40.780556 -0.25664875
8.2725639 41.365753 1.8800066
4.3581524 39.809895 0.66916096
31.982399 50.401497 -0.61787367
32.198856 50.451271 0.77672195
0.2315781 38.253437 1.699535
7.7723269 41.186287 0.04933998
19.374352 45.656124 -0.53717887
0.46109217 37.726803 -2.2380834
35.872158 51.735367 0.17498349
-0.32306933 37.406796 -0.43738475
35.148697 51.403778 0.45448196
-2.1321778 37.313251 1.583779
1.7682176 38.386829 -0.61907291
16.965645 44.597885 0.83796644
-4.3332443 35.869293 -0.044230849
23.777157 47.120464 1.2596698
0.58187628 37.774906 -0.44269887
-2.4633374 37.13974 0.15116361
6.8947024 40.729755 -0.93554366
26.183113 47.416393 -0.19656304
1.8615497 38.224426 -1.1374547
16.463726 44.395451 0.2522524
2.4589026 38.425045 -1.724021
8.1548758 41.270416 -0.22385091
26.188555 47.556889 -1.0215939
35.093258 50.890282 -2.3553889
1.2844257 38.061199 -1.136241
10.239402 42.064423 -0.71637958
25.052563 47.023613 -0.94710755
9.4860544 41.803295 -0.74759674
6.2043486 40.607071 -0.51848823
-2.7288032 36.473301 -1.5435449
24.068207 46.684948 -2.1360474
24.276012 46.792698 -1.0411935
-0.57643199 37.891846 -0.26031154
25.367332 47.118141 -1.9293095
-1.5123383 37.487652 -0.54399568
-0.096308142 37.555481 -1.2531562
19.492098 45.524715 0.55283684
2.7618105 39.257919 0.056663606
27.775934 48.200169 -0.47291121
0.99546933 37.908913 0.054215062
1.3443844 37.938644 -0.52853763
0.77938092 37.880718 -1.9395285
30.872538 49.218655 -1.2480153
12.489193 42.973129 0.55566233
2.1590517 38.941196 -0.51658922
34.182816 50.517387 -2.334506
6.7772799 40.792053 1.5422516
8.280138 41.308311 0.56495196
13.763862 43.386078 0.1599727
2.3667779 38.459404 -0.067400858
24.585468 47.501015 1.2805198
24.262707 46.781025 -1.7241991
-2.6435728 37.170437 1.7859703
12.494205 42.895874 0.46051678
0.98190004 37.727627 -0.75152606
10.631498 42.272709 1.6963917
24.89963 47.653629 -0.17302047
-1.2289156 37.795349 2.2486303
31.788116 50.299995 -0.51600003
35.860508 51.12088 -1.3421328
25.498312 47.885586 0.063870519
26.765329 47.623009 -1.5208991
-1.9440091 37.386086 2.0475626
9.2073364 41.763672 0.16989657
23.484165 46.506599 -0.16060048
0.24879082 37.618275 -1.942309
26.656696 47.620068 -1.9317219
11.088933 42.386585 1.6538098
6.6637125 40.714893 0.74688286
15.570804 44.083977 0.34551203
34.132774 50.487427 -2.24436
29.674149 49.494198 0.043610778
10.860355 42.295433 1.3397841
-0.99709833 37.701485 2.1331487
13.893715 43.475555 -0.42397565
13.881393 43.475922 -0.82416099
-1.3326257 37.006809 -1.3365339
34.186497 51.131683 0.28870437
25.158176 47.022041 -1.6270071
35.244545 50.819893 -2.0883555
-0.40422148 37.465 -0.82522988
20.546648 44.595795 0.67486113
8.2621241 41.366673 -0.82883257
-0.43409362 37.396412 -2.1318476
-0.73008347 37.225983 -0.63817537
13.573824 43.31937 0.84873855
32.182266 50.467339 -0.92417562
-0.11091345 38.069149 -0.13900858
2.3502629 38.426384 -0.44491845
25.57411 47.209282 -2.0507724
25.764126 47.968224 0.2947661
17.823961 44.978741 -0.60231549
35.197151 50.973534 -1.9183995
20.355337 44.594109 3.1192772
9.6960659 41.875065 1.4670157
16.785625 44.506401 0.16449195
26.277151 47.568615 -1.241286
-0.54890358 37.911678 -0.75211322
1.4648656 38.090717 -1.2397373
25.665522 47.211704 -1.828745
1.6647847 38.188972 -2.0413005
26.677975 48.27055 -0.73571259
34.097988 50.591209 -0.57449031
-1.8419684 37.406349 -0.026553771
24.175306 47.420044 -0.68562138
9.7586164 41.874905 1.0619653
0.63027376 38.455185 1.4176583
-2.2362735 37.345901 1.9255399
13.87401 43.561768 -0.12263615
20.374956 44.690113 -0.83833236
0.50753689 38.414738 1.5630116
35.161182 50.911209 -0.83910733
2.3677962 39.072941 -0.030223241
24.369226 46.813229 -1.2420582
26.173981 47.421143 -0.42862016
1.2714479 38.004902 -0.34718686
8.2915859 41.362595 1.5690405
-3.4363103 36.215748 -0.73721558
32.049469 49.623688 -1.0807984
9.699645 41.799152 1.2639633
24.73262 46.926502 -0.54843473
5.8822141 40.412361 0.95399159
18.953224 45.362358 -0.98964
10.79378 42.350464 0.38988891
33.66906 50.897465 1.0621066
0.8591274 37.814571 -1.7335085
17.365799 44.796822 0.16013654
26.859798 48.390762 0.77439356
9.3848648 41.770473 0.26544681
2.3753314 38.464352 -0.84641355
20.74082 45.338573 -1.4744004
9.1863222 41.766876 0.75862628
18.283377 45.177612 0.87376887
-2.5642095 37.184391 0.61654359
26.19943 47.566528 -0.64729023
17.33411 44.88459 0.41058692
-2.2282155 37.251888 -1.173439
4.1895247 39.76757 -0.14598832
12.498652 42.900391 0.76099384
-2.4317415 37.193848 0.16972226
16.458239 44.427143 0.087799907
27.565252 47.942642 -2.025579
21.74859 46.430569 0.93074381
-0.2975904 37.467148 -1.9333818
35.176643 50.959679 -1.7758015
2.4603989 38.533184 -2.8934424
25.677303 47.968353 -0.46260378
1.6822797 38.276096 -1.8510176
21.623974 46.337639 -0.21239825
-2.1065495 37.294701 0.96941179
-2.5346887 37.154366 -0.70523655
25.788418 47.503284 -0.96128333
4.1883659 39.772144 0.16100833
0.67813081 38.464314 1.020679
1.7756045 38.263405 -2.2240906
15.295167 43.922062 0.35914457
16.716154 44.672318 -0.70747596
-3.1422462 36.94989 1.1062884
-2.3137891 37.280807 1.7731035
5.2731133 40.202927 -0.21276903
13.472763 43.433899 0.26173791
5.4844389 40.268169 -0.6488502
7.8790927 41.196056 0.7701447
32.080238 49.631306 -1.2122858
12.151617 42.734142 -0.795506
24.469988 46.808159 -1.6353179
-4.3730054 35.876289 0.13394731
10.520831 42.129337 0.64018571
0.46704525 38.308949 0.55350333
27.698532 48.165783 -0.83314204
12.894175 43.099796 -0.11770927
11.50887 42.559692 -0.5230574
27.538532 47.928738 -1.728853
34.571045 50.630283 -1.23667
-1.3334812 37.009758 -1.4382792
20.17388 45.808624 -0.92763174
1.505452 38.188995 -2.2421873
24.950623 46.929619 -1.3515713
12.49983 42.911617 1.855303
24.379097 47.397133 0.53670776
1.0689262 38.656193 -0.62416792
-4.228714 36.47794 1.4554332
4.3538847 39.811275 0.061536942
-0.44184017 37.333229 -0.74193591
1.1847591 38.486656 0.93983239
-2.2138283 36.676422 -1.7391002
27.071535 47.792839 -0.32668954
6.3835697 40.604408 1.1519074
33.480709 50.892769 -0.34273493
18.533731 45.159367 1.0466616
2.5786326 38.50399 -2.7631526
1.6348271 38.119087 -2.7112124
-2.5269809 37.192997 1.9513867
13.571096 43.327175 -0.84935904
0.039787568 38.194809 -1.1414132
2.2558558 39.087063 -0.030207004
26.873037 47.714745 -1.1327516
8.5306282 41.286983 0.24158485
13.95956 43.40353 0.15965369
20.267702 45.200012 -1.3368372
1.3550521 38.593525 -0.13752009
-0.4797917 37.959274 1.8345004
25.68141 47.225883 -2.0486271
17.893379 45.053822 0.31701949
33.678249 50.902252 0.26044747
2.565587 38.518967 -2.2265811
13.733628 43.460911 1.7146612
2.7760003 39.173664 -0.53755587
35.261459 51.571751 -0.946729
2.7710965 38.586349 -0.9426083
-1.598628 37.567791 0.75185102
25.775417 47.236904 -1.3557075
-3.4506269 36.132248 -1.5269369
2.2587316 39.004623 0.17200094
26.857292 47.705124 -1.5456939
2.285846 39.088253 0.3879464
0.16291894 37.601414 -0.25991389
35.414948 51.048145 -0.48529106
20.199408 45.038006 0.48280329
15.858135 44.369625 0.18532373
25.273445 47.178398 -0.74835813
1.5709898 38.17535 -1.536049
25.263546 47.105225 -2.0238454
34.186455 51.180077 1.4589651
14.689269 43.780983 -0.46643278
11.248075 42.474903 0.64972246
2.8424294 39.125366 0.56301069
35.864086 51.731762 -0.46233034
33.883217 50.459919 -0.73149413
26.074196 48.195488 1.0660975
12.560664 42.891754 0.76086324
-0.93296927 37.189476 -0.83927977
16.69182 44.58662 1.3561822
26.860353 48.378975 -0.71593291
35.484818 51.666122 0.046546385
35.039955 50.765228 -1.9938602
1.2654277 38.007439 -1.4349098
-0.032976016 38.073624 -0.040852826
25.379585 47.257351 -0.35622603
18.32921 45.043873 0.79564846
16.484964 44.577293 0.49337366
14.48478 43.693924 0.87015676
20.894783 46.177856 -0.81355625
2.0619178 38.319168 -0.83854878
36.313862 51.360634 -1.980265
1.7251461 38.129765 -1.0754756
34.556549 50.627239 -0.9443624
24.684528 46.963669 -0.63518661
12.157574 42.790474 -0.71063668
-0.10612849 38.075188 1.7579629
25.099794 47.164547 -0.64660054
1.1525499 37.932808 -0.83490068
0.17021112 37.614632 -2.233355
21.377979 46.316414 1.2645285
2.1626275 38.3302 -1.1375227
0.39516962 38.244595 1.2525872
-1.5956593 37.579945 0.53489202
-2.2181394 37.235321 1.2450227
-2.4314194 36.592434 -1.4325371
0.079221614 37.574936 -0.64401782
35.159996 51.593376 -0.36588842
12.578663 43.082855 -0.22154522
33.58548 50.360359 -0.53944862
1.7924238 38.212734 -0.039831176
-2.4370186 36.537411 -0.53099626
2.2888281 38.454498 -2.32551
33.169254 50.780964 0.46577701
16.455582 44.419308 0.47192851
-0.74543518 37.222706 -0.83573586
1.4683647 38.102161 -0.73775125
17.414598 44.871765 -0.01555724
29.545565 49.39172 1.0529765
8.2912693 41.305931 0.95815927
22.469168 46.09087 -1.3412623
-0.43195584 37.325466 -0.83292496
0.65128744 38.458332 0.4446193
17.124945 44.631092 -0.93138844
25.165115 47.122894 -0.94463104
2.6835799 38.592579 -1.950639
2.4708264 38.490311 -0.64670873
2.5771456 38.569492 -1.9513265
2.4758894 38.483124 -1.9364356
1.9694484 38.298611 -1.8514209
0.17331651 38.227516 1.5755866
1.2675103 38.018501 -0.54146057
26.266098 47.434097 -0.91370332
2.4680929 38.421875 -1.653108
-0.25244036 38.014389 0.15526623
1.1629742 37.988445 -1.8299376
0.86658728 37.872276 -0.53893429
0.6684866 37.793137 -1.7249016
-3.8499475 36.028786 -1.240393
10.972492 42.310863 1.1653614
29.107933 48.666672 -1.6474327
34.988857 51.396286 0.26848689
1.1835757 38.60664 1.0615242
-0.6121515 37.89291 -0.34147543
-3.6331844 36.098381 -2.5261502
19.571335 45.57748 -0.13652021
14.485582 43.701744 0.024913827
0.23655316 38.24572 -0.17136396
-3.8338366 36.081406 -0.2316314
22.476461 46.091145 -1.5295011
26.192242 48.165707 0.16587164
19.404629 45.533688 0.81286502
13.770859 43.31945 -0.32510012
1.3484164 38.160702 -0.26210091
8.5264931 41.265839 0.8036691
10.868434 42.305679 0.15558666
-2.6209025 37.178818 0.9598425
0.87795436 37.889427 -1.8355401
0.63692981 37.82325 0.39629543
0.75281084 37.731255 -1.2302396
0.66164887 37.72628 -1.2456473
31.786528 50.295395 -1.0107813
22.094753 45.894691 -0.15570042
-4.3225279 36.315586 0.24842772
28.954241 48.516403 -0.64702141
-2.5923891 37.261242 0.59700137
10.372179 42.100388 1.3590858
15.291117 43.919476 1.0661174
-1.1203756 37.766594 0.82019711
28.052071 48.79187 0.26151749
27.372288 48.590256 0.53174317
33.488209 50.966179 1.3475405
15.065359 43.900684 0.16756549
0.77876222 38.460621 1.5651315
29.553768 48.741707 -0.85671318
-0.025687013 38.173313 0.44973162
2.7562613 38.590496 -2.4434526
-1.1858298 37.152077 -1.2893046
2.5484114 38.517677 -2.4497738
4.2418656 39.713013 0.35847643
10.282348 42.086735 -0.52394134
2.0681307 38.320221 -2.4322076
1.8757017 38.268452 -1.1336169
1.3606046 38.012703 -2.3282247
1.1749132 37.985817 -1.0400684
27.80827 48.75898 1.3250713
2.060158 38.321274 -2.1276422
0.85672605 37.828987 -1.0415305
-0.216524 38.031525 1.6811574
32.463215 49.820526 -1.3403122
-3.6065292 36.797474 0.27413318
0.17051056 37.523453 -2.0190473
12.884092 43.027523 1.1871479
2.2022276 39.078953 -0.12009816
2.4083352 38.41684 -0.07371743
30.763651 49.277233 0.093547493
9.3650045 41.727428 1.0511152
30.867538 49.227997 -1.0452412
-1.3474513 37.055275 -2.2625284
30.794704 49.821823 -1.0432111
24.15085 46.622227 -2.293047
2.0223176 38.309093 0.38549361
26.865034 48.381306 -0.56905991
10.060889 41.998226 0.23990592
17.368746 44.810474 -0.038730916
9.2839375 41.613258 0.15966231
26.653791 48.220856 0.85692656
18.941074 45.418861 1.0865343
-1.1165543 37.042454 -0.4784081
35.346153 50.931156 -1.2367127
19.572218 45.578144 0.56044865
0.27846462 37.672268 -1.1345077
2.7726912 39.177879 -0.43639132
2.7748001 39.17062 -0.13503785
-1.9301306 37.384373 0.45817029
-4.1450157 35.929955 -1.0359608
10.182859 42.085876 -0.8333959
24.258669 46.704502 -1.9382894
2.0660408 38.314983 -0.94458914
-1.5060524 37.408516 0.16003434
8.3762875 41.302059 0.16226198
22.448303 46.67477 0.261347
11.170546 42.482407 -0.85843289
26.191605 47.550938 -0.71649987
6.2091217 40.563896 -0.25180036
16.97784 44.587097 -0.55308926
2.3593659 38.423489 -0.94306993
-2.4100621 37.290401 0.45969638
2.0633764 38.311646 -1.5328449
1.7674775 38.207047 -0.94322687
1.8519531 38.230759 -2.1255481
-0.043676242 38.032108 0.75782996
1.4648656 38.087662 -1.5364523
-2.7349811 36.431435 -1.3324403
-2.6337585 37.194847 0.44823751
33.367035 50.192459 -1.9342935
5.5525188 40.274635 0.56581205
25.637268 48.002625 -0.3819204
27.573332 47.987545 -1.9222662
20.375473 44.679569 -0.53636134
33.679916 50.902641 0.35932803
2.769994 38.586834 -1.0406563
1.9716476 38.295586 -2.4372957
1.198113 38.059845 -2.3503234
-4.3113937 36.393066 -0.73746336
2.2832599 38.445347 0.23211087
29.205114 49.348526 -0.020508805
-1.9598268 36.734512 -0.59000564
34.898304 51.468658 1.0963447
19.279661 45.56583 -0.15284227
-3.7024267 36.759972 0.75409144
8.0968533 41.302792 1.749491
2.4622545 39.115379 -0.33741882
20.388779 44.814526 -1.9389775
16.969034 44.682312 0.52054358
-4.0347314 36.67078 -0.468099
9.7676926 41.816704 0.46095219
-3.6321626 36.711292 0.45259249
0.86341298 37.822853 -1.624383
35.648373 51.031078 -1.3488537
26.866028 47.702881 -1.8415734
25.35607 47.039322 -1.8481445
-5.3131795 36.068554 0.45247856
-3.1222188 36.363983 -1.1384181
-3.2975729 36.452042 -0.72692639
22.290047 46.655613 1.0489737
-0.43002123 37.37141 -0.34850562
10.673219 42.22155 -0.050859142
9.362174 41.70163 -0.24331622
34.23999 51.187069 -0.35019666
4.0117106 39.751335 1.686123
15.660689 44.150723 1.774464
35.284782 51.559349 1.3851175
7.1833115 40.89901 0.059538234
2.1772153 38.395855 -2.1401992
2.0890622 38.369148 -2.0453773
9.7624521 41.8083 1.1607456
1.9669057 38.292812 -0.83847117
1.9700694 38.294537 -2.0417819
-0.047502924 38.074276 1.3638732
1.8600636 38.215309 -1.4355599
1.7622235 38.2048 -2.0368018
1.3479404 38.031113 -0.7408976
34.888206 51.335106 0.25695127
6.3743138 40.59856 -0.8435365
-3.9409676 36.020321 -0.94296318
0.17010058 37.592339 -1.4342877
10.195868 42.041885 -0.67426157
17.070648 44.69157 -0.03401541
-0.63017964 37.291031 -1.3354264
-2.2293274 36.684925 -1.5260437
22.175472 46.674232 0.32177743
1.2702378 38.013889 -0.84556311
8.3003464 41.321304 2.2512026
1.6647313 38.128696 -0.32011884
3.9489226 39.732315 -0.39939058
-2.5343938 37.193211 1.6578857
10.695473 42.267521 0.37873271
29.747892 49.520374 -0.44087344
26.862186 48.458374 -0.23673788
12.498218 42.899155 2.0526862
35.146412 50.83073 -1.54208
-2.6327305 37.098927 0.4591037
12.897063 43.085373 0.16864181
15.753555 44.122086 1.0570982
26.898911 48.389065 -0.93250865
18.962431 45.403561 -0.98488641
10.666134 42.226379 -0.50848716
1.8612173 38.213066 -1.8525786
2.4383824 38.545712 -1.9446524
1.4864444 38.184151 -0.4605144
0.15920861 38.207779 1.8677063
8.7666006 41.505428 -0.44232047
1.0597893 37.924274 -0.6409983
0.7831164 37.864277 -1.4409257
-0.74424028 37.225437 -0.9413572
12.774431 43.089676 -0.96525085
13.89465 43.467148 -0.033487488
24.936598 46.937366 -1.6695037
0.37067968 37.699886 -1.9459306
25.759422 47.964901 -0.93161732
34.582375 51.293465 -0.9705292
-1.4302362 37.674995 -0.43073368
2.0651307 38.316383 -0.54683542
-1.4366295 37.573002 1.3609009
6.380353 40.609848 -0.50136513
-2.8247156 36.973583 -0.33898741
32.341297 50.389942 0.56777644
-0.30074286 37.479267 -1.8489963
8.2934265 41.381641 1.352142
25.995716 48.152592 -0.43603337
24.440681 46.725384 -2.2341743
13.806293 43.305283 0.25099695
13.762784 43.456474 2.2121785
0.96601909 38.509247 0.45183456
12.949615 43.111946 -0.45532855
1.3540177 38.597557 0.75990069
10.676769 42.18594 -0.11900948
13.944065 43.335228 0.95589572
4.683567 39.933334 0.24828389
8.2895641 41.382874 0.16447259
-0.03279705 37.511108 -0.94291633
-1.7486753 37.467121 -0.33383197
13.876437 43.471191 -0.74414003
35.280552 50.977898 -1.1382136
0.36160678 37.622719 -1.2447513
9.4632082 41.720226 0.95393401
1.0901035 38.576267 0.42282173
14.062977 43.487461 -0.23562428
20.358841 45.183178 0.64708573
12.983458 43.168255 0.29832858
1.9934254 38.281708 0.048985101
2.279541 39.08683 -0.76168108
-4.5293827 36.400177 1.8580735
19.361193 45.52483 0.14964882
24.172728 47.469479 -0.64437115
1.8442959 38.833778 0.05324823
6.8851724 40.865765 0.44052988
9.4576712 41.878147 -0.42764047
1.4489819 38.597416 0.25490633
-3.43679 36.13139 -1.416885
33.461918 50.899799 0.3770037
24.032097 47.30088 0.738038
10.033931 41.93198 0.52274215
1.4587066 38.698231 1.0672131
1.3577225 38.663059 -0.12844935
24.943916 46.91423 -1.1661531
17.391415 44.809036 1.3352337
0.78499401 38.491676 0.93103182
22.074638 46.526543 -0.19398431
8.8622932 41.590904 -0.14577915
1.898931 38.888363 0.86326551
10.860094 42.282749 0.55347419
-3.5999498 36.772667 1.2234912
-2.5067275 37.280029 -0.36284655
9.6543617 41.963398 -0.13131027
-1.8330202 37.416378 0.62943304
10.395454 42.120075 2.0805304
-0.63052326 37.300354 -0.64309794
31.669788 49.658794 -1.3447707
23.169083 47.053436 0.85734212
27.808933 48.698963 -0.73187405
18.186255 45.029556 0.86273503
-3.8227067 36.083817 -0.54564154
16.552473 44.417698 0.96232826
12.376391 42.898617 -0.44481298
22.053411 46.526237 -0.65167761
29.746675 49.446571 -0.59272498
13.966466 43.560669 1.1447716
5.3900805 40.288097 -0.13434286
1.6539053 38.129433 -1.0472881
10.664591 42.210552 1.6861596
-0.22176139 37.488976 -2.0454929
-0.33594882 38.0023 0.071099177
20.262651 45.346195 1.0879973
-3.713747 36.112823 -0.21099432
35.896423 51.730026 0.64119083
-0.62266433 37.264565 -2.6454382
34.980762 51.330227 0.66291612
10.605165 42.198025 -0.98907155
12.776115 43.090584 -0.25613564
26.677019 48.142452 0.34119886
1.5599332 38.114738 -0.94125527
21.702082 45.878929 -0.54754007
33.382641 50.265358 -1.3444251
2.4643197 38.433083 -1.9322602
24.464972 46.714119 -2.021332
20.374443 44.690086 2.3599043
10.681368 42.285847 0.53847992
34.875851 51.395336 0.9525997
29.536398 48.726131 -0.68657219
29.600014 48.812717 -2.0396423
29.908634 49.656651 1.0933725
30.744694 49.175358 -2.1897581
34.579144 50.756393 -1.078053
2.7746277 38.513176 -1.2316179
5.3807855 40.286682 -0.433943
-0.6330235 37.895546 1.3811072
-0.033758089 37.513432 -1.037623
9.7687483 41.816563 0.36219138
1.0809608 38.120087 1.7646412
-3.0398502 36.315277 -1.4364921
-1.43373 37.507195 1.3611412
1.6742314 38.035522 -0.21486135
10.562589 42.17585 1.4544739
2.6885631 39.162849 -0.83277804
24.338385 47.414246 -0.35315299
0.47730348 37.759624 -2.4141159
1.672052 38.125698 -2.040827
25.775637 47.373825 -1.1306643
10.376078 42.110485 1.0653093
29.572693 48.709122 -1.8280873
18.674931 45.347374 -0.010128428
3.2641211 39.404968 0.65547144
1.2614934 38.778885 -0.023276655
22.064318 45.915337 -1.2408693
31.964651 50.329586 0.48461902
21.047203 46.162014 -0.83919871
-3.1291203 36.397598 -0.024125621
9.7648649 41.814686 0.76325905
27.003838 47.864269 -1.5285352
23.152954 46.386276 0.13963875
7.3356066 40.936443 -0.68736941
33.655357 50.840687 0.38338521
20.712677 46.111847 0.73590744
8.4596729 41.389977 1.6752791
14.48124 43.680084 0.76726466
8.2918568 41.303223 0.063257352
6.0595999 40.550022 -0.51623297
2.7736127 39.128139 0.86377627
16.567244 44.487343 -0.44653869
-2.4322622 36.603046 -1.1395979
0.042667869 37.530827 -0.63822329
1.4025917 38.170345 -2.1357689
29.764841 48.805222 -1.539533
20.783409 45.4687 -0.63226616
23.11734 46.352512 -1.7432647
29.672701 49.486515 0.5552035
33.37405 50.1936 -1.6390734
28.96002 49.210705 0.55587256
26.237356 47.421352 -1.3437065
-2.8324265 36.417782 -1.5426211
2.5630043 38.51498 -0.35180777
27.510126 48.060822 -1.1356542
-2.1130927 37.381989 1.8765007
-0.01651798 37.567139 -0.94698834
2.1778812 38.477669 -1.1048746
2.5583372 38.709888 -0.44428599
2.5426302 38.428177 -1.1280211
10.901208 42.359688 0.11795465
-0.20570451 38.039509 -0.235884
19.096319 45.479843 -0.44635141
25.275753 47.717747 0.56094247
29.101995 48.661564 -1.2304971
-2.5169218 37.162956 1.8553666
-4.3895502 35.890823 0.036542617
24.359795 47.424057 -0.61818463
8.9734163 41.697548 0.46272472
24.061136 46.715618 -0.55360156
5.5640225 40.268791 -0.039903715
0.27478462 38.293533 -0.82658798
15.349798 44.098255 -0.9697355
9.3614931 41.709518 0.17101465
20.377232 44.900814 -1.4350101
13.606842 43.312031 -0.9303
1.9559321 38.225899 -0.83357483
-4.8035359 36.277344 -0.22359367
20.358978 44.896023 2.6606243
20.443226 44.685223 -0.83362919
27.431871 47.972713 -0.35613054
10.674109 42.262947 0.67298937
12.593903 43.086472 2.4346163
-2.9023633 36.981037 0.76466274
29.490831 49.458813 -0.43133286
35.6441 51.028198 -0.55528772
24.367537 47.424522 -0.93565726
7.0458465 40.722164 0.058178887
34.089542 51.112629 -1.0080061
-1.8297684 36.860867 -0.33461061
0.27768096 37.668194 -1.6318892
5.3704782 40.293125 0.56203341
1.2974386 38.584595 -0.92797989
12.593988 42.826893 -1.3557097
24.234734 46.635742 -1.511327
25.269207 47.950329 0.51809812
24.083954 46.504078 -1.0588868
-1.905508 37.399521 2.3412848
34.985825 51.385262 -1.1216028
8.6912794 41.470608 -0.37714756
3.9850528 39.677937 -0.035596773
30.797293 49.131062 -2.2443709
5.2230349 40.189125 -0.37304646
2.5415497 38.439587 -1.3321459
-2.1681397 36.640636 -1.1291815
2.7719333 38.586887 -0.83928502
20.441675 44.688847 -1.4339273
-5.3567138 36.16053 0.21409458
1.3616477 38.675812 1.0689061
-2.7280579 36.486206 -1.3353761
-1.4347839 37.503677 1.6572888
17.665943 44.983795 0.85811138
7.9298563 41.231895 1.9096173
2.695842 39.109478 -0.91716731
25.869595 47.478409 -1.0362806
24.145357 47.426224 -0.72669798
14.531939 43.621372 0.82930046
-1.6419159 37.479637 0.54030108
20.305134 44.788647 1.9540036
25.271235 47.178665 -1.0393293
2.4736221 38.484989 -0.84409529
-4.1555319 36.417564 0.06206467
1.2987431 38.603138 0.66263127
4.6925583 39.927578 -0.64572459
-3.5441756 36.202263 -0.24014369
30.172022 49.621437 0.77515405
20.488024 45.364197 -1.1275151
30.765652 49.824272 -1.1413808
33.475048 50.887135 0.061849568
17.353624 44.80658 -0.62419754
18.77092 45.362526 -0.53648007
-3.936038 36.023087 -1.1366543
-0.85942358 37.95422 -0.64705503
26.249802 47.436935 -1.5939713
35.532578 51.621975 -0.85733199
10.700978 42.259766 -1.0585697
3.977726 39.682465 -0.51541442
-2.6675408 36.911125 0.98270017
2.1238961 38.343529 0.36748824
-2.1311114 37.311638 0.26683676
13.003223 43.156158 0.98145199
1.8379982 38.227974 -2.3586757
-0.040992178 38.032455 0.56139392
-3.5977964 36.779102 0.18941984
29.273129 48.704334 -0.53498602
28.674829 48.551414 -0.96357912
9.3410587 41.61784 0.97404593
35.800419 51.156219 -2.2011354
0.18026817 37.544151 -0.64945799
5.2722378 40.20657 1.0604484
14.059349 43.492092 1.3648307
35.772896 51.169495 -0.45127821
19.646425 45.581791 0.96429265
14.464552 43.712143 -0.34418482
8.943059 41.590973 -0.23669873
0.95105535 38.43235 0.60184884
2.7582748 39.276817 -1.0008948
1.6652383 38.121521 -1.5386798
33.577988 50.358189 -1.1388541
19.587088 45.585968 -0.63391668
-1.0489864 37.885033 -0.28313425
35.777588 51.174866 -0.54198986
7.057991 40.730934 0.44418782
-2.8454237 37.075916 1.6635364
26.484091 48.257915 -0.34465504
29.556286 49.401909 0.56224948
3.1964297 39.38562 0.26507595
-1.5065348 37.567734 -0.44248998
11.107693 42.334465 0.15575878
0.26854435 37.803982 2.0273931
2.2119706 38.343754 -0.060504287
12.867437 43.089809 0.86967361
10.262189 42.088501 0.25564829
25.053152 47.013592 -1.1576208
15.89701 44.275295 0.33925304
25.612968 47.368668 -0.48614246
-2.4395261 37.199558 1.1632426
15.497479 44.047081 -0.7923792
35.883213 51.802025 1.055379
1.1459407 37.926208 -1.1389269
21.057705 46.180687 -0.6472438
5.5649147 40.266357 1.9631131
-2.1335714 36.715572 -0.74061298
1.9689653 38.289455 -0.42308795
12.557144 42.892567 1.1622597
13.765026 43.475067 2.2101877
22.449245 46.674782 0.45997468
23.836576 47.179516 -0.043535531
0.87397337 37.878342 -1.0374531
9.770256 41.815323 -0.039510902
9.7602367 41.802296 1.362486
1.4867228 37.93985 -0.87246656
35.157772 50.926785 -0.54079133
1.9818885 38.956219 -0.3241708
0.353699 37.892689 1.8584316
16.583088 44.44001 -0.0095637543
35.360687 50.935978 -0.92688799
21.552601 45.879086 -0.94392276
1.4221195 38.855618 1.2394639
8.2919598 41.281822 -1.0249118
33.239803 50.796001 0.78036875
0.86316544 37.895725 -0.13564917
-2.9967616 36.398254 0.37387717
2.2895675 38.569618 -0.74354029
18.516706 45.356606 0.35036927
26.863945 48.41872 1.273368
34.988785 51.360466 -1.261943
5.6435637 40.275574 0.86137849
14.385338 43.654892 1.0661902
-2.0293489 37.40659 -0.10011446
24.272017 46.788742 -1.2386315
13.77402 43.391544 0.04982942
35.562626 51.588543 -0.92188227
23.273136 46.409241 -0.73908907
-3.7151527 36.161659 -1.1386189
34.27747 51.16708 -0.12216125
22.655657 46.027748 -1.6424702
30.370916 49.097374 -0.72879863
27.182444 47.728477 -1.9359741
0.68475491 38.47884 0.079565071
20.188797 45.195736 -0.84292096
14.362242 43.615551 0.3670488
29.652632 48.725193 -1.6275231
8.0493679 41.206139 0.77204394
11.28689 42.565517 -0.35653234
18.091553 45.022243 0.55079335
4.5818324 39.919163 -0.5034073
-2.90622 36.918858 1.0636085
9.7549753 41.798946 1.4628336
22.270197 46.60379 -0.45087227
10.25998 42.088314 0.15157203
25.061457 47.008675 -1.2348832
2.4513009 38.431328 -1.047195
29.63928 49.383007 0.52141762
23.505981 46.578281 0.22365287
25.473316 47.7901 -0.41922525
20.381409 45.37011 -0.94327551
0.80463755 38.064255 2.0188215
1.87508 38.267902 -0.84224308
1.8511934 38.220016 -2.0481637
-0.042986248 38.026745 1.0651395
1.8540829 38.881794 0.657731
1.1691049 37.986198 -0.73779249
1.0771767 37.971569 -0.73247075
3.3987205 39.440128 -0.63395077
-2.12081 36.915062 -0.91528642
25.448771 47.945553 1.2786247
0.72669905 38.469242 1.4446259
1.8872166 38.896278 -0.25980467
32.339058 50.397835 0.060458716
8.290307 41.312954 0.75882256
-2.9143243 36.471119 -0.73344141
-1.8269989 36.787151 -1.9431853
1.355611 38.59906 1.3635814
9.7652073 41.814278 0.6591835
1.6675923 38.184792 -1.6407822
15.170257 43.912174 0.16592643
16.570482 44.488056 -0.13017978
9.4726973 41.788788 -0.5300951
23.867653 47.257229 -0.24502355
24.962797 46.92738 -1.4431951
28.056286 48.875492 1.3577862
-2.8384454 37.079144 0.56338513
9.8500547 41.969292 0.95300907
3.5093865 39.5019 -0.21416235
17.975821 45.039093 0.99549717
22.447596 46.626976 -0.042770598
2.1875761 38.160591 -1.0160595
28.958195 48.507351 -0.86553705
-3.1171145 36.364899 -1.0456274
-4.2987413 36.470364 0.95936084
-1.4325329 37.572849 0.96572131
17.396988 44.867199 0.24249744
-2.5276306 37.265636 1.6475172
6.1759658 40.614037 -0.93680656
0.6474508 37.728806 -0.94165134
0.75203931 37.722748 -0.9411515
0.6785177 37.807194 0.063086532
-4.0575995 35.920517 -2.028573
1.0415969 38.517387 0.38615274
29.66526 49.32309 0.42218742
3.2836421 39.375286 -0.20014279
26.266018 47.429619 -1.453909
25.779263 47.474079 -0.40889305
22.183971 46.085152 -0.6743896
10.53226 42.137135 -1.0738519
-2.5190022 37.177399 0.25867197
12.172726 42.862099 1.6779405
-2.1222 37.315079 0.15424562
29.420942 48.632942 -1.0658948
31.781988 49.664494 -1.4304805
1.7343682 38.850399 -0.14691155
34.632935 50.747162 -2.171771
-2.82882 36.41037 -1.9476645
5.4887304 40.272408 1.2608659
0.87008363 37.888866 -2.0300879
9.6834497 41.892227 0.063792236
28.050804 48.793495 -0.24122617
12.727649 43.040264 -1.2248678
25.558399 47.206367 -1.9429494
19.374168 45.48074 -0.15030146
0.037158173 38.075741 -0.23948237
7.786932 41.171581 0.77485299
16.067839 44.287468 0.24809662
29.751106 49.492332 1.1793132
0.29017565 37.786621 -0.44127157
25.56057 47.819416 -0.21467826
8.1862421 41.300659 -0.45783082
3.0648601 39.281513 0.56984597
-3.9066901 35.993038 -3.4107547
-0.91207731 37.859722 0.44440934
4.6778193 39.928535 -0.03816694
30.178129 49.613342 0.15066051
15.362818 44.077759 0.15061051
0.26456466 37.616459 -1.136007
15.993684 44.283058 -0.45893133
1.2700747 38.535084 -0.92247212
25.783237 47.367878 -1.5291345
-3.6239464 36.711475 0.26332769
-1.4351646 37.508621 1.4635662
3.1522782 39.371464 0.91152859
13.898171 43.472225 0.064522669
1.6759498 38.182877 -1.1402632
22.449324 46.672905 0.56184846
-2.7500606 36.941433 -0.11999184
34.172508 50.572968 -1.2314932
1.9761438 38.507603 -0.52976799
0.65309358 38.37822 -0.46600083
29.674248 48.87236 -1.4322709
34.167553 50.47921 -1.7251306
9.7700615 41.865223 -0.23779835
29.682245 48.863113 -1.5296392
1.6738508 38.775379 -0.95890933
-1.4357706 37.510723 0.86182171
1.6936566 38.869038 1.0653176
1.4691166 38.083286 -1.4437609
-2.8266263 37.084332 0.1576221
33.475014 50.349174 -1.4318581
-0.11994492 38.105232 -0.85353744
10.868253 42.315319 0.38332641
23.959835 46.630196 -0.67677695
-1.8188252 37.478188 0.56219417
3.9510374 39.693138 -0.62439525
11.59695 42.701962 1.8181626
30.16353 48.929825 -1.6366951
12.164028 42.814636 -0.05114273
4.2864575 39.888027 1.3907772
26.466942 47.524578 -1.5357168
-1.4347155 37.50985 0.96117133
0.19742811 37.657017 -1.227891
15.056997 43.887558 0.5695799
14.0687 43.331799 0.36326435
6.4766679 40.681427 1.1625111
0.8762688 37.879482 -1.4375517
21.900309 46.65004 1.1234121
-0.27218768 37.57402 -0.34788439
19.503681 45.600872 -0.32167888
27.484022 48.015743 -0.45029619
29.690016 49.498741 0.37300619
-2.8980458 36.977226 0.8665849
-4.3236833 36.516487 -1.0208306
1.9662703 38.297497 -0.54695332
25.073313 47.701641 -0.56085539
1.8316967 38.125122 -0.85306185
19.928669 45.689716 -0.52064157
6.3567715 40.517265 0.7737416
18.181849 45.030426 0.9618994
33.36673 50.200459 -1.339982
12.746823 42.985256 -0.82807022
34.215736 51.248451 1.25614
9.2846651 41.634022 0.30469915
-3.2247767 36.278923 -2.0367212
-1.5286744 36.964035 -0.33983961
13.893741 43.47253 1.8695856
-2.5325971 37.103889 -0.54561085
21.049805 46.093494 -0.53297365
-4.4821153 36.237522 0.0022107996
20.196301 45.098591 -1.1368127
35.59473 51.155422 -1.3968321
1.2803566 38.669014 -0.24444146
21.77597 46.411186 -1.0501647
-3.5780966 36.713432 -0.66816354
34.575294 51.265053 -0.86045325
27.660679 48.717026 0.69993138
24.698488 46.94212 -0.26979131
1.9723017 38.29583 -0.63735884
16.555197 44.405685 0.46056396
4.1902061 39.690697 -0.62919033
-2.9031501 36.985077 1.3624017
14.474288 43.678417 -0.028862711
-3.2079973 36.963005 -0.23005885
26.758007 48.37373 0.036877766
9.0709314 41.614799 -0.46529889
17.360184 44.879501 -0.33777419
13.961597 43.401936 0.66224575
20.239885 45.195107 -0.43847173
3.4767313 39.504555 0.95660686
-0.10709428 38.07692 0.76217014
-5.3870473 36.152531 -0.079499707
4.1951189 39.708317 0.66043144
12.278572 42.808929 -0.79804623
19.466419 45.678207 -0.71834403
2.5879683 39.193626 0.17136633
10.432884 42.299397 0.77967471
7.6694164 41.176189 -0.056795735
15.086049 43.911667 0.64463413
-1.4271752 37.572712 0.26353741
32.472374 50.495491 -0.35531846
-2.5415206 37.125626 0.45437539
26.271627 48.380287 0.69493002
24.128555 47.234123 -0.0015145482
1.2960163 38.602383 0.26298118
5.4823318 40.284302 -0.23247719
25.532284 47.136963 -2.1209619
18.307993 45.196499 -1.0867476
25.766989 47.352425 -2.0112267
12.163847 42.879406 1.1619685
-1.1490307 37.508064 0.84195369
25.577618 47.302181 -0.43816191
7.965302 41.208694 0.96373248
2.7718642 39.170486 -0.33520401
-1.6315427 37.488178 0.39088541
1.1705426 38.008266 -2.1353774
1.1730275 37.982841 -0.84613997
18.470968 45.270798 1.0639182
35.158958 51.33392 -1.164216
16.128563 44.196434 0.33771813
-2.5707183 37.23196 0.021783376
13.566279 43.315098 -0.34064588
9.465497 41.723663 0.54756832
1.3545735 38.600273 1.2560524
13.899459 43.634026 -0.68665767
0.46464291 37.706196 -0.83908343
26.186197 47.563194 -1.145288
29.914513 49.539249 1.2835804
-4.6834011 36.464943 0.12003569
35.292534 50.9646 -2.3505199
24.289745 46.763184 -2.1276791
11.756237 42.630184 0.45855907
13.759295 43.49511 0.26880595
11.3615 42.425484 0.9500066
28.05654 48.874516 0.27189189
-2.6396515 37.113468 0.15053441
-3.4396091 36.219284 -1.0372672
0.69714844 38.476784 0.3575491
7.4707537 41.113281 1.45752
21.770254 46.424805 -0.46838385
4.0052786 39.762547 1.1787552
2.567481 38.512161 -2.3317745
2.44695 38.432068 -1.1454165
14.474923 43.793594 0.53419387
-0.94721526 37.337566 -0.42035919
15.408544 44.086826 1.7998093
0.14317736 37.5326 -1.0471816
10.184985 42.080868 0.74846232
14.571543 43.774361 2.2022016
5.6467791 40.286816 0.54829586
-2.629014 37.1115 0.54969591
21.990597 46.593391 -0.74548948
24.775654 46.979343 -1.4363766
3.1180911 39.389091 -0.39641699
-4.2340879 35.912884 -0.83716488
1.118899 38.65089 -0.51490057
1.6687697 38.267799 -1.0274475
12.769093 43.021591 0.45332557
-0.035554741 38.027851 -0.23213544
-1.0933164 37.689987 2.0499048
0.07382451 38.175903 0.3648831
12.875536 43.080429 -0.73556763
15.352715 44.074001 1.2732348
30.788294 49.817039 -0.34065381
29.77743 48.948715 -1.4507186
16.553967 44.40313 0.3710947
-1.7294241 37.466862 0.96999925
-4.1583605 36.46637 1.0497633
34.138744 51.109669 -0.35305467
5.9527092 40.490955 1.6577114
35.074722 51.473915 0.96651232
25.347841 47.775547 -1.0532947
2.6781938 38.570232 -1.0382736
0.66305149 38.39249 -0.54117966
1.9707224 38.503784 -0.45416334
0.68188179 38.397079 -0.30960327
-0.10177495 38.01619 1.8679991
-3.5300846 36.774101 0.27071941
18.977512 45.402256 0.071313918
9.8370523 41.816956 -0.042464301
-1.3911852 37.666142 -1.0727849
15.287999 43.91502 -0.84386212
2.8102694 39.10778 -1.1252803
-2.7635696 36.997566 -0.349013
25.772564 47.378738 -0.7437194
25.275566 47.172569 -1.2349685
25.155214 47.014072 -1.8236985
24.280874 46.784512 -1.6371551
25.668116 47.91811 -0.022163643
-4.8282447 35.69268 -1.1384414
34.361671 51.209377 0.74909663
17.368584 44.785557 -0.84353012
1.3527712 38.595428 0.26118469
-0.12624313 37.498589 -2.0534925
5.2392921 40.136475 1.3934327
-3.633884 36.778301 1.0322752
28.001009 48.864475 0.15253325
26.070034 48.114544 -0.4571282
1.1673018 37.986107 -0.4499141
28.926443 49.11549 -0.080608949
0.35721007 38.3601 -0.4335742
34.771149 51.368988 0.54672986
30.965891 49.317764 -0.74588573
29.094313 48.758892 -0.58822584
25.161587 47.122967 -0.83071083
31.665758 49.511688 -1.8450114
2.1499932 38.35014 0.20409539
5.4251518 40.248558 2.2798409
10.063118 41.994953 1.0509967
31.850739 50.349224 0.052775279
35.556393 51.029678 -1.039611
-2.7309186 36.414227 -1.4295644
21.458374 46.333633 1.0896254
25.269798 47.175278 -1.1303452
14.106091 43.299595 0.64290559
-0.048185281 37.442924 -2.1648448
13.963476 43.403198 1.1591935
20.243092 45.200829 -0.74025863
-3.7182627 36.16317 -1.2248418
34.557396 50.629135 -1.050765
20.776636 45.46373 -1.6323222
11.15217 42.372013 0.56233686
16.762878 44.431023 -0.11895116
32.842728 50.160095 -0.71781474
8.2840757 41.192223 0.16682655
2.4672313 38.580502 -0.66054696
27.753561 48.711723 0.90081203
-0.031339981 38.070686 -0.13838267
1.2957939 38.601772 0.36002401
2.2546475 39.012318 0.46715537
-3.902216 36.017136 -0.073726766
25.365366 47.111351 -1.6380067
14.100751 43.614746 -0.68029547
21.870577 46.672222 0.88955939
15.180132 43.966572 0.17543878
1.6721609 38.193279 -0.55323261
29.630011 49.437038 1.2027904
34.472561 50.671379 -0.54859042
2.5562553 38.423943 -1.736021
0.5582999 37.638885 -1.4838656
-0.33438298 37.467766 -2.1414068
16.445969 44.391899 -0.33170307
-3.9400949 36.022202 -1.0410875
8.5455151 41.391785 1.9487169
32.816032 50.193512 -0.5182144
-1.9316555 36.797977 -1.1396488
-1.3305531 37.59132 0.25628209
12.861263 43.088219 -0.32321882
29.644421 49.440922 0.10350537
-1.3330114 37.012325 -0.84360874
10.579753 42.215302 1.544821
17.62068 44.862762 -0.52788818
24.997774 47.680382 0.54425466
9.1728983 41.688499 0.26863945
11.161712 42.326996 0.15813118
24.775801 47.609066 0.76880431
0.95594263 38.559067 1.0779026
1.5747856 38.805386 -0.43671808
0.96854442 37.898609 -1.7314204
2.5114124 38.559826 -0.83007079
13.56673 43.339737 2.0616477
-0.53473896 37.312416 -1.3351068
15.756331 44.094936 0.95074254
10.690965 42.260036 0.026824916
2.8517039 39.180046 0.66062915
-3.5098081 36.269836 -0.64912236
30.168257 49.678795 -0.41532722
12.262591 42.840332 -0.50423849
20.682549 45.457432 -0.92731047
34.994549 51.39122 0.96031696
-3.6308613 36.113544 -2.1327715
19.571333 45.577084 0.25923109
9.9788656 41.979496 0.55923051
30.172283 48.971375 -2.1397281
23.179768 46.373383 -1.3319471
26.040747 48.169155 1.2253137
4.2441249 39.712494 0.5580256
15.950939 44.234749 -0.79793143
1.0880023 38.565765 -0.52362573
13.959875 43.403828 0.26076469
20.272369 45.204281 -1.6394457
16.599989 44.547508 -0.3735404
0.1935451 37.659336 -1.1458361
29.459721 49.370834 -0.14436853
11.26026 42.4534 0.2593697
30.013775 49.073185 -0.7825951
29.488291 49.467663 0.14828534
2.4818072 39.075203 0.7579217
1.1897951 38.590767 0.778965
29.291414 48.635025 -0.15564837
25.552004 47.299744 -0.24189071
-2.4159665 37.269577 -1.0080254
-0.52367169 37.378017 -2.6685317
-1.825922 37.419041 0.45351794
26.534801 48.116367 0.69579017
1.558336 38.125389 -0.74936563
1.9420716 38.911259 0.25934306
9.2676334 41.700928 1.159547
25.7631 47.29858 -1.8237734
-3.5267255 36.200958 -0.74346447
4.6890893 39.880959 -0.93522757
9.6625805 41.954094 0.9451316
0.29417315 38.27158 0.16657427
30.777664 49.269619 -1.5326034
20.778337 45.4622 -1.5317042
7.3784418 40.991898 1.3704545
-2.845073 36.837391 0.86001182
0.28407076 37.659721 -0.84257346
0.38403308 38.29335 -0.624942
28.889212 49.174675 0.53765941
25.777058 47.371983 -1.3378521
9.7698832 41.869759 0.16345975
18.10033 45.032749 0.87475389
14.450041 43.577171 -1.0265064
9.9966631 42.061028 0.53788733
1.4834373 38.154499 -2.1338804
1.069373 38.591545 0.060504738
-5.0071874 35.67791 -0.82423216
1.6736319 38.183739 -1.3349971
35.640305 50.995632 -2.1600909
-2.7302299 37.105091 -1.0597501
1.1783426 37.988903 -1.5305387
0.76281357 37.81625 -0.84202248
33.133656 50.011261 -1.0806323
0.69854838 37.853722 -2.0329719
0.45746467 37.713879 -2.0341547
8.2834415 41.383564 2.35624
2.5763221 38.513767 -1.8367212
21.577181 45.916183 -0.76933753
0.87347537 37.876205 -0.74095809
1.5411754 37.997608 -1.5336535
3.4702978 39.478191 -0.14151402
35.667698 51.085236 -1.7344072
11.583498 42.669693 1.7103283
7.0762205 40.956013 0.5249235
-1.4364645 37.509781 1.1588842
0.47458342 38.356026 -0.94483298
23.452589 46.4795 -2.111908
8.5570993 41.406181 1.3736633
21.855396 45.729755 -2.2328734
35.177631 50.98156 -1.6230391
-0.014969856 38.08709 -0.92779869
1.8759596 38.132412 -0.42827988
11.098734 42.38427 1.0628886
16.865871 44.42107 -0.13299412
4.6812363 39.964333 0.14839384
28.970694 49.274956 0.38020712
18.589703 45.272243 -0.020793503
0.77037162 37.868256 -1.6460813
-2.8271098 37.09647 -0.62282377
9.1842899 41.67757 1.0506618
28.756836 49.130653 -1.108335
2.8417311 39.176224 0.77531379
35.560604 51.025928 -0.82474095
0.35047898 38.274246 0.64851326
27.409061 48.542984 -0.27235833
-0.7131632 37.884998 0.45328328
34.091492 50.570251 -0.92364216
-1.8479401 36.825783 -0.55395979
32.888119 50.693439 -0.96265721
3.7550969 39.606056 1.0947483
11.245216 42.566162 0.10777943
1.4436111 38.033405 -1.5477653
1.5339801 38.042881 -1.8589554
14.605653 43.957321 1.0932565
22.355612 46.00481 -1.5394266
-3.1212568 36.367683 -0.94424576
1.7486876 38.179623 -2.7310488
5.080883 40.076878 -0.83915091
23.111811 46.365292 -2.0060837
1.4683206 38.105259 -0.65039587
0.25989079 37.617867 -0.84038866
16.588749 44.519997 -1.0233318
7.6367888 41.028145 0.49816525
2.0809903 38.312984 -2.527595
6.053894 40.444244 0.28850639
-3.5811384 36.827698 0.00042660575
-1.7302436 37.460991 -0.13353048
24.272013 46.788841 -1.1382884
-3.318506 36.252796 0.094491489
2.7674448 39.17289 0.66124797
13.739812 43.550575 1.7270648
19.159491 45.49543 1.1428283
0.44128349 38.515366 -0.37043589
11.159866 42.326942 0.46028087
29.883402 48.958496 -1.0512981
24.265196 46.793476 -0.74740279
23.427052 47.164524 1.0947651
-0.52459121 37.924999 -0.54129821
15.34093 44.079185 1.9351194
9.4644918 41.78574 1.1603053
17.231167 44.729229 1.1893125
1.8609506 38.278656 -2.7600157
34.99474 51.39463 0.060236953
8.2866344 41.310848 -0.54392654
-4.0412297 35.931034 -1.0405909
18.676086 45.308392 0.55236751
2.6885281 39.11776 0.37255785
24.865061 46.904572 -0.97218275
16.843956 44.503578 0.66216844
24.257792 46.737995 -0.73539299
26.13899 47.407032 -2.1572945
0.68087548 38.39814 -0.62613225
21.96821 45.908184 -0.93974644
13.787283 43.334621 -0.14287999
5.5554438 40.213799 0.46061641
-3.5335014 36.199924 -0.44668147
4.6495814 39.913273 -0.46620405
20.500278 45.365128 -1.3342828
31.387207 50.084343 -1.2261035
30.781885 49.887821 -0.46361539
27.882568 48.786346 -0.85944927
1.9833138 38.292511 -0.036654752
4.981678 40.083199 0.16629431
22.201256 46.573139 -0.77050084
21.681253 45.870132 -0.76481789
-0.42955327 37.379921 -0.44105819
15.014467 44.019886 1.1028707
-2.9468784 36.330227 -1.1459597
36.147842 51.294418 -0.45842367
14.036042 43.405758 2.3244269
2.7587633 38.578091 -2.6429577
-4.2985759 36.482346 1.4491571
15.543499 44.159756 0.93596327
-1.6096169 37.441578 0.0028291061
12.180209 42.869152 1.2660773
25.741623 47.362717 -2.1536102
-2.2369342 37.198349 0.97256565
25.652246 47.227226 -1.9361268
30.799847 49.130871 -0.97087407
-3.9145412 36.059826 -1.2406915
4.1862364 39.760899 1.5586153
7.5060234 41.055321 -0.37452751
10.037197 41.941151 -0.11183026
29.624695 49.380905 0.25295791
32.800434 50.660027 1.1150094
30.858463 49.212425 -1.1369368
1.4687103 38.095825 -0.9409914
-1.6037605 37.412136 0.27169672
-0.99899101 37.780556 2.226481
7.8595014 41.127243 1.3769721
6.5666833 40.692482 1.2494915
11.837004 42.642838 0.72812074
0.70335984 38.476761 -0.82266229
25.662653 47.906685 -0.11531904
20.387825 45.990002 0.53001606
20.364576 45.050842 1.7543753
2.4840813 38.562706 -1.2382723
4.3515954 39.799526 0.86911243
29.459286 49.459126 -0.35168594
24.246117 46.618626 -2.506959
26.607515 48.141857 0.59121788
2.6761189 38.650536 -0.62281728
22.241749 46.685158 -0.10323709
25.761379 47.9869 -0.45543236
14.170475 43.533718 0.77534676
24.263941 46.797337 -0.4528805
5.5605788 40.211624 -0.038312275
5.5549679 40.211227 1.262777
0.87433767 37.96822 1.700946
0.97656476 38.509514 -0.53049242
2.2663739 38.396156 -1.9358063
0.48839062 37.601646 -0.63467026
16.784658 44.514069 0.9597249
34.978508 51.468552 0.94654411
26.472944 48.26981 0.45656362
25.341272 47.130497 -0.46045649
35.821453 51.130745 -0.68808436
0.57358384 37.959072 2.0236042
29.659687 49.428185 0.40704045
-0.55868793 37.965958 0.80390465
7.332943 40.92363 1.7198924
0.68251443 38.482742 0.2766794
13.95642 43.404865 -0.036964852
20.258511 45.20565 -1.1383755
13.269459 43.219727 2.2321482
6.0611296 40.475571 -0.041186776
34.743965 51.331825 -0.21213928
12.772836 43.146042 -0.32938281
-1.8044754 37.461948 1.7337344
15.199317 43.973843 1.5390058
18.077309 45.027287 1.5392926
14.470825 43.67247 -0.13491474
0.080576606 38.101986 2.1437716
8.5810118 41.414173 0.76865059
2.3621476 38.412579 -1.3349737
35.666245 51.098965 -1.1339296
14.765224 43.768715 0.9740327
-3.0929801 36.981781 2.101434
2.5875683 38.560406 -0.92374969
-3.4201884 36.143703 -0.5096736
31.377108 49.399841 -1.9267192
0.86933589 38.459003 1.3594204
-2.423897 37.205582 1.1002845
6.7564797 40.87038 0.53879809
20.179857 45.799648 0.85279
5.8927116 40.484032 0.76536757
18.983755 45.353951 -0.71411729
25.364107 47.776287 1.064201
-3.5490596 36.12627 -1.7462581
-1.2114042 37.642803 2.2747788
2.3610389 38.423313 -0.74838942
2.1595922 38.330025 -0.7462756
1.9704525 38.29356 -0.74075127
3.1215532 39.2803 -0.61536872
27.063425 47.828976 -0.54467654
29.56073 49.430904 0.24790242
13.196393 43.126053 0.172529
8.3778391 41.302696 0.25856215
33.664444 50.82745 0.9654246
-4.1594701 36.43005 0.54743689
25.454763 47.711521 0.94793642
26.18594 47.551712 -0.84674764
-0.39430925 37.529095 -1.0893918
-1.3567187 37.512463 0.15440618
-4.613409 36.375633 2.4619255
20.262926 44.500881 2.6554875
2.4618304 39.092857 0.37832069
19.571619 45.579872 -0.23655009
6.558166 40.59016 0.38185543
30.482286 49.167072 -0.64231074
20.347383 44.889858 -0.22845662
8.475172 41.47216 0.68587053
24.435043 47.430511 1.1086096
-4.3155503 35.871334 -1.9329823
0.86510056 37.883984 -1.7341679
2.3628538 38.419739 -1.2427845
10.783756 42.29842 0.36184394
-2.1385887 37.343018 0.79019243
25.401892 47.121471 -0.49483424
13.063478 43.175358 1.5806395
24.281719 46.782669 -1.9272834
1.4397471 38.592125 0.15447727
-3.0680535 37.06752 -0.44248718
25.956551 47.328747 -1.4281888
25.267467 47.777912 1.2616802
0.77901459 37.865479 -1.2428621
-0.10532564 38.02594 0.16035368
36.270576 51.366043 -0.94130516
-4.1559157 36.425816 0.87714183
-4.0219913 36.589794 1.1654787
34.684315 50.759369 -0.74062681
15.306911 43.914867 2.3571947
0.033820517 38.027531 0.76228356
18.545437 45.296009 1.2575779
7.6774507 41.179375 0.96072662
-4.1396985 36.497059 1.4632332
-3.6352117 36.79314 -0.64619786
0.96924752 37.900871 -1.0368522
