# .PCD v0.7 - Point Cloud Data file format
VERSION 0.7
FIELDS x y z
SIZE 4 4 4
TYPE F F F
COUNT 1 1 1
WIDTH 1477
HEIGHT 1
VIEWPOINT 0 0 0 1 0 0 0
POINTS 1477
DATA ascii
-1.6676067 -0.21969284 -0.64821392
-2.2992876 1.3946596 -0.45902234
-2.2857206 1.3257883 -0.812356
-3.919193 5.8084378 -1.0397824
-3.4058099 4.3968372 -0.43368429
-2.3202035 1.4227539 -1.0506538
-2.80375 2.2632039 -0.53328633
-3.5515237 4.4125705 0.85459834
-3.1593404 3.7993283 -0.8360514
-3.1457109 3.7003105 -0.74454457
-2.5381179 2.0954249 -0.73694682
-3.1507523 3.7881768 0.46501619
-2.5062046 2.0098267 -0.94047433
-2.8135426 2.3671222 -0.14602523
-3.5636864 4.9044795 -0.74121416
-3.134728 3.6946559 -0.43422571
-2.513 1.9827551 -0.51493526
-3.1618428 3.7869439 -0.62809628
-3.091079 3.5254221 0.14894433
-3.1012192 3.6877291 -1.1516728
-3.0929139 3.5276217 -0.24311808
-3.1575165 3.7866747 -0.3375839
-3.15308 3.7883601 0.25900149
-1.4976077 -0.79824501 -0.8291952
-2.7513564 2.6941237 -0.71780932
-3.3108602 4.1967392 -0.94568962
-2.6014216 2.3237541 -1.2944325
-2.6289992 2.2842736 1.6575198
-1.8276302 0.1955809 -0.82822609
-1.8271021 0.18938176 -0.74044383
-3.9686213 5.9975414 -0.042598732
-2.6284037 2.3000898 1.1605641
-1.4938822 -0.77564675 -1.4198844
-1.7947738 0.01300248 -0.64769876
-1.2610666 -1.2254525 -0.45604584
-4.0212221 5.9129128 -1.5395025
-1.6118119 -0.39932123 -0.55226409
-3.408663 4.405612 -0.54076314
-4.0052876 5.9993372 -0.53740036
-2.195421 1.1030943 -0.75118893
-3.5432069 5.383359 -0.34164503
-3.4167507 4.2075362 0.75037849
-2.8041217 2.1174879 0.036994014
-1.5638266 -0.53528827 -0.47854435
-3.0882576 3.5224996 -0.13132909
-3.3268232 4.2250586 -1.0856513
-4.0871658 6.1278119 -0.46219605
-3.31622 4.1918697 0.36210492
-3.5712006 5.4635353 -0.22982436
-1.8349904 0.1991002 -0.5465048
-2.8068817 2.7994056 1.152638
-2.7225022 2.384696 0.16181217
-2.3947115 1.7127861 -0.64420575
-2.5531588 2.1392367 1.7215056
-2.576411 2.2625353 -0.91536313
-3.2392669 3.9922333 0.45554298
-2.7523811 2.6917326 -0.14593096
-2.9918683 2.8905363 0.83816767
-2.7526777 2.6863537 -0.33870456
-2.9346454 2.8888435 0.96782261
-3.4358318 4.9834471 -1.1494976
-1.86596 0.27977392 -1.1512568
-2.7177517 2.598021 0.062862545
-3.1260319 3.7045946 -0.93821692
-2.2876971 1.3936223 -1.1386033
-3.5611539 4.8671541 -0.23389858
-4.0126762 5.8858457 -1.4618921
-2.7528718 2.6914582 -0.04379474
-4.002727 5.9152555 -0.52228296
-3.4549284 4.5835423 0.051484384
-1.4514644 -0.91911972 -0.35322312
-3.5093822 4.6863737 -0.44243303
-1.7533569 -0.0058658817 -0.6364333
-1.8035523 0.10738569 -0.94123334
-1.801473 0.11012242 -1.0427985
-3.0636244 3.5826399 0.46907988
-3.0448198 3.5004106 -1.0268497
-3.4635594 4.5736265 0.64097077
-3.5257654 4.7022967 -0.82838488
-1.6398971 -0.30405256 -0.54112518
-3.3247595 4.2039375 -0.52956665
-2.6419857 2.3092117 0.26531637
-3.063622 3.5857143 -0.9464823
-3.0654855 3.5867834 -1.0753627
-2.1930788 1.2335638 -1.3119028
-2.7480724 2.6846244 -0.43670017
-1.6916854 -0.18895827 -0.74580604
-3.0458083 3.4978566 0.26156703
-3.0705237 3.5853925 -0.32962185
-3.070962 3.5740891 -0.45340759
-1.8635662 0.38044134 -0.65017998
-1.4431758 -0.81202638 -0.62906355
-3.0457735 3.491559 0.15695386
-3.2655196 4.0823708 0.44482303
-2.724956 2.5932539 -0.54389822
-2.9019711 3.0984294 0.35828245
-3.6041474 5.3742905 -1.1311175
-1.4213635 -0.89954555 -0.93552762
-2.7798553 2.8699811 -0.3943412
-1.7673669 0.067949817 -1.4317753
-1.4245285 -0.90787011 -1.1332364
-3.263607 4.0937467 -0.6231721
-1.6619012 -0.23965779 -0.40452436
-2.9049218 3.0148065 0.76523781
-2.7204897 2.6424882 1.4753395
-2.4027069 1.702054 -1.0288694
-2.2523389 1.3952181 -1.1036422
-2.6423464 2.3109639 0.157482
-3.1065428 3.6124821 -0.34252042
-2.80444 2.3051112 -0.040956855
-3.269176 4.0978503 -0.74126822
-3.2218928 3.7844203 -1.3523293
-3.4522166 4.683032 -0.1183154
-3.4953256 4.6056752 -0.53544915
-2.7512689 2.6966491 0.26252326
-1.9500648 0.57426339 -1.0410252
-3.9285901 5.7944059 -0.74451381
-2.9429402 3.1987991 -0.62619036
-3.4680877 4.5946803 0.76933336
-3.5145857 4.2748833 0.94762832
-3.0271244 3.4024069 -0.4337492
-1.7185792 -0.096545734 -0.72924101
-3.4486942 4.5826488 0.55923992
-3.5648396 4.8754368 0.26449427
-2.7217364 2.3706257 -0.22042681
-3.241997 3.9940603 -0.036088917
-2.6410069 2.309783 0.35721159
-3.871017 5.6985321 -0.52203113
-3.0170677 3.3958986 0.053681549
-3.2753797 4.1575389 -0.72413999
-3.1977296 3.7127581 -0.97168702
-3.4536896 5.1198792 -1.6500434
-3.6907291 5.0602474 -0.55011332
-3.2361171 3.990252 0.15987119
-1.6440831 -0.34736601 -0.38707203
-2.7014148 2.271028 -0.63399303
-1.4159815 -0.89449728 -0.62485546
-1.8087995 0.10490865 -0.44828761
-3.4551785 5.1906343 -0.8296544
-2.3949294 1.7145822 -0.74520248
-3.5648994 5.4518566 -0.54283345
-3.5869248 4.8117361 -0.32228479
-3.5220449 5.3050356 -0.34010318
-2.7497237 2.6918547 0.16420542
-2.4044592 1.684816 -0.53034383
-2.9938319 3.3172994 0.16104014
-3.4958797 4.6113701 -0.74870938
-1.7028725 -0.20179053 -0.62665612
-3.5468924 4.797214 -0.14273721
-2.2597988 1.3733892 -0.64567858
-3.5885336 4.8934517 -1.4387908
-2.1953475 1.1017164 -0.44345742
-3.9970539 5.9171662 -0.40671042
-3.5255558 4.7007613 -1.3010908
-1.9930742 0.53122663 -0.74595916
-1.6772137 -0.13123102 -0.66071868
-3.4646685 4.5938158 -0.83434403
-3.2336917 3.9977815 0.36304817
-3.5538132 4.8082852 0.56627905
-3.0179746 3.3907514 -0.038363479
-2.0930736 0.81959158 -0.71960402
-1.4577585 -0.81008083 -0.83871472
-1.9720223 0.6792984 -0.92055708
-1.5585438 -0.5172888 -0.55079985
-3.49596 5.2050428 -0.33423024
-3.0661986 3.5102768 -0.92053497
-2.2605557 1.3937515 -0.55168277
-1.3856307 -1.1764587 -1.1646605
-3.5570445 4.8800817 -0.63171643
-3.5482819 4.797471 -0.23367645
-3.5157933 4.2705517 0.76800901
-2.2624025 1.394345 -1.2423168
-3.5934656 5.3886862 -1.0398717
-2.7957981 2.5887098 -0.970321
-3.3225543 4.1933227 0.56328803
-3.32007 4.191081 -0.1372848
-2.8521051 2.9999433 -0.53957754
-3.4951122 5.2012148 -0.54516596
-1.4832149 -0.76116753 -0.76017785
-1.9665226 0.59011394 -0.74955153
-3.4598026 5.1832147 -0.53629202
-3.1570213 3.786952 -0.55097169
-3.5931821 4.8115811 -0.7496478
-2.5560923 2.2006617 1.7554814
-1.7220936 -0.103691 -0.9426595
-3.6053524 4.9548788 -0.9477002
-1.9568616 0.5814656 -0.64626473
-3.8695304 5.6040978 -0.22894871
-2.9855971 3.2254486 -0.14497203
-1.6706638 -0.1447238 -0.70437443
-3.5967491 4.8178625 0.3605803
-3.9495428 5.9014659 -0.54143292
-2.9826245 3.2371359 -0.00369049
-1.8699905 0.37145525 -0.51152563
-3.3674557 4.378335 -0.63010496
-2.5798421 2.3431485 0.94461828
-3.5461793 5.3728662 -0.73912376
-2.8788178 3.0666749 -0.46305552
-2.7668803 2.7649941 -0.23075187
-2.4609878 2.7737155 -1.7550956
-2.4746091 2.7670062 -1.5362235
-2.3556118 1.6725938 -1.1595843
-2.7991288 2.2594037 -0.4307957
-2.034678 0.78906024 -1.2365091
-2.5389199 2.1152222 -1.1200256
-3.489167 4.6016645 0.15998968
-1.5988772 -0.56893867 -0.66553241
-2.3113108 1.500703 -0.93218613
-2.3402133 1.5935763 -0.93307292
-2.5189505 2.7689831 -1.6043507
-2.4751735 2.6468899 -1.6287037
-3.6003377 4.9223685 -1.2221814
-2.4989071 1.9390975 -0.62116891
-2.568198 2.1900253 0.45447481
-2.8285108 2.5599215 1.1475704
-2.650594 2.3790472 -0.8032285
-2.7378063 2.1975286 -0.5398984
-2.9827924 3.1642632 -0.72136575
-1.6790211 -0.13255152 -0.80324733
-2.923012 3.0910008 1.0668954
-3.8496833 5.6423655 -1.1758696
-1.8429402 0.25109464 -0.44194523
-3.7261746 5.025743 0.16004881
-3.6384611 4.9287453 1.3400521
-2.362478 1.5751337 -1.2423629
-1.4557755 -0.80595976 -1.0460025
-3.1294241 3.699352 0.063229255
-3.0520425 3.4943216 -0.33255225
-3.5526092 4.7919588 -1.3288147
-1.6130787 -0.40157416 -0.83281183
-3.0507073 3.4999921 -0.53492147
-2.9130669 3.1064382 -1.0449806
-2.4502392 1.8844206 -1.1169813
-2.5055552 2.0074303 -0.8417086
-3.1164808 3.5099077 0.96378082
-1.7046986 -0.19036061 -1.412411
-3.018877 3.3093309 0.76219636
-3.8830636 5.6020818 -0.64126372
-3.5631328 4.8715639 -0.14352866
-3.0111852 3.1906319 -1.0897501
-2.8901014 2.9278262 -1.2769449
-2.5882115 2.1181345 -1.1949136
-1.8938161 0.31764424 -0.92961609
-3.3132272 4.0926723 -0.83736813
-3.8100281 5.0764718 0.77249753
-2.7230239 2.3945117 1.0587269
-2.5157866 2.0032728 -0.63816184
-3.5997226 5.2979755 -1.4913733
-2.7817314 2.6173501 -1.1776526
-2.7146759 2.4466515 -1.2631018
-3.7209845 5.0820155 0.45611855
-3.3778527 4.1757879 -1.3752844
-2.8190928 2.8867884 -1.1287291
-3.3292799 4.1786709 0.75287014
-3.9019213 5.687355 -0.34853137
-2.8896313 2.9434094 -0.70543557
-2.5259259 2.0892012 -1.0286973
-1.5012093 -0.69402754 -0.45595181
-3.0474155 3.4879346 -0.72714937
-3.1527889 3.7869935 0.16212969
-3.59304 4.9001951 0.058582418
-3.1102755 3.0322244 0.95936036
-3.4248176 4.4842358 -0.83923542
-3.3085589 4.0232196 -1.4498323
-2.0006511 0.70901114 -1.3158779
-3.06726 3.5621791 -0.23212269
-2.9399054 3.1980305 -0.039085839
-3.5914042 4.8387384 0.1321198
-3.7969198 5.5902658 -0.029489782
-2.9065855 3.0262549 -0.65491819
-3.6015639 4.9071536 0.15667124
-3.873857 5.6201649 -0.55932409
-1.9286155 0.49204713 -1.1407857
-2.5420768 2.0984635 -0.82813221
-2.7817352 2.1332755 0.67569536
-3.5064895 4.6226273 -1.0368658
-3.5050282 4.5536127 -1.2330606
-3.7391822 5.1870031 0.60486674
-3.7181921 5.0793204 -0.041419536
-3.7229052 5.5015821 -0.42051166
-2.873764 3.0691102 -0.12308972
-3.3309221 4.1326833 -1.4879925
-2.2869308 1.3233776 -0.72963774
-1.6532171 -0.31268939 -0.45596021
-2.2274895 1.2963654 -0.83832157
-2.0667701 0.87444574 -0.83942109
-2.0443072 0.7937609 -0.83611035
-1.9424452 0.4987314 -0.755723
-2.8890069 3.0264115 -0.037068825
-3.4548509 4.5858665 -0.63134277
-1.9551691 0.58727604 -1.1256224
-2.6045361 2.217906 -1.0896509
-2.2100224 1.2004964 -0.84589493
-2.0680606 0.90732706 -0.73793793
-3.7197061 5.0957584 -0.73113871
-3.7173996 5.0258369 0.35837272
-2.9011254 2.9958417 -0.72655874
-2.8170488 2.6987963 0.67144579
-2.6223304 2.1831312 0.36607015
-2.9971042 3.3107295 -0.42667693
-3.4965324 4.603775 -0.63242602
-3.7024858 5.0683074 -0.3445496
-2.8092065 2.3592989 0.26752231
-2.4830287 1.8281443 -0.97535592
-2.235801 1.2907275 -0.93241262
-2.653403 2.3911967 1.0441773
-2.2122011 1.2055275 -0.93380356
-3.5436277 4.8107867 -0.92249703
-3.0335114 3.1140034 1.068171
-3.6482873 4.7887154 1.1377215
-3.5417786 4.7905421 -0.43498072
-3.0469358 3.497205 0.056321573
-3.5870135 5.3382401 -0.87071776
-2.0629132 0.88685763 -0.9243716
-3.4898152 4.2051468 0.9335866
-3.5888226 5.2834492 -1.4080651
-2.9924393 3.2202284 -0.45342571
-2.4985309 1.9129534 -0.54712498
-2.4818401 1.8217185 -0.84090728
-1.9188495 0.29186216 -0.36414427
-2.0450327 0.79991984 -1.0273352
-3.6028612 4.9093313 0.35329676
-3.5965796 5.3224206 -1.0376551
-2.9562781 3.2067378 1.0545915
-2.7956772 2.6527894 -1.1816199
-2.5038633 1.9802765 -1.2666632
-1.4097852 -0.99634647 -0.74528688
-4.0073733 5.9986649 0.2538256
-3.3306336 4.0057788 -1.0081748
-3.2457638 3.8879197 -1.0157558
-3.0918226 3.4249671 -0.82266533
-2.2734287 1.4615968 -0.94484669
-2.4472401 1.7934095 -0.48332775
-2.123925 0.97463405 -0.45206058
-3.0250218 3.3977208 -0.65181732
-3.019932 3.3985181 -0.23601751
-3.4576895 4.5809364 0.3594974
-3.9859781 5.8074489 -1.0479015
-3.7148597 5.0246463 0.48414916
-3.2306526 3.6401958 1.067427
-2.1172757 1.0814884 -1.3018163
-3.5138185 4.6016169 -0.95927721
-3.2551503 4.0848484 0.53143835
-2.7989357 2.693737 -0.93059194
-2.6944976 2.5137734 0.35677239
-2.6296923 2.3756769 -0.95144415
-2.175009 1.1000258 -0.45446563
-1.9155469 0.29720926 -0.42512798
-2.7999244 2.5877833 1.0513498
-3.4668667 5.1798878 -0.34321639
-2.8046782 2.7396286 -1.0832062
-3.6064301 4.9279943 -0.73440754
-3.9952188 5.8160458 -1.1297044
-3.5144596 4.6003194 0.55557436
-3.0132651 3.2864606 -1.0476872
-2.9965363 3.2089767 -1.0292857
-2.9391918 3.191947 -0.83510071
-2.7119012 2.5130725 -0.83457625
-2.6948781 2.4119318 -0.44365558
-1.8875388 0.30392912 -0.53652298
-3.8956063 5.7255793 -0.23254123
-2.9877996 3.171181 -0.93344849
-1.9401017 0.48741773 -0.84077209
-2.3178005 1.4607921 -1.2900555
-3.5569835 4.8686919 0.3523303
-3.1383634 3.7067065 -0.53764671
-2.2563274 1.3892711 -0.83814871
-3.4040074 4.2985163 -1.1802011
-2.7857795 2.628644 -0.45826554
-1.9387016 0.60847092 -1.3506827
-1.3432639 -1.1074991 -1.0403457
-3.6395562 5.0680857 1.062981
-3.6191161 4.8120484 0.67118281
-2.8726039 3.0580499 0.96167308
-2.7925687 2.6935477 -0.73977309
-3.5474815 4.9274311 -1.0339541
-3.5878019 4.8129444 -0.64527786
-1.5603666 -0.51541448 -0.95442104
-1.6898452 -0.29092795 -1.3501004
-1.9426961 0.49228671 -0.54804742
-1.8701357 0.36662915 -0.74945438
-2.3174686 1.497596 -0.74560058
-3.6304264 4.7961893 0.7655319
-3.5414717 4.4164405 0.95587218
-3.2464132 3.9993801 -0.23656701
-2.9916351 3.199455 -0.83055764
-3.5029821 4.9365149 -1.5616211
-3.5660307 4.8700423 0.15809578
-2.3620825 1.682822 -1.0224749
-2.2565401 1.3796071 -0.93610835
-1.7454925 0.058656592 -0.58615714
-3.0032558 3.3128045 0.67168707
-3.2899089 3.6703057 0.77396917
-3.6228104 4.9822307 0.16370648
-2.0027452 0.58043623 -1.1278474
-2.0426364 0.83026475 -1.2985219
-3.9029012 5.7186809 -0.62483716
-3.1865373 3.6625667 -1.2210606
-2.0612547 0.42171073 -0.52928787
-3.5172081 4.221736 0.75755256
-2.7961843 2.7099638 -0.43444437
-3.6189885 4.9097953 0.86037117
-3.0203338 3.193531 0.96020788
-4.049789 6.1757298 -1.4146223
-2.6582351 2.4827027 -0.72088003
-3.5419416 4.7904801 -0.53179508
-3.7287145 5.098711 -0.14338519
-2.6303856 2.3037212 0.96093297
-1.8857157 0.31398392 -0.83597404
-3.0208631 3.3703661 0.9526332
-3.325032 4.1781015 0.65462846
-2.7891445 2.7155941 -0.048001766
-3.5607357 4.8687477 0.77131993
-2.4113297 1.6899358 -1.2637885
-3.4521604 4.5275321 -1.31955
-2.899473 3.0080855 0.57445276
-2.3641644 1.6884094 -0.92716968
-3.5602589 4.881506 -0.54721886
-1.8038681 0.1046485 -0.83098662
-1.7670256 0.07350634 -0.75282991
-1.6439754 -0.31082129 -0.83971596
-2.9091525 3.0973244 -0.73214012
-2.5872359 2.1139221 -0.99668342
-1.8541354 0.28589866 -0.83965445
-3.3422859 3.8938646 0.76149511
-2.7896485 2.7289896 0.064591348
-2.9583399 3.2905512 0.35993278
-3.4575176 5.1088462 -1.140938
-3.453424 5.1037993 -1.2379501
-3.5289989 4.9724984 -1.1490276
-3.4274807 4.5025191 -1.026306
-2.3634691 1.6830084 -0.84941089
-1.8574685 0.29411215 -0.73881555
-3.9714441 5.9874592 -0.62546986
-3.4407952 4.4902267 -1.1425518
-2.8029168 2.8020091 -0.3398203
-1.8636127 0.29396778 -0.63397849
-1.4749434 -0.72663492 -0.94182396
-3.3133926 4.190237 0.45915127
-3.5404909 4.9032841 -1.3180873
-3.5192475 4.6888089 -1.14517
-3.2395027 3.9205935 0.94825572
-3.3578968 4.1253281 -1.3678992
-1.3068197 -1.1997796 -1.2382737
-3.731041 5.5164504 -0.33329797
-2.5712557 2.1909459 0.36201906
-3.3692598 4.3661723 -0.23488902
-3.5696087 4.8617964 0.64126188
-3.6162572 4.9307394 -1.3410387
-3.9294479 5.8061428 -0.34018078
-3.9310117 5.8009615 -0.54132533
-3.9046636 5.7246094 -0.84701675
-3.54163 4.7879162 -1.2321843
-2.9975855 3.3079641 -0.64080197
-2.3443341 1.5933732 -0.83818769
-2.2960947 1.4050746 -0.73737979
-3.3284264 3.9913151 0.85357505
-1.4686247 -0.72654188 -0.47003612
-3.957005 5.8128438 -1.4614773
-3.3687134 4.3992066 0.46152431
-2.9371333 3.1851377 -0.53672075
-2.9167314 3.0940518 -0.63789475
-2.9301472 3.093003 -0.92905003
-2.792671 2.7174721 -0.34567598
-2.4847274 1.9111784 -0.74715602
-1.7502495 -0.0017054731 -0.54524511
-1.7160233 -0.10753231 -0.55321324
-1.6981474 -0.18286459 -0.55299509
-2.3095109 1.4986676 -0.84525377
-2.7105243 2.4381888 -1.1373463
-3.5887108 4.4108615 0.74456108
-2.406481 1.7762134 -0.54662216
-1.8941615 0.31407401 -0.64372855
-2.006108 0.60053653 -0.74038297
-3.5294232 4.6915183 -1.024773
-2.3514059 1.5987091 -0.73899615
-2.9897971 3.2488234 1.0561048
-3.3649018 4.3166981 -1.3250246
-2.2104886 1.1944824 -1.2497609
-3.7777853 5.5274282 -0.54410523
-3.612638 4.9708333 -0.84837562
-2.9604425 3.2825007 0.56254709
-1.8304838 0.19114766 -0.94329274
-1.4111154 -0.98486096 -0.55382919
-3.3126857 4.0230331 -1.3516028
-1.7490578 -0.0049422416 -0.46409765
-2.1472185 0.39783084 -0.54726553
-4.0597029 6.1796908 -0.73443818
-3.4455936 5.0873175 -1.3406051
-2.9265852 3.1017175 -0.8393997
-1.4686168 -0.72042316 -0.5724206
-1.4715276 -0.72928381 -0.62902808
-3.0943251 3.5929701 0.55393589
-2.9622808 3.2869384 0.45652747
-3.7681308 5.5952287 -0.041167859
-3.4330742 4.9958382 -1.0327692
-3.5228276 4.9631295 -1.049592
-2.8953898 3.0024512 -0.4378956
-2.8936141 3.0189724 -0.34525931
-2.2647679 1.3937392 -0.75117564
-2.1615498 1.0936725 -0.54023308
-3.1123843 3.5039854 -0.84804314
-4.0841718 6.1242399 -1.1754291
-3.9245715 5.7132931 -1.2490907
-3.2807388 3.6430171 0.8652643
-3.5630767 4.8679996 0.46257234
-3.9017947 5.7088366 -0.025194691
-2.2743113 1.4582403 -0.84527105
-2.8027067 2.802047 -0.63247234
-3.993083 5.8990293 -0.80772132
-3.9281797 5.7954588 -0.94186473
-2.6400437 2.3838718 -0.63013136
-2.5107274 2.0033815 -0.7487846
-3.0210798 3.3737838 0.85901392
-3.4975867 4.6134787 0.057170346
-1.6439046 -0.29789403 -0.7302289
-3.0184069 3.3938744 -0.54750526
-2.4623837 1.9672432 -1.2250855
-3.9313366 5.7273922 -1.3479676
-2.3794413 1.645677 -0.47879761
-2.8432491 2.896122 -0.83646703
-3.9253194 5.799552 -0.63154095
-3.5425918 4.9346066 -1.4244044
-3.5149047 4.7041807 -1.2275867
-2.5651476 2.1767735 -0.53585047
-2.8327336 2.8978817 -0.52864528
-2.6453109 2.3879302 -0.33546308
-2.6132598 2.1891563 0.55645263
-3.907661 5.706697 -0.94577807
-2.830333 2.8982501 -0.036922511
-4.0320868 6.0982318 -0.86059904
-4.0496502 5.9978137 -1.4298427
-3.9253526 5.7972388 -0.25308058
-3.5449708 4.9189644 -1.2379097
-2.7556367 2.7050452 -0.63576168
-2.3267901 1.496501 -0.55036479
-2.2900679 1.4177712 -0.63908279
-3.5337846 4.5742292 1.0646195
-3.6185653 4.9003263 0.66053063
-3.7494543 5.0077467 0.6516906
-3.4261687 4.939774 -1.5474408
-2.8995588 3.1079826 1.1428183
-3.514133 5.2069173 -0.94757336
-3.9908454 5.8945246 -0.14742005
-2.4231703 1.7933419 -0.65496075
-2.3464961 1.5864369 -0.64312679
-3.5204997 5.1877961 -1.2448672
-3.9077895 5.6981363 -0.72834045
-2.3963997 1.604583 -0.83335394
-1.765005 0.079224877 -0.83207244
-2.8110127 2.3310778 0.65066302
-3.9608707 5.9626236 -0.72463369
-3.5875008 4.799943 -0.81008101
-2.7609403 2.7871871 0.36489254
-4.0050406 6.0000062 -0.23772331
-3.9629264 5.9748912 -0.45436323
-3.4403858 4.9860644 -1.3304479
-2.7706716 2.7665453 -0.13057896
-2.5639997 2.183531 -0.63804579
-2.7173319 2.3720658 -0.13663761
-3.4584153 4.5958552 0.45543149
-1.2745821 -1.2263899 -0.61729479
-3.4893224 4.5021858 -1.4867837
-2.0457013 0.27367148 -0.42688087
-2.0434289 0.24974306 -0.49494967
-3.9998226 5.9380407 -1.2951344
-3.9931817 5.9180474 -0.63687032
-3.9364674 5.8021941 -0.82436258
-3.7199755 5.0753288 0.67255265
-3.0016749 3.3014317 -0.73133463
-2.6152139 2.2153513 -0.64996707
-2.5565968 2.1055183 -0.53067756
-2.6932662 2.5082972 0.062304188
-1.9115508 0.39508134 -0.53847784
-2.3387592 1.5000039 -0.4760305
-2.918113 3.0128834 0.67177969
-3.7920117 5.0173931 0.67943788
-3.1262937 3.5388734 -1.2034825
-2.1555583 0.46396855 -0.54241526
-2.4195118 1.7942381 -0.84329289
-4.0633392 6.1905861 -0.34150332
-3.9554081 5.8967662 -0.64328521
-3.9253123 5.7962046 -0.42765179
-3.4513087 4.5616398 0.98688459
-2.2436342 1.3027021 -1.0305252
-3.6306832 4.6108508 0.67687255
-2.8320084 2.5909362 0.76573771
-1.5257936 -0.61045486 -0.64517999
-4.0619512 6.1910462 -0.44523996
-3.9537737 5.9006934 -0.4463475
-2.4245772 1.8019533 -1.028172
-2.3864694 1.64256 -0.45150298
-3.0128658 3.3937163 0.35298002
-2.2105291 1.2066052 -1.025054
-3.9396813 5.8866453 -0.93375742
-3.3462255 4.2825451 -0.72886866
-2.6350629 2.2949739 -0.44560313
-3.0012417 3.3070691 -0.53625369
-4.0015469 5.9227157 -1.1228988
-1.3981936 -0.99462795 -1.125218
-2.8875751 2.8988135 -0.53409719
-3.0190234 3.3778031 0.66292799
-2.6476142 1.8999592 -0.6286484
-4.0479655 6.1946177 -1.0016074
-3.9742365 6.012351 -1.0936878
-3.1662245 3.862251 -0.045061819
-2.6655979 2.487359 -0.24198732
-2.1552832 1.0795705 -1.0219717
-2.6143479 2.1876886 -0.42720181
-3.0442023 3.4910898 -0.62674135
-3.3419366 3.8971725 0.85374224
-2.5702004 2.182507 0.059889659
-3.429786 4.4913464 0.36772734
-3.0195127 3.317771 0.95196193
-2.8122411 2.7075434 0.76950598
-2.5523152 2.8682973 -1.6516529
-4.0331745 6.0935764 -0.32533509
-3.9596388 5.891304 -0.83040833
-3.2804701 3.9427168 -0.62522346
-2.4177227 1.7948982 -0.93173993
-3.1740167 3.8707101 -0.60525805
-2.6215789 2.1891356 -0.33229327
-2.4584284 1.9604727 -0.64781755
-3.8980088 5.645062 -0.50124907
-3.5228806 4.7929602 -1.0256959
-2.0766568 0.96667117 -0.636998
-3.8667464 5.6995559 -1.0619389
-3.7018297 5.0165658 0.05647245
-3.2085624 3.3403835 0.81319767
-2.638767 2.3794665 -0.53172177
-1.8622909 0.2923736 -1.0344533
-3.5641685 4.8658218 -0.036951054
-3.1155224 3.7207012 -1.2255187
-1.8994009 0.31628224 -0.74140602
-2.6680245 1.9095545 -0.57495141
-4.0609713 6.1902752 -0.83761162
-4.0320253 6.1003385 -0.54643327
-3.5607169 4.8738527 0.061023176
-3.2900808 4.0186629 -0.15940422
-2.8575752 2.9978495 0.55945611
-3.4653614 4.5898838 -0.23905174
-3.5358179 4.7909384 -0.73903054
-3.4519522 4.5846748 0.27326721
-3.6391249 5.4893036 -0.62353659
-4.0392518 6.0974536 -0.44443023
-3.5057418 5.208437 -0.81706142
-3.4888225 4.6235566 0.25227231
-3.9064856 5.7035146 -0.42639512
-2.8326559 2.8931119 0.55915779
-2.8385036 2.8904412 0.76143688
-2.5687263 2.1909361 0.76855922
-3.6208079 4.7208881 0.86696422
-1.7158731 -0.11423556 -0.63791037
-3.0567667 3.4946916 -0.23964295
-2.6233678 2.2986758 0.66868216
-2.818053 2.779135 0.76404583
-1.801181 0.098359182 -0.63011396
-2.1047575 0.90043807 -0.8366006
-3.7270072 5.0789876 0.052370619
-3.611032 4.9811769 -0.04278601
-3.4124303 4.389575 0.67088556
-2.808336 2.7896254 0.6610201
-2.649631 2.1194539 1.7643462
-2.477134 1.8684074 -0.47347564
-2.4031737 1.7080016 -0.92792034
-3.9141121 5.6930885 -0.53298032
-3.015337 3.3161316 0.85825104
-3.621599 4.9862595 0.35361299
-2.6547594 2.4072137 0.46369138
-2.8329854 2.4965591 0.77022856
-3.0810003 3.5348608 0.41684568
-2.7284474 2.5035331 -0.90852773
-3.1042602 3.592371 -1.0800228
-3.6968114 5.0021367 -0.13953841
-3.4429939 4.4956121 0.56326598
-3.2340915 3.9901757 0.25474271
-2.5715237 2.1981783 0.27253532
-2.8854251 3.0166585 0.35132912
-4.0050812 5.8385816 -1.3779305
-2.8575721 3.0689077 0.69616163
-3.4393923 4.487886 0.95182902
-2.0614483 0.79457295 -0.45585155
-2.8120286 2.3613222 0.3688336
-3.703593 5.0163984 -0.74434865
-3.6189392 4.9818163 -0.24125181
-4.0382056 6.1010585 -0.93874937
-2.6512363 2.4073851 0.66202897
-2.3674684 1.6689899 -0.64911151
-1.9112517 0.39524913 -0.841223
-3.6079378 4.8989353 0.46938214
-2.5584593 2.1956851 1.5476737
-3.4124973 4.4089894 -1.0278715
-3.526742 5.225399 -1.3265395
-3.2382987 3.6806107 0.95098078
-3.5307143 4.6891956 0.7667613
-3.7521861 5.0052762 0.77067775
-2.7270145 2.2109094 -0.041560028
-3.3207951 3.8135087 0.87775362
-1.4163193 -0.92780089 -0.45357871
-2.7908969 2.7293751 0.27335462
-2.8033249 2.2839935 0.16318846
-3.0895483 3.5145829 -0.32823837
-3.7181141 5.0637717 1.0552719
-1.9597702 0.58580685 -0.46622962
-3.3473997 4.2986331 0.35420781
-3.7614954 5.0163875 0.96248376
-2.5447996 2.0869846 -0.65787315
-2.9377398 2.8869419 0.85652941
-2.7228241 2.5122733 0.95376509
-3.3253589 4.1913462 -0.82269883
-3.4250207 4.4959373 0.25745252
-2.7654345 2.8767898 0.25418451
-3.413455 4.3805623 0.74392223
-2.9648709 3.280822 0.75913972
-2.9945667 3.3115098 -0.046042968
-3.7562969 5.0099754 1.0635053
-4.0982656 6.2051826 0.037533179
-3.5499101 4.7986236 -0.82432008
-2.8393393 2.9745083 1.2697264
-3.5203581 4.5849829 0.76376539
-2.6592155 2.4002173 0.94914317
-2.0935056 0.82440805 -0.63880527
-2.76893 2.7782533 -0.04352963
-3.5481064 5.3770323 -0.94354659
-2.6195426 2.1856546 -0.13657488
-2.8968284 3.1014066 -1.1819037
-1.8585484 0.39243886 -1.1474254
-1.3471204 -1.1120132 -0.93813956
-2.56585 2.1872208 0.66141903
-1.8015233 0.09631557 -0.73527205
-2.9047132 3.1036987 0.2601448
-3.589308 5.4153633 -0.53543109
-2.7835624 2.6543994 -0.85393411
-2.1652222 1.1881973 -0.66380823
-3.7141097 5.0050764 -0.64977199
-3.0190597 3.3702562 0.76165032
-3.0111282 3.3902776 0.26447707
-3.1224108 3.6939278 0.45607683
-3.1593659 3.7921007 -0.44197047
-3.0189588 3.3821201 0.57303232
-1.4548976 -0.78643203 -0.46742108
-4.096468 6.0904241 -1.333771
-1.7580726 0.067425393 -1.5598238
-3.0137334 3.4181037 -1.1014987
-3.2435474 3.9958477 -0.33706659
-3.516155 4.6975799 -0.24171641
-3.4258714 4.4901066 0.1606411
-4.0721684 6.1810546 0.16276042
-2.5194569 1.9780042 -0.44559032
-2.6964216 2.119885 -0.14040296
-2.8776755 3.0548773 -0.96284848
-3.5992281 4.9042311 -0.43043849
-3.7496083 4.9977345 0.85985923
-2.571454 2.1807673 -0.045878924
-1.8036882 0.096795522 -0.5582763
-3.4441836 4.4861107 0.8617968
-2.6212964 2.1835618 0.45989802
-2.9495821 2.8211 0.76204103
-2.8910606 3.0156326 -0.13863486
-2.6178365 2.1860709 -0.04024012
-2.7552831 2.7056713 0.9465881
-3.8719158 5.5742345 -1.2522962
-3.2989426 4.1050873 -0.33886957
-2.1435924 0.98879391 -0.53900087
-2.878283 3.0865924 -1.4485371
-2.7234952 2.2079997 0.46345079
-2.7944782 2.2227628 -0.23125517
-3.8531308 5.5969582 0.064081065
-3.0911429 3.1307733 1.0458148
-4.108583 6.211566 -0.62405175
-3.4341052 4.499146 -0.74177861
-3.7914238 5.0138712 1.0598392
-2.4898255 1.9131563 -1.046293
-2.552233 2.1758559 -0.92892188
-3.5031714 4.6213717 0.36331442
-3.0658073 3.5672343 0.35930985
-3.5071785 5.1079206 -1.2737461
-3.4004664 4.4031215 0.25664344
-2.8671618 3.0645289 -0.74239153
-3.5103891 4.7035975 -0.74044073
-3.2584882 4.1680527 0.36556441
-3.5299821 5.3068914 -0.93648833
-3.0630336 3.5800235 0.16544825
-2.7081749 2.5147457 0.6777128
-2.8871078 3.0242126 0.26659539
-2.6334808 2.3800163 -0.70665419
-3.4577451 4.5997653 -1.2296853
-2.4893153 2.66746 -1.5231129
-3.099993 3.5146906 0.37033927
-1.7217869 -0.098281816 -0.84507346
-4.0082908 5.9963851 -0.03689206
-2.7499573 2.6934731 0.061374348
-3.7884018 5.0208859 0.96810651
-3.4307659 4.3842134 0.95568168
-2.5724146 2.2955749 0.25464654
-3.5383816 5.3797793 0.058033295
-2.733722 2.2835102 -0.038263742
-3.596442 4.9295082 -0.63321412
-2.7879744 2.716428 -0.13982226
-3.2279873 3.8013568 -0.95867717
-2.288321 1.3224775 -0.94286484
-3.6179354 4.986093 0.062737308
-3.5138955 4.6981454 0.060552217
-3.5256586 4.5854416 0.95898396
-3.4982309 4.6057653 -0.33491048
-2.8910091 3.0187666 0.056665249
-2.1288464 0.99161333 -0.73904359
-2.7943196 2.7260208 0.16415206
-3.9272151 5.7942023 -0.047865108
-3.9419029 5.780345 -1.1368068
-2.7181513 2.384299 0.25567189
-1.565908 -0.4310348 -0.79971325
-2.7685578 2.7586877 0.76765621
-2.5103865 2.7987275 -1.5370229
-2.7257922 2.603704 -0.433301
-1.3901265 -0.98294544 -1.4192944
-3.6020494 4.9091663 -0.53120285
-2.7882209 2.7209048 0.46467781
-3.9114039 5.7115779 -0.1371261
-3.2623072 4.081727 0.16309282
-2.7110708 2.1853275 1.7562395
-3.1432977 3.4031038 0.85648507
-2.5625703 2.1963205 1.4585978
-1.8614616 0.30118874 -1.2433721
-2.1674318 1.1726762 -0.93048823
-2.630424 2.2968895 1.3598431
-3.0047147 3.3320413 -1.3614712
-2.5728073 2.1776562 0.16077211
-3.7367692 4.9034805 0.86806905
-3.5408916 4.6859603 1.0365553
-4.0424623 6.1035891 -1.0401785
-1.4002647 -0.9929623 -0.94788474
-2.9437869 2.814214 1.0454488
-2.2678657 1.4854214 -1.0404575
-3.4968002 5.2074685 -0.45630029
-1.4020147 -0.98486453 -0.63484716
-3.0217731 3.4016156 -0.33553499
-3.4918356 4.6076579 0.46717736
-3.3208385 4.1986561 0.05591815
-3.0298338 3.3812735 1.0333948
-3.2053297 3.7471669 -1.0395911
-2.9526513 2.8244951 0.85859078
-2.9428451 3.1931398 -0.13479909
-2.9072199 3.0992248 0.06126919
-3.3304589 4.1747522 0.84967881
-2.8598523 2.9889092 -0.44197419
-4.0941491 6.1993928 0.26338989
-3.964397 5.8889132 -1.0338296
-2.7058017 2.5157025 0.5735305
-3.4315619 4.4959836 -0.040255267
-2.809669 2.186161 0.57594681
-3.0979822 3.5052464 -0.44826466
-3.0929093 3.4918444 -0.54447669
-3.0653 3.5260856 0.84923214
-2.8303163 2.9857762 -1.4709448
-3.4999423 5.2114778 -1.0230995
-2.9961655 3.3147876 0.35958225
-2.9965253 3.2874312 1.1428745
-2.7479799 2.696346 0.35412082
-3.9413347 5.827404 0.14868568
-3.9646308 5.9086084 -1.2396876
-3.8196888 5.0861053 0.57052982
-2.6537266 2.4057329 0.56775248
-2.723505 2.2093625 0.7672255
-3.7044082 5.0147738 -0.22552812
-3.3222225 4.1983223 -0.43439716
-3.2660153 4.0876746 -0.43613285
-3.0152361 3.4017751 0.16155006
-2.6141942 2.1833417 0.16317025
-3.4444389 5.1005592 -0.93910635
-3.5451627 4.7921534 -0.33575356
-3.5475883 5.3798623 -0.63523984
-3.9525723 5.8665171 -1.1335016
-2.7899318 2.7210894 0.37893647
-2.9499619 2.8208151 0.96136504
-2.8410449 2.4973476 0.94893783
-1.5305903 -0.59448028 -0.56160593
-2.7630458 2.7239666 0.8572343
-2.9986203 3.3093636 -0.34058347
-3.2950859 4.1098132 -0.13155581
-2.9835191 3.2307224 -0.23154262
-2.7617328 2.7859466 0.45326215
-3.4341953 4.4943061 -0.34165961
-3.5314233 4.7860904 0.8739863
-3.5070105 4.6936536 0.16202381
-2.1216557 0.99519539 -0.83278376
-2.7311659 2.2772572 -0.33715689
-3.7965589 5.0163932 0.76712626
-2.6240768 2.2960277 1.8404189
-1.3070586 -1.2048635 -0.54731697
-3.0284648 3.3073554 -0.90782773
-3.4734244 4.5892243 1.343437
-2.8410978 2.8878911 0.85564101
-4.0302448 6.0922356 -0.64082962
-3.9887636 5.8482714 -0.98635405
-2.5087795 1.9343187 -1.2746866
-3.2620487 4.0727816 -0.53553241
-2.7202663 2.5939183 -0.33953118
-1.3978304 -0.99598849 -1.0322152
-2.050673 0.71113557 -1.0994589
-3.4056275 4.4051962 -0.33445174
-2.3793123 1.6516035 -0.58507866
-3.6044397 4.8019128 0.9552052
-2.8593631 3.0147436 0.96092194
-2.5661221 2.1929033 1.0593911
-3.3175805 4.1968832 0.25558919
-3.3980215 4.4009919 -0.039743628
-3.9265954 5.7867861 -1.2566031
-3.3852098 4.2051644 -1.0820081
-3.1582499 3.7815838 -0.22646564
-3.5469215 4.7807326 -1.447323
-1.3187541 -1.2011429 -0.74487484
-2.6681542 2.1301308 0.95903927
-3.6352911 4.5991812 0.85844719
-3.2121806 3.5923226 0.86353517
-3.0907307 3.5293231 -0.035537366
-3.2867427 4.0265369 -0.24759495
-3.7319221 5.0854783 -0.43720341
-2.9345086 3.1986427 0.25723442
-3.5107307 4.6994104 -0.5388152
-2.8088427 2.2985363 0.062857941
-3.1289036 3.6962676 -0.24021152
-3.5199702 5.3107972 -0.13881479
-4.1022129 6.2045646 -0.72049242
-3.4941764 4.6273942 -0.031701263
-3.4421051 5.0061636 -0.54269361
-3.0007429 3.3165071 0.4594259
-3.4422827 5.0113177 -0.4385978
-2.8332975 2.8932333 -0.23133631
-2.7322664 2.2854667 0.065110609
-3.6106133 4.6994615 1.0822271
-2.8044176 2.3766992 0.84556985
-3.1346052 3.6988089 -0.33573401
-1.4227918 -0.89986104 -0.73615724
-2.1370363 0.99728477 -1.0282644
-3.2674625 4.0799351 -0.33165795
-2.7028489 2.5095832 -0.33302841
-2.6506443 2.4080203 0.35022697
-3.6230664 4.8042326 0.85938877
-2.7210941 2.2028294 0.96026224
-2.1369417 0.99693453 -0.63633603
-3.4077628 4.3961315 0.36126053
-3.0926921 3.4604347 -1.0919808
-3.3620794 4.3066816 0.66343474
-2.2087717 1.1934608 -1.132363
-2.1973379 1.1279527 -0.83223879
-3.9751136 5.9809227 -0.15009773
-1.2631392 -1.3108387 -0.73642009
-3.2660758 4.0755668 -0.24257047
-2.7632115 2.7678359 0.66237497
-2.9516647 3.1991282 0.85540557
-3.4910824 5.1079264 -0.77253175
-3.3225465 4.1918459 -0.23623168
-3.523185 4.6911702 0.66926461
-2.6471298 2.3994195 0.26012555
-2.7322562 2.3853092 0.46438575
-3.1619143 3.79233 0.65098596
-2.8429523 2.5080462 1.0459288
-3.2113817 3.8953166 -0.3382796
-1.7496076 -0.0076903636 -0.73617971
-4.0903368 6.1263962 -0.54275942
-3.5352349 4.9891548 -0.037826158
-2.5747092 2.2616639 1.0603973
-3.3618906 4.369277 0.25247777
-3.1997876 3.8153331 0.36478171
-2.6917393 2.114893 1.6591828
-3.5087416 4.7034779 0.26150388
-3.4607217 5.1753173 -0.64270455
-2.6095178 2.1889913 0.76390892
-2.5672407 2.191457 0.86365199
-3.0915601 3.1387532 0.95822424
-3.5882354 4.8328171 0.033412267
-3.7206733 5.0780878 0.55316657
-4.0719247 6.0992045 -1.4071476
-3.4655504 5.1872458 -0.23793812
-4.0357108 6.0934386 -0.14576301
-3.0998142 3.5108397 -0.64128256
-3.6325834 4.9845481 0.85745865
-3.950511 5.791769 -1.3401225
-1.3346751 -1.1059692 -0.55178714
-3.3202715 4.1971259 -0.035545789
-2.8578441 2.9888957 0.061963703
-3.3532815 4.2793741 -0.83594608
-2.7205143 2.5964224 -0.13766919
-3.9691291 5.9600248 -0.53969556
-3.5671566 4.8623996 0.56039244
-3.3971484 4.0271277 0.74576044
-2.8231065 2.7167456 0.85787106
-1.9942786 0.60640889 -0.53671926
-3.5481389 4.7991896 0.16994879
-2.9938114 3.3055792 -0.1413132
-3.7082238 5.0893836 0.7616123
-2.0220394 0.69437879 -1.0280087
-2.567518 2.1195996 -0.47159418
-2.7992599 2.7025023 -0.63436007
-2.2995594 1.3338846 -1.161051
-2.8611193 2.9852676 -0.14254454
-2.6940572 2.129308 0.76440781
-2.733937 2.2621908 1.1637336
-3.2711079 4.1736169 0.30840433
-3.0206928 3.3983791 -0.14132927
-2.7332468 2.2747025 0.3537156
-2.9893148 3.2250118 -0.32643166
-2.4667773 1.9715786 -0.93794769
-3.1180387 3.5798013 0.85362357
-3.4914346 4.6164536 -0.13702799
-3.609251 4.9095788 -1.1372809
-2.7971091 2.2288404 -0.33201906
-2.6446502 2.3944325 0.16204339
-3.5550575 4.9350953 -0.93932915
-2.7451129 2.7096033 -0.93189657
-1.4161506 -1.0730085 -1.2218249
-3.4492643 4.5045271 -1.2158928
-2.7218478 2.2135324 0.65943742
-3.439389 4.5031662 -0.54307598
-2.9681754 3.3901899 0.37397462
-3.8789134 5.6158342 -0.98555112
-3.1256318 3.687346 -1.0448539
-2.9059024 3.0018694 -1.1086259
-3.195452 3.8057628 -0.64092481
-3.4317198 4.4875236 0.46586907
-3.5384073 5.381072 -0.13666831
-2.8617098 3.0043285 0.76962763
-2.5628781 2.194524 1.2562622
-1.5588154 -0.51213461 -0.7367056
-3.2354336 3.8991814 -1.4248158
-2.9999514 3.3188684 0.57064378
-2.6054969 2.233629 -0.95674133
-1.9645952 0.58466846 -0.84143257
-3.8662007 5.6916704 -0.74284619
-3.2127588 3.8975213 -0.42974317
-4.0599589 6.1798682 0.082977615
-2.5620732 2.1898899 -0.8367604
-3.59126 4.8307023 -0.030687449
-3.5979345 4.9035478 0.26543188
-3.189455 3.8119791 0.27020392
-4.0432448 6.1108718 -1.2505322
-2.7142665 2.5957136 0.35560688
-3.4925129 5.1178145 -0.92658865
-3.7029445 4.9100971 -0.96164924
-3.2513335 4.0071244 -1.1352708
-3.5306344 5.3112068 -0.83682048
-3.5221972 4.9833584 -0.53692907
-2.2147067 1.1954695 -0.4475874
-3.4732647 4.670155 -0.21294168
-3.3059149 4.111289 -0.63630331
-3.9602022 5.7345991 -1.4189953
-3.047224 3.4990604 0.36446926
-2.8913474 3.0173602 -0.23574436
-3.542434 5.3813887 -1.1450773
-3.5423687 4.8038368 0.46221805
-4.0975666 6.2128124 -0.46936324
-3.3400249 4.2853227 -1.2567258
-3.4328992 4.4985456 0.05005819
-2.7211668 2.2086344 0.56258762
-2.0576077 0.7861371 -0.53530073
-2.3741496 1.7499772 -1.0025321
-1.3693614 -1.0210059 -0.84572065
-3.5387807 4.9767342 -0.63729662
-3.508194 4.6990123 -0.33413333
-2.5957754 2.217778 -0.83790207
-2.566462 2.1954467 1.156324
-2.8654013 3.0055795 0.84735161
-1.5823039 -0.5934689 -0.54531485
-2.6991868 2.5088668 -0.72957087
-3.1452997 3.7109351 0.76757932
-2.655386 2.1174915 1.5601379
-3.1113374 3.5782104 0.75506544
-3.4328716 4.3759475 1.0503567
-3.4601362 4.5863471 -0.13276277
-3.5045764 4.6110444 -0.83450562
-2.8273661 2.8950098 0.1607928
-2.5729806 2.1438856 0.56374764
-3.0338879 2.8553512 1.038849
-2.7249765 2.1890862 0.15998983
-2.9944313 3.3163865 0.26404971
-2.5472636 2.1864026 -1.028519
-3.1947486 3.8217216 -0.34261832
-4.1159644 6.2962646 -0.040304072
-3.0455227 3.1121063 0.76900572
-2.5670619 2.2575536 1.5607275
-1.5414406 -0.58310533 -0.32255134
-3.6142709 4.8984871 0.57221854
-2.9138622 3.0970466 -0.34548742
-1.8566558 0.2762031 -0.53582549
-2.7283807 2.3819783 0.86249459
-3.5454857 5.3841286 -0.5356192
-3.6317894 4.9739003 1.1568694
-3.2198508 3.5069075 1.1687446
-2.9039969 3.0974834 0.15794602
-2.8562953 2.9864132 -0.035404939
-3.520772 5.3049898 -0.43886581
-4.1017656 6.1891031 -0.89698005
-3.4671731 5.1907468 -0.43866578
-3.0625186 3.5064673 0.6572932
-4.0158658 6.006391 -1.2330858
-3.2096937 3.9004004 0.26558
-3.9802833 5.8368702 -0.585365
-2.7083859 2.3974144 1.1646304
-3.4258349 4.085382 0.95497751
-3.9280176 5.6963587 -1.105391
-2.837486 2.5025272 0.86286372
-2.6392019 2.3858242 1.1632638
-3.5380974 4.6877937 0.95453197
-4.0979538 6.209662 -0.14503479
-4.1209507 6.3091002 -1.1217985
-2.7188985 2.3881254 1.3865778
-3.4812329 4.5224996 -0.36278424
-2.8079603 2.2757595 -0.73607898
-2.6278067 2.2944429 1.4624693
-3.7407939 4.9067035 0.96363205
-2.9260206 3.032764 -0.96501404
-3.5591407 4.8106494 0.75928897
-3.4404831 4.9958334 -0.64143836
-2.4690182 1.9771917 -0.83193761
-3.3407965 4.2806826 -1.1350408
-1.4041729 -1.1018096 -0.76318192
-2.6952541 2.1255755 0.25939676
-3.2676356 4.0813169 -0.13865468
-2.7425091 2.6934671 0.45259807
-3.5436394 4.7992439 0.059389237
-3.7057495 4.7915826 0.95055103
-2.109931 0.87931967 -1.0525426
-2.7365336 2.2720554 0.95711976
-2.8416615 2.8847971 0.95254201
-2.7349849 2.2808077 0.25863761
-2.93519 3.2003405 0.45582813
-2.1019223 0.89561552 -0.74210393
-4.1023564 6.2031035 -1.4274516
-2.5627201 2.1894174 1.8601176
-2.8537359 2.9875817 0.15701438
-3.2063186 3.1861756 0.90279472
-2.7264147 2.1743219 1.8451096
-3.9458833 5.8864608 -0.75354296
-3.4045002 4.4012456 0.15624577
-3.2107024 3.479949 0.94989467
-2.8899484 3.01841 0.16352938
-3.1525447 3.7827587 -0.73380142
-1.4662511 -0.72696793 -0.72814447
-3.6279716 5.0752635 0.86123556
-2.7609158 2.7766888 0.26405793
-3.601501 5.3970871 -0.74044335
-1.5987126 -0.48307675 -0.46657896
-1.399074 -0.98007286 -1.5317844
-2.5604353 2.1826828 -0.74077964
-2.9051101 3.0971527 -0.038247619
-1.2682219 -1.2349839 -0.76350713
-3.1578953 3.7873738 -0.033969749
-3.3210096 4.1971555 -0.33579469
-2.7239418 2.1856422 0.26224452
-2.6591227 2.4824097 0.16457818
-1.437211 -1.2191904 -0.44100726
-3.954448 5.8960657 -0.15160057
-2.8205514 2.8944333 0.45759535
-2.7967584 2.8016396 0.35921797
-3.5120289 4.2673903 0.85929441
-3.2972662 4.0076222 -0.63807601
-2.696517 2.123589 0.062598787
-3.443583 4.9741082 -1.2499671
-3.3519268 4.3011818 0.2562331
-2.0900197 0.89163703 -1.0944712
-1.6450131 -0.30672586 -0.94292694
-3.4487019 5.0819912 -0.8405233
-2.6949039 2.1289201 0.4580619
-2.8070951 2.2826581 -0.33661476
-3.061156 3.5631816 0.86144596
-2.6626532 2.4806883 0.25604314
-1.7297704 -0.11106721 -1.1392666
-1.9709226 0.65961218 -0.8541528
-3.1957841 3.781518 0.94813073
-1.3974414 -0.98736745 -0.83881652
-2.6974671 2.125103 0.16603458
-3.5440354 5.3783898 -0.23530929
-2.7589879 2.7042065 0.64825195
-2.7172325 2.2065394 1.0608039
-3.629405 4.6066189 0.94473541
-3.5326371 4.6912727 0.86793637
-2.0614281 0.88839269 -1.0454103
-2.5680208 2.1975114 0.96245819
-2.7687845 2.7598243 0.95374072
-2.9206209 3.0920272 0.96005523
-2.5954058 2.2169495 -0.74583918
-2.7300117 2.2619064 1.2599747
-2.9418151 3.204318 0.6629352
-3.628463 4.9801655 1.0572853
-3.5269673 5.3080649 -0.53785884
-3.4275184 4.0860176 0.76381928
-3.0954783 3.1386232 0.8641113
-4.09341 6.2153201 -0.23775245
-2.8156207 2.7747369 0.95675981
-2.7210536 2.2572186 -0.523256
-3.4034157 4.4044585 -0.2423902
-3.5601187 4.8264117 0.93999666
-3.7248995 5.0877199 -0.64298767
-2.9951456 3.3035917 -0.24201314
-1.9909261 0.58664417 -0.64667767
-2.1076016 0.91171032 -0.94115245
-3.0105438 3.3845692 -1.2441509
-2.0982723 0.88244987 -0.44274506
-2.7437613 2.695225 -0.52936363
-3.7033992 5.0072241 -0.039968241
-3.3519607 4.2917929 -0.13361263
-2.5056977 2.009449 -1.0324216
-4.0868082 6.192173 0.13518229
-2.6661177 2.492507 0.85202926
-2.8003633 2.8094845 0.46457502
-3.1425543 3.7171042 0.66151315
-3.3648219 4.3143682 0.7598353
-3.2091298 3.8969445 -0.2388574
-3.2970257 4.1099153 -0.24254721
-3.4626603 5.1894112 -1.2167385
-3.5119038 4.7022538 -0.040222738
-3.5438585 4.7974176 -0.035696879
-3.5873299 4.8330727 -0.4432444
-3.6106234 4.9791441 -0.14142035
-2.9897125 2.8299282 1.0197686
-3.10267 3.5990233 -0.44026166
-3.1468956 3.798161 -1.1221033
-2.7992911 2.8018553 0.26190075
-3.7415614 4.9110909 1.1596726
-3.4348378 4.4981723 -0.42267969
-3.5491228 4.7972183 -0.62731284
-2.8076723 2.358479 0.65584809
-3.9154067 5.7145309 0.073897004
-3.1019881 3.6053648 -0.1313166
-2.637454 2.2987826 -0.33361593
-3.8155086 4.9190588 0.82282025
-3.5880256 5.4111543 -0.42371547
-4.0805078 6.1177611 0.052648641
-3.5855551 5.411294 -0.24978188
-3.9951394 5.909008 -0.086955667
-3.8082948 5.0810475 0.66805482
-1.6112771 -0.40053543 -0.94314313
-4.0228295 6.0010724 -1.1527534
-3.1139009 3.5122378 -0.9697178
-2.3682821 1.5789256 -1.1110063
-3.6113656 4.6742353 0.98488909
-2.567147 1.606128 -0.59278637
-2.6958406 2.5059628 -0.23678038
-3.5997009 4.8294005 -0.50903356
-3.7943251 4.8902359 1.0775373
-3.0515525 3.4838324 -0.4364942
-3.5106158 4.7031903 0.36024883
-3.5321212 4.9848452 -0.44780472
-3.3681862 4.3101287 0.85567886
-3.4333816 4.4950595 -0.13702074
-2.6514771 2.4030366 0.85532957
-1.2670041 -1.2375504 -0.56101072
-2.4526386 1.8948038 -0.73858792
-2.8108163 2.3623018 0.46172398
-2.8089013 2.8036335 0.56629741
-3.5240269 4.4850569 0.75851035
-3.1494975 3.7161129 0.86033827
-2.3064198 1.4103992 -0.84503931
-2.8179839 2.7102737 0.95185637
-3.6345046 4.929718 1.1474065
-2.0935948 0.81442982 -0.9323436
-3.1281772 3.3020341 0.94774538
-2.6962743 2.1264598 0.36085051
-2.6309969 2.3843608 -0.44123498
-2.8821862 2.9369817 -0.48058891
-1.9105104 0.38757595 -1.1190569
-3.601759 4.9030285 -0.14222999
-3.1610329 3.7907286 -0.13830151
-3.4608521 4.587184 -0.43146655
-3.4875083 4.6174059 -0.24509484
-3.4632113 5.1869621 -0.9327274
-3.0186603 2.988157 0.86018789
-3.5833416 4.729403 0.32164428
-2.8221591 2.2080324 0.45419317
-2.0898249 0.75920773 -0.87373918
-2.567816 2.1781294 -0.32978463
-3.1895525 3.440053 0.76426679
-2.8659072 3.0234346 -1.1155989
-2.1010778 0.82327694 -1.0340489
-1.7101603 -0.21154322 -0.4598082
-3.4957025 5.2019997 -0.23893595
-3.2014503 3.7226524 -0.71990669
-3.194756 3.7072449 -0.83401275
-2.788691 2.7202587 -0.24053197
-3.44031 5.0964785 -0.5400179
-2.1709509 1.1692928 -1.033569
-3.4339659 4.4952407 -0.24181469
-3.5228763 5.3076649 -1.4306914
-2.0262761 0.70761585 -0.53283656
-3.2329619 3.9749904 0.66433543
-3.2425482 3.9950283 0.0634261
-3.2868295 4.0247712 -0.54998475
-2.6932397 2.1283407 0.55652797
-3.1244726 3.6940551 0.16154633
-3.1026707 3.5933192 -0.53963965
-1.8282789 0.19505629 -0.63569009
-2.8325832 2.893456 1.0543962
-3.5370345 4.7983208 0.36039019
-3.0625134 3.5743697 -0.025755366
-3.0272284 3.1922305 0.75095844
-2.7361217 2.282733 0.16339241
-3.5427587 5.3752575 -0.83610952
-3.2094655 3.7999401 0.55867219
-3.70943 4.7982125 0.85323656
-3.1300271 3.296617 0.85866773
-2.0232375 0.69496173 -0.63567406
-3.1409988 3.705442 0.56790555
-3.6072683 4.9174166 -0.82992387
-2.8469841 3.0776439 0.058631275
-2.8631327 2.9924338 -0.33786529
-3.0964849 3.5188241 0.243293
-2.941684 3.1923037 -0.33172479
-2.806674 2.3663867 0.95166093
-3.4542944 4.5918951 0.15153179
-3.559114 4.9228616 -1.138865
-1.9896389 0.60348576 -1.218606
-2.7724419 2.9636803 0.0015123107
-3.5862331 4.4067416 0.69454902
-1.6877978 -0.27227688 -0.54658926
-3.7233891 5.0062203 0.55966151
-2.5627 2.1962841 1.3614532
-2.8097456 2.3160334 -0.12731004
-2.9574049 3.2861273 0.05307509
-3.4025245 4.3922577 0.4617312
-3.6036806 4.9116445 -0.24184474
-2.7588809 2.7028136 0.76941454
-3.296046 4.1076627 0.15346518
-3.3475835 4.2915425 0.46747515
-2.5695362 2.185569 -0.1363416
-1.6091102 -0.41240963 -0.46607068
-3.2094984 3.9030282 0.35191885
-3.4400904 4.9938569 -0.82852989
-3.624522 4.6919799 0.74525332
-3.5285418 4.7027111 0.56003529
-3.3540237 4.2962818 -0.44110638
-2.7637584 2.7644601 0.85148871
-3.1428998 3.7119141 0.95641482
-3.7621295 5.2774258 0.91646254
-3.3431025 3.8973753 0.97212726
-4.0274186 6.0977716 -1.1345035
-3.5654595 5.0400615 0.95905358
-2.7826219 2.1920543 -0.17117533
-2.828279 2.8907764 -0.13807143
-3.3087101 4.0843511 -0.73647761
-3.3850091 4.3196917 -0.64583802
-3.4605703 4.5897541 -0.035387207
-3.4319155 4.98066 -1.5150439
-3.3989441 4.2376194 -0.92722291
-3.0949621 3.5988309 0.35873839
-2.7007065 2.1172569 -0.34112236
-2.9304283 2.8926389 0.77102429
-3.7413285 5.2878122 0.86312711
-2.8145661 2.3583796 0.55200523
-2.8325195 2.8988881 -0.43558916
-3.1296625 3.6930153 -0.62956178
-3.3544018 4.2894158 -0.33468074
-3.9476647 5.8890429 -0.34270072
-2.9265156 2.8664217 1.0325153
-3.1473579 3.5965586 0.95875221
-3.5210521 4.7000246 -0.9459728
-3.5440996 4.7990785 0.25710937
-2.8079612 2.3168793 -0.23280907
-2.7250044 2.2025783 -0.3339088
-3.223217 3.898948 -0.83570886
-3.3925614 4.3257108 -0.53527123
-2.7741385 2.8776999 0.36032522
-3.4316227 4.9939957 -0.93267781
-3.4563973 5.1095529 -1.0337223
-3.5906601 4.8058481 -1.099317
-2.7980766 2.2281802 -0.42832386
-3.5370862 5.3105273 -1.1269733
-1.3829426 -1.0903703 -0.79675716
-3.3483667 4.2949281 -0.63773179
-2.6294088 2.3729138 1.3504683
-4.0067878 5.9951382 -0.13676646
-3.485707 4.5119967 -1.2161117
-3.4314289 4.4905558 -0.63483638
-3.5597551 4.9290905 -0.83731455
-3.4311094 4.9993415 -0.74162078
-2.1993108 1.1135654 -1.041871
-3.1269398 3.3024476 0.75639695
-2.0926585 0.94895941 -1.2120414
-2.8337092 2.8918583 0.66475856
-3.1457636 3.3706005 1.0264142
-2.9656134 3.2770357 -0.33378041
-3.6665297 5.0720711 -0.11744137
-3.5402043 5.3735929 -1.0359764
-1.6947619 -0.19138396 -0.83512253
-3.4006004 4.3991442 -0.13950282
-3.7414265 4.909173 1.0659496
-2.7684817 2.7692804 0.061035022
-3.367759 4.3653464 -0.44391227
-3.5199516 4.6937375 0.46959445
-3.4474204 5.1117296 -0.74892783
-2.4510934 1.8961425 -0.84666252
-3.7231188 5.2872248 0.77008224
-3.4590309 4.5878739 -0.34098136
-2.3186388 1.495792 -0.63509667
-3.4124274 4.3138423 0.94180393
-3.2940528 4.1137614 0.052116137
-2.3153746 1.496944 -1.0240704
-2.7999876 2.2962017 1.0545
-2.4291065 1.8012246 -0.74385953
-3.5015829 5.1986065 -0.74017704
-3.4066746 4.3919196 0.56954414
-3.7304006 4.9025421 0.77140021
-3.2561963 4.0802884 -0.045722432
-2.7656188 2.7812216 0.56648737
-2.0467944 0.79608113 -1.1275103
-1.4798867 -0.64774203 -0.73818386
-2.6946683 2.1294503 0.66281241
-1.8706585 0.36112744 -0.93636876
-2.0520303 0.78918403 -0.64813489
-3.0913348 3.5309398 0.044308323
-3.1542673 3.7901037 0.35614702
-3.3643498 4.3792701 -0.038608275
-3.4513478 5.0977144 -0.6327073
-2.1491742 1.090023 -0.74936771
-3.259114 4.0980206 0.66394675
-3.3491035 4.2923431 -0.52894616
-2.3888745 1.6251714 -0.62192953
-2.696116 2.5006673 0.4649401
-3.1153779 3.399441 0.76718616
-3.0817916 3.1394188 0.75197625
-1.4492058 -0.81051636 -0.73482484
-2.7923067 2.3614712 0.75333279
-3.7072141 5.0016451 -0.34795311
-3.7326512 4.9004331 0.67359602
-2.8632157 3.0772181 0.56712878
-3.1073759 3.5797069 0.65826887
-3.1903362 3.8142886 -0.4315134
-1.910066 0.39854774 -0.642932
-2.8294468 2.8939745 -0.32484558
-3.1924543 3.8120444 -0.53671825
-2.6692777 2.1271915 0.86565274
-2.3402886 1.5855988 -1.0180064
-3.5647092 4.865119 -0.32087943
-3.5948553 4.8264322 -0.23718458
-2.0216694 0.6984607 -0.74802268
-3.8969738 5.6880217 0.15157576
-3.4714668 5.2531571 -0.65011287
-1.3156298 -1.2013342 -0.42759913
-3.6220992 4.9791708 0.66485703
-2.1984615 1.1165923 -0.92805123
-3.6592612 5.0584383 0.16659011
-3.6283159 4.9837985 0.95555586
-3.4975035 5.1267509 -0.25454441
-2.3550003 1.5871984 -0.54324341
-3.428323 4.204411 0.87371743
-2.4775281 1.5010879 -0.46640924
-2.0529485 0.79594088 -0.76086849
-2.7661192 2.7664866 -0.56182444
-3.3613248 4.3851748 0.35505697
-3.4205158 4.4070539 -0.92336804
-3.4443991 5.0131087 -0.23272999
-2.9161911 3.0892887 0.66247237
-3.5827219 4.7823114 -1.2571523
-2.4484959 1.8839557 -0.65993738
-2.4916103 1.9164869 -1.1778947
-3.5654829 4.8879552 -0.43548578
-3.5174489 5.0776758 -1.031864
-3.5223851 4.6962667 -0.63956589
-2.50172 2.7373071 -1.6357838
-1.701583 -0.19223186 -1.1366183
-3.4008555 4.4035907 0.061273847
-3.6990912 5.0085459 -0.40696287
-2.0154793 0.69208026 -0.84488773
-3.7204545 5.5295506 -1.2626129
-3.4368312 4.3392229 -1.0620496
-1.3004229 -1.302423 -0.54139423
-3.7070198 5.0013022 -0.5266217
-3.5025108 5.196074 -1.1405681
-2.6825368 2.3537753 1.7887172
-2.0583186 0.84903026 -1.2421396
-4.0396109 6.0970387 0.14282434
-1.9978983 0.61347914 -0.8338362
-2.1489778 1.0889776 -0.83937746
-2.6535451 2.4067881 0.76888925
-3.8246293 5.7591696 -0.16233286
-3.6158206 4.8079782 -1.0046766
-2.8223331 2.6014509 0.86386025
