# .PCD v0.7 - Point Cloud Data file format
VERSION 0.7
FIELDS x y z
SIZE 4 4 4
TYPE F F F
COUNT 1 1 1
WIDTH 641
HEIGHT 1
VIEWPOINT 0 0 0 1 0 0 0
POINTS 641
DATA ascii
-12.039834 25.645729 1.5504249
-12.249237 26.275023 1.5571858
-12.042633 25.597645 1.5725142
-11.609833 25.476913 2.0372679
-14.312616 31.126614 0.37854141
-14.222754 31.057953 -0.34846845
-14.124362 30.768248 0.55127531
-13.846303 30.242146 0.51755553
-13.975636 30.567797 0.56773937
-13.795326 30.239401 1.2359295
-13.873759 30.460068 0.38195726
-14.06604 30.810276 0.29834253
-14.300943 31.354923 0.25689408
-14.292033 31.231308 0.64715207
-13.864589 30.452318 0.99983144
-13.890876 30.217535 0.32451847
-13.892386 30.550987 1.0145849
-13.938168 30.582533 0.42695254
-14.132115 30.629063 -0.33561185
-13.860323 30.466932 0.84686828
-14.133163 30.78756 -0.33351651
-14.000886 30.506853 0.027684754
-14.014614 30.631409 0.054718859
-14.023252 30.464733 -0.2616179
-12.287446 26.309544 1.376693
-13.77277 30.144056 1.118849
-14.232635 31.103718 0.86101639
-12.814543 27.66456 0.86218101
-14.206379 31.090569 0.46201891
-14.198153 31.101267 1.0812861
-12.818194 27.514864 0.2842842
-12.249466 26.259045 -0.03315999
-14.232682 31.221291 -0.31250915
-14.00931 30.606644 0.44722459
-12.8096 27.617416 0.26175916
-13.662494 29.761869 0.26087981
-14.206614 31.070854 -0.084868699
-14.199447 31.050898 0.9829846
-14.214128 31.102982 0.37013316
-14.309052 31.435682 -0.37181136
-14.276839 31.243938 0.52245665
-14.226169 31.195929 0.79562575
-14.257167 31.180935 0.20692387
-13.985063 30.427025 -0.58693838
-13.99199 30.494003 0.5494011
-14.244577 31.179089 0.86722422
-11.643547 25.992001 1.8826771
-14.027426 30.710018 0.27259886
-13.27645 28.995897 0.12399
-14.273985 31.282341 -0.20552316
-14.202469 31.018892 0.45290172
-14.208749 31.08984 0.59550512
-13.848117 30.391453 0.26279134
-13.266994 28.957653 0.7477752
-14.129658 30.980482 0.46997562
-14.106654 30.875929 0.90847266
-13.936523 30.328772 0.68553591
-14.270069 31.234766 0.64303952
-14.119377 30.768604 0.75821567
-14.336174 31.297108 -0.13596565
-14.029339 30.577847 0.6633476
-14.026203 30.668175 0.76489693
-13.850474 30.473627 1.0746806
-13.715411 29.798466 0.5393272
-11.586254 25.909092 2.1675565
-13.232122 28.435122 0.34164816
-11.593602 25.896482 2.2706923
-11.598984 25.882553 2.0854506
-13.27371 28.991085 0.50584161
-14.024776 30.603523 -0.38937253
-13.402951 29.024488 0.7272926
-14.005198 30.496544 -0.46397144
-13.43784 29.127144 0.44106415
-13.45387 29.103714 0.39647329
-13.906132 30.465714 -0.41554457
-11.707946 26.18713 2.1263647
-13.98912 30.427046 -0.30562815
-13.375573 28.944256 0.22275291
-12.944468 27.881231 0.54614985
-13.358647 29.05616 -0.36055815
-12.997757 27.986118 0.27870166
-13.895899 30.312912 0.5500232
-12.753149 27.386774 0.6275475
-14.196354 31.031239 -0.41984099
-12.941448 27.752079 0.61031604
-12.69774 27.177185 0.53122711
-13.640994 29.681604 0.26249111
-13.58666 29.535961 0.36082581
-13.55969 29.522961 0.42033678
-13.02284 27.993734 0.44573599
-13.617033 29.555775 0.42371064
-12.826312 27.659105 0.91824603
-13.219675 28.228512 0.41415676
-13.231727 28.339542 0.34196034
-12.534464 26.644178 0.41558897
-12.995012 27.660583 0.35788363
-12.68153 27.137257 0.4303934
-13.903865 30.172428 0.28875607
-13.325961 28.708202 0.45359278
-12.66223 27.066906 0.46601132
-12.771765 27.65659 0.76213264
-13.259333 28.67564 0.36408436
-12.774241 27.648388 0.66055465
-13.770241 30.059521 0.35388333
-12.741894 27.268135 0.47896546
-12.884542 27.623394 0.39639205
-12.731936 27.221586 0.46713421
-12.289736 26.265224 0.41998824
-13.764815 29.976501 0.28766716
-12.308591 26.212336 0.23325303
-13.915527 30.314346 -0.34820998
-12.813575 27.665833 0.7537508
-12.994058 27.924807 0.31551915
-13.904324 30.320007 0.26606309
-13.619389 29.574533 0.37100473
-14.17407 31.202246 0.305776
-12.288032 26.261923 0.5252443
-14.220406 30.998665 0.26993549
-12.697406 27.116325 0.28366154
-12.248554 26.022511 0.37448135
-13.904241 30.406595 -0.73929411
-14.273875 30.944338 0.37854818
-14.190558 31.121841 0.30937734
-13.852718 30.453674 -0.0078702578
-14.248684 31.265373 0.26777151
-13.911057 30.244926 -0.25499645
-14.11679 30.891872 0.27508643
-14.329337 31.111122 0.25488055
-13.910608 30.45841 -0.70559442
-13.649109 29.487631 0.23512857
-13.909 30.406029 -0.63931459
-13.850701 30.331524 -0.32485095
-13.836567 30.447138 -0.34364423
-13.855571 30.449163 -0.44033575
-13.839505 30.39188 -0.53063506
-13.911301 30.296408 -0.55979562
-13.898813 30.307629 -0.24085654
-13.952976 30.58828 -0.63064718
-13.914918 30.481003 -0.65098077
-13.447197 29.231249 0.27262706
-13.436632 29.268742 0.29902479
-12.759688 27.659992 0.2500259
-13.394371 28.818272 0.44134083
-13.597516 29.604065 0.29108483
-12.731474 27.359108 0.23434551
-12.287689 26.272076 0.16151993
-13.529112 29.407341 0.26306248
-12.293727 26.272301 0.38690329
-13.533507 29.419739 0.35210747
-12.75962 27.589235 0.93857676
-14.161594 31.107182 0.44568238
-14.153956 31.084015 0.33989388
-12.286454 26.299435 1.6541383
-12.297643 26.294153 1.4862105
-12.924646 27.759651 0.42692643
-11.822943 26.507986 2.1703
-13.463465 29.297018 0.34466559
-12.7472 27.424345 0.99554789
-14.126606 30.964073 0.29648662
-12.292163 26.267832 1.7466743
-12.773176 27.652761 0.59005994
-12.283573 26.2528 1.0294497
-13.407577 28.91787 0.47016817
-12.262469 26.265732 0.48917753
-13.961136 30.552822 0.39203301
-13.912041 30.32168 0.96613336
-12.333137 26.210688 1.7469243
-12.227736 26.095448 0.052891839
-12.969088 27.975483 0.4522163
-14.152372 30.971617 0.5239256
-13.837795 30.307293 -0.43667606
-12.904702 27.6679 0.54631317
-12.270984 26.27932 1.4670402
-11.588833 25.807034 1.9859159
-13.840782 30.38345 1.2558602
-13.772915 30.349783 1.1112568
-13.907588 30.404074 0.064343095
-12.814083 27.660543 0.65845531
-13.9037 30.319183 0.84748369
-11.792775 26.415901 2.1630535
-14.015628 30.516354 0.36840558
-13.207894 28.489737 0.35958478
-12.793707 27.541815 0.15799336
-12.813229 27.501335 0.069633335
-12.767626 27.652103 -0.034311473
-13.167026 28.405586 0.52838773
-12.291015 26.254505 -0.046405528
-13.681814 29.521658 0.23852842
-12.282093 26.291088 1.5559175
-13.959593 30.556419 0.27491963
-12.261343 26.270161 1.6735241
-12.203506 26.089108 0.22859094
-13.928064 30.31493 1.0500429
-14.086811 30.789734 0.65768445
-13.901478 30.023937 0.45883977
-12.914688 27.802795 0.36930177
-13.14757 28.386393 0.35840622
-13.704164 29.931662 0.30672741
-12.785181 27.600021 0.92101312
-11.566943 25.77002 1.9782931
-13.903797 30.393591 1.0591041
-13.851283 30.337875 -0.53829896
-13.041478 28.048262 0.55075532
-13.89687 30.311781 0.4632411
-13.899321 30.397829 0.85495853
-13.902708 30.326542 0.084824547
-13.022236 27.875011 0.45482528
-11.773995 26.468353 2.1904788
-13.904884 30.388313 0.75269639
-13.915566 30.399029 1.1592642
-12.794018 27.46117 0.61791533
-12.908841 27.594553 0.46245217
-13.454656 28.930378 0.58216459
-14.154847 31.077541 1.4003388
-13.575964 29.580599 0.32856283
-12.812119 27.511131 0.37878174
-13.847647 30.391996 0.46551576
-12.223423 26.084036 0.35174486
-12.243547 26.223692 -0.043756504
-14.239092 31.305752 0.3613874
-12.802983 27.654221 0.25168443
-12.24049 26.270531 1.8533218
-12.809688 27.656359 0.16252671
-13.817986 30.315517 1.2567486
-13.856854 30.322939 -0.045360938
-13.904439 30.323446 0.15789641
-14.137119 30.905605 0.7588532
-14.022861 30.698273 0.46161759
-12.28484 26.227118 0.32404396
-12.754567 27.579504 0.83845037
-14.113249 30.841055 0.85821861
-14.177668 31.155815 1.3969778
-12.760069 27.592598 0.74116182
-13.426323 28.992794 0.15138239
-14.086598 30.714876 0.40634504
-14.235313 31.19348 -0.045317069
-12.743527 27.515635 0.56057626
-14.075589 30.763123 -0.3782444
-12.798589 27.405506 0.51616657
-13.363785 29.048697 -0.27543846
-12.743544 27.498569 0.4796851
-12.758297 27.604523 0.1612331
-13.324442 29.007662 0.46323752
-12.806083 27.497543 0.54547322
-12.489777 26.717953 0.35955846
-14.134015 31.001688 0.36966982
-13.841879 30.013754 0.32059914
-13.848791 30.478674 1.2629094
-13.85118 30.329494 -0.24108063
-13.91788 30.401192 0.6519655
-13.090657 28.234386 0.25602695
-13.90896 30.293167 -0.15202594
-14.1086 30.882471 0.54965192
-12.234406 26.232025 1.6627991
-12.751255 27.376339 0.38785392
-13.33821 28.815933 0.86458039
-11.62941 25.956667 2.0377347
-14.253146 31.221943 -0.2666477
-13.049607 28.097906 0.28054601
-12.764917 27.652542 0.050270639
-13.84329 30.390148 0.65982735
-13.231209 28.505354 0.43717715
-13.385069 28.983753 0.87008059
-13.301986 28.912573 0.56680602
-14.109797 30.900269 0.44374913
-12.749986 27.490807 0.65531027
-11.652934 26.088266 2.1024184
-14.118992 30.794157 0.42015812
-12.948882 27.890379 0.3575567
-12.948874 27.905418 0.27636766
-12.256766 26.266253 0.25284183
-12.396988 26.50016 0.26433808
-13.326418 28.729492 0.53813243
-11.635637 25.430824 2.0072663
-11.744429 25.666111 1.9086881
-13.309345 28.796764 0.35300824
-13.321795 28.791603 0.27751404
-11.629351 25.998711 2.1348507
-13.8238 30.08889 0.54613924
-13.262731 28.715195 0.288095
-12.766316 27.650461 0.15176624
-13.143064 28.376459 0.47177437
-13.899542 30.394966 -0.34024271
-13.300012 28.934782 0.089206547
-13.895219 30.395779 -0.047642119
-13.847492 30.389545 0.065731533
-13.397438 28.99538 0.59271312
-13.307585 28.893728 0.76373732
-13.80225 30.08 0.45712388
-13.567822 29.499849 0.27097702
-13.947171 30.628658 -0.53002304
-12.761248 27.602039 0.26155329
-11.610702 25.894297 1.9858971
-13.886873 30.212824 -0.46938869
-13.904529 30.398407 0.26225585
-12.770226 27.534872 0.1588787
-13.003992 27.987617 0.36372471
-13.891034 30.108833 0.37522545
-13.307503 28.9119 0.67103803
-12.754999 27.505733 0.26816821
-11.580339 26.537718 2.2989314
-12.758247 27.648643 0.39279652
-14.163974 31.064796 1.0852338
-12.928378 27.683558 0.35967922
-12.287978 26.262184 0.047440536
-13.278036 28.763063 0.28670728
-13.901442 30.401226 -0.23896728
-13.838641 30.309776 1.3665731
-12.765941 27.497311 0.070184551
-12.811067 27.658546 0.36692488
-12.514654 26.707773 0.4132182
-13.742812 29.894424 0.43602765
-13.893408 30.296673 0.77054942
-12.804276 27.65708 0.063932806
-12.595566 27.009331 0.26657027
-12.301529 26.239176 -0.034824964
-12.52327 26.811756 0.37938058
-13.917453 30.415653 1.3527778
-13.838648 30.206436 0.28261513
-12.624926 26.910244 0.31465104
-12.754635 27.499348 0.38346967
-13.165573 28.459156 0.46608591
-13.307895 28.911741 0.85355121
-13.847097 30.195463 0.43763208
-13.701392 29.721689 0.39091748
-14.159651 31.047247 -0.30728224
-12.199542 26.145962 1.463158
-12.602585 26.844606 0.38396627
-12.371445 26.4109 0.32979053
-12.820211 27.510628 0.42148533
-12.78974 27.592031 0.83857793
-13.322303 28.782522 0.4524343
-13.057308 28.216103 0.35808188
-13.274342 28.965086 0.2336199
-13.264277 28.661835 0.42837691
-12.247052 26.264259 0.3766633
-12.952801 27.692341 0.45561048
-13.902134 30.400797 0.35286412
-13.427693 28.981058 0.67899042
-13.164961 28.467945 0.30035123
-12.286483 26.234892 0.46660474
-13.90012 30.318432 -0.4478263
-13.903563 30.387671 0.17016265
-12.758766 27.609789 0.065817416
-12.746749 27.522947 0.85198313
-13.841619 30.16577 -0.41661975
-13.905976 30.392866 -0.13206758
-12.919787 27.561535 0.2946578
-13.322733 29.003607 0.65335619
-13.754431 29.994061 0.36684501
-14.114737 30.902233 0.37791225
-12.64947 27.154869 0.16982545
-14.220115 31.168655 0.95811009
-12.265908 26.273876 0.56150782
-12.369033 26.431696 0.19370379
-12.255023 26.261175 0.053508222
-13.66785 29.718628 0.4395861
-12.396521 26.313633 0.41478252
-12.810175 27.655918 0.56760722
-13.342783 29.053358 0.84606671
-11.702328 25.612806 1.9355588
-12.202031 26.106586 1.4733466
-13.345211 28.712502 0.3766484
-12.758124 27.600777 0.36744905
-12.251364 26.276731 1.9914989
-12.229834 26.263309 1.7787328
-13.915275 30.304569 -0.046315063
-13.382086 28.928541 0.30895254
-12.906046 27.610514 0.55251735
-12.801366 27.617552 0.64805353
-12.242981 26.217764 0.15544081
-11.705323 26.22891 2.2377336
-13.893441 30.312567 1.3745394
-13.882764 30.063389 0.48070464
-13.918087 30.405811 -0.44068077
-12.733405 27.290056 0.35695371
-13.762887 29.989851 0.46369043
-11.751511 26.302458 2.1370664
-12.731999 27.29348 0.28268665
-13.902158 30.398582 0.95287961
-12.762014 27.603132 0.46493191
-12.647415 27.025343 0.47399917
-13.344594 29.054754 0.59658045
-13.845174 30.384974 0.8616631
-13.846622 30.38946 1.0611318
-13.846208 30.388063 0.96580225
-13.34167 29.051487 0.45714137
-13.727725 30.136116 0.11791366
-14.169589 31.169649 1.4450629
-12.801612 27.622377 0.5639863
-14.167247 31.149658 0.45545354
-12.919799 27.697069 0.2536599
-14.331909 31.20241 -0.22619376
-13.932357 30.488138 0.4671858
-11.749304 25.702335 1.955755
-11.661543 26.187632 2.2136722
-13.923286 30.475281 -0.25950608
-14.024906 30.600319 0.37644339
-12.740273 27.534523 0.9304986
-12.918236 27.799286 0.28319511
-13.275225 28.926823 0.87548345
-13.405178 28.929693 0.88168228
-12.621405 27.000378 0.33191985
-11.699207 26.120073 2.25875
-13.851311 30.327553 -0.14211848
-11.771639 26.387249 2.1599984
-13.819196 30.323812 1.1529669
-12.972911 27.977821 0.31689751
-13.243825 28.56909 0.46065781
-12.240398 26.218672 0.064036921
-11.443398 25.508659 2.0802243
-11.46589 25.585558 2.0758603
-11.533707 25.681353 2.0768001
-13.211572 28.560808 0.27880985
-12.250948 26.264236 0.16754802
-13.656823 29.698811 0.35609874
-12.764106 27.364786 0.43321711
-13.914749 30.410105 0.45291492
-12.695308 27.107904 0.31888416
-13.007174 27.808571 0.53324437
-12.291262 26.234327 0.14151604
-13.469614 28.985237 0.40390456
-13.819662 30.468431 1.3463541
-13.848473 30.386955 -0.042977858
-12.268147 26.275169 1.0727278
-11.551295 25.714275 1.9760417
-12.514091 26.769644 0.26955065
-12.744987 27.49263 0.76579297
-13.849462 30.329224 0.14793062
-13.316458 29.003447 0.86256486
-12.30885 26.275816 0.25413045
-13.334538 29.006624 0.060128104
-12.790496 27.624914 0.74671066
-12.792135 27.476368 0.93926454
-12.269141 26.238575 1.8360697
-13.83197 30.317612 0.95867306
-13.837999 30.327473 0.56820774
-12.512788 26.73155 0.29726836
-13.91233 30.461632 -0.5433163
-11.537428 26.502523 2.2507
-13.847569 30.390995 0.16311868
-13.84667 30.389879 0.35995436
-13.84714 30.390701 0.5680331
-12.761418 27.598635 0.56046212
-12.781373 27.447109 0.71490753
-13.84589 30.387188 0.7624023
-13.836925 30.322428 0.75643533
-13.846552 30.38936 -0.14071789
-13.847239 30.325438 0.065334797
-13.833953 30.32221 0.86358947
-13.831013 30.327011 1.0645514
-13.836852 30.317535 0.35282034
-13.846683 30.31979 0.26150459
-13.845186 30.38294 1.1583042
-13.71428 29.800564 0.37794068
-13.32935 29.008883 0.26014516
-13.331895 29.009199 0.16493967
-13.716039 29.788496 0.45938784
-13.320069 29.007469 0.56734157
-13.339507 29.051481 0.77762824
-12.270022 26.223564 1.9323187
-13.330732 29.007978 0.35762528
-13.354628 29.047981 0.66956466
-13.40129 28.976051 0.28001666
-13.414237 28.99412 0.4436166
-13.322263 29.005806 0.75610834
-13.346546 29.056353 0.9532432
-13.843712 30.393263 1.350245
-12.790039 27.416443 0.3732816
-13.709978 29.685205 0.5717352
-13.901954 30.392818 0.55378127
-13.447912 29.193689 0.44186181
-13.84108 30.387402 -0.33896574
-12.807003 27.620216 0.15743014
-13.341058 28.93075 0.44070217
-12.813175 27.615128 0.36085618
-13.241698 28.423744 0.49715456
-13.196699 28.3116 0.48647848
-13.81023 30.009838 0.44675732
-13.846448 30.389334 -0.2363411
-12.891454 27.564737 0.18296814
-13.117215 28.245598 0.55186647
-13.834075 30.388931 -0.43311512
-13.422126 29.182192 0.37580958
-11.553702 25.858227 2.15204
-13.840292 30.305374 0.47494328
-11.333231 25.99892 2.1999664
-11.620287 26.69895 2.2577078
-13.121325 27.944597 0.30123836
-12.268686 26.236454 1.735166
-11.507719 25.6057 1.9764827
-13.89548 30.315603 0.38723183
-14.053627 30.796473 0.4566682
-11.322028 25.994917 2.27244
-11.320524 25.897381 2.2705297
-13.22887 28.600716 0.3385911
-12.952649 27.869751 0.44663596
-11.677427 25.458897 1.9619181
-13.985684 30.383558 1.0696559
-13.924438 30.47715 0.37147024
-14.062063 30.797123 0.3536728
-13.902008 30.219109 0.49417302
-14.065571 30.786167 0.52425712
-12.715235 27.203934 0.35110143
-13.329827 28.872417 0.37472022
-13.699253 29.731792 0.45800838
-14.306664 31.204193 0.49674302
-12.691399 27.174137 0.24156499
-12.657211 27.110815 0.35432905
-13.83943 30.319036 0.67420715
-12.388814 26.473021 0.3656058
-12.23697 26.209558 0.26041254
-13.39567 28.910049 0.052964192
-12.19464 25.968822 0.3092536
-12.235307 26.208469 0.35276544
-14.268471 31.301678 0.54156333
-13.120413 28.294104 0.27853125
-12.237331 26.210125 0.45245412
-12.663192 27.137083 0.21003057
-12.217486 26.199612 0.53724456
-13.066355 28.201687 0.24562836
-12.237868 26.201567 0.61800331
-13.002513 27.845041 0.24331895
-12.464847 26.676931 0.20616943
-12.290036 26.230762 0.044155847
-12.957734 27.80603 0.19271508
-12.476732 26.678904 0.21154538
-13.810817 30.081411 0.36479932
-14.223644 31.088842 0.66064709
-14.221166 31.246511 -0.16319667
-14.238638 31.251566 0.20873468
-14.025092 30.689688 0.36764762
-14.034607 30.724548 -0.12892899
-14.118464 30.971731 -0.1082777
-14.043446 30.616768 -0.1290746
-14.028797 30.429857 -0.07282307
-13.868056 30.488005 -0.22100551
-14.263141 31.246204 0.66431987
-13.855352 30.457909 0.7631191
-14.002316 30.659105 -0.01251212
-14.053144 30.77717 0.02155542
-13.827851 30.170494 0.019158345
-13.974576 30.617575 -0.43406355
-14.005475 30.685791 -0.23842894
-13.873682 30.48119 0.14408112
-13.924544 30.480762 0.84244239
-13.914478 30.502487 0.15113552
-13.909731 30.476494 0.07549689
-13.908518 30.479065 -0.36561763
-12.75874 27.592205 0.6567449
-13.868572 30.486956 0.64805907
-13.840751 30.210503 0.35752589
-14.213647 30.995028 0.13279131
-13.897727 30.46364 1.1708981
-13.929063 30.465574 0.773121
-13.866686 30.446684 0.4420799
-13.9142 30.486528 0.55661452
-13.909758 30.486683 1.0681862
-13.899185 30.482399 1.2408729
-13.935313 30.512497 0.64975035
-14.067994 30.579935 -0.023683613
-14.102295 30.7288 -0.13424782
-14.276141 31.320787 1.0241209
-14.284346 31.028414 0.11286439
-13.983201 30.589584 1.0436254
-14.221526 30.997557 -0.08884383
-14.294791 31.390495 0.92688948
-14.1407 31.056929 1.1703705
-12.277614 26.181479 1.3996584
-14.311281 31.242117 -0.028350145
-14.163917 31.100815 -0.1759347
-14.105358 30.893667 -0.054257937
-14.020496 30.694618 0.079284087
-13.859531 30.466103 -0.1103372
-13.932517 30.48823 -0.047954414
-13.894338 30.469601 0.95824498
-14.099683 30.610785 -0.099278741
-13.862255 30.462976 0.58805913
-13.872946 30.45751 0.075664982
-13.982894 30.582668 -0.29225099
-13.876102 30.492725 0.26490951
-13.906775 30.467905 -0.13780451
-13.980294 30.592264 0.52361828
-13.82551 30.20784 1.0711888
-14.025648 30.598267 0.12978992
-14.292222 31.342766 1.0042669
-14.217704 31.024843 0.55619836
-14.289056 31.032547 0.068195932
-14.294326 31.140963 0.4132804
-14.212999 31.030378 0.75160801
-14.190802 31.041353 1.0001298
-12.813413 27.301537 0.44562632
-12.806701 27.621967 0.058998309
-14.147826 30.70672 0.57890034
-14.118562 30.902626 0.64432985
-13.973879 30.577312 0.66441345
-14.220619 31.185848 0.27284771
-14.124724 30.979193 0.85683936
-14.256294 31.372902 0.29727551
-14.239919 31.291533 0.44241989
-13.76438 30.312483 1.109462
-13.088593 28.197338 0.43583512
-12.994644 27.841379 0.42860448
-13.811623 29.905478 0.46400005
-13.765678 30.168728 1.0248368
-13.118748 28.281622 0.34636578
-13.84602 30.465826 -0.54986823
-14.060942 30.872299 0.4765822
-14.055292 30.886131 0.38830549
-13.794379 29.83279 0.42090768
-13.331696 29.002085 -0.33910513
-13.724344 29.883062 0.36560202
-14.248934 31.192781 0.031656045
-14.219774 31.194674 0.31952587
-13.123207 28.193016 0.35623732
-14.21895 31.191759 0.45848688
-12.763763 27.655727 0.43235981
-12.521634 26.805485 0.18531114
-12.563679 26.89422 0.35061231
-13.399337 28.909885 0.80901718
-13.772521 30.245848 -0.22439185
-13.072289 28.287064 0.35786772
-12.569388 26.875671 0.19801059
-13.030546 28.105024 0.35078374
-12.806155 27.618517 -0.029335694
-12.784808 27.377604 0.46785808
-13.048402 28.084702 0.42936659
-13.385744 28.922071 0.69819188
-12.810169 27.65658 -0.026764287
-12.804846 27.653561 0.46258715
-13.907905 30.405264 -0.54132056
-12.811331 27.617771 0.46170223
-13.670736 29.826786 0.32853627
-13.929052 30.479439 0.2807005
-13.742186 30.040144 0.56488025
-14.056206 30.863665 0.31057948
-14.291034 31.292583 0.52194202
-13.116747 28.286751 0.44539058
-14.306654 31.332901 0.86140746
-13.5517 29.057812 0.36206439
-13.80431 30.061333 0.26980153
