# .PCD v0.7 - Point Cloud Data file format
VERSION 0.7
FIELDS x y z
SIZE 4 4 4
TYPE F F F
COUNT 1 1 1
WIDTH 862
HEIGHT 1
VIEWPOINT 0 0 0 1 0 0 0
POINTS 862
DATA ascii
24.341141 46.657421 1.653522
23.50617 46.031086 2.6523902
24.220934 46.443077 2.8342035
26.055443 47.116905 2.6325321
26.120325 47.143276 2.5617924
24.815948 46.663548 2.8600597
23.679268 46.253811 2.8229671
25.060978 46.735901 2.2850912
25.33242 46.832756 2.8803036
25.295065 46.816437 2.8436201
26.060976 47.125732 2.437068
24.654776 46.539661 2.798089
24.503511 46.553062 2.8731554
23.748426 46.238476 2.8861995
23.53186 46.090954 2.5590861
23.844398 46.241032 2.8989103
23.823992 46.287712 2.8709397
23.535431 46.086987 2.4798145
23.59671 46.183807 2.8445773
23.794392 46.252434 2.9206538
24.303209 46.334904 3.0205936
24.66991 46.537388 2.4587493
23.673006 46.2248 2.7549171
24.457825 46.494682 2.8314676
23.878757 46.286808 2.7611969
24.892447 46.689915 2.8236828
23.67168 46.206482 2.8480966
23.88726 46.275784 2.9306409
24.494833 46.67017 1.8862671
24.617584 46.651592 1.4889251
24.559694 46.624256 1.4760451
24.154488 46.472931 1.4687905
24.453085 46.596252 1.4815723
24.606649 46.665424 1.8868306
24.589737 46.649189 1.3832295
24.555731 46.622337 1.6531646
24.380445 46.575134 1.4815515
24.45742 46.630646 1.5215257
24.654911 46.678322 1.5310621
24.291161 46.565651 1.8278826
24.575806 46.662254 1.5968341
26.731337 47.428905 1.7634295
24.463421 46.539627 2.0781453
23.87705 46.388721 1.6737062
24.573158 46.633476 1.7509516
24.186657 46.471317 1.6970192
24.279831 46.50766 1.6892266
24.877296 46.776852 1.6446114
24.264854 46.481552 1.8760896
24.451546 46.610249 1.8665845
24.945318 46.73407 1.8610669
24.449347 46.514763 2.2520158
23.872345 46.394058 1.849563
24.276363 46.526794 1.7498626
24.479404 46.609116 1.7593231
23.887918 46.397816 1.7423726
23.701586 46.347851 2.4072599
24.351871 46.586975 1.8457797
24.583246 46.604328 1.8532581
25.391493 46.94046 1.7889081
25.466257 46.933144 1.970951
24.168398 46.553642 2.2826567
24.275736 46.46563 2.6659658
25.861584 47.092907 2.7652819
24.179754 46.47443 2.4614406
24.457142 46.520687 2.6399667
24.457277 46.510105 2.7735124
26.569221 47.298714 2.5538387
25.486315 47.055332 2.070673
25.8694 47.108612 2.0617466
26.168514 47.182915 2.6406755
25.743557 47.019318 2.0424576
25.079565 46.874138 2.2556062
25.667326 47.097595 2.0567873
25.382864 46.896915 2.7432051
25.067896 46.873047 2.0692055
25.756039 47.022446 2.1626811
26.355213 47.353031 2.6736102
24.174801 46.479767 2.5531311
23.857857 46.340958 2.1634743
26.295176 47.362053 2.2383778
23.502499 46.159428 2.5579965
24.047337 46.415245 1.870782
23.486944 46.151302 2.6548896
23.500374 46.174194 2.4637811
23.853813 46.298733 1.7992145
23.476908 46.185844 2.0682869
25.376925 46.902287 1.8941103
26.364716 47.305996 2.4574411
24.766453 46.69598 2.1782854
25.470474 46.988388 1.9630201
24.968311 46.799263 2.1677349
24.76519 46.53236 2.8911011
25.6667 47.030148 1.743381
25.277718 46.892338 2.3644834
26.453896 47.310402 1.8747951
23.499561 46.167091 2.7768962
25.571533 47.000431 2.3597081
25.576818 46.987885 2.4503572
25.574581 47.003292 2.1585853
24.080357 46.46973 2.4400811
26.479599 47.31992 2.2524345
25.543127 47.004333 2.0631981
23.552279 46.175713 2.5593424
26.369471 47.387131 2.0568469
24.841537 46.641232 2.9274468
25.478336 46.978539 2.1615095
24.264286 46.492985 2.0590689
25.056971 46.733761 2.461695
24.761328 46.623821 2.5627935
23.570179 46.186195 2.3469164
24.555695 46.6035 1.9582949
23.659571 46.226295 2.3600936
26.444054 47.453682 2.3312404
26.432058 47.45871 2.525429
23.666462 46.224308 2.4686019
24.731054 46.636833 2.3430514
24.867468 46.778561 2.0768149
26.378483 47.376373 1.7570916
26.375893 47.384911 2.2527497
26.501427 47.45359 2.2772174
26.387495 47.397957 1.8634436
26.375679 47.375816 2.360141
26.559738 47.373062 1.6426927
24.4398 46.526672 2.1625628
25.262833 46.893848 1.9678128
26.368719 47.379868 2.1558647
26.370987 47.299175 2.1552229
24.06542 46.419922 2.1678481
24.458527 46.525455 2.3589201
25.036076 46.864094 2.5699389
24.727535 46.638268 2.0792634
24.740288 46.633274 1.8939778
24.277855 46.424358 3.073828
25.266884 46.88546 1.8417859
26.268967 47.354168 1.7475636
25.966747 47.194717 1.7805959
25.327759 46.847389 2.8171098
24.067598 46.398266 2.3560133
24.66433 46.759514 2.3490324
25.064266 46.876965 1.9294683
25.530418 46.945335 1.9888718
23.864229 46.317905 2.0355763
23.975039 46.462009 2.0881269
24.875774 46.772575 2.6532342
26.383526 47.308575 2.5527768
24.034615 46.397087 1.6727598
26.449709 47.324802 1.7853956
24.768324 46.700237 2.0629406
26.351591 47.236984 2.4031396
26.45862 47.308136 2.4521782
25.961517 47.130005 2.1575468
24.668167 46.705189 1.8805522
25.565807 47.096123 1.8693753
25.520138 46.92244 2.0287826
26.072523 47.197166 2.167706
26.471645 47.394444 1.8846707
26.47002 47.406216 2.0617154
25.781715 47.023956 2.7157726
25.554834 47.0159 1.8748173
26.378059 47.36602 2.5542719
25.684645 47.080563 2.1573067
25.677719 47.080673 2.5470564
25.154228 46.950684 2.3868692
25.335524 46.836647 2.2746959
24.751099 46.623535 2.7414205
26.412706 47.445934 2.2825344
26.073853 47.248028 2.6741664
25.969116 47.043903 2.6459091
25.959211 47.115807 2.3600771
25.676973 47.082787 2.3555396
25.670322 47.0877 2.2707508
24.15836 46.395546 2.9370615
25.040161 46.733425 2.3613231
25.572889 46.996822 2.2582295
26.291025 47.346973 2.6539032
25.575268 47.072159 2.164124
26.378208 47.38232 2.4662738
24.162439 46.410866 2.364151
25.263668 46.824673 2.461848
23.476158 46.195061 1.7598821
24.176764 46.413918 2.4536021
25.385887 46.975651 2.7622437
25.772627 47.09388 2.1683595
26.181852 47.276482 2.6591504
25.766832 47.104145 2.0662744
25.687849 47.102848 1.9429214
25.969435 47.171227 2.772253
25.232254 46.833599 2.0610933
26.321463 47.234493 2.2314203
25.621771 47.024094 1.8980743
25.242575 46.822674 2.647058
24.061232 46.46925 2.0521529
24.268347 46.437698 2.6252847
26.063974 47.20578 2.5617192
23.570192 46.202751 2.0665975
25.24465 46.823368 2.7544413
24.783796 46.765068 2.0493762
26.172888 47.216812 2.4695981
26.371037 47.282536 1.9606442
24.176161 46.491165 2.3477519
24.774979 46.756027 2.0006206
26.386776 47.29966 2.0880322
24.88327 46.783806 2.541162
25.680958 47.012253 2.1494589
25.661257 47.001785 2.3611813
25.628948 47.002487 1.9262148
25.670889 47.011112 2.0490882
25.656502 47.009613 2.2661998
25.257324 46.890461 2.0820091
26.073433 47.215141 2.6524103
25.95462 47.117634 2.4511878
25.17881 46.90826 1.9628758
26.155373 47.289089 2.0505924
25.177252 46.872425 2.5551226
25.272516 46.980801 2.0707953
26.076136 47.197685 1.9652548
25.874977 47.196682 1.9814329
25.275585 46.956909 2.4373369
26.077343 47.19223 2.0760512
25.536486 46.93137 2.8777826
25.473984 47.003204 2.0759845
25.893778 47.174953 2.568855
25.257814 46.888165 2.1565568
25.157286 46.803413 2.8625822
24.074816 46.47427 1.8661935
25.581829 47.064316 2.260448
25.283058 46.969437 2.1555512
25.381344 46.981083 2.275094
25.289333 46.968292 2.3632102
26.089331 47.269966 2.4373863
26.119972 47.277508 2.7193329
25.069923 46.872868 1.8672109
26.304945 47.365387 2.5317278
26.631779 47.471546 2.1822691
23.502962 46.101509 2.5786114
25.361298 46.972942 1.8646519
25.959166 47.254452 2.3664939
24.785349 46.696648 2.5624197
24.765333 46.700508 2.3610506
23.562691 46.188431 2.6636224
23.469078 46.208794 1.6822269
25.977692 47.190887 2.3612089
26.003895 47.248737 1.9907668
25.174952 46.880852 2.4481275
25.498341 47.055222 2.4334855
25.59539 47.081173 2.0776269
25.54562 47.076748 2.5555296
26.076862 47.264606 1.9456329
26.071428 47.20174 2.4581411
26.469189 47.400742 2.2676978
26.265448 47.215893 2.3571248
26.069212 47.188126 2.2698648
26.081219 47.263454 2.5297682
26.07695 47.273029 2.2645483
26.200974 47.351704 2.1490755
26.269545 47.21629 2.4634702
24.377462 46.583817 2.7882473
25.976635 47.182415 2.1725979
25.972609 47.26178 2.1342106
26.24139 47.23661 1.743987
25.227776 46.839283 1.9464524
26.247921 47.226692 1.9502286
26.247149 47.227642 2.0679903
26.275623 47.285557 2.159204
26.147972 47.200928 1.7345278
26.262613 47.227222 2.268204
25.372847 46.901745 2.6565001
24.203302 46.567711 1.9534266
24.576225 46.679001 2.5504811
24.271854 46.494659 2.4625349
25.859333 47.104969 2.5622125
25.774094 47.093147 2.3657548
24.201082 46.563118 2.3736656
24.085033 46.477268 2.2525511
24.774332 46.697208 2.6521397
26.341333 47.311913 1.749649
23.631134 46.185936 2.1121097
24.039581 46.420677 1.4613372
26.179308 47.270966 2.4610357
24.872915 46.718727 2.0574508
25.474676 46.984074 2.4635315
24.087456 46.480003 2.3502958
25.175905 46.879292 2.1578839
24.875299 46.78019 2.1727977
26.449364 47.321388 2.5426378
25.585211 47.084675 1.9551946
24.587122 46.663895 2.6529117
25.870995 47.099655 2.3633533
25.87314 47.111435 1.9520751
25.082747 46.87019 2.3646071
26.372936 47.299908 2.3579199
25.16803 46.81649 2.7511864
24.075415 46.473351 2.1625416
26.508881 47.451897 2.4387763
24.874557 46.772934 2.3684614
25.475641 46.993492 2.2582116
25.772226 47.091335 1.9369471
23.967485 46.328247 2.2692077
23.506338 46.106171 2.6533382
23.959146 46.326656 2.35901
25.375515 46.976097 2.1589262
24.110418 46.45536 1.6974465
24.150558 46.430355 2.1487212
26.574709 47.425819 1.7543838
26.675852 47.329109 2.529856
26.061043 47.259003 1.8423862
25.771519 47.101383 2.2792847
26.279629 47.348209 2.377161
26.05842 47.203163 1.7810531
26.471575 47.402878 1.7825743
25.385492 47.010265 1.9534869
24.867407 46.689667 2.7645032
24.884293 46.779324 2.2542331
24.181541 46.433029 2.0539637
23.948128 46.420269 1.5653409
25.866732 47.093964 2.2785194
23.696617 46.25201 2.7363446
25.87409 47.177402 2.343395
25.776123 47.028664 2.2578359
26.075483 47.194614 2.7609291
26.273119 47.357109 2.0537412
25.968576 47.100372 2.7295179
26.376144 47.231297 2.1805105
24.291021 46.574524 2.3617861
24.067024 46.38884 2.7468112
25.876963 47.1707 2.4648812
24.289263 46.567654 2.2558856
24.579906 46.680405 2.0650885
26.062429 47.270699 2.0673339
24.767069 46.694988 2.4607606
25.87785 47.193455 2.0453653
26.297146 47.353371 1.9570723
25.4505 46.926727 2.0563707
24.075245 46.467361 1.4716103
24.679007 46.745899 1.7383106
26.285746 47.357838 2.4622188
24.067808 46.389389 2.6437802
24.065187 46.388062 2.5550914
23.955458 46.325058 2.6452413
26.366295 47.290184 2.2612202
25.973927 47.20256 1.8489047
25.851059 47.045002 2.7491703
24.259714 46.575027 2.4576166
25.554884 46.99836 2.762038
24.764435 46.689938 1.8710074
25.427124 46.923054 1.9007021
25.085123 46.867455 2.4532249
24.966234 46.721928 2.5668886
23.701584 46.225536 2.915122
25.766092 47.098145 2.4543316
25.555464 46.934898 2.4695086
25.616741 47.014412 1.7376437
26.378977 47.383461 1.9676976
25.783609 47.162064 2.0778003
24.369053 46.634491 1.701659
25.861876 47.102581 2.1717329
25.865713 47.094894 2.4515443
24.072601 46.454506 2.5390012
25.207123 46.954567 2.0578279
24.259607 46.564827 2.5555959
24.966827 46.802612 1.8900499
23.938211 46.340252 2.0802462
25.838913 47.041225 2.3969109
24.726097 46.628242 1.9926425
24.06299 46.405521 1.970808
24.283413 46.564976 2.1779695
24.667048 46.626701 2.0743251
24.769299 46.697281 2.2636557
25.959246 47.194305 2.0780032
25.785116 47.162083 2.1699681
25.068624 46.799065 2.5490742
24.972435 46.727207 2.8294976
23.860123 46.387104 1.5714296
24.117823 46.523849 1.6020859
26.166868 47.202175 2.269423
25.772055 47.096359 1.8888739
24.061033 46.477055 1.9730541
24.793261 46.76627 2.356792
24.361622 46.58353 1.9865352
25.679478 47.098675 1.8693914
25.579763 47.066349 2.3672867
25.323322 46.831699 2.5741534
24.496708 46.663776 2.1619613
25.176783 46.879688 2.2521002
25.984343 47.263828 2.2572658
24.784966 46.765003 2.2609231
24.866343 46.715046 2.3615727
24.071867 46.395035 2.4493153
25.576357 47.068684 2.4464581
25.097269 46.883579 2.6706691
25.759701 47.164547 1.939342
25.781273 47.019035 2.670507
24.783001 46.759396 2.4401088
25.788862 47.184391 2.266067
24.656563 46.717495 1.1026294
24.153843 46.424 2.2781675
25.982609 47.136971 1.8075415
24.070272 46.413448 2.0643249
24.793558 46.757805 1.8753799
24.168114 46.422058 1.9663086
24.082378 46.367477 2.8257122
25.746639 47.083443 1.6382096
23.970705 46.402157 2.0629094
24.860525 46.713753 2.2592075
26.462605 47.412971 1.9762428
23.963463 46.324379 2.4667902
24.790495 46.755535 2.5436108
26.086452 47.29472 2.1593297
24.412642 46.649902 2.2309244
25.066685 46.781147 1.8419884
25.88113 47.042404 2.6751847
24.065136 46.4048 2.27163
25.452248 46.935101 2.1693685
25.065561 46.796867 1.9483938
24.971188 46.786381 2.453342
26.374475 47.328506 2.7694416
25.38118 46.971405 2.656209
25.364408 46.989822 2.0786226
25.992842 47.257534 2.0439451
25.754347 47.022446 2.4619029
24.687311 46.667538 1.9721991
24.961319 46.733166 2.0512609
24.958479 46.781082 1.9484545
24.000166 46.434208 1.880451
25.376575 46.974304 2.4509735
25.156448 46.815868 2.2609525
24.769337 46.711437 1.9800389
24.867613 46.705654 2.4650223
25.176901 46.863705 1.8476189
25.805922 47.083035 1.715786
26.477222 47.385403 2.3655241
24.955521 46.712433 2.6580396
24.377995 46.582413 2.361872
26.478018 47.381721 2.4613667
25.157463 46.82803 2.1715593
23.944698 46.317734 2.880671
26.283926 47.306847 2.092356
25.468113 47.057968 2.2516203
26.179827 47.290504 1.9401685
26.26162 47.309319 1.8704729
26.25967 47.232353 2.160615
24.314579 46.567432 1.5031847
25.85815 47.184067 1.8768938
26.465187 47.328159 2.1805952
23.780233 46.238289 2.4566646
26.06477 47.195595 2.354651
26.381664 47.314949 2.6782367
24.365213 46.520622 2.0559552
25.536097 46.939121 2.2537427
23.650293 46.228329 1.7923785
25.560955 46.939289 2.6449945
25.860537 47.18885 2.1582959
24.778706 46.754757 2.1555877
26.298185 47.357239 1.8840266
24.1735 46.393715 1.7944216
23.951973 46.32045 2.735142
26.088739 47.170746 1.8762871
25.774094 47.166771 2.4295285
25.963766 47.208279 1.9427288
26.178101 47.304546 2.1690907
24.276978 46.496078 2.3568516
25.255217 46.822117 2.3544106
24.766235 46.636009 2.2554624
26.267527 47.309723 1.7562461
25.444258 46.919106 2.265708
25.165066 46.810989 2.3556156
24.9804 46.782173 2.5618796
25.394516 46.966961 2.573833
24.581991 46.670414 1.9645606
23.481617 46.172409 2.3576543
26.184229 47.284866 2.3636675
25.373228 46.91013 2.2688508
24.155254 46.380238 2.8470087
24.046946 46.344345 2.6160309
24.24991 46.422855 2.7426236
23.663044 46.207222 2.6604006
26.1691 47.215889 2.1597655
24.088648 46.290447 2.6068363
23.968624 46.325245 2.5574453
23.974081 46.393417 2.2653897
25.366224 46.977966 2.3646865
26.020117 47.133614 1.9360261
25.367464 46.900772 2.4527931
25.371445 46.901752 2.5530891
25.369259 46.897869 2.3677752
23.664743 46.211205 2.5606771
26.246063 47.208591 2.5234022
24.875353 46.777634 2.4488657
25.757133 47.025299 2.3661058
26.272743 47.289547 2.6606059
23.98534 46.392826 2.4534509
23.581488 46.185417 2.7623539
25.915899 47.124573 1.7402
24.168257 46.41568 2.6562576
23.961044 46.39904 2.15943
24.381409 46.592182 2.0398169
26.36499 47.273121 1.8599885
24.225367 46.409706 2.1876349
24.963449 46.789135 2.2581728
23.684212 46.220135 2.276675
24.870697 46.698654 1.8716511
24.973228 46.791634 2.3610268
25.841684 47.036415 2.280189
24.071129 46.461525 1.7580661
23.488144 46.116951 2.4623487
25.1584 46.817272 2.0693808
24.377544 46.570614 2.2600086
23.475779 46.095192 2.0496233
25.765747 47.084808 2.7414782
25.281748 46.829067 2.5661223
25.762934 47.020866 2.5579126
24.863503 46.700352 2.5506082
24.264324 46.509747 2.2724488
25.458014 46.917641 2.5610139
24.474972 46.585499 2.270575
24.508087 46.656982 2.0508723
24.52832 46.547649 2.8590705
23.507132 46.10675 2.7493622
24.962856 46.71574 2.3485937
24.157591 46.418365 2.5491064
23.962688 46.395737 1.7301356
25.884487 47.180191 2.2736673
25.796585 47.156517 2.3525779
26.263288 47.22477 2.6190903
26.175201 47.288193 2.2604885
26.158422 47.28978 1.8732322
25.668175 47.005783 2.4632094
25.466383 46.916882 2.3706672
25.502178 46.987492 2.6378031
25.564968 46.989601 1.9950894
25.477592 46.97081 2.5627697
25.060818 46.738564 2.5544488
25.475485 46.988892 2.3675981
24.068911 46.391186 1.7857949
25.465244 46.993542 1.8647113
26.082634 47.276176 2.3705535
25.286188 46.894272 2.7590761
24.890589 46.785542 1.8878582
24.842573 46.642662 2.393719
24.76697 46.75597 2.6156797
24.178108 46.400265 2.761615
24.167633 46.497307 2.0693748
24.302641 46.566124 2.0551567
24.280617 46.568695 1.9685575
26.259937 47.293663 1.9555438
26.358242 47.233276 2.4451537
24.950737 46.762745 2.7710071
25.980021 47.17725 2.5542588
25.983959 47.186867 2.651947
26.259878 47.22887 1.8718939
24.043488 46.33567 2.4724989
24.328716 46.439465 3.0751045
25.296291 46.965775 2.6445444
24.266869 46.508495 1.9798694
24.383179 46.582874 2.4575794
24.468655 46.591888 2.5461345
25.080036 46.867496 2.157577
24.676199 46.643906 1.7852772
24.569096 46.669685 2.2699909
24.983192 46.859077 2.4554539
24.56986 46.679161 1.7633235
24.761639 46.685909 2.7663832
24.967342 46.85746 2.2711782
24.763969 46.627377 2.6290364
25.834801 47.039795 2.5540969
23.534363 46.085262 2.7693024
25.268026 46.877892 2.6514134
24.655014 46.601021 2.8470793
26.030128 47.120506 2.1952348
26.055628 47.129227 2.3615158
24.175529 46.556267 2.521503
25.670567 47.002609 2.6617827
25.06032 46.751457 2.9457231
25.237415 46.83762 2.2030675
26.18025 47.207153 2.086729
25.664673 47.008816 2.5583858
24.567209 46.596027 2.5612257
23.975155 46.359413 2.8496776
25.508553 47.069675 2.3306744
23.921589 46.366871 2.7265193
25.682472 47.080467 2.4511313
24.216228 46.551762 2.0593109
26.069338 47.118744 2.7301488
25.172041 46.885941 2.3645363
25.585045 47.061504 2.6265659
26.060543 47.12986 2.557179
24.171917 46.550907 1.8963982
24.874609 46.775181 1.9585232
24.877333 46.72023 1.9480534
26.462519 47.309147 2.3604751
25.554482 46.937912 2.3555717
24.561337 46.626762 1.353207
24.703644 46.632046 1.4387251
24.368189 46.517429 2.26454
26.356731 47.253799 1.649051
24.762951 46.692348 1.4456234
25.067701 46.802891 2.1703911
24.574709 46.670822 2.1712666
24.366854 46.520855 2.1599934
24.370224 46.51025 2.5671399
25.579691 46.987144 2.6522179
25.064741 46.808353 2.2489581
26.411766 47.302963 1.5519655
26.158787 47.198372 2.5537796
25.921724 47.106003 1.8845994
26.17309 47.216675 1.9563719
24.151237 46.493679 1.7525395
25.247637 46.836311 2.2735577
26.17622 47.208511 2.7327387
24.863411 46.718178 2.1660368
26.167112 47.217724 2.3590436
26.272923 47.371292 2.1751714
26.195498 47.240513 1.8138703
24.373564 46.569515 2.5671952
23.978914 46.46114 2.2545464
24.53385 46.538067 2.2560713
23.975031 46.384026 2.354753
25.517853 46.919994 2.7219033
25.468477 46.919003 2.4504347
25.725681 47.175953 2.537636
25.459425 46.982307 2.770704
23.540197 46.075283 2.6515689
25.681505 47.001896 2.740171
25.456064 46.907551 2.6753097
26.551634 47.373863 2.6647992
25.267975 46.883858 2.5545769
24.877171 46.670471 2.9243913
26.166058 47.284061 2.5607502
25.274872 46.892796 2.4539828
24.655535 46.628372 1.8501698
24.553289 46.604492 2.0580347
25.565248 46.936611 2.5492659
25.688488 47.088428 2.670011
25.266968 46.893353 2.254693
26.577261 47.464916 2.284034
24.667316 46.679546 1.6417134
24.361439 46.503811 2.4594955
25.16416 46.806168 2.655302
25.360111 46.913593 2.1661758
24.869328 46.697918 2.6521974
23.942348 46.353748 2.6409531
26.555117 47.379566 2.3642707
26.65119 47.389923 1.7718161
24.471601 46.59713 2.177659
26.654087 47.378719 2.271601
24.586885 46.671684 2.3667362
24.952301 46.733311 2.1402938
26.613516 47.456097 1.7298639
24.469625 46.588398 2.4566612
24.177975 46.458717 2.6578274
24.403324 46.661041 2.3815081
25.168953 46.817627 2.4618099
25.362253 46.915009 1.9723895
25.359077 46.896774 2.0578558
24.463474 46.599777 1.6728833
25.15477 46.804996 2.5520265
26.3759 47.217808 2.6946902
24.046331 46.334122 2.8307922
25.765697 47.085751 2.5613353
25.976484 47.18615 2.2724833
24.664658 46.62154 2.2729061
26.560112 47.469967 2.3499835
26.623308 47.447025 2.360023
23.978756 46.372906 2.5631869
23.768305 46.367912 2.0718858
24.203888 46.445869 2.7359307
26.550449 47.33802 1.5173874
24.171091 46.486324 2.1636093
26.569983 47.307564 2.4671552
26.282736 47.290768 2.266186
24.25806 46.49292 2.757782
24.164923 46.489567 2.2623169
23.95463 46.457405 2.3495705
24.658546 46.685127 1.7625066
25.971386 47.12928 1.9553021
25.193787 46.830391 1.9787518
23.875872 46.390621 2.051542
23.975334 46.398663 1.9667646
24.277586 46.419769 2.2548754
25.167755 46.890598 2.0704367
24.171167 46.488266 1.9878149
25.170298 46.873283 2.6500022
24.644571 46.614754 1.982312
24.223267 46.42923 2.0647464
26.264093 47.204514 2.7689221
25.690626 47.106472 1.7701843
23.686024 46.253265 2.3566706
23.740227 46.24358 2.3042367
23.775785 46.30386 2.2574401
23.776098 46.287029 2.3446531
23.781055 46.316139 2.1557217
23.768726 46.290672 2.4556799
23.738838 46.240387 2.383853
23.671791 46.277912 2.4485281
24.005259 46.487904 2.4546695
23.777689 46.281853 2.5609102
23.698706 46.268608 2.5576818
24.564608 46.602299 2.3621671
24.569302 46.609978 2.1668382
23.697411 46.264938 2.6315274
23.745558 46.237656 2.6976051
25.210384 46.876453 2.7669969
23.760164 46.234581 2.5608389
23.779274 46.274689 2.6523793
23.780436 46.26511 2.7648199
23.864744 46.320087 2.2687528
24.571571 46.609074 2.2650428
25.565676 46.994316 2.5550089
24.465487 46.596474 1.9689484
24.971714 46.73027 1.9973847
24.960546 46.727585 2.4561408
24.971584 46.793655 2.0728364
26.191484 47.35001 2.0304065
24.942482 46.724213 2.2813144
23.863121 46.377132 1.9646447
24.663355 46.619865 2.35077
24.74527 46.632076 2.4456098
23.780113 46.364021 2.1317518
26.583124 47.30246 2.2712486
23.499302 46.153908 2.8270268
26.5679 47.465149 2.1562557
26.368223 47.367954 2.7238142
24.562551 46.507496 2.7595336
23.809319 46.347645 2.5222456
23.799456 46.370625 2.4805925
23.807671 46.36908 2.3593869
25.280352 46.972431 1.9486512
24.45126 46.611031 1.3740671
24.713112 46.709171 1.3902344
24.659231 46.60968 2.4639018
24.337791 46.428333 2.75407
24.675121 46.677536 2.1756902
24.752827 46.721134 1.7534738
25.865936 47.093979 2.651439
24.735912 46.711426 1.6072406
24.791498 46.735741 1.6125506
23.771275 46.2845 1.8861121
24.000645 46.38501 1.7069273
24.168766 46.483627 1.8694371
25.698742 47.152508 2.2585917
24.978146 46.783298 2.6511803
24.225142 46.410057 1.9445555
24.261732 46.426468 2.470881
24.37929 46.524502 1.8635323
24.76532 46.707527 1.3943307
24.821133 46.63414 2.5046198
26.565815 47.29517 2.6567817
24.287962 46.465645 2.8490396
23.573259 46.190685 2.4547069
24.667116 46.609398 2.744967
23.87977 46.308598 2.6567149
24.004988 46.465111 1.7290758
23.869518 46.312828 2.3488369
23.864122 46.304329 2.4628696
23.993395 46.467422 2.1586206
23.973806 46.456379 1.9670484
23.754045 46.304001 1.976994
23.866507 46.297642 2.5552547
23.879704 46.361748 2.4682708
23.997065 46.454033 1.6025132
26.577631 47.297642 2.3707557
25.483501 47.047478 1.8607814
24.568924 46.48481 2.8519776
24.476385 46.594704 2.3502839
25.071493 46.772369 2.7726884
24.970243 46.729454 2.9313531
24.775267 46.609554 2.9274468
24.706478 46.565586 2.9257989
24.370268 46.482109 2.7438171
24.256157 46.510872 2.1668983
24.648458 46.629749 2.1605442
24.682358 46.683636 2.450506
24.569912 46.598885 2.4579074
24.580822 46.589649 2.7632699
24.473665 46.597969 2.0577717
24.480236 46.598145 2.7606318
25.290743 46.962906 2.2669697
24.663988 46.608936 2.6710484
24.661844 46.686642 2.2626374
24.573807 46.670166 2.4549685
24.376429 46.576046 2.182142
24.674034 46.682617 2.3575597
24.584291 46.604496 2.6517158
24.681816 46.693382 2.0626495
24.366867 46.517361 2.3492136
24.267931 46.482422 2.5623789
25.072447 46.800072 2.3653255
25.7924 47.171513 1.8742779
24.358543 46.520721 1.9692621
24.630373 46.623772 1.6732699
25.069836 46.795559 2.0768046
26.559525 47.375896 2.4648607
26.266932 47.283962 2.4690676
25.971966 47.175438 2.4589176
25.770229 47.101151 2.638705
25.080414 46.791775 2.6499507
25.067844 46.796638 2.458977
24.664988 46.6852 2.6573894
26.271149 47.286926 2.3561134
26.54871 47.373592 2.5592968
26.483706 47.38549 2.5533473
26.275333 47.294941 2.5576456
24.689438 46.666389 2.7503953
24.673885 46.673172 2.5516763
24.609028 46.649948 2.7525315
24.991852 46.878975 2.0859718
26.47452 47.379143 2.656512
25.892042 47.190235 2.6356075
24.496418 46.650162 2.5751026
25.971901 47.124405 2.2773914
25.964567 47.092575 2.6579189
24.490406 46.590916 2.6441863
23.87525 46.369373 2.3483329
23.877615 46.387447 2.1442227
23.867138 46.386009 2.2586796
26.287626 47.289768 2.7724259
26.197418 47.25816 2.7735643
25.9624 47.109158 2.5513928
24.490627 46.657291 2.4615974
23.789938 46.367039 1.9652811
25.008879 46.848614 2.1245673
24.982124 46.851387 2.5712235
25.817915 47.168491 2.656955
24.486311 46.669041 2.3709643
23.714499 46.351425 1.9627508
23.91258 46.447697 2.1056902
23.775326 46.366024 1.8890018
24.510731 46.667213 2.2596879
23.902296 46.455215 2.243963
25.012369 46.869194 2.3869073
24.377499 46.495285 2.6480651
24.17374 46.374722 3.0638845
23.776842 46.277496 2.8563228
24.371399 46.545517 1.7625279
26.620554 47.355392 2.3532796
24.361435 46.54203 1.7005918
24.332504 46.385326 3.0076542
24.653879 46.604961 2.5497558
24.578733 46.529434 2.608932
24.563152 46.534962 2.6473546
24.531437 46.523067 2.4460151
24.376669 46.47588 2.8932035
24.533655 46.539215 2.3816907
24.266994 46.409126 2.558789
24.261534 46.432983 2.3664539
26.627005 47.355865 2.4859579
26.068777 47.143166 2.2471135
24.470251 46.521793 2.462919
24.449495 46.524895 2.5587502
24.955193 46.710869 2.7385883
23.880579 46.376057 2.5496321
25.96385 47.126041 2.0824537
24.426399 46.534149 1.8875539
23.855028 46.312408 1.8927046
23.862486 46.319115 1.9480394
26.620306 47.367043 2.682544
25.030439 46.736774 2.6754794
24.683285 46.51255 2.873462
24.787327 46.598434 2.8754997
24.451206 46.676514 1.7126758
24.096088 46.356255 3.0607002
