# .PCD v0.7 - Point Cloud Data file format
VERSION 0.7
FIELDS x y z
SIZE 4 4 4
TYPE F F F
COUNT 1 1 1
WIDTH 1613
HEIGHT 1
VIEWPOINT 0 0 0 1 0 0 0
POINTS 1613
DATA ascii
17.331383 35.593021 2.5581696
16.743475 36.396404 1.9643574
16.627916 37.363102 1.9582822
15.748711 39.279392 1.5386428
14.569391 42.08807 2.1552141
15.741217 38.802887 2.9960818
15.669029 38.900093 2.7442598
16.400108 37.616306 2.4581237
15.485675 39.297829 1.9372444
16.9632 36.093853 1.7666956
16.892231 35.909794 2.1698854
15.506416 39.416687 2.2550485
17.26026 34.992538 2.2539279
15.697475 39.101189 2.0633759
16.780319 36.00948 1.9605865
16.179443 37.703075 2.2624037
15.727489 39.538467 1.8378081
16.788521 36.016666 2.0495453
16.081188 37.794235 2.760704
16.67321 36.787758 2.2711122
14.594218 41.806351 2.5603437
15.704551 38.836433 2.2697587
16.193655 37.791935 2.1630609
15.935055 39.091022 2.4874589
16.766037 36.212864 1.7602111
16.449104 37.061474 2.6599107
14.767521 41.584339 1.8838828
15.816575 38.428631 2.7812891
15.369189 40.605137 1.8404386
15.726838 38.921165 2.9753923
16.855494 36.281174 2.5783596
15.330211 40.687931 2.5508633
17.328426 35.535828 1.8386915
16.909277 35.687874 2.2668037
17.161991 35.108158 1.71834
17.556818 34.90897 1.7741838
15.440651 39.777264 2.3609369
16.43935 37.18914 2.1667795
16.210669 37.798763 1.8668839
14.774468 41.297527 1.9818296
15.844728 39.191597 1.8717169
15.30413 40.593803 1.9792398
15.391316 39.582352 1.8708367
15.282794 40.469997 1.5571841
15.432131 40.433292 1.958644
16.292 37.400116 2.2626536
15.887121 38.288788 2.7732577
16.158596 38.369881 1.6821692
17.542217 34.985374 2.5662656
15.500597 39.82618 1.6003371
15.73084 39.578659 2.2686224
16.468843 37.071842 1.7580879
15.437587 40.352188 2.3661246
16.275482 37.489826 2.3607252
16.396841 37.620525 2.3546321
14.753791 41.58535 2.3576269
15.910206 38.902679 2.4601309
14.903081 41.458633 2.4833536
14.474909 42.053909 2.0641725
15.68985 39.119156 1.5588112
17.205736 35.60281 2.0661826
16.36507 37.119987 3.3831267
14.836322 41.541656 2.598799
17.145166 35.623199 1.9690034
17.165689 35.812183 1.9646785
16.460093 37.594971 2.3655159
15.160751 40.700886 1.9346526
17.484159 35.097797 2.6553614
16.383364 37.086998 3.2912018
15.661214 39.09494 2.7510965
15.47501 39.694466 2.0683317
15.434805 39.787277 2.460098
15.410059 39.595718 2.4616346
15.437929 40.371948 2.2641323
16.975948 35.404099 2.9518466
17.057436 35.585384 2.4595015
15.453655 40.187088 2.1596773
17.442635 35.000774 2.6606886
15.150058 40.933842 1.6659042
16.174271 38.303749 1.9693693
15.298271 39.916847 2.4599802
15.907438 38.061245 3.1504514
14.402954 42.168964 1.791414
17.504642 35.037815 2.8380592
15.273129 40.194153 2.1718278
17.3293 34.875671 2.5631337
17.543627 34.969868 2.1783018
16.89949 35.797775 2.3736825
17.200962 35.106453 2.2661328
16.377409 38.022331 1.7702618
15.544372 39.679222 1.7284503
14.861068 41.193256 2.3704205
15.388891 39.908062 2.0685017
17.037931 36.167198 2.365478
15.684915 38.997799 2.3614755
16.204147 37.703789 2.0673032
16.543619 36.9245 2.544229
15.601504 39.708477 2.2572918
16.730709 36.364445 2.7231598
16.383385 37.195553 2.3704648
16.997143 35.345314 2.5797901
15.929848 39.057487 2.5530872
15.280832 39.999432 2.463187
16.581078 36.698334 2.3605666
15.099754 41.197716 2.5572324
17.038761 35.594082 1.8627108
15.606165 39.090355 1.9527154
15.482123 40.090836 2.0628405
16.56605 36.795902 2.2612247
16.646275 36.757942 1.8443539
15.976232 38.80003 2.0627666
16.216238 38.143711 2.4142177
16.640656 36.179546 3.1247115
16.880859 35.903034 2.2624824
15.333359 40.580585 2.3700421
15.706972 39.093834 1.8858918
16.298862 37.909714 2.1646957
17.478201 34.90797 2.1758862
17.257427 35.008381 2.0738163
16.970831 35.794689 1.9665172
17.125984 35.291943 2.6061151
16.28142 37.931156 2.5628426
17.017872 35.167015 3.0731809
16.192419 37.438229 2.0558925
16.739929 36.887085 2.3550477
14.738828 41.584015 2.5465181
14.967923 40.892345 2.3679235
15.33639 40.567356 2.0512238
16.90333 35.588261 2.0654976
15.937198 38.500069 1.9583427
15.58995 39.117714 2.4548111
14.683927 41.708279 2.0706484
15.149245 41.103405 1.9607362
17.368256 34.692169 2.3680515
15.955042 38.723129 1.5012372
17.285425 35.404591 2.0730734
16.362394 37.798344 2.0685823
15.491458 39.500435 2.2631245
17.424738 35.068325 2.1919885
15.799404 39.205826 1.966931
16.749191 36.221153 2.6740077
16.377968 37.297882 2.2466567
17.179865 34.986156 1.8520218
16.254173 37.394024 2.7537489
16.464439 37.59972 2.4635146
14.738729 41.697586 1.8833461
17.091858 35.413803 2.2679358
15.07437 40.822716 1.6996216
16.473503 37.721493 1.7400877
16.139702 37.887463 2.4646211
15.257771 39.982384 2.8567088
15.469595 39.791077 1.7525849
15.400805 39.616844 2.7718303
16.994194 35.330868 1.8685071
14.984607 41.275299 1.7927945
15.072444 41.436119 1.6984123
16.07341 38.502983 1.7916113
16.100735 38.508205 1.9010525
17.33041 34.880672 2.3468826
15.451283 39.687984 2.3692005
15.442288 39.296032 2.2580576
15.959265 39.098415 1.8274301
16.235344 37.794956 1.8196235
15.178193 40.295101 2.5590405
15.116213 40.687569 1.6630443
15.676606 38.988655 2.6521568
15.37188 40.198616 1.936255
16.490131 36.710014 2.6625288
14.465676 42.092655 1.8568832
15.601758 39.089794 2.2589951
16.669443 36.408344 2.4549603
15.149215 40.555737 1.303833
16.800385 36.707729 2.7411401
16.668131 37.089001 2.7593577
17.640387 34.775486 2.8362269
14.959498 40.69381 2.8699524
16.876913 36.444309 1.3853909
15.116325 40.648846 1.1317602
16.18923 37.585426 1.9707283
14.8971 41.609535 2.2509255
17.560541 34.694389 2.3560266
16.212864 37.40295 2.7641106
16.967922 35.974899 2.6719737
14.425705 42.162861 1.7897972
17.035961 36.454624 1.7426989
14.994933 40.745502 2.178782
16.342773 37.893799 1.9650218
15.46598 39.485008 1.7636685
16.541391 36.925327 2.8588634
15.736512 39.488953 2.0504429
16.665524 36.589958 2.0565886
14.408809 42.212505 2.7401602
17.100842 35.410416 2.0647545
15.835877 39.273674 2.2575433
16.712996 36.520184 1.6075317
14.753097 41.384476 2.7314119
17.132572 35.8815 2.4702203
16.837841 36.621719 2.8199003
15.41278 39.620815 2.384831
15.707882 38.69722 2.881526
17.122452 36.063034 1.7523435
15.837648 38.783314 2.0549939
15.252687 39.968559 1.848153
15.900375 38.189152 2.8760672
14.697326 42.092239 1.3649242
17.375017 35.185501 1.9712199
17.467035 35.00127 2.0679464
15.404126 40.22007 2.1513922
16.225166 38.362225 2.3218062
17.087463 35.185646 2.5596893
14.982291 40.898926 2.1490297
15.538902 40.200348 2.7870693
16.782211 36.880337 1.433858
17.240097 35.587997 2.2595694
15.02627 40.875271 2.6634898
15.591356 39.709259 2.0708241
15.429045 40.388462 2.4681275
15.86799 39.254902 1.9661759
16.360846 37.301495 2.7360864
16.578585 36.793591 2.1643653
15.602793 39.395893 1.8777473
16.170727 37.696899 2.5528777
15.515797 39.177418 1.8442041
16.699661 37.201336 1.7444925
17.420424 35.377163 2.6958866
16.075756 38.596436 2.3625755
16.02709 38.547302 1.7012807
15.603574 39.020912 2.6501789
16.200167 38.221195 2.3599923
17.2915 34.899788 1.9864143
17.200174 34.92313 1.8356502
15.086002 40.296219 2.9647505
15.030905 40.978153 1.7361034
16.273933 37.763725 1.4267676
15.398916 40.302811 1.6629937
17.3304 35.40749 1.9420822
16.742418 36.395382 2.0661759
16.064749 38.58165 1.9563996
15.307087 39.813339 2.576431
14.846727 41.200745 2.5516577
15.963046 38.29007 2.5726647
15.974708 38.29628 2.3596175
14.868422 41.297466 1.9688073
17.607708 34.867352 2.0951195
16.294094 37.781052 2.3796887
16.456478 37.077003 2.9841459
16.291672 37.819695 2.2469616
17.627045 34.851902 2.8113847
15.593552 39.399418 1.9701523
17.48057 34.801029 1.9754914
15.06443 41.199249 2.1665885
14.740232 42.138462 1.4733778
16.997437 35.698265 1.8066882
15.691347 39.093945 1.9685374
17.351992 34.698826 2.7073131
15.045904 41.280075 2.0555792
15.86816 39.09285 1.9829547
17.341206 35.431255 1.7547334
17.454866 34.499462 2.1566029
17.192495 34.998146 2.5510845
14.851098 41.293312 2.2558658
15.003283 40.917385 2.0470581
15.344066 40.456924 1.7045518
15.091243 41.202389 2.4592106
15.533701 40.281952 2.1480017
16.307354 37.100479 2.6198039
15.084582 41.101139 2.3510251
17.265047 35.486061 2.4540632
15.494615 39.405418 2.4524667
17.352325 34.792679 1.9650915
15.976154 38.465263 1.7683516
17.563982 34.891823 2.2586486
16.882318 36.690796 1.7551746
16.138199 38.554325 2.2761037
14.990899 40.899235 1.9807198
17.344393 35.294319 2.2637081
16.878309 35.713074 2.6454353
15.096182 40.986679 2.449018
15.460443 40.185074 1.9759802
15.261258 40.185215 2.7617047
15.998777 38.225632 2.1577694
15.923118 38.381767 2.7501535
16.143723 38.405743 1.9776276
15.208796 40.0093 2.86025
16.472105 37.095436 2.0626078
16.185444 37.42691 2.8809633
16.384943 37.207348 2.2566252
16.203878 37.445259 1.9569497
15.699249 39.491146 2.1504474
15.033694 40.942074 2.4702876
14.470429 42.379128 2.0565221
16.143641 37.981014 1.9615245
15.096046 41.102951 2.4590807
15.691161 39.500572 2.2520208
17.047455 36.275455 1.7012095
16.644241 37.348377 1.8330711
16.743689 36.39233 1.88342
15.083644 40.692715 2.05439
17.325653 35.665825 2.8737805
15.03222 40.903641 2.5613093
16.241352 38.186771 2.3682761
15.088767 40.499664 2.4638884
15.018863 40.981598 1.7648811
15.664371 39.408394 1.8358383
15.35039 40.482216 2.0572252
15.676349 39.408813 2.2587147
16.842491 36.604351 1.8524812
14.646531 42.307201 2.1595738
15.075422 40.595402 1.8864818
15.60988 39.786739 1.7524529
15.704893 38.925831 2.09689
16.004999 37.933849 2.6883869
15.315089 39.818649 2.6408365
15.267051 40.093929 2.5543458
15.052235 40.783958 2.2670307
14.409907 42.317097 2.2773428
16.216299 37.439404 2.538445
15.446846 39.801777 1.9591541
14.473701 42.418682 2.1668797
14.95365 41.094139 2.6438155
16.590317 37.103592 2.3453603
16.600536 36.705536 2.0558689
15.767382 38.799129 2.5624251
15.479597 39.69915 1.8857453
16.345604 37.196022 1.8916879
16.343529 37.591236 1.8792124
14.664367 41.79929 2.1647036
16.369175 37.20414 2.5610485
16.469395 36.958626 2.9348102
16.201391 38.215134 2.4649127
17.510038 34.862526 1.979944
16.850616 36.097824 2.2636995
17.177828 35.101719 2.4625626
14.933479 41.670723 2.5649412
16.636177 37.180321 2.4573638
16.811136 36.62402 2.4517529
17.184879 35.62468 1.8611
16.747921 36.180466 2.7573414
16.741272 36.888744 2.5421431
15.091522 40.692398 1.967901
17.487682 34.884605 2.090327
15.58212 39.902195 2.4602277
14.982603 40.797161 2.56463
14.838864 41.288742 2.4655652
16.408356 37.720535 2.5581887
17.0658 35.949234 1.8646271
17.240578 35.086662 2.1583617
16.728371 37.06002 1.8478791
16.487843 36.997162 2.164377
16.855898 36.097061 2.1655316
15.435699 40.285088 1.9729208
15.675907 38.992481 1.8682859
16.234192 37.592022 2.6394935
16.305288 37.997997 1.3948448
15.795575 38.710724 2.1871867
16.241209 38.165852 2.05409
15.606991 39.003746 2.7832437
16.426889 37.065098 2.8222706
16.165337 37.896351 2.0683861
15.989634 38.099216 1.9456629
15.014084 40.642117 2.3348308
14.790006 41.896469 1.9791265
14.779838 41.50544 2.0686033
17.494747 35.260612 3.0753403
16.164806 37.685257 2.7382965
15.009226 40.869972 1.6961153
17.352274 35.363544 2.0866492
16.070145 38.597324 2.0691621
15.08636 40.408928 2.7283103
17.311295 34.612286 2.2376742
17.302958 34.701027 2.1734717
15.876191 38.885872 1.9838039
15.737457 38.673527 2.9662216
14.78208 42.068035 1.7481229
16.544226 36.912262 1.8636864
16.249651 37.796745 2.1488738
14.931181 41.792213 1.741688
16.172764 38.291466 2.1668317
16.397306 36.903019 2.9656725
16.48424 36.904789 2.2615089
14.8641 41.987457 1.7814355
16.242912 38.181 2.2482519
16.161352 38.395641 2.5511401
16.14996 37.718742 1.8721226
14.642941 41.790359 2.6558292
16.872791 36.505123 1.7840918
15.601593 39.099373 2.5596898
15.344455 40.179497 1.8780216
16.195791 37.422321 2.4581218
16.198286 38.209778 2.5588963
15.011133 40.630146 2.4886274
15.872661 38.874371 1.84858
15.541041 39.562279 2.3241909
14.798532 41.492916 1.9561412
15.034271 40.874561 1.9677029
16.95475 35.32164 2.0111861
17.040108 36.092907 2.1732509
16.163502 37.589241 2.8513038
16.390644 37.001053 1.9827908
15.807122 39.30479 2.5555856
15.484799 39.904068 2.3587844
15.071507 40.599361 2.3648221
15.266105 39.815922 3.0164793
15.074788 40.592293 2.4689405
15.156493 40.392349 2.6535401
17.625038 34.757126 2.5592837
16.131195 38.054871 2.5589466
16.337753 37.483944 2.1500516
15.901304 38.912918 2.3673558
16.894436 35.635937 2.9654346
17.00688 36.110981 2.4490957
16.291798 37.317974 2.175837
15.7796 38.862457 1.6193113
14.774714 41.410332 1.971402
16.146034 38.388481 2.0617115
15.748775 38.986862 2.1629932
16.496393 37.498451 2.6578712
15.309329 39.825325 2.3725114
15.374846 40.389809 2.0659866
14.954243 41.276634 2.6273296
14.928703 41.167042 2.4976439
15.041437 41.27692 2.162106
15.613645 39.02578 2.1716938
16.266258 37.487373 2.4607246
16.266144 37.910259 1.9492257
14.844211 41.396984 1.8575848
16.378349 37.816673 1.860314
15.332907 40.571308 2.1692758
14.679163 42.10635 1.8537351
17.417542 35.441948 3.0202963
14.383414 42.395416 2.4565687
15.293213 39.829185 2.8451891
14.810928 41.210419 2.3879886
16.111841 38.457569 1.6248919
15.051121 40.987778 2.0453086
16.196985 37.602467 2.5684209
16.879118 36.001034 2.0595012
16.95771 35.790997 2.3552301
15.189739 40.332642 1.8086566
14.783693 41.500317 1.857499
16.142822 37.984512 2.368089
17.269333 35.422436 1.9923
17.048199 35.279243 3.0170944
15.059176 40.99147 0.83214843
14.404943 42.296886 2.4620457
17.105904 35.885742 1.8587266
16.888762 35.767639 2.0712595
16.345753 37.228466 3.3382201
16.235168 37.772579 2.0632932
16.241913 38.184143 2.1715739
16.340225 38.081619 1.8397163
16.963568 35.790611 2.2597055
15.370586 40.393295 2.1629009
15.299385 39.998215 2.3663089
14.748178 41.581661 2.4779069
15.57164 39.391014 2.2606428
16.599442 36.522503 2.2456656
15.009216 41.413307 2.5674791
14.576513 41.797146 2.7665622
17.248547 35.668396 1.9458671
14.773317 41.697826 1.7609694
14.965628 41.310001 1.6925137
17.562332 34.700649 2.6452026
16.886215 36.502201 1.8634679
15.490151 39.608326 2.0633547
15.076729 40.391769 2.9588947
15.090411 40.498119 2.5660439
15.894893 38.999653 2.262538
16.193901 37.402916 2.2035589
17.433685 35.08252 2.0871019
16.826689 35.69495 3.1357107
16.906168 35.605629 2.8683081
15.089733 40.599842 2.2538927
17.431093 35.210838 1.7592857
17.482647 34.713791 2.2665555
15.055609 41.281368 2.3628886
15.649124 39.39254 1.76177
15.053236 40.884876 2.0512009
16.569784 37.259743 1.6029842
15.503688 40.004166 2.2587247
17.422987 34.722263 1.8527931
16.696829 36.902424 1.3778133
15.062408 40.424019 2.8609688
15.744354 38.994762 2.2512288
14.950323 41.195694 2.0742235
15.554372 39.492828 2.1508517
15.454163 39.665794 2.8422112
17.050749 35.495529 2.3588178
16.093254 37.799259 2.6691227
15.77994 38.716194 2.2542892
17.527527 34.80011 2.07969
15.441962 40.289001 2.2640085
17.344603 34.78788 2.1620023
16.666937 36.607365 1.8632805
14.774743 41.493805 2.156049
15.005396 41.304283 2.3514926
16.965952 35.587521 2.6744187
15.096872 40.401592 2.6582813
15.677913 38.828762 2.9611802
17.067045 35.996708 2.0621393
15.395102 40.145908 1.5602428
15.745211 39.483955 2.2607305
15.054221 40.52037 2.8307211
14.909389 40.918316 2.4412236
16.282621 38.211823 1.7609979
15.196833 40.308586 2.152251
15.17362 40.39793 2.2656555
15.40117 39.607368 2.5590203
16.872704 36.298363 2.365907
15.487044 39.693275 1.9540162
15.19173 40.293865 2.2726693
16.458155 36.883762 1.7684872
17.263439 35.341408 1.54388
16.275076 37.411034 2.1793118
16.139156 37.956341 2.4474249
17.274693 35.279533 1.7453787
15.054615 41.205318 1.9717112
16.375435 37.586559 1.9706247
15.17546 40.299198 2.6556423
14.732924 41.578396 2.6521771
17.348242 35.39241 2.4503577
16.338692 38.096035 2.1555061
15.051122 40.683319 2.5523157
15.401079 40.221977 2.3581004
14.643115 41.629593 2.0645602
14.741411 41.360146 1.8661141
14.959628 40.885303 2.5574064
14.983541 41.359158 1.2033855
16.718592 36.097469 2.5445297
15.462974 39.694687 2.2643728
16.54117 36.973671 2.0744081
14.657404 41.979668 1.856047
14.993957 40.705349 2.6463373
17.317814 34.590656 2.0263431
15.861728 38.586605 2.5659554
15.808121 38.438248 2.8208864
16.279526 37.191814 3.0485661
17.085209 35.120659 2.7749536
14.393119 42.408749 2.1697891
16.994751 35.700375 2.0603769
15.447163 39.696587 2.459717
16.100607 38.510887 2.4604094
15.066604 40.598053 2.5546563
16.046022 38.193993 2.1525178
15.469528 39.568859 2.834343
14.685605 41.497398 2.6620941
15.299993 39.801865 2.9372883
15.395499 40.403656 2.6557922
15.06915 40.700115 2.2764437
16.905903 36.6717 1.6213062
15.890854 38.602211 2.1581504
16.103584 38.406799 2.2613163
17.317911 34.678165 2.4074011
16.266331 37.489094 2.5550649
15.452099 39.681835 2.6495855
14.837085 41.275642 2.360311
15.351339 39.994789 2.2611434
17.411646 35.329296 2.8743947
14.594963 42.402996 2.2538757
14.836869 41.449501 1.7343104
15.891004 38.901299 2.1683214
17.096867 35.241234 2.1097705
16.139475 38.483459 2.462503
17.325171 34.867325 2.4944124
15.442408 39.685898 2.5517654
15.680236 38.984737 2.7402577
16.06168 38.628609 1.7857155
15.481588 39.50108 2.4641132
16.180283 38.301262 2.3624649
15.17316 41.244198 1.5707082
15.796159 38.74221 2.0305285
15.001884 41.309322 2.2589846
17.309402 35.329262 2.0963702
17.491592 35.206253 2.8638659
17.236099 35.494106 1.9943855
15.899592 39.251076 1.8414336
14.481641 42.289688 2.0629535
16.192535 37.718643 2.1659558
16.398083 37.298336 1.8667698
17.048082 35.087997 3.2288816
16.052036 38.18774 2.069447
15.708293 38.825043 2.4359553
15.10456 41.099335 1.8606797
14.388689 42.386074 2.2576013
15.295714 39.901978 2.7466836
14.546226 42.209034 1.8782153
14.493783 42.126308 1.9501411
16.164335 38.222969 1.7834218
15.400138 40.302689 2.3588443
15.158788 41.135384 1.4063662
15.79961 38.501904 1.9245877
15.085834 40.49828 2.3706126
17.050682 35.587082 2.0664492
15.442696 39.56271 1.7517701
16.74194 36.880478 2.7521963
15.143869 41.177345 1.4904718
17.14386 35.796928 2.1664107
16.337076 37.967365 2.0615246
16.291147 38.198811 1.8638356
14.838381 41.979309 1.8775347
16.339729 37.390984 2.3590276
17.483709 34.901649 2.5523884
15.10332 41.012264 2.1601067
15.342843 40.486549 2.1680028
17.498825 34.814617 2.2666972
15.033018 41.179417 1.3017586
16.342438 38.069569 1.93284
17.36902 35.197254 2.1674223
16.247234 38.196728 2.5496664
17.507105 34.808632 2.3563671
16.846651 36.593239 2.1822984
14.546163 42.095242 2.4549863
15.451152 39.487206 1.9631778
15.459872 39.685741 2.7400136
15.092575 41.109489 1.9901344
14.765061 41.366688 1.8094856
14.952621 41.774849 2.2641978
17.097942 35.909641 2.5477054
15.114694 41.02623 1.9613369
15.588644 39.39716 2.1489129
15.050926 40.694508 2.3478003
14.786976 41.298733 2.3709188
16.182079 37.939159 1.7840161
14.787151 41.561523 1.7913599
15.084985 41.187912 2.3535268
16.234673 37.775166 1.951921
15.095012 40.712929 1.901023
17.074226 35.819035 1.5808913
15.278042 39.984039 1.9595259
16.273933 37.877216 1.5570421
16.642931 36.691013 2.1563861
15.050958 41.149731 1.7084898
15.844106 38.777954 2.1698852
14.917974 41.651314 1.6630409
17.332605 35.533283 1.7545686
15.030574 40.798134 2.4644828
14.882463 41.506489 2.1432521
15.341436 40.416096 1.5908049
15.529057 40.152782 2.5462997
15.096256 40.690002 1.7414659
16.344131 37.278641 2.6632171
15.569393 40.19651 1.7358062
15.6092 39.410812 1.6934983
15.834365 39.265251 2.2023654
15.889207 38.295334 2.6567268
16.406441 37.707047 2.4588408
15.171889 40.289967 2.7493851
15.944489 38.588917 2.0727804
17.047796 36.091087 2.4511912
17.238081 35.721554 1.8041458
14.75557 41.591885 2.1533532
14.795314 41.823906 1.6954247
15.716961 39.096844 1.8085743
14.861002 41.498829 1.9654549
16.349291 37.898491 2.0729682
14.543018 42.198708 1.9625257
14.531272 42.204399 2.255873
15.089596 41.205544 2.6508524
14.394868 42.306816 2.6568446
15.689814 38.721966 2.7803144
16.43145 37.808372 2.2551682
17.343229 35.293758 2.4604099
16.287519 37.321278 1.800599
14.633575 42.434509 1.772609
17.541311 34.893574 1.9806154
14.864096 41.482956 1.8634067
15.001673 40.698536 2.2891138
16.29212 37.999027 2.3596833
15.105043 40.312141 2.6721525
16.348862 37.380062 2.4562199
17.339382 35.299397 2.3590832
15.48165 40.090435 1.8826162
16.50898 37.419174 2.5402274
16.465788 37.564095 1.864382
16.190313 37.495358 2.6683469
15.073812 40.585732 1.9637899
17.337072 34.796177 2.2498157
16.792902 36.602448 2.2687461
16.634325 37.180393 2.2663267
14.643614 42.461315 2.4923482
15.112016 40.304474 2.4547155
17.066751 36.002213 1.9630474
16.164515 38.182671 1.9258451
15.350119 40.491802 2.2522244
17.166748 35.407837 2.4619527
15.052092 40.896423 2.2651563
16.664263 36.496738 2.5513835
17.241049 35.583473 2.3558388
14.487635 42.209023 2.1704123
15.504983 40.008965 2.1690447
16.87676 35.991573 2.2615249
15.825352 39.250004 2.0432365
15.381252 39.985775 1.8660836
15.440458 39.482338 2.8183086
17.495663 34.804157 2.0709159
15.074068 41.200138 2.2578228
17.105663 35.176407 2.1503897
14.799629 41.407185 2.1631031
15.208879 40.31908 2.0987475
16.503746 37.428818 2.6651182
15.055865 41.286503 1.9822506
17.09408 34.990128 1.8868421
15.101316 40.305737 2.5757761
17.103153 35.210003 2.2526181
17.284698 35.63879 1.7472442
17.295618 34.715134 2.2658427
17.237432 35.647717 2.327343
15.095215 40.619568 2.1662254
15.854307 38.491276 1.8783892
15.466907 39.782856 2.7337167
15.690805 39.412472 2.449717
15.468109 39.690819 2.1711748
14.655657 41.576469 2.7540777
15.194612 40.801212 2.2553623
17.465019 35.083984 1.9584656
17.510134 34.683495 2.3242974
15.065121 41.290302 2.4579844
17.491562 35.21376 2.961561
15.585707 39.073864 1.8344591
16.809826 35.910988 2.476532
15.064492 41.295418 2.653935
15.057381 40.689671 2.466465
16.088665 38.494331 2.2645049
15.188728 40.898048 2.3611436
16.995823 35.496975 2.3662236
15.078415 40.698929 2.1531856
14.651456 41.783974 2.3516605
17.404467 35.196419 1.7436829
15.484217 40.095982 2.2620668
16.989803 36.115692 2.2697158
17.285852 35.404167 2.5644045
16.092974 38.504253 2.3622692
15.292179 40.215645 1.8715601
15.93109 38.688019 1.5806701
15.030279 41.284016 1.8072014
16.348351 37.299873 2.5502868
17.266855 35.495232 1.9095488
17.246504 35.581703 2.0552061
14.397569 42.314579 2.5588226
17.344181 35.290211 2.5652525
16.105534 37.833755 3.1505246
16.15266 38.393444 2.263809
16.158022 38.397266 2.36832
15.799781 38.611557 2.4578629
16.046488 38.269505 2.2651966
17.163786 35.08168 2.7622666
14.657578 42.073612 1.7342116
16.880116 36.496727 2.2592654
17.335245 35.296974 2.0660555
17.522036 35.161854 2.9332504
17.008156 36.101364 1.9057547
15.025402 40.981148 1.5740976
15.291242 40.003475 2.5616148
15.880093 39.067078 1.7746432
16.299725 38.155788 1.6493504
15.588377 39.42527 1.7984765
14.694847 41.408154 2.8445921
16.216843 37.41177 2.6860561
15.572381 39.690922 2.4654298
16.44618 37.099403 2.4520316
15.414079 40.243462 1.756894
15.783424 38.702538 2.5590639
14.774862 41.282429 2.0848806
15.044403 40.768726 2.6399517
17.331154 35.37991 2.3607855
16.49436 37.260838 2.6474156
17.625135 34.762882 2.4923334
16.207457 37.402702 2.9749112
15.790534 38.601433 2.1775231
16.142536 38.478432 2.2601655
16.135845 38.480251 2.3729851
17.022413 35.261837 2.9594371
15.047091 41.279396 1.8649495
17.272512 34.726387 2.5572832
14.812574 41.12867 2.6496987
15.001142 41.264423 2.5153542
15.58408 39.506184 1.7576494
14.965831 40.904884 1.8551922
17.374502 35.199261 2.4528763
17.006666 35.422752 1.8038695
16.957033 36.295231 2.5521367
16.990051 36.192467 2.2590601
15.341952 40.086018 2.2437744
15.537308 39.572453 1.787338
15.795383 38.709549 2.3706725
14.463811 42.191612 1.8754816
15.475605 40.009621 2.3427281
14.895129 41.601688 1.9572334
15.012363 41.430252 1.3351651
16.436279 37.199966 1.9708364
16.230122 37.658058 2.5289073
15.407643 40.130653 1.5946807
14.453498 42.292198 2.2754726
16.286495 37.400879 2.3642676
15.7787 39.316658 1.801378
17.273314 35.63118 1.8690971
14.802121 41.320992 2.2704434
16.385857 37.176491 2.7558484
17.601355 34.909893 2.8354321
14.842752 41.287155 2.5552547
17.111723 35.023888 1.918993
17.076408 35.49128 2.1598706
16.367786 37.671432 1.7610567
17.048964 35.590199 2.2635763
16.060198 37.957073 3.1486592
17.0732 36.000492 2.3557069
17.055679 35.592964 2.1583235
17.485109 34.9049 2.3664634
17.097481 35.901096 2.4649241
15.46755 40.406075 1.6723274
16.201105 38.081341 1.7841526
17.26491 35.686855 2.1406326
16.08555 38.195274 1.355235
14.541052 42.182846 1.7621078
14.627033 42.480675 2.3616147
15.104335 40.306744 2.7635047
15.58709 39.203182 2.3623362
15.374846 40.368675 1.7570568
14.986616 41.007587 1.8713392
15.992651 38.6996 2.2662122
14.757142 41.488209 2.7555842
16.780182 36.086662 1.9716438
15.094 41.226288 1.7717924
16.502972 37.280064 2.4369602
16.748936 36.477837 2.1841738
16.638069 37.27179 2.1533322
14.693519 41.789875 1.9580514
17.018415 35.473858 2.2498531
16.516115 37.206696 1.4048742
16.200609 38.210754 2.0506859
15.478346 40.10487 1.9734629
16.339775 37.964687 1.9749835
16.721437 36.343327 3.1070783
15.50167 39.335228 2.3807459
17.001286 35.42741 1.9601784
16.809227 36.618889 2.6503658
16.642403 37.18013 2.6333284
14.492127 42.096512 2.3590891
16.653616 37.089241 2.2682407
16.795444 36.703571 2.2615104
15.235166 40.868038 2.3570123
16.87849 36.498417 2.359669
14.736024 42.180473 2.5591083
16.878635 35.694283 2.4331629
16.391329 37.701687 2.1670151
15.922519 38.570267 2.3329096
16.294588 37.258873 1.9637883
15.934209 39.074894 2.165544
16.01026 38.029514 2.3436928
15.198853 40.392258 2.1716077
15.065918 41.208866 1.8642403
15.539526 40.226688 1.6513319
15.707039 38.811356 1.8485744
14.983061 41.0075 2.059139
16.703747 36.404408 1.8749014
15.643594 39.195301 2.5656888
15.501043 39.315151 2.5491498
15.833592 39.275303 2.3642461
17.100676 35.0588 1.8227217
14.402727 42.243217 1.8732533
15.232366 40.27158 2.6519928
16.739229 36.080116 1.8571702
16.127129 38.055305 1.9318749
15.199028 40.574966 1.4712735
17.076508 35.496635 2.0681219
16.294859 37.905205 2.0694034
17.56422 34.694714 2.2663383
16.149378 38.062859 1.8916301
17.051394 35.585907 1.9714442
16.87496 35.796154 2.5447381
15.364458 40.575279 1.5382113
16.148321 38.481197 2.0582602
16.66378 36.377472 1.8044513
15.062582 41.189945 2.0589416
17.118784 35.114731 2.5711715
15.754272 38.693771 2.8496535
17.093073 35.906452 2.3593099
16.1208 38.089245 2.1092696
15.270037 40.711082 1.3819437
16.169176 38.313957 1.852487
15.798843 39.305733 2.4703093
16.400362 37.606903 2.1672375
16.154654 37.802948 2.4580581
16.775688 36.194645 2.3588409
15.362906 39.725239 1.8743649
16.834667 36.071003 2.5422168
14.948802 40.986004 2.3662181
15.283222 40.504555 1.3818998
16.344597 37.400745 2.2541556
16.331823 37.481388 2.0677047
15.263706 40.483387 1.6622195
16.958105 36.298771 1.9690684
16.7197 36.939419 1.2579793
15.393607 39.599979 2.8654656
15.06999 40.793686 1.9537356
14.578442 41.891342 2.5583968
15.879727 39.087189 1.88132
14.771461 41.391457 2.4683466
14.409012 42.21796 2.2641661
15.611137 39.030827 2.3666911
16.040535 38.283298 1.9654413
14.571152 42.106529 1.7404276
14.971474 40.994736 2.1713307
15.260132 40.293861 1.9488724
16.872473 35.686653 2.0354311
14.46028 42.220409 1.9679306
15.006186 41.296143 2.1639235
14.973522 41.259842 1.4716363
16.849943 35.892056 2.7552996
14.95517 41.58815 2.4630742
16.865421 35.823792 1.9702159
14.679251 42.204056 1.7866971
16.86212 36.08604 2.6323373
17.336449 34.866913 1.9464074
14.735168 42.190792 2.3591471
15.286957 40.004131 2.2553182
16.192781 38.097397 2.1706975
16.002251 38.291859 1.9760857
15.003452 41.32386 1.9603173
15.01071 41.338501 2.437736
15.307137 40.023323 2.1644869
16.041212 38.264389 2.3400176
14.687763 41.502575 1.8502867
15.942511 38.498859 1.8708299
14.95666 41.177174 2.1845746
17.180342 35.196098 1.9663393
14.79283 41.185249 2.7639475
17.261169 34.992313 2.351794
15.969473 38.595539 2.263278
14.770418 41.337536 1.8072821
15.256608 39.897057 3.0287075
15.307474 39.820686 2.4392829
14.447472 42.384747 2.2505269
16.669308 36.300243 2.6664181
17.151047 35.003986 2.6715751
15.175317 40.899326 2.0621319
15.966406 38.097675 2.8515232
17.288139 34.902714 2.1706231
17.205715 34.894569 2.1532903
15.055772 40.793674 2.1634593
16.533489 36.697823 1.7878003
17.093515 35.895042 2.1737893
14.362249 42.192188 2.9917159
16.52285 37.590897 2.1805019
17.16136 35.700779 1.9731127
15.332803 40.565182 1.9839315
16.449514 37.590061 2.1613615
16.895115 35.542854 3.1351316
16.066853 38.099895 2.2642982
16.04899 37.789803 2.9685271
15.142066 41.079243 2.1700003
16.35914 37.179092 2.652178
15.706491 38.936596 2.2444329
15.895027 38.599468 2.0604839
17.163593 35.187893 2.4624667
16.980883 36.249031 1.7718757
15.092735 41.105564 2.2635329
14.574104 41.880951 1.8814145
15.50232 40.012436 2.0691352
16.72558 36.36694 2.6947856
16.593824 37.452759 1.9968565
15.093068 41.091591 2.0695603
15.877006 38.491215 2.4595153
15.800289 38.796501 1.9592942
16.160818 37.786182 2.558722
14.578037 41.90023 2.266572
14.9977 41.276413 1.2049435
14.818235 41.343899 2.1815112
14.698642 42.102264 2.3645005
14.786404 41.30637 2.5615153
15.710586 39.518955 2.4781132
15.581607 39.103619 2.7366996
17.43425 35.160561 1.8526888
16.285021 37.394829 2.5490942
15.780762 38.558231 1.8730369
17.44096 35.193241 1.942013
17.435957 35.368572 2.9436264
14.860264 41.189186 2.6529984
14.698247 41.608913 2.2591109
15.484983 40.389233 1.8570404
14.781507 41.492416 1.7902409
16.962154 35.488537 1.857549
15.51834 39.309799 2.1609168
15.74154 39.57658 2.3593962
16.899376 35.794914 2.18238
16.509378 36.90144 2.0709155
16.708858 36.772469 1.958432
16.672165 36.280178 3.0522962
15.938186 38.486275 2.367106
14.489939 42.280018 1.7579625
15.149817 41.066395 2.0458388
17.008869 35.316719 2.7553363
14.5337 42.069103 2.5522006
16.248892 38.092293 1.4972427
16.087984 38.507053 2.1602874
16.250183 37.370678 1.8930483
16.695625 36.491222 1.8693547
16.755106 36.83873 1.5954506
16.704351 36.980755 1.5498523
17.563622 34.694267 2.5434406
17.130129 35.395912 2.3544772
16.260391 37.590515 2.2617836
14.680762 42.196369 2.1648157
14.882956 41.19846 2.1546614
16.224655 37.779945 2.5301025
15.495726 39.329868 2.4668446
17.274706 34.693733 2.6501632
14.704 42.101292 2.263895
17.286091 34.729229 2.0751996
16.65847 37.010769 1.8885617
16.772781 36.800903 1.8928497
14.540519 42.18195 2.4485035
14.582376 41.81213 1.9439272
14.896564 41.734905 1.5446037
15.56897 39.106354 2.8590713
15.084432 40.499897 2.6559839
15.880007 38.408463 2.2619371
16.152721 37.783504 2.6539872
15.796595 38.38636 2.2493396
16.269463 37.277317 3.3560441
14.878155 41.688381 1.9752975
14.883902 40.909611 2.8553991
16.141232 37.787971 2.8695805
15.592049 39.109863 2.1914346
17.105007 36.068775 1.7864237
14.668287 41.690525 2.26473
17.270359 35.495541 2.269933
16.488203 37.300282 2.3614213
17.301485 34.698162 1.8669313
16.440889 37.184559 2.655885
14.912004 40.911728 2.5548167
14.414621 42.213409 2.5709236
15.7564 39.38747 1.8767902
14.581801 41.819031 1.8683608
14.545758 42.178928 2.0632439
16.658451 36.494339 2.9658661
14.898595 41.598621 2.1724179
14.874206 41.697582 2.164109
15.465364 39.592152 2.6560709
17.203878 35.11813 1.9682988
15.159689 40.594101 2.5885742
16.387341 37.104786 3.1132989
15.646096 39.685776 1.971727
15.073251 41.386215 1.8634152
16.4296 36.964771 3.0419021
15.740116 39.09058 1.960125
16.2722 37.39283 2.6454525
16.824696 35.85815 2.9682624
15.348503 39.880016 2.6551638
14.460108 42.19228 2.3716278
14.433719 42.358994 2.6378047
15.614075 39.643295 2.5152009
15.338571 40.778339 1.6907402
16.561537 36.578568 2.7763546
15.866842 38.483418 2.7397573
14.879448 41.19138 2.2605584
14.902747 41.026516 2.3706529
16.259813 37.448383 3.0493402
16.362547 37.171982 2.8426051
16.742123 36.227921 2.974196
16.642063 36.581009 2.3547258
15.184928 40.398148 1.7424732
14.868134 40.905857 2.9324207
14.659775 41.697708 2.3664212
15.589313 39.688896 2.6939428
17.051603 35.69894 2.5373042
17.281946 34.89175 2.2572675
14.939112 40.985275 2.6595769
16.954288 35.82333 1.798906
16.211082 37.794094 1.8020184
14.48771 42.287975 1.978832
16.23547 37.675056 2.3841298
14.934597 41.680775 2.3494377
16.598799 37.201107 2.3538613
15.904872 38.847008 2.541815
16.427557 36.940773 1.6760981
15.728668 39.100998 1.8525026
16.253326 37.59922 2.3588364
15.201459 40.106152 2.7633178
16.079155 38.062515 2.7461398
15.672838 39.093822 2.3615568
15.337204 39.706028 1.8083695
17.28343 34.695778 1.9847839
16.457541 37.578026 1.977272
16.893452 35.980568 1.9674838
14.955178 40.992702 2.2714171
15.754258 38.994465 2.7656567
16.600611 37.210159 2.552289
15.493271 39.500256 2.3712578
15.887887 38.88274 1.46055
15.73251 39.074181 2.0526948
16.68697 37.01371 1.7560582
15.998783 38.694405 2.0556552
16.665398 36.302853 2.7580726
16.15757 37.999397 1.76203
14.922329 41.681557 1.9832604
15.688612 39.096184 2.1724112
16.109137 38.50613 2.553123
16.293913 37.494095 2.1718109
14.978367 40.8046 2.4557123
14.916287 40.781883 2.9376483
17.026217 36.181557 2.4774523
14.998648 41.172298 1.6745163
16.648123 36.835709 1.4591689
16.105501 38.405258 2.0618472
16.244068 37.397461 2.853601
14.784974 41.228504 1.9319975
15.237449 40.28096 2.4600642
15.277161 40.291958 1.765994
16.741543 36.882412 2.6651413
15.374471 39.824558 2.9780588
16.21068 37.400272 1.7957364
16.562305 36.649643 3.0431232
15.846631 38.78669 2.2563415
15.197203 40.020943 3.0570676
16.259405 37.400391 1.9621842
16.229807 38.396816 1.8576269
14.430875 42.384781 2.3673515
15.485563 39.396591 1.7165647
14.79071 41.223732 1.8758986
16.293459 37.506245 1.9611298
16.766867 36.796082 2.2607696
16.681194 36.99855 2.2672143
15.564875 39.991436 2.5552485
17.205673 34.831993 2.5410924
16.250549 37.684498 2.438354
15.305933 39.793072 2.7821491
16.162685 38.391788 2.4591694
14.599788 42.005718 1.786079
15.783515 38.600933 2.6650751
15.40701 40.294434 2.6614485
15.40102 39.796227 2.1734438
16.269287 37.599396 2.162473
16.869896 35.990623 2.3668814
16.083454 38.101185 2.8481898
17.167233 34.986992 2.7749422
16.873558 35.794189 2.652344
17.206203 34.890682 2.4207056
16.307995 37.82938 2.4969521
15.475108 39.49522 2.6633809
17.287661 34.701134 2.4519475
14.74104 42.191841 2.2745473
14.703026 42.093071 1.6699626
15.840425 38.421154 1.0417751
16.220104 38.527721 1.6704776
16.776169 36.158646 3.0756896
17.237808 34.711475 3.0183451
15.414996 39.51442 2.460562
15.670611 38.899212 1.8955663
16.176077 37.667255 2.8934135
14.889423 41.098122 2.2734959
16.096991 38.507359 1.9856324
16.376425 37.695984 1.959327
16.048847 38.782848 2.2556589
17.285959 34.895901 2.340235
15.369214 40.59523 1.7592846
17.108583 35.43116 1.8049265
15.176972 40.063168 2.8856611
14.759848 41.683887 2.4792914
14.904646 41.127014 2.0353687
14.46069 42.399544 1.7618606
14.542331 42.078838 2.6366045
15.693242 38.82394 1.9819349
14.996183 40.979496 1.9705944
15.910345 38.325714 2.2399464
17.557425 34.804401 2.6578519
15.072714 41.023487 1.4822099
17.492958 34.823689 2.558713
15.264474 39.895443 2.8371954
17.421106 34.65765 2.1833937
15.05192 41.293705 2.2579627
15.115814 40.968201 1.6652272
16.880259 35.805744 1.8600054
16.08811 38.494431 2.0607681
14.757846 41.595963 2.7361128
16.233686 37.596497 2.7501097
17.289658 35.19215 2.6291802
14.891378 41.706844 2.3635526
17.502234 34.823864 2.4521244
14.890856 41.840965 1.6187249
14.933656 41.658493 1.6643124
14.639011 42.372799 1.8563946
16.960831 35.791916 2.1587882
14.710481 42.116413 1.9660563
14.806934 41.209927 2.4651067
15.495349 39.600311 1.9616975
15.318833 39.686794 2.9942625
14.401432 42.409817 2.0398633
15.056891 40.888546 1.7461443
15.676292 38.9165 1.9596348
14.386398 42.333961 1.9896035
14.89858 41.012997 2.0242994
14.842371 41.949924 2.0664282
16.186405 38.085503 2.2486539
16.398613 37.712498 2.360353
15.359405 39.689854 2.840344
15.498409 39.8815 1.6689829
14.968251 41.490196 2.2604928
14.464661 42.195465 2.45928
14.803961 42.185555 1.7416829
17.162546 35.477806 2.0532541
14.768499 41.393295 2.655365
15.003455 41.191071 1.7493904
17.529051 35.037994 1.7352695
16.284418 38.301266 1.767292
15.712613 38.727543 2.6691198
14.738383 42.190475 2.4687521
16.704414 36.284122 1.9880264
14.761063 41.990479 2.0647438
15.671522 38.883068 2.8751345
14.872346 41.688183 2.0733759
14.75877 42.299438 1.7512646
15.395248 39.714996 2.172195
17.208065 35.519428 2.1314602
15.008688 40.583752 2.6620889
14.873838 41.07946 2.7568495
17.435293 35.37751 2.8611739
14.4738 42.196865 2.6451905
16.793106 36.20369 1.9544382
16.001184 37.822701 3.1151121
16.569086 36.606136 1.8643581
16.59186 36.722885 1.8654487
17.049908 36.173485 2.6467617
17.071634 35.499031 1.9664716
15.905206 38.909058 2.239495
14.938031 41.215492 1.6027749
14.942896 40.984634 2.5618536
15.171187 41.192204 1.740016
15.992196 38.110844 2.2473836
17.175482 35.502857 2.5611539
15.455282 40.198868 2.36027
15.853307 39.191536 2.3689072
15.603269 38.931049 2.9278672
15.652438 39.383915 2.0596387
17.071722 35.659313 1.5697873
14.870389 40.991592 1.9657872
15.151254 40.991161 1.9761981
14.46808 42.191631 2.55302
17.094543 35.118958 2.6948183
16.193548 38.297543 2.5495846
16.178417 38.298756 2.2521482
14.725378 42.289192 2.5815642
15.536281 39.477928 2.4762568
17.119308 35.099602 2.1792648
17.119663 35.088711 2.0317914
14.892933 40.897621 2.745913
17.217451 35.536789 2.0051887
16.901796 36.335682 2.4609354
14.750493 42.183979 2.023129
15.166395 40.996704 1.8631973
16.168531 38.255157 1.3751261
17.187393 35.511967 2.3539779
15.538559 39.592319 1.8770411
17.259037 35.672375 2.6684153
17.188572 35.484749 2.4788728
16.988537 36.1973 2.457932
16.900238 36.406857 2.365227
15.86301 38.939194 1.6682332
16.132153 37.983147 2.2453361
16.438662 36.905045 2.7695136
14.954869 40.691425 2.9446762
16.194597 37.54475 2.103718
14.729996 42.162655 2.1730855
17.265486 34.897198 2.4588015
14.943167 40.984352 2.4568648
14.907661 40.922722 1.8703748
15.047542 40.701099 2.7587733
15.034107 40.742912 2.8462815
15.127621 40.648125 2.745872
14.638051 41.867355 2.6740787
17.05431 35.668648 2.472224
16.654432 36.599419 2.8353839
16.239031 38.187294 2.4597569
14.985254 41.205585 2.3706517
15.309632 39.88916 2.2012901
16.038246 38.197453 2.6370032
15.736675 38.987106 2.4730015
15.348213 40.494263 1.9722319
16.991144 35.389462 2.464473
15.51547 39.24242 2.7446632
15.452677 39.502331 2.7486672
17.180948 35.69381 2.557188
15.170549 40.755569 2.7591398
15.042281 40.909718 1.685344
15.33831 40.078903 2.1613517
16.436293 36.938984 3.0231211
15.886968 38.244492 1.9100246
15.696739 39.400894 2.552897
17.430719 35.085613 2.249115
14.808726 41.194168 2.3025563
14.589844 42.505226 2.4739223
16.966202 35.503662 1.9746922
14.859272 41.207233 1.859762
14.732222 41.68647 2.3654528
16.698727 36.274216 2.0554364
14.494202 42.315235 1.8767006
15.997719 38.570473 1.3906484
15.94388 38.511047 1.4704626
15.491919 40.401093 1.7756193
16.732845 36.978348 2.4654031
15.799432 38.808403 2.1620665
15.962077 38.293728 2.4635885
14.650404 42.3857 2.373033
14.903893 41.70129 2.5697076
16.447515 37.086475 2.3683085
14.889158 41.233437 1.7962953
14.680836 41.805908 1.8650928
16.680088 37.001839 2.0689263
16.74968 36.802135 2.0551417
15.003557 41.308968 2.0696497
17.055859 35.394611 2.5535653
14.712086 42.139782 2.585933
17.076939 36.002785 2.6643589
14.435012 42.449127 2.4408202
16.638859 36.59367 2.4489987
16.471588 37.098854 1.9544339
16.808132 36.622543 2.5739083
16.633839 37.179176 2.5575421
16.435825 37.040257 2.8487933
16.725155 36.557114 2.8488426
16.80031 36.004627 2.4662459
15.773745 39.639557 2.0135272
15.545384 39.563026 2.2792299
16.169315 37.9552 2.6461651
15.150974 40.393192 2.3739557
16.356602 37.210205 2.9691606
15.143293 40.887581 1.7686046
14.855637 41.705761 1.7960869
16.733313 37.174416 2.5992312
16.911465 36.301563 2.0593035
15.989191 38.10041 2.6569307
14.438603 42.467667 1.9406381
14.834671 41.991146 2.2762985
16.496029 37.411453 2.1723359
17.238079 35.662304 2.250865
14.576241 41.89946 2.3608704
14.761249 42.000366 2.1607194
15.921765 38.756504 1.3469753
14.945529 41.083771 2.2591009
15.487221 40.005226 2.4582179
14.733367 41.68856 2.5478456
16.700329 36.407818 2.1640086
16.737398 36.970402 2.3580022
15.395401 39.636578 3.0413492
16.506149 37.407959 2.4665082
14.768478 41.39286 2.5579662
17.281353 35.193291 2.4247255
14.843908 41.398014 2.4715712
16.774403 36.264519 3.1620517
16.479782 36.890656 2.6497104
15.962309 38.815536 1.4516567
14.859014 41.293804 2.151674
16.473982 36.902596 2.5493333
17.047476 35.685856 2.2550111
16.049961 37.72142 3.1026609
16.104612 37.70985 2.6684177
16.999926 36.118813 2.1593306
14.65717 41.885586 2.3680596
15.247478 40.790646 2.3609483
14.909515 40.832947 1.8854499
14.547008 42.263737 1.8066558
16.12849 37.986294 2.5326769
15.790922 39.307106 2.3619735
17.265184 34.707039 2.8478632
16.10449 37.731663 2.5629323
14.874382 41.697517 1.8632685
14.47353 42.195393 2.2679291
17.149719 35.29163 2.4543507
16.347916 38.100109 1.7769229
15.709721 38.638134 3.077574
15.804413 38.823231 2.0552454
15.107542 40.427383 2.3645501
15.135518 40.583118 2.3548973
16.787878 35.985783 1.8923028
15.811877 39.214836 1.8441535
16.894436 35.697853 2.5380504
15.061832 41.291904 1.3165877
17.459749 34.718632 1.9913576
15.866954 38.76889 1.2853242
14.878597 40.990173 1.8592769
14.830681 41.99131 2.6404409
14.64307 42.378555 2.0549278
15.683587 38.994789 2.463779
16.11717 37.844547 2.1969316
15.47395 39.390587 2.7620435
16.139645 37.977451 2.0697987
15.790947 39.303703 2.2596228
15.545483 39.583496 2.0731573
15.096068 41.020702 2.2571554
15.503407 39.457302 1.8734987
16.064964 38.594208 2.2581811
16.990839 35.71381 1.8706048
17.060591 36.178482 2.1385615
17.438505 34.571209 1.9748027
16.46236 37.09388 2.2550855
17.242825 35.084656 2.2670443
14.681651 42.197609 2.0576413
16.977467 36.204453 2.0627897
15.051152 40.680958 2.6625655
17.250141 34.982182 2.4610267
16.750772 36.489765 2.2536933
16.621172 37.344212 2.2132857
15.038562 40.780724 2.5485742
15.344187 40.809456 1.7833343
16.193371 38.28199 1.7514404
16.476812 36.780029 2.9500122
15.620641 39.257225 2.6346948
14.54219 42.094131 2.2720206
14.901953 41.69986 2.4565458
16.961672 35.884636 2.4518845
17.339048 35.673893 2.9475937
16.087543 38.11063 1.9600983
15.06389 41.298656 2.5587697
16.550213 36.685253 2.7476783
14.863321 41.484791 2.0569408
14.594312 42.30695 2.1731598
14.776234 41.399273 2.3629866
16.464716 36.998302 2.4558077
14.981744 40.700397 2.7527518
15.774965 39.298702 1.9790924
15.806496 39.21487 2.2492166
16.6611 36.494816 2.4636054
15.102527 40.417255 2.4508133
17.078747 35.101139 3.1892345
15.697601 39.600273 2.566448
15.770346 38.692097 1.9579397
16.985638 36.192051 1.8918488
17.502184 34.805458 2.1771107
16.089779 38.417698 2.3560603
16.84919 36.587273 1.9707316
16.674959 36.791836 2.1741707
14.430341 42.386597 2.4587934
17.041491 35.200085 3.1979625
16.91276 36.407066 1.7579498
15.103291 41.015991 2.3542457
16.540598 37.01825 2.762938
16.14357 37.979893 2.1555061
15.397185 40.307983 2.4539273
16.254745 37.307373 1.8848568
14.545619 42.289177 2.6531529
15.868789 38.496399 2.5568573
16.197052 38.106823 2.3787944
14.382404 42.396954 2.3551335
15.721526 38.685078 1.7996584
16.57309 37.297501 2.3566895
17.486345 35.123238 2.7472525
14.748461 41.485405 2.5539789
15.980791 38.200249 2.5651524
14.874856 41.096813 2.5630083
15.352539 40.493225 1.7786561
16.577158 37.292797 2.6406529
14.847285 41.363655 2.7588391
15.567558 39.207626 2.7557974
16.870815 35.698051 2.8774085
15.839239 38.327568 3.0489216
16.577261 37.295372 2.4646406
14.416725 42.143112 2.8373764
16.92684 36.012505 2.7786782
15.772044 38.685619 2.7440078
16.570967 37.288197 2.1556451
16.589176 36.519188 2.1862636
16.36977 37.707352 1.8997557
14.512682 41.860069 2.8877339
16.744122 36.652866 1.461193
15.136849 41.33765 1.7072381
14.858381 41.477364 2.2454336
17.26417 34.996399 2.1551471
16.968046 35.671795 2.7550313
16.491045 36.901386 2.3484604
14.700938 42.204918 2.5575204
17.032248 35.20163 3.0264149
16.782082 36.693954 1.6519536
16.407909 36.937908 1.9707803
16.676956 37.001884 1.9578241
16.77084 36.79097 1.96153
16.702549 36.913906 2.4495356
14.58365 41.909561 2.1483917
15.78383 38.897751 1.8537139
17.567541 34.702084 2.4451382
15.396135 40.531944 1.216393
15.008702 40.638004 1.9976491
16.33832 38.18782 1.7743597
15.9093 38.175297 2.9221973
14.86013 41.189823 2.460228
16.47006 36.904205 1.9605365
14.445715 42.382069 2.5561669
14.688769 42.145653 1.4799869
15.763973 38.884506 2.3634679
15.337975 40.089481 1.964414
14.677449 42.184216 1.9673264
16.435875 36.905552 2.8358107
16.04298 37.894947 2.9742489
15.053679 40.490467 2.9811656
15.83756 38.770187 2.3727956
14.975875 41.399193 2.1647243
15.848338 38.566036 2.9760787
15.757781 38.707253 1.8823986
16.49227 36.920284 2.1594398
16.866095 36.58625 1.3009882
15.064303 40.501568 2.7509837
16.667965 36.484543 2.8311834
17.186626 35.693531 2.270879
14.944192 40.978043 2.7714381
15.899561 38.296906 2.1754014
14.838498 42.140308 1.739801
17.240812 35.57341 2.1681564
14.5486 42.194778 2.1574466
15.285509 40.600609 2.1671772
14.744164 41.684208 1.9567583
16.658419 36.594753 2.644803
15.17722 40.294674 1.9597499
15.555154 39.383133 2.6555536
17.079161 35.491039 2.2596977
14.73875 41.594574 2.2587173
14.649288 41.68478 1.8269005
15.748251 38.89283 2.4497237
15.164351 40.053928 3.0587766
16.670464 36.78717 1.6653869
15.100459 40.401215 1.8756694
16.987738 35.70179 2.1571212
16.99732 35.704895 1.9624654
16.292883 37.302429 2.2667954
15.237185 40.966061 1.681952
16.597294 37.300457 1.6158898
14.619968 41.498077 1.8208743
17.098373 35.889618 2.0785041
15.138229 40.499626 2.6737742
15.893881 38.595795 1.8658
17.056452 35.488827 2.4673824
15.751377 38.890953 2.5575647
16.265747 37.298443 2.8756747
15.876053 38.381363 1.9772923
16.421757 37.124325 2.7323384
16.96756 36.016884 2.2527976
16.972801 35.997414 2.5393186
15.51028 39.296497 2.6550102
16.689203 37.112625 1.8947865
16.801764 36.704044 1.8736495
14.503067 42.193146 1.7067528
15.887533 39.297012 1.7625884
17.241531 35.582592 2.4531231
15.855221 39.061676 1.6367245
16.791929 36.702442 2.3528836
16.656412 37.090668 2.3572001
16.457478 37.294601 2.0558226
16.444958 37.591125 2.0646863
16.898796 36.404804 2.0675905
14.515635 41.844723 2.6431684
16.489344 37.404675 2.2675493
17.059839 35.382801 2.6486852
17.237221 35.703445 2.447295
16.565002 37.291302 2.2626858
14.408839 42.510395 1.9607534
15.177062 40.439983 1.0759571
14.506514 41.996964 2.3692591
16.949619 35.969234 2.4861603
14.891655 41.61858 2.3629539
16.979599 36.205593 2.1663687
17.234434 35.088242 2.3363788
15.866216 38.594337 2.3652625
15.101595 40.423729 2.5677516
16.433475 36.759155 3.0239601
14.594887 41.799721 2.2092669
16.645266 36.795704 2.0743177
14.941097 41.075573 2.4673777
16.553751 37.301823 2.0667048
15.324584 40.060566 2.4946442
15.984416 38.202473 2.2601051
15.277118 40.201557 2.056299
14.637035 41.998615 2.3352122
14.620258 42.466297 1.9695156
15.720743 39.560608 1.998348
15.552967 39.491196 2.6489792
15.36115 39.889664 2.4636488
16.977211 36.178146 1.9589911
16.712856 36.831081 1.331759
15.251511 40.191788 2.461555
16.660965 36.714973 2.5418849
17.073853 35.298061 2.0691075
15.89786 38.311665 2.4679129
17.528084 34.986366 2.4796238
16.348686 37.488972 2.2659864
14.838247 41.386391 2.2596848
16.471239 36.910534 1.8726616
14.66721 41.595486 1.8515099
14.50531 42.012722 2.4577765
14.747703 41.690041 2.1531868
16.579306 37.018684 2.3393712
16.712606 36.475525 3.0756006
15.754467 38.984856 1.8834431
17.068739 35.67622 2.155148
15.775064 39.002823 1.7740873
14.528527 42.199356 2.5144391
14.461308 42.476803 2.1464484
15.449747 39.79842 2.0595877
15.369674 39.892597 2.2644429
15.852427 39.08065 1.4533296
15.325407 40.653 2.2545795
16.794016 36.695576 2.0644617
16.657104 37.087875 2.078285
14.489463 42.0937 2.7523642
16.730038 36.380814 2.4338565
15.876552 39.095123 2.2696266
16.542013 36.889194 2.1528106
15.58819 39.794399 2.1642091
15.461567 39.43679 2.8927286
14.445554 42.283394 2.4696977
15.662376 39.688885 2.6522689
15.501832 39.522675 2.1591883
16.192987 38.201199 2.1735353
15.803679 38.474262 2.8643782
15.16783 40.592365 1.7577795
17.28384 34.797958 1.9710443
