# .PCD v0.7 - Point Cloud Data file format
VERSION 0.7
FIELDS x y z
SIZE 4 4 4
TYPE F F F
COUNT 1 1 1
WIDTH 653
HEIGHT 1
VIEWPOINT 0 0 0 1 0 0 0
POINTS 653
DATA ascii
-8.0772648 21.717157 -0.08184538
-9.1240177 21.186281 -1.3029217
-9.2366762 21.244362 -1.2439867
-7.8115406 21.857031 -0.038006205
-9.1894522 21.290108 -1.4188697
-8.4606028 21.594894 -1.8168902
-8.0867338 21.638142 -1.3536499
-8.7255955 21.415483 -1.7691008
-8.0586386 21.763897 -1.2184862
-8.942524 21.393715 -1.6006171
-8.0226936 21.776289 -0.12064373
-8.0071392 21.76585 -1.0088184
-8.3476009 21.538702 -1.3402072
-8.2345734 21.581821 -1.1578879
-8.4286051 21.532169 -1.8221563
-8.8193645 21.472855 -1.3083863
-9.0944986 21.289454 -1.3209742
-8.2632618 21.601461 -1.2026278
-8.3349905 21.595013 -1.1294715
-7.7183466 21.8391 -0.56086087
-7.7539392 21.836412 -0.35436049
-8.9504108 21.281858 -0.84039539
-9.1140985 21.122288 -1.0710135
-8.93855 21.39123 -0.74466753
-7.6085148 21.891497 -1.5332696
-8.8752127 21.24029 -0.064439923
-8.9465294 21.227781 -0.84090948
-8.9874945 21.370886 -0.30401301
-8.8472033 21.385782 0.15408513
-8.4077511 21.516533 -1.3294907
-8.4540262 21.52957 0.015506983
-8.7626572 21.399086 -0.53357768
-8.4585085 21.540348 -1.4016145
-8.2166128 21.604145 -0.04974442
-8.433794 21.518709 -0.071236581
-8.2503481 21.615931 -0.91223085
-9.0883255 21.129084 -1.3119847
-8.2033176 21.737188 0.15220377
-8.7152739 21.41115 -0.64404202
-8.7176065 21.578739 -0.4461087
-8.5770941 21.423998 -0.99841243
-7.8765941 21.739508 -0.76559544
-8.8046827 21.40555 -0.5903675
-8.9046612 21.352814 -0.50747633
-7.9803758 21.750069 -0.70525718
-8.9540434 21.283501 -1.6457788
-8.0205832 21.728674 -0.27171093
-8.8081484 21.394623 0.83758926
-8.8265314 21.381739 -0.22874694
-8.3684101 21.631359 0.1728695
-8.8413553 21.382875 0.061809491
-8.4166336 21.493778 0.12817802
-8.9490204 21.36714 -0.44927371
-8.0548811 21.777191 -0.083841696
-8.4213638 21.582268 -0.045478545
-8.9395485 21.376026 -1.2663236
-8.9438114 21.350506 -1.5595118
-8.9552498 21.302887 -1.7315139
-7.87182 21.723347 -1.2189497
-7.6852803 21.963167 -0.27703941
-8.9269152 21.374369 -0.6337865
-8.2390308 21.621174 -1.023078
-8.3110666 21.654305 0.87419915
-8.9402094 21.368158 -1.1314734
-8.9640942 21.235798 -1.4416323
-8.2472134 21.659233 -0.14434156
-7.9709392 21.754217 -1.1248659
-8.4404278 21.603302 -0.14766756
-7.9228258 21.770863 -0.65100604
-8.0221081 21.764812 -0.23601015
-8.4850063 21.445509 -0.28022423
-9.1405525 21.184105 -1.1702535
-8.6429176 21.424978 -0.91953593
-8.4688644 21.5308 -0.15194793
-7.4314542 21.863226 -1.5491027
-8.3258944 21.56991 -1.4065008
-8.9427261 21.285864 -1.8294772
-8.4652052 21.534746 0.64118075
-8.3744297 21.595856 0.70683122
-8.3632975 21.598688 -0.087206192
-8.4240294 21.552177 0.21007401
-7.3160686 21.917027 -1.6452829
-7.2725773 21.897633 -1.336149
-8.9496374 21.285929 -0.64012736
-7.6188841 21.875177 -1.6452925
-7.3525543 21.929983 -0.93882775
-8.9363155 21.382854 -0.94178015
-7.5812807 21.968067 -1.0728655
-7.6026039 21.955704 -0.94297993
-7.3357778 21.928261 -1.3373085
-8.313859 21.543295 -1.0667644
-7.2443237 21.832249 -0.12038133
-8.0428705 21.782856 0.77003092
-8.7523222 21.426819 0.87179035
-8.2945309 21.722008 -0.59112042
-8.3552227 21.598042 -1.3209577
-8.9955931 21.294109 -1.5424268
-8.6444492 21.46773 -1.1507224
-7.9576321 21.730612 -0.65363574
-8.2317896 21.620951 -0.8381322
-8.4767523 21.423754 -0.48396617
-9.020443 21.20542 -1.635348
-9.0232048 21.224642 -0.5458805
-8.3504419 21.49264 -1.4513195
-8.0118132 21.758528 -0.33769062
-8.0104771 21.769255 0.65546465
-8.4213638 21.571045 -0.24310477
-8.3373108 21.593002 -0.13153523
-8.5201035 21.517656 -1.2652127
-8.3510733 21.589535 -0.25849351
-8.2335453 21.681984 -1.4404895
-7.9040942 21.805706 -0.15014267
-8.6533031 21.429785 -0.35826617
-7.4058371 21.974987 -0.93898708
-8.0095425 21.778156 0.87289816
-8.7072859 21.31922 -0.18253715
-8.8622112 21.357904 -1.3316951
-7.9110732 21.775635 -0.5498938
-8.8093719 21.44899 0.55951166
-7.5109215 21.96258 -0.031900719
-8.299202 21.658379 -0.71214843
-8.4569368 21.528376 -0.25123501
-8.4889622 21.555321 0.93958253
-8.8068933 21.328362 -0.6733731
-9.0374784 21.281046 -1.234282
-9.0236158 21.288559 -0.44026592
-8.62008 21.474329 -0.23497738
-7.7447419 21.82851 -0.84063798
-8.5046835 21.53706 0.84956074
-8.4971037 21.582674 0.77660185
-9.0329523 21.286325 -1.0352422
-8.8663855 21.215666 -0.6006664
-7.8085508 21.873819 0.75651246
-8.5050907 21.568825 0.53696382
-8.6913614 21.49819 -1.1110864
-8.9351997 21.191391 -0.064495742
-8.7312546 21.444431 0.50112796
-8.9599113 21.351168 0.36583486
-8.7260199 21.408754 0.77653968
-8.8715925 21.351402 -0.47695869
-8.0321207 21.710611 -0.63097048
-8.4111223 21.566832 -0.33672327
-7.4025989 21.968872 -0.84255147
-8.9383612 21.233463 -1.0085673
-8.7375927 21.416418 -0.93326241
-8.958725 21.228039 -1.7424937
-7.915123 21.788719 -0.23518328
-8.948349 21.22794 -0.43740955
-8.5847492 21.499893 -0.50167304
-8.9285574 21.212484 -1.9500462
-8.6096601 21.469845 -0.42540309
-8.4419756 21.524948 -0.45833385
-7.8639083 21.736195 -0.93538594
-7.9192028 21.72823 -0.97002882
-9.0267391 21.284874 -0.7393797
-7.9681153 21.788174 1.0220857
-8.631423 21.431858 -0.4110412
-8.6267223 21.471874 -0.14534757
-7.6595659 21.835146 -0.39533585
-8.5997744 21.598103 -1.0590743
-7.3922253 21.843357 -1.5446247
-8.6413155 21.482626 0.74655187
-9.0293036 21.281664 -0.64140135
-8.4392624 21.57287 0.86926156
-9.0181694 21.282831 -0.33827874
-8.2424316 21.620838 -0.33621654
-8.6690416 21.426302 -0.12758528
-8.6382523 21.471012 -0.058560181
-8.122324 21.632408 -0.10936242
-7.9347277 21.853346 0.67322892
-8.6592007 21.443512 -1.1520419
-8.7031879 21.487179 0.17747027
-7.7370553 21.893591 0.55737799
-8.0130501 21.776123 -0.55761582
-8.6304693 21.475567 -0.34479454
-8.6322012 21.49017 -0.93168765
-8.2149601 21.660326 -0.63975334
-8.0313692 21.707495 -0.73221093
-7.5213771 21.975676 -0.94285285
-7.9536872 21.72156 -0.73076487
-7.4132433 21.972252 -0.1381325
-8.4354591 21.570517 -0.72408807
-8.9247389 21.368778 -0.22726814
-8.7997627 21.506851 -0.12996723
-8.9449081 21.281725 -0.73763573
-7.9057393 21.831373 0.46516538
-8.7049875 21.464035 -0.14531228
-7.403779 21.971777 -0.23074396
-8.3049936 21.515873 -0.77469379
-7.6506128 21.970032 -0.35865712
-8.6360159 21.495136 -1.0254325
-8.9502668 21.286789 -1.0339149
-8.9548941 21.197937 -0.505885
-9.0189047 21.281786 -0.13836598
-7.8399482 21.795622 -0.53440917
-8.523881 21.494905 -0.43838558
-8.9193583 21.378691 -0.83869863
-8.9157591 21.361242 -0.13393979
-8.6335392 21.516434 -1.3437703
-7.407856 21.928493 -1.0488651
-7.9177794 21.778248 -0.45036972
-8.3410559 21.581469 -0.92716777
-8.5168219 21.547106 0.21932985
-8.954793 21.301403 -0.14188327
-8.6358223 21.506002 -0.65986151
-7.73384 21.906754 0.66844481
-8.112483 21.751204 -0.61652559
-7.6638012 21.826323 -1.0905576
-8.9589834 21.236015 -1.2190319
-9.0295353 21.2932 -1.4339356
-8.8221006 21.427069 -1.5875425
-8.7354183 21.382004 -1.6661317
-8.8438683 21.352489 -1.4776661
-7.9736047 21.935766 -1.31716
-7.8102665 21.850372 -0.34883481
-9.0336227 21.286959 -1.1390977
-7.4049931 21.981289 -0.039446428
-8.6409178 21.470961 -1.2365128
-8.0368824 21.717941 -0.54886556
-8.046916 21.724224 -0.34572524
-7.4032388 21.918816 -1.4314148
-8.3268404 21.597649 -0.63058776
-7.9049215 21.718704 -1.4398416
-8.0354738 21.698154 -0.8385275
-8.572752 21.424229 -0.44363534
-7.8528357 21.796108 -0.66183889
-8.2345581 21.617754 -0.6428299
-8.8090563 21.403257 0.22909166
-8.3386154 21.599529 -0.83351988
-8.1855268 21.767517 0.71457142
-8.720643 21.480295 -1.0413164
-8.4219208 21.570597 0.49995485
-8.3369236 21.592545 -0.53765959
-8.805006 21.48967 -0.71112943
-8.2418957 21.617357 -0.44549131
-8.5676346 21.431965 -0.17355971
-7.4416852 21.928478 -1.7307307
-8.7128363 21.426004 0.33060387
-8.5121269 21.523394 0.77018571
-8.0198717 21.798473 0.56981111
-8.527916 21.555693 -0.21946286
-7.6786618 21.824875 -0.92801178
-8.226469 21.621204 -1.454778
-8.5411701 21.503107 -0.049004972
-8.8111439 21.466148 -1.1400766
-8.5497208 21.52832 0.05046076
-8.6599503 21.433132 0.25182903
-8.5160389 21.568291 -0.84683084
-8.2283773 21.613556 -0.72426206
-9.0961905 21.28809 -1.1122911
-8.2434797 21.515633 -0.5295952
-8.8270588 21.334799 -0.33314896
-7.7314568 21.916494 0.74668866
-7.5455718 21.908577 -0.76181066
-8.2337971 21.687653 0.49581638
-8.4482231 21.529165 -0.95818579
-8.8326797 21.387489 -0.15121923
-7.9345417 21.734921 -0.81022894
-8.0020952 21.761189 0.50364238
-8.6379662 21.479378 0.85379314
-8.8653841 21.299568 -1.1600029
-7.9584236 21.847624 -1.4074285
-8.5277252 21.559238 -0.65151739
-7.823328 21.794704 -1.066426
-8.7082644 21.486609 -0.9457069
-8.7340479 21.422466 -0.040190332
-7.3846579 21.845356 -1.2681862
-8.7222729 21.421612 -1.0289551
-8.4251614 21.578718 -0.83397293
-7.8070149 21.835667 0.71806526
-8.326932 21.594286 -0.44033366
-7.5157628 21.952551 -0.24627623
-7.546144 21.91902 -0.041967139
-8.1166687 21.67271 -0.74149072
-8.6528244 21.431213 -0.2382573
-7.6401525 21.854515 -1.3830559
-8.1374311 21.710667 0.73092365
-8.7303619 21.419497 -0.13122742
-8.1105499 21.676624 -0.83842945
-8.5094128 21.548885 0.022391794
-8.925889 21.368698 0.064596578
-8.518384 21.563601 -0.72329235
-8.0418949 21.717754 -0.4448472
-7.9947138 21.76265 -0.64713126
-9.203577 21.21694 -1.3956567
-7.8239045 21.815044 -0.33009267
-8.1693859 21.63748 -0.84238446
-8.415988 21.585844 0.77810848
-8.1337719 21.688505 -0.44011045
-7.8483896 21.727551 -1.0022402
-8.5271893 21.524895 0.5397867
-7.2683825 21.863134 -0.8179878
-8.1482754 21.615437 -0.73880845
-8.7306042 21.436642 -0.72685367
-8.2340212 21.61915 -0.54263783
-8.5328922 21.502277 -0.24452634
-7.4107037 21.973751 -1.1412004
-8.5189295 21.491619 -1.0502414
-7.343358 21.927946 -0.24241555
-7.834136 21.889786 0.57316059
-8.4261999 21.561495 -0.92838645
-8.4842529 21.553839 -0.9917866
-8.0061827 21.755486 -0.45350832
-8.5150776 21.546688 0.83747554
-8.2595711 21.585093 -1.5440043
-7.4019685 21.966883 -0.34830624
-8.5431833 21.590725 -1.0898393
-7.5371537 21.929947 0.041479714
-8.8341389 21.339252 0.047719136
-7.7781897 21.82016 -1.0140548
-8.1623306 21.636412 -0.64022642
-7.9101381 21.773508 -0.82228094
-7.8636446 21.818897 0.67336237
-9.0369625 21.204935 -1.43799
-8.7498226 21.394859 0.26688245
-7.6224561 21.905045 -0.62617916
-7.9617667 21.741156 -0.48553377
-7.5091448 21.940308 -1.2431335
-7.6198311 21.906528 -0.037669264
-8.5137196 21.545614 -0.16930862
-7.8207402 21.799623 -0.82378799
-8.4221325 21.578777 -0.44155321
-7.3468819 21.930246 -0.13749598
-7.8394113 21.796839 -0.74661398
-7.6534634 21.86014 -0.43592203
-8.427268 21.585232 0.66190147
-8.5512266 21.617695 0.48589349
-8.092514 21.829679 -1.2107466
-7.5212231 21.93268 -1.1099304
-7.9685454 21.735666 -0.27707055
-8.5443316 21.521399 -0.73542351
-8.1490498 21.628126 -0.55724829
-8.4748745 21.651169 -0.80423623
-8.1235886 21.775669 0.6546303
-7.3443313 21.922626 -0.83686197
-7.7168188 21.873184 -0.053155918
-8.1267977 21.678516 -0.63566864
-8.7159405 21.462311 -0.034864772
-7.9112701 21.774734 -0.72502166
-8.6203995 21.485018 0.076647915
-7.5035367 21.935339 -0.68464458
-8.8251114 21.397482 -1.6729074
-7.8451033 21.756783 -1.5303093
-8.516758 21.580713 -0.31745264
-7.5316763 21.924658 -0.14889176
-7.6217847 21.896713 -0.14203206
-8.1628075 21.642681 -0.47350347
-8.5574398 21.534117 0.17479555
-8.4984932 21.563681 -0.43569306
-8.3666553 21.500753 -0.23864523
-8.9573488 21.295521 -0.33304819
-7.7676625 21.826286 -0.05117036
-7.3459644 21.974846 -0.93328488
-8.8286686 21.321077 -0.26647884
-8.5415487 21.496508 -0.15190025
-7.8572254 21.938017 -1.3088007
-8.6113663 21.566334 -0.85737711
-7.6276932 21.87925 -0.32955182
-7.9783092 21.745377 -1.1850938
-7.8099508 21.86577 -0.86286813
-8.8668118 21.338486 -1.0373225
-8.540309 21.527008 -1.6621944
-8.3122902 21.580963 -1.5534289
-7.8115954 21.805311 -0.92046314
-8.9316292 21.361792 0.46437651
-8.4473343 21.514311 -0.86822098
-7.731637 21.866503 -0.36184466
-8.0096121 21.796824 0.076781705
-8.065052 21.720348 0.52942502
-8.2050066 21.668331 -0.54101348
-8.1264696 21.684381 -0.53892303
-8.3493605 21.530663 -0.55988735
-8.2156429 21.665998 -0.70554233
-8.5039616 21.485228 -1.4985048
-8.7216616 21.437359 0.67954665
-7.94348 21.729401 -0.55449432
-7.8259859 21.807882 -0.43421412
-7.6212568 21.903116 0.03550975
-8.3409538 21.589293 -0.34589207
-7.6400933 21.884367 -0.85501564
-7.7104392 21.852852 -0.41072375
-8.1269045 21.748878 0.7209872
-8.8488998 21.312334 -0.1186564
-7.8220592 21.823389 -0.14814857
-8.8212671 21.475164 -0.3459667
-7.486865 21.971949 -0.3656882
-8.289834 21.683033 0.58668393
-7.6367016 21.910975 -0.72801018
-8.7502079 21.416306 0.051050853
-8.7330389 21.418261 -0.24214138
-8.3608675 21.613667 0.84936917
-7.4033751 21.921568 -1.3398967
-8.9524231 21.228058 -1.3228198
-8.4509764 21.52776 -0.32767996
-9.0745535 21.116993 -1.2004285
-7.5204878 21.962677 0.06459067
-8.6337032 21.48741 0.49743897
-8.5308361 21.527927 -0.64886725
-7.9286518 21.798885 0.77861041
-8.4486523 21.567871 0.05036192
-8.6750689 21.436064 0.039612297
-8.5187473 21.533804 0.48108128
-7.7452359 21.83787 -0.15001976
-8.4057999 21.532415 -0.61071193
-8.3667889 21.537584 -0.44317478
-7.8065872 21.87265 0.02794241
-7.8234739 21.864317 -0.21923088
-7.7866101 21.874994 -0.13587587
-8.5410357 21.510946 -0.94620466
-8.7002554 21.454405 -0.3005279
-8.4438057 21.526865 -0.7271021
-8.4314251 21.515245 -0.53524983
-8.4306269 21.518854 -1.1499927
-8.341671 21.529379 -0.60820377
-8.422616 21.577009 -0.6295523
-7.7743163 21.795296 -1.2281899
-8.8502178 21.401188 0.36887136
-8.1169786 21.698645 -0.34186238
-7.7157316 21.866508 -0.94000012
-7.537919 21.943813 -1.5628237
-8.3170691 21.609058 -0.7151348
-7.2647753 21.883871 -0.021441575
-7.7357993 21.828537 -0.93036926
-8.6096382 21.54929 -0.4650459
-8.2868118 21.648764 -0.50689864
-8.4082813 21.580885 -0.53529876
-8.2197952 21.678831 0.56815475
-7.7798142 21.94644 0.018011063
-8.2305841 21.542141 -0.068268768
-7.7670374 21.833826 -0.64761466
-8.1230669 21.712353 -0.25731564
-8.3184309 21.624075 0.49665445
-8.919488 21.366074 0.1663308
-7.6958914 21.835661 -1.3370974
-8.064744 21.742851 0.76447725
-7.4934087 21.947906 -1.1669544
-7.5306983 21.963041 -0.81236172
-8.1404572 21.70454 -0.11280487
-8.616313 21.554691 -1.2973269
-7.2612891 21.881805 -0.95278203
-7.4981327 21.959692 -0.60733563
-8.1380644 21.697828 -0.028527167
-8.1414986 21.680862 0.022086399
-8.3418427 21.622318 0.54902816
-8.3178997 21.656662 -0.4608044
-8.7512293 21.41954 0.15111993
-7.9311967 21.775661 -0.33013237
-7.2715178 21.959435 -0.90265
-8.1479797 21.718681 0.57443607
-7.9276419 21.804684 0.89990997
-7.4071002 21.929546 -0.93008792
-8.763979 21.456993 -0.54003358
-7.9152169 21.825829 0.5496338
-7.7341924 21.821089 -0.42622629
-7.7218108 21.866526 -0.14594127
-7.5461917 21.923634 -0.94729221
-8.9537859 21.218172 -1.1205503
-8.9549789 21.229961 -0.71493292
-7.9143143 21.829868 0.64653051
-9.0342951 21.283333 -1.3270686
-7.7538247 21.832621 -0.23790652
-8.9592495 21.285509 -0.43782732
-7.7249246 21.865524 -0.22645271
-8.1266975 21.63957 -1.1392636
-9.0220823 21.220415 -1.1558554
-7.7709556 21.932003 -1.2857453
-8.8231401 21.387348 0.77517349
-8.2910566 21.670143 0.69119322
-7.9107399 21.887081 -0.4238714
-8.4354887 21.464582 0.71483159
-8.8237686 21.3668 -0.32828733
-8.7136307 21.455975 -0.24239506
-8.5272179 21.496609 -1.134074
-8.6709375 21.437618 -0.86102563
-7.632431 21.887081 -0.23987748
-7.6806045 21.878464 0.11343863
-8.2182608 21.665482 -0.34502691
-7.6299534 21.909912 0.17588314
-7.7043381 21.872858 0.037192479
-8.620698 21.483768 0.17887345
-8.1290503 21.677782 -1.4465064
-8.1401577 21.542341 -0.76599985
-7.5422573 21.923416 -1.0329728
-7.9957147 21.856726 -0.31631434
-7.6750026 21.831242 -0.99416924
-7.6254201 21.889456 -0.93314368
-7.9784603 21.752983 0.10177851
-7.5047321 21.956732 -0.69040394
-7.6804366 21.969772 -0.167586
-8.0739088 21.747648 -1.5627651
-7.9293766 21.784599 -0.001935225
-8.9601259 21.2978 -1.2360071
-9.0890656 21.170267 -0.23484677
-8.9577198 21.373329 -1.4306127
-7.8386641 21.828455 -0.076843135
-7.9735456 21.869055 -0.27259651
-7.9768605 21.860001 -0.3592287
-8.107563 21.660606 -1.1635215
-7.9471045 21.882469 -0.49643654
-8.6922197 21.460003 0.012165208
-9.0384645 21.214935 -1.3259158
-8.1357164 21.763765 0.57299113
-7.9461837 21.7876 0.15277907
-7.7304397 21.855478 -1.0188631
-8.0895452 21.774496 0.39542311
-7.5389395 21.813892 -0.36933124
-7.4831686 21.816715 -0.75521743
-8.7312841 21.401728 -0.33017379
-8.1577826 21.713684 0.12988427
-7.8063197 21.822023 -1.199725
-9.0327997 21.211626 -1.2240553
-8.2300453 21.696655 -0.23660155
-8.7457705 21.324903 -1.032829
-8.7687922 21.420088 -0.82401252
-8.8768663 21.314915 -1.3827009
-9.0618811 21.085327 -1.1135421
-9.0141163 21.226162 -1.5020649
-8.3762712 21.550419 -1.6912482
-8.45755 21.527004 -1.7666702
-8.1815109 21.601021 -1.3030723
-8.0393486 21.699123 -1.2667397
-8.8779945 21.332792 -0.83293545
-8.018362 21.699295 -1.4973439
-8.6495323 21.431118 -1.0322996
-8.9543972 21.199173 -0.21452621
-8.2869864 21.653244 -0.067862101
-8.1295033 21.6516 -1.3644177
-8.9398403 21.23682 -1.8431807
-8.3617401 21.523598 -0.92727196
-8.3897209 21.552505 -1.1555916
-8.4245739 21.58308 0.26623949
-8.6208248 21.421488 -1.3216238
-8.3261948 21.584538 -1.0697913
-8.6749678 21.399776 -0.70562971
-8.0169001 21.673004 -1.1824281
-8.1053333 21.630211 -1.005625
-8.9543276 21.299536 -0.23270504
-8.9248896 21.236574 -0.9462651
-8.7449865 21.273188 -1.6201648
-8.1733236 21.538248 -0.99957758
-7.502707 21.965469 -1.0402371
-8.4359293 21.572491 -1.4054501
-9.0915051 21.242611 -1.2657394
-8.9604883 21.298529 0.15734425
-8.3235874 21.584421 0.03831403
-8.9517403 21.240498 -1.6661373
-9.0190716 21.28513 -0.23870115
-8.7090788 21.510792 0.47406304
-8.180584 21.649862 -0.7901203
-8.2080975 21.664871 -0.44320768
-8.3214731 21.639498 0.92720079
-8.7404461 21.48283 -0.65682143
-8.3505745 21.606052 0.75782549
-7.3231626 21.923927 -1.7258877
-8.9746046 21.23156 -0.35713792
-8.9533062 21.28681 -0.94282418
-8.1011839 21.777199 -0.42449203
-7.6922851 21.793339 -1.4341166
-8.4423332 21.548601 -1.2900286
-8.9602976 21.285967 -1.3422476
-8.9597511 21.204912 -0.64190137
-8.0499268 21.741697 0.16795136
-8.2439604 21.621792 -0.27359706
-7.8129444 21.874968 -0.73930812
-8.9564257 21.302197 -0.037559021
-7.355926 21.8202 -0.85008985
-7.3420749 21.838587 -0.2843281
-8.7109718 21.288044 -1.1550053
-7.3380704 21.824644 -0.46360624
-8.5366402 21.505257 -0.8438971
-8.7958364 21.484924 -1.5096899
-8.9204283 21.371893 -0.037827514
-8.5769997 21.551195 -1.6298368
-8.1652327 21.712004 0.91267252
-8.1113281 21.736895 -0.99656391
-8.0922747 21.755489 -0.69226164
-8.0908747 21.812283 -1.1254337
-8.0364285 21.68932 -1.453355
-8.1163311 21.66437 -1.2463368
-8.7176895 21.471123 -0.8325631
-8.1345425 21.719927 0.63596517
-8.0785198 21.744291 1.0477747
-7.5972691 21.890099 -1.0346587
-7.6401443 21.890518 -1.0945603
-7.4071021 21.929781 -0.24047115
-8.8505335 21.299919 -1.6027513
-8.7009211 21.468102 -0.73610961
-8.8688202 21.455032 -1.208125
-7.5075092 21.956715 -0.14886212
-8.2813549 21.662737 0.75446141
-8.1349001 21.707987 0.83509564
-7.4023662 21.927719 -0.14390069
-7.5745144 21.826683 -1.1484216
-8.8187771 21.455093 -0.92783636
-8.8211966 21.455219 -0.85934591
-8.0564518 21.68252 -1.3342971
-8.5261917 21.587934 -0.91674834
-8.2607403 21.660954 0.95077467
-8.2392578 21.663963 0.76191312
-8.4877253 21.548286 -0.0073626321
-8.2454424 21.676014 0.85357028
-7.8367248 21.887751 0.65912455
-8.2297678 21.684151 0.66075206
-8.2162342 21.754595 0.81866729
-7.402493 21.92378 -0.84244049
-7.4090581 21.917522 -1.2407645
-7.2781725 21.814234 -1.4037193
-9.2255993 21.321148 -1.366383
-7.7223301 21.906914 0.50199246
-8.8186321 21.404144 -0.84466803
-8.1052599 21.747555 0.83375025
-7.3425388 21.92997 -0.33964184
-8.6160994 21.43318 -0.51848435
-8.7592535 21.282669 -1.5043179
-8.8028069 21.395241 0.46439636
-8.6513786 21.529011 -1.7301455
-8.9624243 21.202888 -0.1524118
-7.8376017 21.813864 -0.24309939
-8.9479218 21.284988 -0.53515249
-8.8019142 21.415453 0.56387281
-7.3550477 21.928722 -1.0305858
-8.9511137 21.298208 -1.428287
-8.9518433 21.293985 -1.1364545
-8.961669 21.302988 0.062713169
-8.9553423 21.286476 -1.5277153
-7.7247105 21.884785 -0.75164938
-7.526598 21.915102 -0.23618159
-7.7110181 21.847807 -0.68695396
-7.4011827 21.919876 -0.35365579
-7.7261586 21.868801 -0.84138083
-7.4038982 21.927691 -0.45258182
-8.5177202 21.51215 -0.52731091
-8.5433025 21.560034 -0.53403187
-8.5365248 21.497538 -0.34417894
-8.7360344 21.391285 0.55159277
-7.4040961 21.927795 -0.73330843
-7.3977265 21.925108 -0.6416046
-7.4088106 21.930286 -1.1415325
-7.5264997 21.907351 -0.31163946
-8.3281221 21.572134 -1.2562076
-8.1142702 21.761744 -0.25140834
-8.7318325 21.509979 -1.5845075
-7.5369902 21.909433 -0.8718667
-7.4857616 21.879751 -1.6046807
-8.6195374 21.484119 -0.83472162
-8.8376474 21.407974 -0.93840188
-8.8214474 21.393423 -0.037260763
-8.8259964 21.384573 -1.2082391
-8.7855148 21.474354 -1.0725968
-8.8376999 21.406748 -1.0226206
-8.8310375 21.407154 -0.76540315
-8.8343363 21.406507 -1.1379244
-8.6216269 21.500593 -0.7403453
