# .PCD v0.7 - Point Cloud Data file format
VERSION 0.7
FIELDS x y z
SIZE 4 4 4
TYPE F F F
COUNT 1 1 1
WIDTH 1600
HEIGHT 1
VIEWPOINT 0 0 0 1 0 0 0
POINTS 1600
DATA ascii
3.2029593 30.213333 2.5679779
1.2452341 35.569267 2.23698
1.7009342 34.117844 2.2943046
3.2432561 30.295736 2.455826
1.8819712 34.049732 2.0639729
2.5115397 31.985636 2.664448
3.1291249 29.84659 1.9841727
2.4386959 31.997421 2.7536891
0.91308719 35.560322 2.235919
3.3076401 30.017946 2.5342295
2.9336576 31.161549 2.2590768
1.6993299 33.465675 2.2397513
2.2567294 32.801331 2.0593848
1.3901775 35.092064 2.5493252
0.96373272 35.893024 2.4652026
1.004537 36.094528 2.7350669
0.99094999 35.493263 1.7599535
1.4993271 34.802143 2.5482776
1.4971428 34.800949 2.7547004
1.376371 35.098152 2.3642855
1.3862513 35.097229 2.4691949
2.2700348 32.774895 1.9549309
1.4937994 34.799191 2.4593897
1.3227892 34.754261 2.5474505
1.4983108 34.803848 2.654974
1.1032618 36.174469 1.8837057
2.2663014 32.794357 2.5588229
1.0884007 35.896599 2.5577743
1.9115888 34.052311 2.1338723
2.2471156 32.788357 2.1770554
2.1754646 32.330608 1.7994581
0.49887246 36.785648 1.9510587
0.90850413 36.209057 2.1640143
3.0924573 30.403055 2.6469314
2.2077069 32.490448 1.4620814
0.89948374 36.393856 2.6476626
2.2620611 32.794464 2.4582677
1.0967014 35.90028 2.7635298
0.87229079 36.064358 2.6128178
2.4413371 32.291775 2.0691075
1.1065564 35.810238 2.654974
3.0049262 30.11487 2.0481834
2.4776335 32.187405 2.1522498
2.2105641 32.122875 1.9040291
1.0396837 35.573917 2.5658958
2.4647646 32.304626 1.9876095
1.0326837 36.290592 1.9722769
0.53900814 36.909008 1.9970511
0.96789777 36.429832 2.0722096
1.0554259 36.218334 1.9801731
0.68422312 36.548748 1.8234082
2.2365811 32.885197 2.2565939
1.562517 34.251545 2.1283486
2.6018035 31.186672 2.2424009
2.3038013 32.602306 2.1789105
1.4032925 35.26944 1.9679937
2.5402732 32.073471 1.9944572
1.0459915 36.078686 2.1667013
2.3641839 32.76981 2.2947271
1.1735344 35.324898 1.9676125
1.2385006 35.037617 2.6030598
3.1051774 30.508963 2.074079
3.4472656 29.68854 2.3679056
1.4367208 34.990395 2.3512836
1.0562873 35.897552 1.8725626
3.4600773 29.784044 2.4651401
1.7318137 34.306129 2.1688609
2.6658716 31.69315 2.0754719
0.76574022 36.398056 2.150912
0.62447566 36.689983 1.9770316
0.46742895 36.780945 1.8599775
3.2845025 29.390285 2.1401486
2.0443344 33.491386 2.2346501
1.0330067 36.083286 2.2634966
1.1267442 35.896324 2.1584129
2.5544672 31.995747 2.0627348
3.297498 30.018108 2.4579098
3.059114 30.404943 2.7597122
0.91177738 36.185711 2.4396377
0.91870385 36.092728 2.7346046
1.0051719 36.107899 2.555263
0.69153118 36.904137 1.9846674
0.64036405 36.710133 1.3766121
2.4904821 31.443958 2.0432603
1.0171739 35.291981 2.2499058
2.3504319 31.990993 2.0479922
2.34517 31.83029 2.1489744
3.4490197 29.845776 2.403981
2.1402304 32.749889 1.8407009
2.7302647 30.884764 1.860947
2.1878297 32.804119 2.0571311
2.2235818 32.182808 2.1723378
3.1730392 30.08485 2.7533607
2.1498499 32.486542 1.731239
2.7000482 31.599365 2.164464
2.875278 31.378809 2.1397245
0.63560534 36.362152 1.8342886
0.82607734 36.449158 1.8775535
2.7245533 31.046364 1.9349943
3.0001693 30.808298 2.166512
0.83359343 36.582245 2.2734723
2.7897534 31.104465 1.7746553
0.83508521 36.580383 2.3636603
2.8184164 31.127497 1.6469493
0.55890435 36.412563 2.2721558
1.9590783 32.860405 1.7108104
3.5592048 29.474653 2.1523752
3.3533151 30.075117 2.4540894
2.7553566 30.358803 1.9219255
3.4233918 29.363319 2.1486053
1.1768514 34.808479 2.273865
3.0966995 29.742199 2.1450713
2.9296517 30.328224 1.7086678
2.6403329 31.895525 2.8239641
3.1528578 30.486673 2.0861912
3.4423873 29.274771 2.1749153
1.0687329 35.894936 2.0585585
3.2892954 30.293144 2.0548539
1.4079084 35.013958 2.5513735
3.2473731 29.585747 2.1015935
2.6406183 31.877251 2.6682422
3.3448045 30.256969 2.0738297
3.5933709 29.532398 2.0513713
2.1560156 33.288322 2.5701616
3.0289192 31.057486 2.0150986
1.617656 34.387764 2.03387
3.1475348 30.060329 2.1185365
3.2544808 29.726784 2.1063607
3.2012377 30.002611 2.0543694
1.5402536 34.70377 2.2714577
2.8640707 31.194254 2.1655715
2.8641822 31.378147 2.0946338
1.4187949 34.205845 1.8454969
2.7672019 30.988672 2.1748993
2.744329 31.714893 2.0691109
0.8282752 35.986813 1.9340656
3.1568441 30.567677 2.052669
2.8438058 30.815639 2.0693414
3.0317852 30.375217 2.2365704
2.6336894 31.865028 2.4605877
3.3942137 30.058496 2.0588853
3.2293816 29.815521 2.0959992
3.4858053 29.391684 2.2531371
3.4690735 29.413231 2.3824372
3.3478377 29.578674 2.1646364
3.2742152 29.698021 2.1765785
3.0675907 30.105585 2.1753547
2.2415879 32.980072 2.4595633
2.856179 31.305342 2.0763924
1.9113582 33.632797 2.6595147
3.2940247 29.910368 2.0698833
2.2695296 32.696926 1.9875656
2.8957579 30.400331 1.9630343
2.5514832 32.093925 2.1771519
2.8440952 31.45936 2.1339505
3.3489149 30.104321 2.1451712
3.1843584 29.893139 2.1780677
3.5220306 29.655701 2.2309294
2.9632034 31.174664 2.1575892
3.1411643 30.494286 2.1530917
3.5227845 29.752571 2.2233849
3.0685093 30.905123 2.0516365
0.99062723 35.406162 1.8731045
2.8419321 31.507826 2.0813785
3.0884147 30.402199 2.3489804
2.461437 31.815523 2.0952439
1.751591 34.180782 2.0640917
2.0578973 33.500324 2.0496111
2.3265138 32.838081 2.0569148
2.5800812 32.214561 2.0983675
3.3514838 29.493708 2.2685258
2.9580193 30.501331 2.1667273
3.1115136 30.524593 1.9753988
1.6539898 34.475376 1.9831833
2.9461825 31.078693 2.0691874
2.3247128 32.205467 2.2473807
2.0021718 32.605869 2.1463158
2.2423818 33.123856 2.0356798
2.973671 31.183334 2.0534847
2.1440763 32.658478 2.1590269
2.8545184 30.872156 2.2008858
2.6632016 31.405975 2.2475553
2.4470432 31.882446 2.1488218
2.3155465 32.187263 2.0646789
3.1566353 29.979094 2.172775
2.2523179 33.001751 2.0862198
1.0051124 35.400631 1.9628954
1.8556166 33.313339 2.0827367
2.8456516 31.29425 2.1653357
3.1517248 30.578279 2.1403368
3.4493592 29.684517 2.2635841
3.44347 29.273727 2.2773058
2.5472744 31.575348 2.2742219
2.4608383 31.715851 1.9301231
2.6399555 31.361788 2.4461792
2.6357439 31.384777 2.3744493
2.5803695 31.382324 2.1775887
3.1417823 30.091988 2.6554503
3.1302407 30.07037 2.3542676
1.5712039 34.676743 2.046685
2.4342837 32.48811 2.1519346
3.0328331 30.907051 2.1852989
2.5575099 31.901287 1.9634378
2.5648026 31.488344 2.1780319
1.979848 32.706234 2.0610092
1.1519357 35.883121 2.0344088
1.7558426 34.376358 2.1035652
1.7211096 34.465828 2.0810628
2.2481637 33.065891 2.12203
2.4234695 31.64926 1.8952035
1.7206461 33.793587 2.2095253
2.3837936 31.89209 2.1746547
2.7507846 30.985165 2.2745111
2.9532199 30.491817 2.3595004
3.3346233 29.565907 2.5885627
3.4430058 29.290209 2.3606563
1.7286634 34.431068 2.1115887
2.0219924 33.658966 2.1392834
3.3531206 29.995686 2.2816625
2.3016191 31.917501 2.016202
2.2339969 32.470062 2.7006552
2.164691 32.581818 2.1684418
2.3325338 32.187477 2.355562
2.8698452 30.896351 2.2642522
1.8218234 33.47039 2.5650411
2.4601505 31.868544 2.7710636
0.84251142 36.589279 1.975137
2.0366535 33.565407 2.116092
2.3736033 32.679214 2.1459026
3.2383165 30.402193 2.2554069
1.2485261 34.871723 2.087069
1.287716 35.563919 2.0029836
2.0326445 33.607185 2.0750747
2.3950217 32.677864 2.0848632
0.77241653 36.132149 2.0900197
0.82664567 36.084492 2.1036139
1.4372263 34.502655 2.1703024
2.3307281 32.177177 2.6440189
2.6471 31.396498 2.6509244
2.0569496 33.493298 2.1671648
2.3416724 32.583778 2.1728487
2.842051 31.459743 2.2339642
3.3345349 30.086582 2.2663376
1.637344 33.897625 2.1751218
1.9422526 33.177814 2.6454954
3.0514929 30.277758 2.7741125
3.3501039 29.488747 2.3576274
0.61115712 37.001747 2.2709267
2.5963726 32.005119 2.7546859
1.1403667 35.785564 2.1688123
3.0431056 30.784245 2.4636075
2.1693702 33.192089 2.1439533
2.0752685 32.707035 2.1814709
2.2238548 32.981289 2.2689688
1.3315341 35.38208 2.1697841
3.5518889 29.494686 2.3682628
1.524632 34.809345 2.1669011
3.1508021 29.99291 2.3675749
2.1533439 32.497513 1.6298594
1.3056341 35.309292 2.6554346
1.0452845 36.190277 2.1380727
1.6427572 34.661728 2.0491829
2.6033573 31.815947 2.1466093
0.66796917 36.679581 2.2623672
0.72556877 36.358795 2.0117755
0.86602324 36.104725 2.1410553
1.1365304 35.271637 2.2670715
1.1577861 35.191433 2.1822209
1.9366106 33.167046 2.4550018
1.9286194 33.187393 2.2527914
2.0292363 32.912819 2.1700556
2.0761046 32.794712 2.2612801
2.1307096 32.686626 2.3618965
2.131907 32.673122 2.2736442
2.8441322 30.789091 2.1720872
3.1334705 30.074873 2.2726972
1.7357821 34.174591 2.1614251
0.63062048 36.546875 2.2041183
0.93786263 35.782227 2.2650664
2.5392718 31.594091 2.4559088
3.2710674 29.697779 2.2591264
3.4271934 29.300896 2.6612878
1.5437069 34.696575 2.6561282
0.94602728 35.79303 2.567369
0.96617007 35.616386 2.0616887
1.4354014 34.469345 2.3680859
2.7434337 31.073004 2.3645496
3.0441766 30.285933 2.4551759
1.5437557 34.687107 2.4597065
2.6034486 31.861351 1.8573306
1.2343699 34.970219 2.6443572
2.5484731 31.578875 2.5534856
3.337245 29.495026 2.5618465
1.6620003 33.657959 2.0994294
0.88338226 36.286674 0.99725562
2.3363237 32.077179 2.6621644
1.547798 34.693485 2.5611544
1.5373101 34.799911 2.2660179
1.4664062 34.973396 2.1584296
2.5587726 31.492794 2.3682373
1.7310365 33.665897 2.5713496
1.9348634 33.185966 2.7551498
2.7360256 31.076015 2.4570591
2.7380705 31.075108 2.6608827
3.1396916 29.999546 2.7446465
3.1526997 29.988552 2.4575131
3.2543347 29.700781 2.4614639
3.4369135 29.273533 2.4722967
0.90521204 36.323875 2.5571315
2.7863221 31.394684 2.3660536
1.2637771 35.151402 2.859935
1.5309906 34.76656 2.6488307
1.5344386 34.771835 2.56934
2.307482 31.814142 1.9054842
3.3514278 29.481287 2.6609507
1.5507064 34.694061 2.7441649
1.5275936 34.773228 2.4529634
2.2434003 32.368416 2.5553288
2.4002302 31.815567 2.2684038
2.4350824 32.369816 2.3745525
2.4009843 32.31657 2.1523576
1.5471345 34.179203 2.6582096
1.5545439 34.786438 2.76947
0.86269182 36.383942 1.9671652
2.3477659 32.088211 2.3702927
3.38801 29.587641 2.7634256
0.99435931 36.097095 2.2730203
3.145272 30.579073 2.3693192
2.0999849 32.401974 2.0415871
0.8564536 36.116459 1.8307645
1.6378727 33.888065 2.5593081
1.841607 33.394863 2.3708606
2.6668751 31.860142 2.1642454
1.3492736 35.170723 2.1638708
1.2534311 34.888439 2.2734227
1.4317337 34.488979 2.2868874
1.5266725 34.26252 2.3009088
1.6369587 33.978058 2.3554785
1.7314621 33.696087 2.1303155
1.9307468 33.18668 2.17553
1.9505305 33.110916 2.1671875
1.9580362 32.901279 1.9372224
0.54848194 36.765755 2.1735404
0.64670664 36.582584 2.2691321
0.8402068 36.000385 2.2601211
2.7685547 31.670193 2.556047
0.93721789 35.789692 2.1606746
1.3507233 35.295547 2.0704668
1.1321319 35.271763 2.3688872
1.9408624 33.087868 2.462312
2.7368929 31.069857 2.749011
3.1487286 29.983181 2.5546026
3.1744616 29.895281 2.3598137
3.2508607 29.675209 2.7559407
1.8683294 33.788456 2.1605341
2.3565204 32.385235 1.8844088
0.57107985 36.773914 2.0715973
0.65589988 36.566216 2.0812833
3.0478227 30.795631 2.1671152
1.7829781 34.002575 2.2717493
3.2996154 29.415764 2.8570018
3.376229 29.303331 2.4589303
2.1356685 33.179913 2.6578362
0.65133387 37.090744 2.1675134
2.5404994 32.08128 2.4643581
3.0153766 30.135303 2.4834962
3.2736979 30.206997 2.5566478
2.1953931 32.199471 2.1703892
2.1387742 33.206707 2.275053
1.5367391 34.181892 2.2652011
3.5620725 29.586203 2.3697002
1.0352008 35.482578 2.7481158
1.1330228 35.208454 2.7507417
1.3388698 34.675125 2.5511844
1.6494557 33.88549 2.3756423
1.8637768 33.304222 2.3662145
2.5485382 31.496895 2.5527678
2.3469386 32.583607 2.3770618
2.1152499 32.54184 2.9341977
3.2419431 29.797102 2.1648922
2.5880153 31.889147 2.1772134
0.86898619 35.968784 2.0737269
2.7445402 31.685278 2.7484241
1.0622905 35.20649 1.8697916
1.3064716 35.285408 2.7398593
0.62258506 36.493004 2.8298061
3.1917768 30.409557 2.7595851
2.1729252 32.496784 2.3709037
2.3202643 32.052441 2.8129735
3.502147 29.521761 2.7312996
0.63722134 36.49044 2.6376948
0.83401161 35.972569 2.6515784
0.85950774 35.849461 2.8112779
3.1879992 30.308729 2.5592079
1.7846837 33.403725 3.0148737
2.5440085 31.353189 3.0058711
1.5458173 34.183437 2.8254137
0.62863439 36.590534 2.7500887
0.63506871 36.494869 2.7528648
0.84560299 35.968018 2.5625329
0.93979931 35.661922 2.6555703
1.1224554 35.188026 2.8340964
1.2397071 34.865582 2.6444657
1.5297872 34.115757 2.8429203
1.6620718 33.786545 2.8581836
2.2298703 32.336456 2.9608054
1.2652601 35.077415 2.2463076
2.0560808 32.792397 2.4573412
2.0503778 32.796101 2.5708675
2.3398604 32.080021 2.5648978
0.63588428 36.475323 2.5455492
1.1326902 35.176838 2.5638852
3.5592661 29.488693 2.4648302
2.2400715 32.200901 2.8522756
1.7474042 33.586411 2.5534229
1.9340566 33.088608 2.7511976
2.2335029 32.280552 2.8202968
2.5495434 31.410263 2.855871
0.44856888 36.994522 2.3690021
0.56119335 36.685287 2.1683881
0.65720373 36.492527 2.1723723
0.79518265 36.084911 2.1816792
0.9397971 35.69508 2.3705025
2.1226919 33.248791 2.438462
0.44623005 36.987617 2.4500294
0.48338184 36.805428 2.0676007
0.66015768 36.439774 2.0749903
0.67256558 36.405525 2.2575068
0.95277637 35.685825 2.2573378
1.1330341 35.191772 2.0442643
2.4986522 32.092251 2.060365
2.3463221 32.578922 2.2626414
1.5514251 34.08849 2.6620436
1.7508318 33.591572 2.2564764
1.0518014 35.993111 2.0704119
0.57809383 36.696285 2.0686202
2.6382909 31.284496 2.6541278
3.3488691 29.984041 2.3638644
2.6395571 31.283052 2.5618901
3.2455819 29.785309 2.3552113
0.53301567 36.780304 2.2745013
0.56334347 36.689495 2.2701614
0.64160657 36.48262 2.4567041
0.83119214 35.978302 2.4702535
0.86621118 35.894653 2.3696942
1.138521 35.182796 2.4659603
1.5404203 34.172512 2.4508414
1.3499982 35.194073 2.2594814
2.1396265 33.294605 2.0512459
0.93293601 35.70649 2.8558614
0.90860981 35.641602 2.4017961
2.3088431 31.869267 2.9330828
2.576751 31.270287 2.9396842
2.077208 32.483379 3.0542743
2.1478879 32.388023 3.0360236
2.1423817 32.294037 3.045058
2.1709073 32.222286 3.0411518
2.2194977 32.134251 2.7917011
1.6270791 33.780338 3.0565085
1.8952104 33.094646 3.0449729
1.0355397 35.339905 3.0766382
2.3509202 32.583309 2.6583586
1.8019545 33.228615 3.1180935
1.83796 33.18462 3.1210842
1.8948399 33.040169 3.1180325
1.9486752 32.962811 2.8772705
1.9637932 32.899712 3.1178493
1.8250755 33.161041 2.9431424
1.879141 33.058239 3.1894803
2.5593724 31.718113 2.7911375
1.4705968 34.87595 2.7487614
2.5407076 31.7631 2.8480964
2.5658216 31.486509 2.8471415
1.6259842 34.079521 2.8390806
0.94523078 35.678524 2.5543213
1.8461366 33.380234 2.7383358
1.2852089 35.112747 2.7068119
3.0428467 30.291365 2.6520214
1.2509786 35.103832 2.7825046
1.3620147 34.706589 2.7538192
1.3616235 34.830269 2.7599385
2.6424057 31.293222 2.3420219
1.4021348 34.771736 2.6975784
0.65141499 36.791058 2.7308095
1.6575989 33.886715 2.747869
0.89937866 36.098522 1.6971986
1.3702635 35.022484 2.7731838
0.65173948 36.294628 2.8423038
1.8658857 33.195553 2.651861
2.0708308 33.291275 2.5575767
2.408638 31.61895 2.5814238
0.69942242 36.206764 2.2635729
2.1674597 33.093906 2.6626906
2.767669 31.120895 2.5961044
0.73451513 36.873734 2.4720984
1.9862213 32.793613 2.6552453
2.0722027 33.308994 2.647181
2.4623451 31.692728 2.3597071
3.0714266 30.693928 2.5462947
2.5730882 31.705074 2.205179
1.7875106 33.399612 2.5588858
2.0753021 33.294189 2.4585848
0.99240398 36.105907 2.4614193
1.5771745 33.997528 2.2779531
2.0561724 33.285728 2.1636727
2.8420489 30.576408 1.8390073
0.93745559 35.785259 2.6537488
2.4627604 32.386272 2.1417155
2.1850371 32.877445 1.7216103
2.1302187 33.354992 2.7591541
2.7527087 31.578705 2.7489545
0.42764145 37.084251 2.3685448
0.98956066 35.410011 2.6502101
0.46889374 36.88171 2.5607777
1.0451813 35.390121 2.7480257
2.5244925 32.156109 1.8775924
2.4880881 32.194885 2.5568871
2.7529738 30.977093 2.6426728
1.5226022 34.2654 2.6617107
3.3024089 29.415451 2.5828331
1.8602101 33.193672 2.7721052
1.0437093 35.307755 2.8235059
1.3374133 34.671391 2.4578247
1.2932465 35.216259 2.5504954
2.0754588 33.161945 1.966656
2.0573659 32.787655 2.6593685
1.2047329 34.71526 2.9513464
2.6590583 31.348745 2.7407105
1.0882761 35.806671 2.7600293
0.89425212 35.599117 2.8444974
2.3546574 31.991398 2.5578685
2.0940814 32.413464 2.4955254
1.6069013 33.632843 2.7623396
2.1987987 32.876865 1.8781569
2.4679048 31.407398 3.0603809
2.6451085 31.092968 2.9266214
0.78531355 36.400002 2.2570477
2.0442083 32.950237 1.5592544
3.2940288 29.391706 2.757601
0.58291906 36.50655 2.6495557
0.75213867 36.921886 2.1217651
1.8478645 33.218376 2.0626638
1.0367676 36.071709 2.469013
1.3511877 35.193111 2.3569481
0.73394245 36.875885 2.3673756
2.8432322 31.280642 2.4637485
2.1890888 32.208519 1.9665755
1.48348 34.790146 2.1712222
2.6974547 31.541296 2.3422766
1.899762 33.218819 2.1725247
1.4793688 34.79755 2.0594656
1.5440478 33.97657 1.942723
2.8886864 31.100204 2.1666105
1.2087817 35.521687 2.5487285
1.1793832 34.794289 2.9612141
2.6510229 31.056776 1.7657684
1.5731761 34.597591 2.3651452
0.46002123 36.874271 2.6500885
0.69943333 36.302517 2.3643103
1.8039352 33.402798 2.2790573
2.3987253 31.804344 2.36972
1.9961591 32.799599 2.4596219
0.42092407 37.06517 2.0594649
2.5022151 31.410408 2.5495009
1.5679805 33.999935 2.5588434
1.1043148 35.133556 2.4276109
2.7947812 31.396482 2.6481049
2.2042174 32.90403 2.2541406
0.69647384 36.132328 1.8585956
0.80399191 35.899807 2.5590699
2.1720545 32.943604 1.6085027
1.0512714 36.384968 2.1241131
1.1520671 35.313095 2.7726939
1.8815353 33.20155 2.3716352
2.0935047 33.18964 2.7477
1.9989232 32.700214 1.8618243
2.2801471 32.104103 2.6616139
3.2091801 30.352892 2.8817933
3.1490719 30.579983 2.2709229
1.8798344 33.197395 2.4660702
2.7958322 30.630863 2.4656186
0.75230825 36.083488 2.7523384
0.53867495 36.784737 2.4610014
1.8813641 33.202389 2.2711942
2.5722847 31.69915 2.4450188
1.4007056 35.002739 2.2793636
2.5200748 31.316072 2.6530876
0.88253444 36.398537 2.1634562
1.031094 36.079865 2.6405065
2.6358144 32.006546 2.2198968
2.2306082 32.369347 2.7452905
1.6098592 33.548134 2.5899086
3.281019 29.500286 2.4687729
2.9944131 30.199778 2.3745527
3.2484722 30.191982 2.1647842
1.5589546 34.59473 2.1700087
3.3361576 29.655634 2.6780484
1.8541868 34.022667 2.0022247
3.4517136 29.794033 2.1466727
1.3202213 35.350361 2.3167796
0.94661885 36.375645 2.1522386
2.0926764 32.773354 2.0723445
2.027801 32.901196 2.0862319
3.2526431 30.193825 2.2600687
0.89844102 36.311699 2.4626195
1.918839 32.887959 2.5031619
2.4606738 32.210129 1.8336258
1.2598437 34.797375 2.5583646
1.7595046 33.390198 2.764719
1.7869238 33.288033 1.8762909
2.7263386 31.651953 2.3962176
1.876912 33.193844 2.5612762
3.2686546 30.380186 2.0018954
0.78791463 36.597713 2.0619552
1.110829 35.099747 2.5609531
1.8379204 33.984676 2.2741716
2.2672403 32.104244 2.7596617
2.8066862 31.30794 2.3501799
2.0513384 32.554157 3.0563495
1.0079454 36.029087 1.9622895
3.3937111 29.80574 2.1729331
2.4101434 31.614317 1.9518435
2.0406787 32.772758 1.7887744
2.0345373 32.887932 2.5447142
1.4613925 34.196854 2.8553903
1.3366162 34.687843 2.6929474
2.5021558 31.37719 2.9566123
1.9660885 32.787018 2.1811702
2.0855689 33.197773 2.1683347
2.1932538 32.909218 1.9932669
2.1743338 32.998211 2.3708296
2.4002879 31.556822 2.0696042
0.53324121 36.87532 2.3209186
1.1961594 34.796669 2.8484635
2.8934586 30.286335 2.0567715
1.2606289 35.185112 1.2438438
2.4838169 31.518915 1.8847148
2.5507197 31.616034 2.1442451
1.2988141 35.183971 1.317344
1.4377091 34.378799 2.5525448
0.68376285 36.30423 2.5577695
1.3432037 34.589214 2.6567156
1.9780836 32.808876 2.1069586
2.054961 33.293285 2.0690799
2.8046839 31.294617 2.0584254
1.9302368 33.894989 2.0562513
1.2013243 35.308754 1.7746073
2.5590634 31.999401 2.3670726
1.1479411 35.091461 2.5627167
2.1824899 32.391109 2.9433329
2.360323 32.298393 2.6277924
2.5565331 31.992592 2.1609468
2.348326 31.988533 2.6589015
2.05495 33.299969 2.2633469
2.5041757 31.413948 2.1349163
2.8423924 30.875782 2.3599105
2.766901 30.889776 2.4645793
1.0995735 35.812073 2.4697275
2.3512504 32.095444 2.2692919
1.7410089 33.394054 1.841676
3.4414842 29.28088 2.5652244
2.7066407 31.593111 1.9854618
2.6298037 31.869425 2.3693533
1.5455339 34.185932 2.3764327
3.2250056 30.479122 2.1408134
2.2803831 32.69566 2.2542806
2.402539 31.729362 2.6382525
2.6061213 31.120495 2.6679499
0.4028787 36.891457 2.7463496
2.5389011 31.790659 2.7594833
3.1687257 30.217144 2.3957448
1.7518797 34.29353 2.6664424
2.4007812 31.637009 2.8090324
2.6611502 31.088717 2.6585827
0.89419788 36.132477 1.3367108
1.9792647 32.784065 1.8716105
1.3565732 34.586273 2.1604083
1.1392125 35.779106 2.0589886
1.0889115 35.211769 2.2567468
3.0661602 30.959517 2.1524034
2.648881 31.874577 2.2604811
1.4585427 34.293304 2.5621676
1.3532208 35.186405 2.4645846
1.4305767 34.279678 2.8307662
2.858927 30.679495 2.742949
2.0106804 32.709202 2.3872502
1.4519175 34.637074 2.5942502
2.0039065 33.415649 2.4529314
3.1699686 30.926311 2.1802578
2.0541193 32.888893 2.2685766
2.8554072 30.872948 2.5577335
2.0647748 33.296623 2.369941
1.843151 33.38546 2.4601638
2.2014821 32.303349 2.4704185
2.1657834 33.001915 2.1508675
2.1567497 32.490253 2.7541409
2.3406196 31.987846 2.8317962
2.3998404 32.206226 2.1329122
2.6694732 31.201357 2.3598871
3.0939295 30.518379 2.4480181
1.2366321 34.977699 2.4427168
2.8434734 30.927134 2.788624
1.0036284 35.415009 2.4607081
2.5143783 31.765324 2.8321786
3.2856281 30.093731 2.3575568
1.6765916 33.699036 2.1662042
3.3678966 29.419514 2.1641119
0.78977776 36.501781 2.2471652
0.66202319 36.424358 2.2002187
1.4467919 34.382355 2.468111
3.3479788 29.586946 2.4459682
2.4589391 31.695486 2.5603731
2.0857487 32.573368 2.1691744
3.2546577 29.882412 2.3720133
3.1881092 30.307535 2.2665293
0.8940993 36.400265 2.5595739
1.7682887 33.347118 1.9180214
2.1757529 33.008991 1.9568721
1.9995601 33.402538 2.1723683
2.8973513 31.097633 2.3671622
2.5370736 32.182793 2.2636213
0.97639191 35.39497 2.7457771
1.9635909 32.905468 2.7549741
0.91986436 35.500824 2.7084475
0.8580355 36.649967 2.0802743
1.7596999 34.09634 2.3647742
2.3661489 31.989271 2.3669581
1.4033078 35.009529 2.655715
0.83734238 35.975845 2.371398
2.7352657 31.67276 2.4376123
2.0512354 32.791149 2.7605691
0.72330517 36.850616 2.0288374
1.6101305 33.993862 2.1538017
1.8640032 33.116043 2.0681734
2.0999212 33.17144 2.0812106
2.1639395 32.989933 2.071424
2.221437 33.160271 2.1084545
2.989023 30.812021 2.6432943
2.7014847 31.612133 2.5422978
1.3691587 34.776417 2.4497156
1.157725 35.092907 2.4633896
1.6325164 34.553177 2.7557006
1.2643124 34.796898 2.6536164
1.263219 35.392467 2.367625
1.0006899 35.400307 2.5594714
2.2031991 32.594002 1.8535796
2.1202965 32.623379 1.5245775
2.2393796 32.383522 2.3775401
1.861726 33.091579 1.9414008
0.97707552 35.600628 2.2605896
1.9547677 33.77401 2.2016063
1.1404419 35.771484 2.7650185
2.6969194 31.604694 2.3645217
2.9829566 30.894863 2.2581384
2.3405898 32.679417 2.2695706
1.9901426 32.783447 1.9367101
0.93096149 36.362694 2.4699893
0.95567423 35.594242 2.5620642
3.2855299 30.097115 2.4632368
3.1421771 30.501308 2.2609417
3.171303 29.803459 2.2683048
0.88503104 35.802628 2.1627588
2.8380215 31.288818 2.3581164
0.61929756 36.398548 2.3716092
2.8700838 30.884277 2.6538994
1.307935 35.131062 2.4345624
0.92944008 35.785137 2.4467852
2.0839674 32.424911 2.3632133
3.5760226 29.301807 2.2706771
1.7729741 33.414192 2.1896088
1.9066951 33.608871 2.4716306
1.7276559 33.573212 3.0156367
2.5007367 32.110592 2.4575081
0.89769471 35.716259 2.2553961
2.3895035 32.409904 2.0878756
2.2355552 32.383152 2.4616902
3.594079 29.293877 2.5506878
3.5893953 29.29323 2.4613681
2.7544563 30.88991 2.6521885
0.94886601 35.593552 2.7472906
2.4433203 31.778429 2.6603963
0.45784613 36.791222 2.7475336
2.943903 31.084772 2.4526422
2.4687972 31.700207 2.2764707
1.8415331 33.386246 2.2634375
0.58674788 36.585495 2.0728168
2.8653004 31.194708 2.3662899
2.909965 31.020483 2.2685857
1.9417837 32.91457 2.1639881
3.0537496 30.884052 2.4748368
0.86855417 35.77673 1.851108
2.2572708 32.792572 2.2608063
2.3065853 32.510574 2.4948714
3.4118323 29.707989 2.4443338
0.9742015 35.588184 2.3697963
0.95040166 35.777481 2.7420154
1.1555549 34.982147 1.8531393
2.516042 31.413185 2.3465848
1.6637993 33.605331 2.9577036
1.9152521 33.584957 2.3267395
1.6570454 33.792637 2.554729
2.2537868 32.284153 2.4570551
1.6086805 33.70282 2.6739426
1.7376732 33.500816 2.0437274
1.741874 34.315086 2.7710752
2.836611 31.551245 2.670217
0.9680286 35.595284 2.4596372
0.97644567 35.606304 2.1681876
2.5272973 32.152706 2.4525709
1.8602608 33.143063 1.7484915
2.8457758 30.793795 2.3656268
0.60031235 36.39666 1.8372121
0.58591098 36.232761 2.3447487
1.7839161 33.40321 2.3703132
1.6296542 33.897999 2.6667368
0.41101718 37.087914 2.0718899
2.1664801 32.691269 2.5794029
0.95726126 35.49781 2.8473723
2.5312171 32.184242 2.6460209
2.5193586 31.438644 2.4801717
1.5690634 33.901474 1.939742
2.856241 30.805586 2.5548255
1.7526214 33.482628 2.8465052
0.99682599 35.31575 2.7517085
3.0404401 31.015329 2.8345642
2.9809177 30.295702 2.2663743
2.4018872 31.724983 2.4486787
1.7997181 33.28368 1.7793044
1.5119438 34.730404 2.6397407
2.5967104 31.899612 2.4524882
2.2770677 32.706238 2.166472
2.0733881 33.095623 2.6872749
2.5483348 32.162941 2.1961567
0.56391668 36.490509 2.9643474
2.468123 31.516527 2.1670256
1.9992626 32.701008 2.6550074
0.48913035 36.699581 2.6581008
2.8690042 30.593897 2.7617502
2.8685868 31.196072 2.4608145
0.64093339 36.490265 2.273349
1.0989622 35.116299 2.6629884
2.6990008 30.996548 2.5682719
2.1860485 32.399612 2.4662745
1.1499176 35.085045 1.8692405
1.6769385 33.701588 2.4715805
3.3756316 29.390261 2.3618996
2.3990772 31.70211 2.7745967
3.1072397 30.508919 2.3748686
0.91025507 36.164845 1.6646327
1.0766965 35.092781 2.9119701
1.3395106 34.698654 2.2570121
2.9587646 30.716991 2.7734883
2.6877475 30.919086 2.1534877
2.5600486 31.582954 2.7389455
1.1916032 34.803341 2.7729206
0.95816165 35.484524 2.7624269
2.5942636 31.207647 2.7490628
3.4939423 29.494236 2.1529312
2.1452422 32.685719 2.6539192
1.0913781 35.200306 2.5602343
2.3962693 32.419315 2.5577545
2.9122744 30.999786 2.0670381
0.75982326 36.290462 1.9329581
2.1704068 33.208778 2.0635836
3.0436165 30.87781 2.2725539
2.7565796 30.987892 2.4568346
2.2582219 32.290977 2.2724807
0.58928162 36.403538 2.8376319
2.8715541 30.513321 2.1697454
2.7987499 30.707926 2.8393579
2.2071121 32.90741 2.5665445
0.99807298 35.516235 2.2696991
1.9815983 32.995045 2.3730152
2.1103628 33.109703 2.2641954
2.9532099 31.082699 2.1696436
2.50862 31.4126 2.6555321
2.8852968 31.014524 2.6769316
0.98852777 36.105427 2.3520246
1.3496825 34.385296 2.9451904
2.1779671 32.403908 2.2591512
2.291775 32.69355 2.377717
1.9358749 33.676228 2.2533104
2.9002705 30.495598 2.3767776
1.5056866 33.942257 2.9737952
2.2994199 32.56218 1.8930085
1.6889186 33.491592 2.9500332
2.0395014 33.39677 2.2656295
2.7637143 31.493391 2.0525041
2.3866618 31.800196 2.6522479
0.5852322 36.508812 2.5555894
3.0626247 30.952353 2.7182789
2.8577995 30.692747 2.5615416
3.5066125 29.501295 2.4492321
1.009165 36.000343 2.454464
2.8531537 31.081358 1.4842937
3.3901255 29.301668 2.3689039
1.5122757 34.003742 2.8437741
1.1989263 34.801498 2.5783277
2.4559693 31.790848 2.3658264
3.251807 29.770306 2.7573445
1.6120082 33.633877 3.049015
1.4833356 34.610569 2.4590774
2.3924277 32.403374 2.2548144
0.70082223 36.686405 2.5443711
0.74532598 36.780682 2.075388
1.6733634 34.597382 2.1184964
2.5530043 31.493034 2.4638793
0.61370009 36.51321 2.1209085
1.0463879 35.22348 2.9444184
1.9685388 33.008987 2.27267
1.7069666 34.198765 2.7378783
0.69305795 36.894272 2.1662557
0.69231409 36.905331 2.359576
2.4771395 32.019989 2.5800846
2.0741935 32.47366 1.7955692
1.7676544 33.386288 2.0684545
2.4416797 31.876354 2.2649205
2.8946018 31.101542 2.2726457
1.7002798 34.129787 2.4717026
2.5874884 31.904341 2.2605743
0.4515121 36.990513 2.2727909
1.5653298 34.293343 2.7496157
2.0806239 32.70454 2.3687551
2.7304766 31.653786 2.2643549
2.5943058 31.221691 2.4817874
2.436655 31.873047 2.6400044
2.1856101 32.396545 2.3672588
2.2146082 32.83392 2.17032
1.3045102 35.211678 2.3842337
1.5044299 34.606979 2.3328254
3.4791071 29.588213 2.4597962
3.3888347 29.807655 2.5674949
1.7056801 33.774651 2.1826959
0.60104531 36.500172 2.4644248
2.3545942 31.998922 2.2632117
0.62727344 36.569881 2.5408545
3.0037847 30.138855 2.8145075
1.49577 34.01022 2.9745719
1.2936959 34.712776 2.3670709
2.6384373 31.549406 2.8173778
0.97836512 35.494999 2.56604
3.0128403 30.744051 2.1283522
2.3972626 32.405212 2.4597104
2.3691967 31.893147 2.6572204
2.8551109 30.783579 2.6578443
2.9641564 30.496714 2.2672584
1.6484438 34.486172 2.1679127
1.3630462 34.490589 2.6675277
1.081491 35.298515 2.3633487
2.3703544 32.22673 2.7693505
0.48526117 36.79747 2.5539143
2.6475852 31.794155 2.4598796
3.2638581 29.506714 2.2615561
1.0390017 35.375214 1.7619798
2.7709646 30.889805 2.3687813
0.76995122 36.186127 2.0766275
0.62183887 36.570236 1.349705
1.0478002 35.992458 2.2677021
2.1449978 33.087685 2.2580431
1.9812365 33.497272 2.2647498
1.6787194 33.492138 2.7650626
2.306448 31.995089 2.2779896
0.50238305 36.603867 2.7678659
1.1098466 35.347446 1.2988484
2.0959837 33.109417 2.3531597
2.4178092 31.607946 2.2684033
1.2537317 34.68042 3.0550442
3.1451752 29.992834 2.6797109
3.1597002 29.893408 2.569941
1.2669179 34.893295 2.1658459
2.5835538 31.701233 2.3831353
2.1653526 32.625694 2.0455716
2.4850123 32.003662 2.3987408
1.7658019 34.269085 2.3598022
2.5235128 31.700588 2.2879734
2.7149584 30.903858 2.3581362
1.9902854 32.910259 2.3718593
1.715925 33.340595 2.7749062
1.6815076 33.693851 2.5602224
2.2967074 32.099884 2.4617217
2.9475794 30.493061 2.4680712
0.64520216 36.412163 1.7750561
2.748435 31.496552 2.264801
2.8821697 30.993546 2.4546185
1.6582464 33.603931 2.8509538
1.8307546 33.969574 2.3580821
2.4988153 31.398598 2.8570776
1.8829391 33.062447 1.8695273
1.773172 33.396107 2.6571774
1.0624421 35.37566 2.1567163
1.5395695 34.856064 2.2568419
0.92674106 35.464928 2.9627912
0.8556965 36.104317 1.2222947
2.7344098 31.747147 1.924715
3.3126774 29.309614 2.7710652
3.0636747 30.473276 2.8507822
1.8765997 33.466732 2.0587404
0.80166399 35.9203 1.8404787
0.74889904 36.189407 2.5479021
0.74940121 36.193199 2.3655524
2.3460803 32.104946 2.1551905
0.5012418 36.61488 2.8671029
1.6555811 34.396706 2.5559289
1.1401795 35.783936 2.5609138
2.6882582 31.01543 2.0804195
2.5903232 31.900187 2.3668847
1.343026 34.796917 2.2890141
0.74869817 36.247292 2.0116537
3.1619191 29.893726 2.656291
2.4611392 31.910822 2.0918894
1.2097201 35.419743 2.2706585
0.40173095 37.025921 2.1488025
1.0005114 36.004616 2.3559217
0.95278496 36.108116 1.418067
2.4450517 31.88278 2.3587625
3.2960808 29.410978 2.4632952
3.5575418 29.674202 2.0464926
2.3850305 32.300106 2.5585878
2.258738 32.009911 3.0282733
0.50674558 36.561279 3.0169239
2.5448282 32.087002 2.269876
1.0098153 35.291931 2.5051649
0.54002452 36.755009 2.6491981
3.2913141 29.497824 2.8675961
2.5837598 31.277149 1.5014361
3.4449255 29.798273 2.0697482
2.6974583 31.60977 2.4589286
1.2037143 34.798206 2.6621151
2.6983385 31.603533 2.2657206
2.661371 31.09503 2.8565912
1.6832154 33.493671 2.8482182
0.88488895 36.311146 2.0661209
1.1245847 35.854263 2.5552552
1.2632505 35.484852 2.0931787
2.7249115 31.198381 2.1190503
0.93891853 35.684135 2.4511323
2.6034048 31.78664 1.9263947
2.5529349 31.683105 2.5661221
1.9373623 32.898457 1.8723876
3.5849977 29.293526 2.3613317
2.3102002 32.012787 2.3760598
3.1713994 29.893564 2.4606864
2.9724731 30.703308 2.4719565
3.5388498 29.686831 2.7663252
1.1313047 35.798748 2.3647718
2.7097325 30.894548 1.7061702
2.8969061 31.098372 2.5543497
3.3405261 30.093441 2.3522353
2.3967385 32.39835 2.3611035
1.6087308 33.615009 2.8623345
2.1481526 32.415535 1.9472578
2.9284608 30.882376 1.5917408
1.0823718 35.188015 2.8467622
1.0740157 35.10413 3.0601254
2.3992164 31.80674 2.5630097
3.1485944 29.897718 2.7564368
2.6268167 31.884502 2.5636795
3.4824626 29.597004 2.563509
2.6373975 31.124256 2.1012049
0.73943722 36.282051 2.3561609
0.70681989 36.821167 2.5238397
2.4078596 32.31715 2.2510343
2.885227 30.600101 2.2655854
1.699632 34.290886 2.6548014
3.0911875 29.992485 2.3762794
1.6756085 33.425461 2.0781906
2.8412397 30.798393 2.2670228
2.2958188 32.700951 2.4576337
2.5783198 31.900291 2.7739525
0.68795282 36.899895 2.2540879
1.7204566 33.510731 3.1298733
1.4751198 34.893093 2.6588683
1.4637108 34.397762 2.749943
2.1158586 32.321571 2.5272408
2.855083 30.790588 2.4642437
1.3722137 34.392853 2.761368
1.7199769 33.311798 2.8409469
2.8701451 30.587082 2.6601024
2.6984367 30.986727 2.2629771
1.6973518 33.40556 2.7591267
2.7692864 30.802771 2.7655215
2.9440854 31.277374 2.6495872
2.9028127 30.416405 2.3572066
0.707026 36.646187 2.6756265
2.9302368 30.581263 2.3568642
2.6973276 31.483309 2.5394373
2.9518797 31.203556 2.5466888
1.829699 33.488285 2.4421914
0.8009851 36.032925 1.4483212
2.9329729 30.577036 2.467761
0.73995805 36.086185 1.8535812
2.3574913 31.992846 2.465569
2.984515 30.296804 2.3631063
2.7124951 31.534599 2.2631247
2.8601992 31.292313 2.5614347
2.9637589 31.202633 2.4916677
2.3744559 31.797043 2.0871119
0.79532504 36.50383 2.1496167
0.39777866 37.09206 2.3782694
2.6499946 31.792746 2.6441376
2.1423037 33.077007 2.0660048
2.6026807 31.892513 2.6508501
2.4971631 31.507196 2.5678821
3.4734719 29.596003 2.2644637
2.708215 30.916342 2.7485528
2.8593459 30.791466 2.7510042
2.6854255 31.005341 2.752239
0.69814169 36.215462 2.4794321
2.2832568 32.101978 2.3629715
0.95424032 35.585049 2.6589398
2.9461596 30.480585 2.0990965
1.5042931 34.037819 2.5099409
2.6737459 31.878281 2.9570632
2.8013587 30.871721 1.8005854
1.3641181 34.49958 2.762151
0.76373142 36.28104 2.763701
2.4373386 31.891222 2.5478511
2.2607079 32.203735 2.7513027
3.1965485 29.537836 3.0230253
1.719818 33.338509 2.5050831
0.76931518 36.525623 2.5558004
0.84700626 35.888515 2.6534643
1.9469473 33.702301 2.1618214
0.42504436 37.055344 2.1880322
2.3898637 31.792543 2.7625484
2.964081 30.393957 2.4625266
0.74032402 36.14843 1.8174822
3.3291931 29.770794 2.7467318
1.9898149 32.899082 2.4627757
0.37634897 37.100124 2.4529483
2.5386345 31.49555 2.0766728
1.1897345 35.571342 1.1900347
1.7805387 34.002762 2.0543196
2.638433 31.970766 2.7383375
1.3766202 34.495102 2.4637508
1.6035491 34.295189 1.4810392
1.3785869 34.312767 1.9151194
2.3917542 32.388851 2.1639702
2.6968377 31.510439 2.4464374
3.2058835 29.604218 2.3610458
1.4122999 34.222172 2.5684919
2.9898129 30.2029 2.6549633
2.6641603 31.378754 2.5616415
0.60518277 36.405766 2.5614054
0.70844477 36.794292 2.2791824
1.6984812 34.20929 2.3694179
2.8585629 30.881872 2.4561224
1.7071792 34.109962 2.3567207
0.73247325 36.271999 2.4613075
3.4960072 29.591106 2.761863
3.0332932 30.991756 2.6510255
0.39243272 37.002281 2.5617118
2.9498243 30.991756 2.4562387
2.7603519 31.494026 2.1674249
1.5278928 34.272617 2.3627772
1.6900519 33.311909 3.0818527
2.3704607 31.788439 1.8844731
1.1299094 35.265984 2.1967301
1.5042453 33.903461 2.8969808
2.1441607 32.58897 2.7628841
2.7591193 31.377453 1.8524981
1.2698973 35.38945 2.0678067
1.9924449 33.49894 2.3742187
2.2145829 32.132023 2.5246305
0.51472634 36.593651 1.7676878
3.0052671 30.094601 1.9397426
0.99761647 35.917664 2.3362784
3.3541522 29.993097 2.1408453
1.1591607 35.081711 2.1537988
2.40116 31.710579 2.257396
2.5509021 32.082466 2.0855601
0.73459375 36.188175 2.6518848
1.7132102 33.430374 2.4996922
1.6074183 33.81778 2.4765508
1.7409074 33.683479 2.361042
2.7111614 30.920321 2.4449441
1.1558979 34.978958 2.8530264
1.0848805 35.303303 2.2646799
2.6653645 31.600666 2.7559457
1.1075644 35.311714 1.43207
1.5291662 34.175919 2.5410914
0.44212937 36.981236 2.5514007
0.88534331 35.892197 2.1705158
3.4224064 29.980436 2.1502991
3.0189621 30.858564 2.7897468
1.125439 35.596466 1.3223816
2.7525282 31.480068 1.9743617
1.955326 33.792309 2.0669923
1.7294763 34.287865 2.5447946
2.3497519 32.085579 2.4563227
0.9105289 35.511963 2.8613069
1.4689207 34.820038 1.958717
2.1397569 32.600094 2.6728511
2.4725544 32.025982 2.4793434
2.8586929 30.5998 2.1734309
0.64044917 36.584023 2.4916506
2.4157031 31.531168 3.0013039
2.9647789 31.177387 2.3415959
1.8377178 33.189415 1.9664832
1.6998724 33.602512 2.3748088
1.7166299 33.38258 2.9395392
3.254271 29.691076 2.5600171
2.3337669 32.168308 2.4671144
2.2106829 32.82132 2.4380913
2.7909555 30.705311 2.7579041
1.8232884 33.485847 2.3554916
2.2764347 32.619705 2.6849799
2.1236591 32.668724 2.7479093
1.1949389 35.49654 2.0371549
2.5922382 31.900576 2.5458665
2.7738776 30.780756 1.8852782
1.2329867 34.673248 2.9304857
3.0164561 30.673779 1.5927417
2.9954157 30.814157 2.0809743
2.1435578 32.842049 2.6651154
1.1340151 35.776649 2.4678099
1.9024761 32.834122 2.7083175
2.8199916 30.826624 1.4041519
2.0075467 33.301605 2.6387053
3.5344517 29.710987 2.1409383
2.7709911 30.793629 2.8548698
2.0335355 32.877193 2.6523178
2.4985456 31.487215 2.7517669
0.80686939 35.991341 1.4058406
3.3341548 30.212183 2.1466675
2.6703825 31.097353 2.5602617
0.67759645 36.198616 1.854028
1.7049881 33.527332 2.4072216
1.8111537 33.931061 2.7184551
1.8058954 33.918652 2.2657163
2.593756 31.805231 2.0859323
2.8021929 30.701477 2.455605
3.2814257 29.499001 2.3677278
0.72268659 36.37183 2.3861563
1.6349993 34.478004 2.4667709
2.8925745 31.010113 2.1773481
2.5046413 32.113289 2.3661997
2.9415038 30.989943 2.158838
2.8856151 31.108921 2.6492286
2.8138304 31.554375 1.9951946
2.7384944 31.580866 2.2672281
2.0062616 33.408863 2.2582345
2.8064289 30.629065 2.6561081
0.70312196 36.90567 2.5505493
2.3908963 31.68499 1.8891097
1.7855804 33.300007 1.9275439
1.1894389 35.481384 2.15431
2.2445109 32.388222 2.269618
2.4080875 32.302044 2.0813632
1.9932286 32.716328 2.4726243
3.2048793 29.628054 2.6791925
3.2422762 30.394493 2.1621373
2.4147341 31.707989 2.3555341
3.4694118 29.610411 2.6560328
2.5031776 31.40773 2.764039
2.9690249 31.099335 2.6432612
2.9666193 30.980961 2.7720003
2.559274 31.498814 2.7571759
2.0392935 32.890263 2.4604449
0.68960905 36.204758 1.9688675
1.9029056 33.699268 2.2619207
0.7534467 36.593063 1.3869097
0.9807865 36.195827 2.6626372
0.68146598 36.92157 2.0630093
1.1242242 35.89912 2.4536152
2.6039867 31.195759 2.6656921
3.0442066 30.286354 2.2599311
1.8313454 33.473183 2.2905869
1.1691674 35.095726 2.3637199
1.597132 34.225891 1.9751869
2.7532549 31.600994 2.1839952
2.7412133 31.579134 2.4568331
1.1673456 35.294861 2.5506551
2.3955321 32.318073 2.4430981
0.73884976 36.874195 2.6551714
2.4983611 32.112072 2.6352541
2.1123328 32.404152 2.5720992
3.3952043 29.7966 2.4566839
1.6459788 33.985416 2.5851665
2.6981025 31.692202 2.739809
1.2910049 34.59536 2.6386399
2.7747467 30.800472 2.1713817
2.4996886 32.020851 2.2438638
1.2855691 35.286385 2.1746759
2.690907 31.883156 2.0463023
2.146523 33.09346 2.3693874
1.0705498 35.266411 1.3423225
2.4474287 31.787712 2.4557195
0.88374567 35.81189 2.2625782
2.6622729 31.090658 2.7583201
2.9728134 30.898783 2.456758
1.7745749 33.498356 2.3727343
2.1817582 32.803085 2.5336676
0.96597946 36.041294 1.2287215
0.54795218 36.691158 2.4639604
1.1374784 35.785656 2.6413357
1.6476631 34.384209 2.2763298
0.66804427 36.312458 1.7868683
3.361357 29.394487 2.5474899
2.1991582 32.911949 2.6487095
3.0200276 30.111288 2.3683202
2.3276901 32.188446 2.5339649
1.1019135 35.717667 1.1704381
1.6638782 34.396801 2.6615324
3.4446874 29.770742 2.265342
1.1809894 35.512882 1.2213092
2.7869673 30.70211 2.1548285
0.69780672 36.907108 2.6652637
2.1480966 32.594818 2.2639139
0.93029487 36.032501 1.1876098
0.77799201 36.868786 1.9744099
3.0040112 30.12475 2.5653741
0.69504982 36.907169 2.4615486
2.6846166 31.705015 2.6633999
0.70121229 36.306351 2.1594529
2.155993 32.390213 2.1825976
2.228965 32.461224 2.2846496
3.3455536 29.493362 2.4645703
1.5851769 34.406174 2.6490121
1.7954794 34.007248 2.4618261
3.3227968 30.253056 2.5169759
1.6247833 33.980457 2.4436107
3.3280585 29.575861 2.6710072
1.7648951 33.495968 2.460891
1.0547712 35.992977 2.373188
1.9892921 32.80444 2.2583871
1.7074796 33.385246 2.5736773
2.4475458 31.887638 2.4702194
2.1876199 32.312405 2.5695257
2.4887905 32.197289 2.6546118
1.3185102 34.443737 2.7462463
0.70528823 36.812229 2.6957598
2.9732745 30.66194 2.2229736
2.4512351 32.285851 2.3609083
3.3635271 29.383408 2.6696939
2.8023636 30.717068 2.3631873
0.52620119 36.871948 2.2814412
2.8969162 31.103161 2.4623396
3.0377045 31.000507 2.5617802
1.6641825 34.381115 2.7491806
0.69340432 36.809536 1.9766486
0.86282891 35.794701 1.9211009
0.67035717 36.399292 2.3690336
2.4516985 31.691023 2.7518091
3.0377541 30.951235 2.0627687
0.67404836 36.286228 1.9530447
0.70513242 36.810745 2.4461398
3.0242784 30.996664 2.4013696
1.2528907 34.892605 2.3662839
1.968769 32.992176 2.4682107
3.1042101 30.524033 2.2702441
2.5903308 31.817472 2.4628756
2.1806574 32.297096 2.6548536
0.94571686 36.294128 2.2542775
2.1096826 32.763832 1.5534661
0.512694 36.56105 2.9585586
1.1520979 35.678814 2.1557729
2.8243642 31.548288 2.1635475
0.88926792 35.800842 2.3805482
2.5262876 32.284439 2.18946
1.6478639 34.399632 2.3721361
1.9759505 33.492115 2.0738325
2.4479866 31.78163 2.7490079
2.9744775 30.987743 2.6628847
0.65490544 36.396969 2.5504119
3.0217021 31.009384 2.2862301
1.7478554 33.783508 2.3662684
1.3490083 34.775181 2.3407967
0.99308443 35.504147 2.3716478
0.86185795 35.797371 2.6602829
0.89590424 35.790421 2.063622
1.1537436 35.18401 2.2541771
1.7930419 33.991829 2.3690853
2.4504707 32.291317 2.1754007
1.1984024 35.008209 2.1386361
0.48235998 36.903515 2.1831343
2.3968599 31.717346 2.8636231
1.5892564 34.394951 2.5705094
2.2862818 32.485077 2.3376148
1.1173826 35.595493 1.9892889
2.612891 31.100121 2.5793791
1.7325103 34.269135 2.4667883
2.6834159 31.109419 2.3715689
1.8813323 33.298897 2.172394
1.6096827 34.41037 2.2643194
0.83011442 36.084358 2.4640889
3.2983212 29.405821 2.6537945
2.9031658 31.018824 2.5591521
1.9648771 33.288879 2.7214446
1.8130288 33.824596 2.5017288
0.81341654 36.182144 1.4081271
2.8932738 30.503649 2.253561
2.3428612 31.990139 2.7517846
2.1527753 32.58704 2.3644044
0.69792682 36.319939 2.2693861
3.2476916 29.799374 2.6736598
3.3033023 29.388554 2.2502992
1.0464287 35.50161 2.1528594
2.4532418 31.691549 2.6498914
3.4431424 29.786129 2.364255
0.66197646 36.992855 2.2594388
3.3627393 30.177803 2.0492511
2.7398136 30.911861 1.9530734
2.9085317 31.013483 2.3761554
1.5489931 33.878223 1.8480036
0.77938229 36.190632 1.6571156
2.0931149 32.483871 2.4638906
3.3437445 29.563177 2.3468745
0.99290663 35.500496 2.4598861
2.9835236 30.892731 2.5533938
0.37515116 37.092079 2.5700812
0.65361714 36.285355 1.8683163
0.8792997 36.398865 2.2580066
3.322217 30.291452 2.1427634
1.6522218 34.394737 2.457938
1.9482585 32.88591 2.0825272
1.6666038 33.794712 2.3667765
1.466463 34.894806 2.5592589
1.6923971 33.495499 2.5054402
1.8494508 33.899181 2.0796916
3.1707292 29.798449 2.7518005
3.2530742 30.288029 2.1720724
2.6589606 31.287619 2.2534142
1.8097733 33.904274 2.361253
2.388165 31.719894 2.048285
3.3321311 29.577969 2.267189
2.0350795 32.902771 2.7403409
1.548385 34.862583 2.1554537
1.0432435 35.48185 2.2687554
0.77813423 36.305656 1.8731484
2.5298889 32.246586 2.3034568
1.3968076 35.010468 2.3591104
0.965361 36.204113 2.4607949
2.7425625 31.576714 2.3666043
1.9135067 32.994194 2.4441843
3.370713 29.708151 2.5541561
2.7384067 31.577864 2.5625241
2.9586253 31.187265 2.6590352
1.6170769 34.430408 2.7179513
3.2006948 29.619684 2.7536561
1.2617089 34.682716 2.7583284
1.1603665 34.99696 2.7495811
3.176748 29.797813 2.4610136
2.1489418 33.095196 2.4605799
2.6119297 31.110388 2.7455263
1.7351344 33.684097 2.4672432
2.1708734 32.99786 2.2639997
2.9593673 30.383427 2.6561885
3.1321208 30.077806 2.4589388
1.2396312 35.065269 2.3695316
2.6091027 31.816492 2.3569911
0.39261755 37.100712 2.2527351
2.5221372 32.245754 2.5965564
3.2812881 29.902611 2.4747279
0.80211109 36.233109 1.50538
3.0599682 30.370499 2.1619577
2.3729129 31.98131 2.1835644
1.6229165 33.973885 2.6568661
1.8372209 33.391342 2.6614349
1.9542177 32.993652 2.6551712
1.3625417 35.210457 2.0615106
2.2557783 32.401379 2.1927133
3.1611233 30.665613 2.8456929
2.4946337 31.508465 2.6555445
2.9743862 30.903345 2.3618014
1.4016391 34.174835 2.9273586
1.9596868 32.995052 2.5633235
1.6795474 34.485081 2.0769641
3.2401364 29.786234 2.5418005
1.4243323 34.385166 2.8716941
2.1441531 32.583843 2.4648888
1.464933 34.586849 2.627043
1.5315125 34.264168 2.4892137
0.82288754 36.062614 2.4041052
1.0591269 35.388439 2.3631482
3.2488878 29.790667 2.2623925
2.5925956 31.80937 2.5536771
1.9534332 33.09462 2.2697144
2.3784764 31.898628 2.368572
2.951333 30.390762 2.7620862
0.99682748 35.500328 2.1852028
0.76154959 36.190491 2.2624373
1.1462878 35.017788 1.9621289
2.2963915 32.609295 2.5538526
1.1018366 35.210529 2.3663969
0.90163064 36.304585 2.3679452
3.3139191 29.893141 2.2606256
1.0794365 35.086483 2.859967
2.4683771 31.692751 2.4670858
3.2444332 29.883385 2.7155824
0.70122468 36.815819 2.0536661
1.9845935 32.891628 2.266088
1.8376511 33.973995 2.4554205
0.77279872 36.095348 2.5631433
0.9988091 35.34269 2.4011564
1.1935117 34.817535 2.4836178
2.2496834 32.890858 2.6563709
1.8810098 33.100235 2.6578217
3.3953724 29.799149 2.3620799
1.3885521 35.088547 2.7600062
1.7836316 33.308353 2.1419268
0.78674531 36.596336 2.2575498
1.2448155 34.883545 2.4616361
3.0751343 30.505369 2.662154
1.4612795 34.280842 2.7707531
1.9956172 32.783504 1.4720783
3.2614286 29.887064 2.1190956
2.1687257 32.585701 1.6893232
0.44794869 37.078571 2.4467256
1.8967571 33.097355 2.2698889
1.410583 34.300362 1.8834765
2.8565307 30.827576 1.6545379
1.1995417 35.367599 2.7670679
1.0238988 35.392307 2.1029549
1.9965502 32.792747 2.3818359
0.69496644 36.211739 2.5450315
0.45488936 37.080627 2.5119591
2.6616831 31.281437 2.7552946
1.7540745 34.183216 2.7664318
1.3420982 35.030823 2.8551631
2.2038388 32.242336 1.8347025
2.4424484 32.389069 2.2756841
2.6752181 31.720758 2.851999
0.90287244 36.305119 2.6494281
2.2743714 32.38657 2.6637254
3.303262 29.322802 2.6870279
2.4568071 31.680159 2.8432813
0.65996373 36.288166 2.7577522
2.1853397 32.92625 2.1708732
1.939378 33.098419 2.8282361
2.4872782 31.429329 1.7544888
1.4969838 34.083473 2.1782691
2.1836655 32.992596 2.4579887
0.67060661 36.294697 2.662734
0.72916269 36.267002 2.674423
1.5798821 33.891911 2.8506005
3.2530224 30.274868 2.3604603
0.98344052 36.097393 2.0673087
2.9057474 30.409279 2.6732247
3.4491313 29.893286 2.6607928
2.7707038 31.172558 2.6722412
2.1071374 32.519951 2.0641646
2.0907841 32.606693 2.4580398
0.82875818 36.568398 1.8375933
2.7253757 31.078018 1.378854
0.85274047 35.895729 2.46298
2.4824421 32.192902 2.3727331
2.6391034 31.386906 2.0442252
2.1468699 33.100712 2.1610365
3.0989568 30.867821 2.757251
0.56207585 36.494274 2.8561625
2.1725521 33.097202 2.7555223
1.9872476 32.874668 2.8357458
1.8536094 33.198193 2.8516445
1.8474672 33.207863 1.8443017
1.5373472 33.98217 1.8805608
0.6433602 36.300304 2.9590216
2.0941629 32.516972 2.5663667
3.4205718 29.907707 2.1683373
2.5624559 31.601738 2.6496396
1.3947855 34.400475 2.4690902
3.2855737 29.504021 2.6652169
2.1340821 33.10627 1.9525052
1.9842366 32.898167 2.5582693
1.0870731 35.302807 2.1768169
1.4594026 34.896755 2.3631246
0.68766713 36.296631 2.4683373
1.7901803 33.409523 2.4589353
2.4624248 32.39333 2.0823452
2.6000738 31.585758 2.8181677
2.8069158 30.602121 2.7367699
0.79203004 36.602459 2.3650362
2.3812718 31.89555 2.4662313
3.4434874 29.88871 2.5584118
3.4578598 29.890293 2.7608929
2.0973768 32.426773 2.8591101
1.8564879 33.962311 2.1417413
3.0528438 29.909321 2.0578821
3.1484721 30.485806 2.3732944
0.83781648 35.789677 2.936975
2.4101365 31.68281 2.1721802
2.3856461 32.097492 2.7686803
1.9701971 32.894196 2.6588111
2.0952404 33.209766 2.4506664
1.0503933 35.457855 2.6481791
0.80596071 36.613621 2.5668709
0.69299465 36.195396 2.6612701
1.5573719 35.028336 2.1495261
0.58848935 36.409195 2.6694317
1.5663556 34.102028 2.2599652
1.3907971 34.49144 2.1907506
1.9338176 33.794903 2.2208803
1.7479012 33.575394 2.8580382
1.9588962 33.596176 2.4594467
3.429389 29.920595 2.0536544
3.4416509 29.899145 2.4797859
1.9586797 32.993233 2.7522111
2.0782299 32.781673 2.165293
2.6887496 30.900127 1.8693578
0.50959951 36.602688 2.6641967
