# .PCD v0.7 - Point Cloud Data file format
VERSION 0.7
FIELDS x y z
SIZE 4 4 4
TYPE F F F
COUNT 1 1 1
WIDTH 740
HEIGHT 1
VIEWPOINT 0 0 0 1 0 0 0
POINTS 740
DATA ascii
-6.4962397 23.477007 -0.65859038
-6.7770767 23.307308 -1.1475279
-5.8299656 23.505089 -1.6422862
-5.8052015 23.604328 -1.6938651
-6.346633 23.414957 0.075680912
-6.8882537 23.193491 -0.6200729
-5.7478056 23.653801 -1.9030542
-6.2452803 23.459789 0.1686521
-6.2422295 23.474657 0.25108883
-5.8517556 23.578468 -1.6402792
-5.8950124 23.668568 -1.3724165
-5.6928101 23.679363 -1.6592383
-5.8368468 23.558907 0.27403909
-7.0159192 23.222843 -1.5882008
-5.6251988 23.676514 -1.7358758
-5.8323359 23.539814 -1.1079565
-6.0177727 23.486938 -1.7364277
-7.150094 23.253901 -0.93008965
-6.0249548 23.447456 -1.3274803
-6.5588074 23.356092 -0.95790911
-6.4447284 23.407272 0.157557
-6.7384458 23.324064 0.9460113
-5.9395885 23.523117 -1.628492
-5.796176 23.612095 -1.8366498
-5.6993132 23.664385 -1.8482423
-6.6106114 23.380852 -1.2281576
-6.944087 23.287914 -1.0611936
-7.0737901 23.237209 -0.63277626
-6.4455023 23.495054 1.0690134
-6.8123589 23.332779 1.112571
-6.8939338 23.235723 -1.7067522
-6.9228001 23.238537 -0.8121655
-6.1403217 23.428877 -1.3269981
-6.8916721 23.234535 -0.73600703
-7.0588627 23.232695 -0.84481591
-7.0078349 23.312588 -0.9778204
-7.0363178 23.205467 -0.73472524
-7.0470872 23.220575 -0.26656944
-5.7378063 23.576612 -1.6351763
-6.2275872 23.467567 -1.556152
-7.0683403 23.230446 -1.0355971
-6.0393395 23.585018 -1.6273206
-6.4421787 23.340635 -1.4798198
-6.7280912 23.383188 0.92290211
-7.1110792 23.255806 -0.83654773
-6.6252804 23.384193 -1.3477415
-6.4133563 23.470181 -0.71550703
-6.5325508 23.380312 -0.63116366
-5.9911675 23.563251 0.6149385
-7.1222305 23.225729 0.067260697
-5.8451505 23.594776 -1.4271686
-6.507216 23.371958 -1.5531559
-5.8240986 23.637341 -1.2524167
-5.7101278 23.612122 -0.45169875
-6.4222889 23.456928 -0.63893694
-6.1766376 23.419067 1.0551144
-6.6219788 23.32066 -1.1096607
-6.0934272 23.477194 -1.6361347
-6.5452814 23.376598 -1.3026725
-5.8553672 23.512539 -0.9533999
-5.803133 23.583094 -0.64834249
-6.5710406 23.372082 -0.81429422
-5.7362218 23.539654 -0.53962833
-5.8326988 23.517 0.26251647
-5.8360891 23.581656 -0.33910641
-5.8425236 23.513884 0.67142498
-5.845932 23.532127 0.36478409
-5.8291764 23.511959 -0.86936527
-6.1459565 23.487602 -0.079271622
-6.2799921 23.482334 -0.80912429
-6.7430296 23.432985 -1.2767553
-6.6545148 23.339594 -1.2528453
-5.920073 23.560987 0.50039387
-6.9284472 23.272781 -0.83375722
-6.6937256 23.373508 -0.9949342
-6.66222 23.315042 0.079740077
-6.7581229 23.39514 -0.14031067
-6.7199192 23.376781 -0.5853492
-6.6163368 23.343107 -0.35860184
-6.7286129 23.353325 -0.71164525
-6.3989434 23.458176 -0.54212391
-6.407948 23.447834 -0.45835528
-6.7713771 23.261776 -0.79269874
-6.7590551 23.356205 -0.24124213
-6.3341293 23.308258 -0.76052547
-6.520812 23.369385 1.0558319
-6.3010173 23.423105 -1.4387698
-6.9017401 23.299568 -0.66892201
-6.840395 23.313553 -1.1422827
-6.8397927 23.319786 -0.92879939
-6.8430815 23.292662 -0.83744901
-6.7265635 23.307037 -0.72172463
-6.8619285 23.27898 -1.0308164
-6.8180385 23.280476 -1.4394153
-5.9382157 23.551634 0.21900162
-6.7533751 23.32114 -0.12528558
-6.7472873 23.326925 -0.25448
-7.0415273 23.289036 -0.12890638
-6.7296367 23.314844 -0.65320772
-6.9680042 23.244917 1.2051536
-6.835578 23.298559 0.15411529
-6.4117384 23.41073 0.94027728
-6.9335108 23.302851 -1.6396344
-6.8256545 23.313505 0.85057271
-6.5240498 23.395426 -0.45804054
-5.7379045 23.58923 -0.12560704
-5.8516059 23.509769 -0.54845244
-6.2139115 23.499769 -0.65197563
-7.0318284 23.207281 0.75888449
-6.7437477 23.229431 -0.85998642
-6.2080889 23.466177 -0.018279647
-5.8389091 23.579382 0.55026054
-6.3489375 23.305286 -1.2001193
-6.5701261 23.363218 -0.72380733
-5.9369102 23.537556 -0.42995191
-6.8085251 23.367216 -0.34852523
-7.0943947 23.282888 -0.30314055
-5.7920628 23.543877 0.1220848
-6.1435213 23.390411 -0.24387434
-5.999548 23.578783 0.24628888
-5.8198719 23.580639 0.94959652
-7.0504985 23.236988 0.86638355
-6.2836494 23.334263 -0.89439577
-5.8334846 23.568478 0.87711346
-6.2247329 23.465704 -0.74552464
-5.7207217 23.593235 0.048803959
-7.1013889 23.288683 1.0581925
-6.0255919 23.559866 0.73792756
-6.7473211 23.25095 0.60254496
-6.2097888 23.463223 1.0371579
-6.706193 23.301785 0.31252319
-6.5543242 23.380672 -0.046404913
-6.6296558 23.37221 0.7596367
-6.5609241 23.377682 -0.16920002
-6.6455383 23.33308 0.7626273
-6.6406431 23.325502 -0.63206112
-6.6086168 23.384193 0.56943685
-6.9541841 23.346291 -0.071775571
-7.1416388 23.270601 0.042807508
-6.4221916 23.406881 -0.34450889
-6.2220521 23.471689 0.95319897
-6.8429275 23.380976 0.57065958
-6.6426983 23.322975 -0.036187902
-6.1323776 23.476608 -0.32740468
-7.0518947 23.219946 0.38416848
-7.1433043 23.227854 -0.051885441
-6.4174938 23.416414 0.76247621
-6.9877076 23.233061 0.18707612
-6.164896 23.429823 -0.72037303
-6.3196683 23.46018 0.85901123
-6.1258211 23.490082 0.76614183
-6.3098502 23.460196 -0.64876455
-7.1464429 23.269485 0.46680021
-6.0527167 23.625555 1.0594412
-6.1285009 23.495787 0.85108876
-6.2554474 23.472252 1.1232519
-7.143105 23.226471 0.88302505
-6.6418033 23.355844 0.4165096
-6.3040795 23.421175 -1.5148985
-6.4110045 23.468512 0.75892216
-6.5403385 23.399233 0.75567126
-5.8391085 23.510817 -0.22859694
-5.8370552 23.525826 0.55625802
-6.2380657 23.553642 0.4082132
-6.4527659 23.372223 -1.0481604
-6.4503341 23.383413 -1.3272578
-6.2270284 23.469105 -0.14900362
-5.6963134 23.714165 -2.096539
-5.7240605 23.511686 0.052996993
-6.2681651 23.46703 0.66778165
-7.1368742 23.263458 0.38277847
-7.1999083 23.282803 -0.21978065
-6.4506807 23.471189 0.54997855
-6.7227259 23.368603 0.83987921
-6.5713835 23.334137 0.8759892
-6.9343534 23.307966 0.57069021
-5.8392801 23.510067 -0.039277986
-6.8477011 23.356609 0.74372518
-6.761971 23.324219 0.25540066
-6.8391185 23.356554 0.81748176
-5.788096 23.684828 -1.1431353
-5.9428115 23.520432 -1.2671615
-6.1105862 23.48695 -1.0202644
-6.5240231 23.339306 -0.52582729
-5.8309245 23.5287 0.95546955
-7.2260771 23.214073 -0.22485168
-5.9165306 23.550615 -0.33222237
-5.8291945 23.579393 -1.1291268
-6.3186836 23.419144 -0.72497183
-5.7312665 23.605106 -1.5334886
-6.8231688 23.3654 0.6409936
-5.8516192 23.532362 -0.1275937
-5.9108148 23.520588 -1.1211659
-5.8302631 23.51639 1.0575019
-6.5362158 23.445845 0.50394511
-6.3186545 23.407856 -1.3280797
-6.0415368 23.549793 1.1635054
-6.1079388 23.340805 -0.95872658
-6.9021325 23.313887 -1.136919
-5.8030081 23.654472 -0.063093081
-7.1301074 23.270716 -0.040074542
-5.8263979 23.566534 0.47123459
-5.9318662 23.588802 0.15107045
-6.2560849 23.465706 0.57301092
-6.6153345 23.308161 0.56329066
-7.0469661 23.27352 -0.053379208
-6.027389 23.497679 -0.23798519
-6.5263653 23.388494 0.68271548
-6.3469143 23.398006 -0.042472988
-5.9319162 23.521828 0.75485235
-6.8372383 23.289118 -0.7352882
-6.8370938 23.232533 -1.2289919
-5.8216214 23.565716 1.1529673
-6.6153469 23.306808 0.65767926
-6.5432673 23.337711 0.66482973
-5.9237638 23.522957 0.94133824
-7.1128521 23.27034 -0.22024244
-5.8242207 23.587509 0.048071988
-6.923965 23.35288 0.64042372
-6.1208935 23.551697 0.87674356
-6.6388083 23.316002 0.84880847
-6.6392856 23.303225 0.15286404
-6.4371357 23.422218 0.33800557
-6.6248546 23.378717 0.056698423
-5.8434157 23.603821 -0.44594523
-6.0183024 23.499537 0.35425746
-5.7277627 23.57873 1.0572876
-5.9272637 23.518398 0.55011648
-6.2010803 23.471849 -1.3124981
-6.4304662 23.398861 -0.45033702
-6.5317812 23.356951 0.5704273
-6.7281547 23.324198 0.75929356
-5.6799703 23.659611 -1.706118
-5.9219398 23.52869 1.0370716
-6.8669801 23.285803 -1.2230891
-6.436976 23.374826 0.089839816
-6.3236165 23.420208 0.93922371
-5.921072 23.519194 0.48496488
-6.5408335 23.385893 0.85551172
-5.7979565 23.560095 0.36882055
-6.5468512 23.394196 0.97782755
-6.290401 23.54558 -0.34022626
-6.8352327 23.313389 0.66267657
-6.0435014 23.617908 0.16321196
-6.3434668 23.43047 1.0681698
-6.7389297 23.330776 0.85104293
-6.332458 23.424419 0.5532009
-6.8377423 23.282133 -1.3795155
-6.8371687 23.238382 -0.64162403
-6.5093699 23.255037 -1.4934804
-5.8979082 23.554123 -0.028342754
-5.9241848 23.522791 0.8699525
-5.7104282 23.600723 -0.53243726
-6.0226645 23.491383 -0.050962195
-6.6060071 23.378799 -0.25542563
-6.8076844 23.386566 -0.4233357
-6.2309589 23.473234 0.85566771
-5.9165044 23.530714 1.1556219
-6.9210114 23.304079 -0.31737277
-6.6483502 23.363522 -0.015277156
-6.6490879 23.330631 -0.44594467
-6.348949 23.415579 -0.5475806
-5.7160134 23.583998 0.76878864
-6.3023634 23.411949 -0.83887273
-6.6484065 23.382816 -0.37277278
-7.0222492 23.272549 0.76304108
-5.7174778 23.603037 -0.34335896
-5.7241826 23.587111 1.168407
-6.4954853 23.383059 0.35808092
-6.6423869 23.377907 0.6834116
-6.1113682 23.492155 -0.64908403
-5.9423475 23.499115 0.26613879
-5.9810538 23.443129 0.98761576
-7.1502671 23.229206 0.7716701
-5.8355927 23.531654 0.77520508
-5.7465878 23.577612 0.6588915
-6.5925717 23.412033 -0.1624174
-6.4504547 23.380421 -0.93834031
-5.8297052 23.57423 0.64686912
-5.9229112 23.576015 0.76988417
-5.9337058 23.507299 0.65109372
-6.5318809 23.318062 -1.2364274
-6.8491368 23.288052 0.96922475
-6.5549922 23.401173 0.17350154
-7.0359182 23.272295 0.22679412
-6.026876 23.578951 -1.0608212
-6.1564145 23.426561 -0.47593996
-6.3721266 23.430693 0.50473464
-6.6281962 23.376726 0.85248965
-6.8118153 23.35055 -0.73108721
-6.5067525 23.388277 0.2659364
-5.9151678 23.567854 -1.0316927
-6.1235013 23.49523 0.47931737
-5.8067207 23.554462 1.0320017
-6.7358603 23.375937 -1.1064731
-6.5362606 23.338327 -0.46867451
-7.0342603 23.283432 0.66067594
-6.2237124 23.432291 -0.26531535
-6.0938659 23.38471 0.95673895
-6.9265862 23.275021 1.2197927
-6.7429018 23.316578 0.65983951
-5.9013023 23.576111 0.051307086
-6.2212586 23.431393 -0.93462497
-6.5314794 23.378626 -0.3602362
-5.6162567 23.671793 -1.5283848
-5.9144001 23.579226 0.34054819
-6.0275116 23.506409 0.65656519
-7.1372523 23.235949 -0.14709799
-6.0336938 23.473644 -0.74109149
-6.5383291 23.491959 -0.52049166
-6.0708613 23.504965 -0.55246592
-5.7188005 23.599567 0.86329573
-5.8142343 23.566158 -0.12408255
-6.1814508 23.48093 -0.91012812
-7.1921015 23.257534 -0.38548905
-6.1267734 23.410667 0.66826206
-6.334446 23.373413 -1.152913
-5.8257837 23.572269 -0.23725648
-5.9386058 23.550978 -0.52126098
-5.8069715 23.577179 -1.352339
-5.9485312 23.519917 -0.94427156
-7.2060075 23.286171 0.75995249
-7.1264582 23.27363 0.66885203
-6.9151955 23.28598 -0.74162006
-7.0330615 23.265493 0.13823748
-6.9405484 23.298082 0.49822921
-6.0249395 23.502981 0.94447541
-6.9241037 23.292286 1.0404093
-7.1244259 23.188702 -1.2712085
-6.06528 23.569798 -0.043865196
-6.9468036 23.38652 -0.14990744
-6.0291691 23.41567 -0.2502498
-6.2478991 23.421951 -0.66873288
-7.0537229 23.233738 -0.9181459
-6.7723737 23.287996 1.0191205
-7.0222278 23.283781 0.94309092
-6.2051201 23.469769 -0.23547746
-6.3424392 23.459539 -0.57294917
-7.2348361 23.215723 -0.046871644
-5.8196626 23.49403 0.06670548
-5.8373322 23.527262 0.47442651
-6.7223716 23.289883 0.45896813
-6.3170204 23.395679 -1.0345069
-6.9304852 23.356197 0.50492972
-5.8051815 23.56213 -1.9283
-5.7316809 23.675947 -1.5697994
-6.3263855 23.500458 0.57138675
-5.8111649 23.575424 0.15070347
-6.5712171 23.338596 1.0805218
-5.6971111 23.673491 -1.3498108
-6.9226084 23.364983 0.86020553
-6.3227344 23.424238 -0.36256149
-6.6218719 23.293152 -0.98133671
-6.8130651 23.289604 -0.63975221
-6.2378898 23.421959 -1.2406859
-5.8148279 23.567402 0.7491383
-6.5329218 23.422102 -1.451726
-6.8307552 23.300537 0.29031146
-7.0160103 23.274765 -0.3118799
-6.8696213 23.244665 -0.32007295
-6.8432741 23.300552 -0.069608107
-6.0104308 23.496939 -1.1492575
-6.7114 23.364889 -0.41161132
-6.2615066 23.439039 -0.18850872
-6.8290329 23.297335 0.46016195
-5.7035041 23.610994 -0.65081429
-6.8474727 23.309748 0.57037628
-5.8251038 23.564905 -0.054599013
-6.3098092 23.432487 -0.27989873
-5.7340021 23.58005 1.2465038
-6.7161999 23.327785 -0.42150167
-6.3393536 23.460735 -0.34715134
-6.244174 23.419094 -0.41663116
-6.0153847 23.493738 -1.0184956
-5.9215856 23.566725 -0.65645623
-6.7392964 23.230961 -0.78395408
-6.0472507 23.403934 -0.65166879
-5.9328189 23.517372 -0.13460433
-6.0593739 23.392462 -0.74151325
-7.1707926 23.222748 -0.58165759
-5.906105 23.570919 -0.88390517
-6.7331438 23.313225 0.084859014
-6.8071103 23.323076 -0.39288065
-6.1234446 23.487364 0.6604811
-6.4023447 23.418285 -0.73192126
-5.9457135 23.431448 -0.8246066
-5.9285192 23.556877 -0.93561143
-6.6460886 23.337791 -1.3288491
-6.9407558 23.301231 -0.049714088
-7.1370792 23.225117 0.64062381
-6.3431921 23.424719 0.8484183
-6.1436424 23.409575 -0.62827247
-7.1471825 23.220997 0.56808317
-5.8490801 23.519941 1.1586721
-6.4250393 23.409971 0.84751773
-6.9969654 23.2931 -0.65415764
-5.9134879 23.414839 -0.89180589
-5.731709 23.583666 -0.03106712
-5.8846064 23.561476 -1.4043287
-6.0619602 23.360855 -1.1241593
-5.7032814 23.611229 -1.4116914
-6.5267019 23.381029 -0.52997142
-6.3353796 23.405331 -0.4332068
-6.9398899 23.293076 0.85539466
-5.9429684 23.515766 -0.23339279
-6.3434267 23.4223 0.76999933
-6.1333108 23.456892 -1.1451358
-5.7089663 23.666489 -1.4491488
-6.0411019 23.499519 -1.4539585
-6.0046873 23.513748 -1.6381472
-6.1001811 23.492554 -1.2256492
-6.134872 23.462021 -1.4271264
-6.5217581 23.396324 -0.22279607
-6.1465125 23.45623 -1.3719367
-6.0834641 23.597265 -1.5436273
-6.1642747 23.572189 -0.94642669
-6.2462473 23.471869 0.77530539
-7.1384048 23.273251 0.17394102
-6.9257827 23.304384 -0.23445776
-6.8216381 23.317158 -0.32448703
-6.3306084 23.410057 0.66284859
-5.9491105 23.512592 -0.31359529
-6.9272432 23.312618 -0.39567727
-7.1662235 23.221117 -0.36460316
-6.7227349 23.369696 0.751046
-7.2382193 23.201193 0.88574868
-6.3348575 23.467638 -0.43480644
-6.9309602 23.297915 0.65345305
-6.044426 23.434193 -0.44944528
-6.9399133 23.307955 -0.15771361
-7.1123567 23.266129 0.54793054
-6.6080275 23.238758 -0.5671376
-6.6477947 23.370255 -0.72601604
-5.9287095 23.566542 -0.22508743
-5.755497 23.512691 0.63702136
-6.0612135 23.548315 -0.46757984
-6.1424508 23.42625 -0.82965428
-6.3367867 23.414717 -1.2352543
-6.0486345 23.420984 -0.56978005
-5.8386312 23.531586 0.8725853
-6.2390909 23.49107 0.43154219
-7.1321635 23.226042 -0.22566032
-6.8319178 23.358461 -0.23606122
-6.3355312 23.439911 -1.5972829
-6.8220992 23.313086 0.77170515
-6.3162398 23.454254 0.65569019
-5.924664 23.574644 0.87722945
-7.0194421 23.263634 -0.85281748
-6.1701446 23.49435 -0.57914221
-6.0459251 23.492563 0.078676999
-6.8115854 23.346649 -0.81077147
-6.9607329 23.230015 0.97399676
-6.4375563 23.386723 0.56123149
-6.2335324 23.415762 0.23442854
-5.9436989 23.484808 -0.56862015
-5.9371986 23.503637 -0.85323805
-6.7081451 23.24181 -0.39203531
-6.8983169 23.287306 0.9608627
-6.1283398 23.555153 0.7637732
-6.9195309 23.294809 0.77215683
-6.2160597 23.422289 0.55280817
-5.9344645 23.512888 -1.0228263
-5.7465625 23.648535 0.95392025
-6.215169 23.466698 -0.81888372
-5.71106 23.604689 -0.23010918
-6.0141082 23.562578 -0.93801343
-5.8401418 23.501534 -0.45406353
-5.8448591 23.515018 -0.63346189
-6.2521963 23.435625 -0.73634666
-5.8289571 23.516369 -0.75518906
-6.0011539 23.568846 0.85475403
-6.211657 23.465332 -0.34470195
-6.418704 23.406233 0.46931154
-5.8277926 23.552361 -0.72171599
-6.6017408 23.383512 0.16299152
-6.0257149 23.574558 0.96114826
-7.1230097 23.268394 -0.14883819
-6.935462 23.281317 -0.93106389
-6.0313597 23.496193 -0.84775704
-5.9347663 23.647717 -1.5008126
-6.5485606 23.382053 0.48561391
-6.7231054 23.373552 0.66061872
-5.7977691 23.574203 -0.55566514
-6.1365442 23.492538 1.1153774
-6.1146936 23.497179 1.0499271
-5.9396539 23.563028 0.63914585
-5.9196725 23.565205 -0.12601903
-6.4024935 23.461626 0.87884831
-6.2483015 23.411814 -1.0538694
-5.8447685 23.509474 -1.4625906
-7.0238991 23.289322 0.57085413
-6.0529718 23.433893 -0.86230838
-7.0253978 23.279987 -0.24254835
-6.0166445 23.55595 -0.33095118
-6.1391983 23.41766 -0.93928415
-7.1571426 23.248432 -0.60382986
-6.3434286 23.492565 -1.536216
-6.4432197 23.396917 -0.54777735
-6.4215827 23.296333 -0.67471421
-6.466989 23.344019 -0.89535993
-6.4551449 23.384426 -0.26722306
-6.4517846 23.395847 -1.1612077
-6.4199967 23.409542 -0.6264801
-6.4235687 23.398926 -0.047450233
-6.425961 23.396465 -1.2415959
-6.3861523 23.337902 -0.75978661
-6.127089 23.472462 -0.40951622
-6.5307798 23.39043 -1.2411528
-6.7301126 23.31255 -0.55114192
-6.7506914 23.332823 -0.34405527
-6.8275871 23.304508 -0.52837235
-6.2171211 23.417692 -0.52213973
-6.9033165 23.245483 -0.23055948
-6.3094473 23.434917 -0.17929146
-6.4091992 23.410242 -0.13503908
-6.5582352 23.472115 -0.36377424
-7.2140546 23.211075 -0.9434613
-6.7031245 23.383907 0.28274855
-6.3827677 23.409607 -1.5431424
-7.1399231 23.183533 -1.4182444
-5.9359088 23.571144 0.54774851
-5.8669505 23.558174 -1.5792389
-5.846271 23.532434 -1.0274193
-6.902874 23.302397 -1.4766078
-6.1356292 23.563328 0.31768158
-6.1458859 23.431744 -1.0247284
-6.1097417 23.422813 -1.447207
-6.7490683 23.279827 -1.0254046
-6.7478971 23.308369 -0.93319893
-6.5375214 23.381447 -1.1651176
-6.6338415 23.328211 -1.5097078
-6.2514253 23.421797 -1.5517524
-5.9212852 23.520214 -0.051570836
-6.8613243 23.293732 -1.6987306
-6.7524438 23.295029 -1.5211198
-6.8360133 23.325867 -1.5558623
-7.0314217 23.2806 -1.1249676
-6.2058859 23.456041 0.01218085
-6.1259532 23.427746 -1.1454219
-6.1243758 23.422661 -1.242286
-6.5296874 23.34948 -1.6422284
-5.7732573 23.535444 -1.7426656
-6.3013024 23.487972 -1.2656418
-6.3517432 23.402649 0.24216886
-6.4959364 23.354553 -1.0012958
-6.8910403 23.25967 -1.2134695
-6.2096362 23.41371 -1.1358182
-6.3896747 23.342247 -1.0034164
-7.0759816 23.273155 0.48825413
-6.2098074 23.414103 -1.311761
-7.0471373 23.272772 -0.74875438
-6.6388116 23.213036 -1.1129825
-7.082612 23.25132 -1.6137853
-6.3670635 23.310179 -1.1655002
-6.4079456 23.324934 -1.2644128
-6.3800964 23.44766 0.13015385
-6.7600551 23.192284 -1.1295384
-6.7193456 23.403582 0.42095283
-6.0214567 23.504251 0.47130999
-6.8530507 23.217888 -1.3871398
-7.2074647 23.255056 -1.7275637
-5.7282047 23.577301 0.96117592
-6.8515315 23.350771 0.26073393
-7.0330911 23.262247 1.0537286
-7.0144591 23.27824 -1.5326322
-7.1281528 23.279125 -1.0278987
-6.7809963 23.375561 0.13819665
-6.3041306 23.461939 0.94379216
-7.0976024 23.275917 0.75465232
-6.4277692 23.409492 0.68105054
-7.1089973 23.270414 -0.75391036
-6.9029007 23.345762 -0.24150437
-6.418859 23.487679 0.97880858
-6.331501 23.463623 -0.026790284
-7.1894407 23.253271 1.0120076
-6.0917039 23.504677 0.31633994
-6.1209559 23.490137 0.21924335
-5.7069082 23.685425 0.76099622
-6.3017073 23.466679 -0.7201646
-6.1384382 23.438728 0.42684418
-6.3118515 23.467072 0.07185559
-6.3735623 23.451502 -1.0303837
-6.3261557 23.530712 1.2382401
-6.0449419 23.484873 -0.3243697
-6.3390198 23.49028 -0.26020235
-6.3209505 23.46583 0.77063119
-6.3512993 23.485462 0.34516945
-6.038785 23.497152 -0.61455297
-6.3576417 23.454365 -1.3298959
-6.347168 23.472763 0.43019179
-6.721272 23.360765 -0.65359581
-6.0071187 23.48913 1.1616918
-6.0351491 23.50466 0.86548895
-6.7869754 23.335566 -1.6456769
-6.2185454 23.418165 1.0882148
-6.0351162 23.504663 0.75694984
-6.585125 23.403952 -1.1182787
-6.0550704 23.499853 -0.39172527
-7.2277899 23.256014 0.037539367
-6.0338988 23.500225 0.1441911
-7.2311077 23.21158 -0.86668748
-6.4551477 23.489574 0.47308713
-7.0470729 23.243393 -1.3984661
-6.6075778 23.299047 0.33633563
-6.15763 23.431932 0.57209206
-6.2102838 23.560579 -0.66386086
-5.8271961 23.489342 -1.8247216
-6.0536613 23.496769 0.26236328
-6.5416231 23.329788 0.53931296
-6.9704819 23.345802 0.75397021
-6.1214457 23.574608 -0.76518458
-6.166739 23.435963 -0.33479339
-6.3411131 23.570621 0.91312224
-6.0164833 23.505684 -0.93512654
-5.9213681 23.521713 -0.75195485
-5.9003854 23.603104 -1.1368375
-5.7881031 23.667471 0.77219635
-5.8283005 23.56966 -1.0345595
-6.341711 23.483334 0.17913452
-6.0244293 23.499691 -0.14563978
-5.9045992 23.630564 -1.1950532
-6.600553 23.470661 -0.38764533
-6.7228503 23.364546 -0.34932864
-5.8136864 23.515232 -1.7297678
-6.8191452 23.29394 0.33396813
-6.0346198 23.506809 1.0556097
-6.0611238 23.563547 -0.79132688
-6.0297375 23.50066 0.56112903
-6.7083864 23.304785 -1.661926
-6.2077451 23.478529 -1.2052023
-6.0492907 23.579264 -1.434356
-6.0276642 23.481712 -1.5388683
-6.0044613 23.578638 -0.68725687
-6.0380135 23.556667 -0.24237426
-6.2636909 23.501881 -1.1383193
-5.9333091 23.512157 0.36826673
-5.7311268 23.590216 -1.7304882
-6.2180295 23.491194 -1.4144953
-6.7917776 23.285656 0.057726145
-6.2256308 23.467472 -0.56779605
-6.8385863 23.335997 -0.14440721
-6.8484688 23.241714 -1.7087359
-6.6388464 23.31637 -1.0496153
-6.6433344 23.457672 0.49095017
-5.9531264 23.504169 -0.66962302
-6.6422772 23.324902 0.5058701
-6.1162415 23.498064 0.97783899
-6.1181693 23.484379 0.57416964
-6.1310081 23.491842 -0.14387859
-5.8336124 23.563978 -0.95172721
-5.8445392 23.576656 -0.85923761
-6.8434238 23.323059 -0.25426996
-6.6231737 23.372864 -0.63013804
-5.8182888 23.674858 -1.4185324
-6.6245942 23.370605 -0.44331101
-6.6566486 23.410831 0.22636965
-5.6272054 23.673798 -1.6406877
-5.9980412 23.439348 1.1324968
-6.403986 23.5553 -0.78160328
-6.8391852 23.361746 -0.030917535
-6.2228832 23.42753 -1.4494448
-5.8853226 23.553679 1.1506306
-6.5057664 23.341228 -0.9196406
-6.3288312 23.496048 0.22962818
-6.4625387 23.337004 -1.1865059
-5.9256735 23.49929 -1.7226064
-5.911314 23.496422 -1.5288463
-6.4169602 23.394531 1.0389135
-7.0298867 23.271404 0.83903503
-7.2168655 23.272987 0.48193645
-6.1928673 23.545565 0.76246458
-6.1381507 23.484777 -0.92262357
-6.5345707 23.315886 -1.344938
-6.5348892 23.315722 -1.0636309
-6.1299791 23.477924 -0.83414197
-5.8360267 23.647547 -0.14147113
-6.0998163 23.568054 0.62370318
-6.6328764 23.316532 0.98677325
-6.0896854 23.613846 0.11054363
-5.9199934 23.553078 0.9540689
-5.9052873 23.564739 1.0819875
-5.7407193 23.527203 0.72288811
-5.9399018 23.514521 -1.3164384
-5.9252458 23.493177 -1.4546278
-6.26963 23.574493 1.23242
-6.3925848 23.258501 -1.3491752
-6.3110795 23.34292 1.031197
-6.2392759 23.429523 -0.34859592
-6.2489572 23.423737 0.97138947
-6.24967 23.450304 -1.0230336
-6.1267896 23.488562 -0.73662657
-6.1450205 23.59013 -0.80613345
-6.631906 23.326839 1.0517118
-6.631597 23.456406 -1.2175882
-7.0510426 23.229584 -0.30409476
-6.08675 23.493256 0.14379266
-6.6390543 23.33058 1.1554954
-6.5381012 23.367918 0.058276568
-6.277997 23.556351 0.90262467
-6.5164833 23.381863 -1.716126
-6.2372231 23.411823 0.64536834
-6.7488728 23.336836 -1.7040195
-6.6333027 23.330141 -0.54406345
-6.6231947 23.368612 1.062104
-6.5824747 23.364019 -0.9827314
-6.6351194 23.378471 -1.0636685
-6.6452794 23.29949 -1.4330614
-6.1203923 23.479189 -0.24046916
-6.6235852 23.327932 -0.74751812
-6.079514 23.527143 1.2455549
-5.9195991 23.572962 -1.5298074
-6.5505867 23.34296 -0.61555529
-6.7952414 23.364611 -0.92271745
-7.1627417 23.212669 -1.0214924
-7.1565619 23.228323 0.47468674
-6.723825 23.336487 -1.4199057
-7.154305 23.220316 -0.93991351
-6.6053743 23.369505 -0.52193171
-7.0897231 23.226936 -0.77717757
-6.5064902 23.335325 -0.34374088
-5.8020258 23.652264 -0.47919214
-6.510191 23.5107 0.69044936
-7.2309527 23.222462 -0.14032145
-6.4001265 23.458607 0.69565326
-6.4326935 23.366989 -0.84095085
-7.1511388 23.222734 0.33963829
-7.1353664 23.222179 -0.83230281
-6.8363876 23.352724 -1.0071172
-6.1426344 23.506338 -1.5559776
-6.6221685 23.383039 0.94795376
-7.2097225 23.265259 -0.030873394
-6.4658194 23.335045 -0.56933147
-6.2176118 23.427914 -0.83196872
-7.1121988 23.269032 0.87053496
-6.3413091 23.417879 -0.94991481
-6.2349644 23.458834 -0.41809148
-6.346107 23.428444 -0.65056878
-5.9552255 23.338772 -1.015188
-7.1430345 23.279696 0.95383894
-6.9439492 23.367064 0.57996494
