# .PCD v0.7 - Point Cloud Data file format
VERSION 0.7
FIELDS x y z
SIZE 4 4 4
TYPE F F F
COUNT 1 1 1
WIDTH 1555
HEIGHT 1
VIEWPOINT 0 0 0 1 0 0 0
POINTS 1555
DATA ascii
2.9319775 -0.11905852 1.3712885
39.389881 13.445866 2.5562592
1.2537878 -2.6117861 1.8641485
29.865696 9.7097874 -0.83897936
30.782194 10.067443 -0.5626865
37.142612 11.115475 -1.0107434
17.128063 4.3409405 -0.016353743
0.16559702 -1.5739818 -0.72733033
37.370762 11.247581 0.3554478
34.379951 11.412405 -0.088364474
38.754242 13.014845 0.051240608
28.804924 7.9600906 -1.5436374
37.518059 12.765491 -2.1152391
28.197676 7.7548823 2.5133879
16.930893 4.7852402 -2.4113867
39.477699 13.224677 -0.03810579
34.874165 10.227838 0.2616888
2.3817506 -0.66180587 0.93769056
23.685814 6.7653017 0.53260136
37.007645 12.622437 -0.63385415
17.860481 5.1161714 -2.1149609
34.237495 10.764453 1.7952869
19.776213 5.9142375 -2.1227491
21.807123 6.5394516 -2.107435
36.665741 12.124062 -0.82311994
18.310562 5.2956433 -2.5217209
17.518019 4.9964457 -2.4589157
36.684586 12.303595 -0.16195332
34.195812 10.049854 -1.0749464
37.972893 12.700898 -0.44732046
37.993084 12.867078 -0.83208674
37.848671 12.63568 -0.68829429
30.24876 8.5195704 -1.1371119
32.796757 9.5645542 2.0476148
32.726463 9.5649548 1.6850071
40.351692 13.727123 2.2840114
-0.4159382 -3.2276635 0.049362544
12.900243 1.9581494 2.4921358
17.819538 3.8649008 -0.67956114
30.776186 10.071584 -0.64804423
31.986006 9.3933678 2.4320028
3.3730106 -0.045382358 1.8278663
35.675674 10.476022 -1.2845708
23.772444 6.107604 -1.2132642
23.767282 6.0546212 -1.0117627
30.779158 9.3976574 0.3609795
23.687096 7.4629593 -1.6153532
33.5476 9.519577 0.21649417
2.9798365 -0.27948332 -2.1089272
29.764536 9.5265903 -0.69197273
35.971577 11.522206 0.4595508
22.358366 6.1419454 -0.94239867
37.286373 11.298544 2.0868299
34.787018 10.929212 1.2904222
29.939306 9.740983 -2.9526103
3.5019045 -1.6426396 0.49979812
32.865845 9.4201202 0.055581287
31.731922 9.0445271 2.1395421
21.853214 6.5842614 -2.0439782
17.108559 3.6634281 0.52224499
29.021753 8.9540691 0.086374022
38.095135 12.952803 0.13295762
33.741215 9.9882402 -0.032185469
27.770357 8.2293863 0.028669689
32.16383 9.2151232 2.2885914
34.508781 9.9378548 -0.2566143
36.2491 10.717273 0.36133504
1.869467 -0.78374428 -0.74813187
-0.74010813 -3.422169 0.062393278
23.510298 6.6412826 -0.91721606
34.523888 10.249063 1.7663692
34.262375 10.839372 1.9938562
40.369579 13.713879 1.163167
36.377586 12.189192 -1.6287013
29.820564 9.6346159 -1.4170562
12.545623 1.7513237 -1.3521744
29.87022 9.7175322 -0.64546013
23.653212 6.8128505 -0.24499208
38.298954 13.068192 2.7613075
-0.32975209 -3.2104447 0.95294559
33.721439 9.968585 0.05015048
28.058908 8.9448557 -0.85582387
26.684843 8.6806889 -2.3858225
23.00728 5.9495592 -0.54910523
23.055038 7.0116234 -1.3400953
31.655205 9.081913 -1.3655846
22.94577 7.0380039 -1.333221
20.1931 6.1921062 -1.8321999
40.684574 13.861057 0.16108619
34.580765 10.227108 -1.5640552
33.377815 9.7813911 0.56473148
20.688316 6.3520479 -1.7999618
28.565838 7.9005413 2.6727161
33.374908 9.6888027 -0.14246254
22.874331 7.1590104 -1.069611
30.033178 8.4933167 -1.5254303
3.1624544 -0.13812554 1.7653615
23.854464 6.8870497 0.18402614
24.285492 7.0632744 -0.48122469
3.9092994 0.29309249 -0.30056307
4.4673171 0.15106231 -2.377228
35.078995 10.365925 -0.14082287
36.909519 11.247006 2.3070469
0.96828908 -2.7018566 0.26679236
33.390064 9.7729969 0.74839622
23.867514 6.8301363 1.1393101
23.000126 6.5899034 -0.41776219
29.698193 8.4465933 -0.3087644
35.235928 11.674549 -0.24334688
23.054762 6.5735984 -0.90152842
35.041336 11.675493 -2.6102786
1.998041 -0.84596634 -0.45555744
34.07634 10.030209 3.0365379
29.487808 8.2961731 -1.4433949
30.476425 9.9760237 -0.93842936
0.18123886 -3.0809381 2.5590878
28.463688 8.6159372 1.6979424
37.635803 12.623465 1.0693843
24.327684 7.0605373 -0.2831476
9.8908329 0.83541286 -1.636264
37.543953 12.613274 2.0689714
2.4052386 -0.70087367 1.949965
33.388729 10.519163 -0.82400179
29.853548 8.4485121 2.1278279
40.485909 13.877982 2.8765769
27.815018 7.4173269 2.2771661
30.064718 8.5029125 -1.4716971
29.593758 8.9930706 0.67103267
23.539469 6.7966495 -0.35034168
37.11837 12.784217 0.28175214
23.255199 6.5925684 1.2599213
32.287552 9.2394619 2.198056
37.269028 11.137908 1.9361694
36.567406 10.913143 2.3624842
39.630955 13.339407 2.4253488
30.392929 8.6646938 2.093946
30.082483 8.5651035 2.076401
23.980301 6.1835318 2.2477522
28.451864 9.1287651 -1.5405962
37.577293 12.672418 0.36281648
36.446941 12.039773 -0.94869339
36.470657 12.276888 -0.44148308
29.57135 9.0702152 1.1684921
29.576529 8.4369154 2.6737781
33.36367 10.516339 -0.74555552
2.3522356 -0.72048599 -0.52585989
40.72459 13.607507 -0.81576759
16.969069 3.471488 1.6621828
31.436396 9.6166525 0.087925076
33.24057 9.5388222 -0.62478983
33.996227 10.072299 -0.16641986
34.405113 11.58026 -1.2378895
31.586739 9.1578312 -0.56493956
27.76671 7.6109738 2.6838179
38.373459 13.061743 1.8649698
28.373987 9.25599 -0.62648106
33.646416 10.610235 -0.78700697
33.388039 10.506844 0.063567743
24.079302 6.3730965 1.343842
24.086361 6.965415 -0.33704537
31.515879 9.850317 0.15328102
23.084675 7.193306 -0.25579095
31.227097 8.9340487 2.8444276
24.411474 6.2359095 -0.74498338
17.062086 3.5800598 1.6632488
33.643513 10.598824 -0.84413469
1.3825085 -2.69487 0.033746276
24.1735 6.998621 -0.63667631
37.989841 12.865263 -0.64799571
32.658516 9.2182074 1.1516474
1.1528125 -1.1442782 -1.5852512
29.751194 9.0293941 -0.32896993
24.216211 7.056592 -0.559003
40.644783 13.681449 0.26214436
31.789368 9.1472263 -0.55684912
30.024166 9.7401972 -1.7176728
0.81367558 -2.7597964 1.9949007
24.341463 6.4583602 -0.78244972
24.299812 7.1183534 -0.2854369
0.19392315 -3.0365648 2.7805419
34.792908 10.263545 -1.427047
33.935303 10.644082 -0.016018141
1.456833 -2.4866667 1.4559853
31.539614 10.453929 -1.4668909
34.978897 11.773071 -2.3122416
38.166172 13.206605 1.9716558
36.327099 12.250719 -0.58219683
24.490028 6.483315 -1.0658773
11.62951 1.4033942 -1.7074896
37.49382 11.362989 2.1620083
31.590872 9.1476336 0.037368197
31.403078 9.7649479 -0.095167838
23.883085 5.9093404 0.011907453
37.019855 12.5785 -0.76971567
27.982944 8.5002909 0.7728433
23.694115 6.7873111 -0.10846145
26.907795 7.2873416 -1.64486
18.948801 4.1234255 0.87379807
34.153992 10.082336 3.039537
24.456182 6.2788553 -0.92171794
4.095705 -1.3804505 2.5440028
33.366077 10.393923 0.62222749
37.359806 12.526007 0.17203565
3.547694 -0.23162395 1.1298563
22.74502 7.1223307 -2.5312674
36.120975 11.544016 -0.1744761
24.586329 6.4577341 -0.4526464
39.776985 13.575778 2.6646199
36.720173 12.445823 3.1842227
36.795212 12.557995 3.1991763
29.672766 8.360508 -1.5108147
38.470364 13.060875 -1.0417879
30.081989 8.4904089 -1.2296654
34.856422 10.973425 0.58647895
34.186207 10.070068 2.4623544
25.069454 6.5879765 2.9841523
22.305798 5.5777445 2.5757813
-0.41449231 -3.2251139 -0.65193278
33.078819 9.67766 2.9683204
23.764771 6.0829148 3.043335
23.984674 6.1694303 3.0636981
26.360552 7.1650238 3.5415423
33.895241 9.9946451 2.9623241
34.340446 10.190201 3.0484781
36.861172 12.559686 3.7386832
37.11697 12.474615 -2.4049432
37.113354 12.630795 3.8245623
36.958141 12.613077 3.7632194
37.192894 12.710608 3.8666892
38.098057 12.972449 2.9495313
38.794094 13.266203 3.473366
38.999672 13.347898 3.5430682
0.17854074 -3.0393274 2.2631891
21.143072 5.1266685 -1.4018022
24.634254 6.5514889 -0.62552124
26.397182 8.2177095 -1.4245831
31.178104 8.8743563 -1.1409315
21.216221 5.140389 -1.572118
21.852261 6.2908235 2.5537834
16.974644 3.5800667 1.2385017
18.69816 4.271349 2.9423075
31.010323 8.8763618 3.42064
33.65099 9.9194574 2.9658775
16.971766 3.4781668 1.5657177
37.488201 12.768732 3.1884892
38.772041 13.028831 1.0902822
38.725372 13.244481 3.6120462
38.767509 13.260584 -2.6462681
38.952248 13.360843 3.6959391
40.770454 13.992614 3.0598869
3.4375682 -1.6366764 -0.28594139
29.974518 9.7089272 -0.44648969
29.628557 9.0288582 -0.37984645
21.156765 5.1179724 -1.326292
22.325855 6.856338 1.5644333
23.083832 6.6821823 1.2660491
21.368635 5.2470465 2.5194066
21.956612 5.4969387 2.6351275
23.131807 5.946331 2.907285
23.595827 6.1143718 3.0142186
23.804615 6.1551213 1.7750797
23.709808 6.1892467 3.0382664
23.818737 6.236248 3.0631688
35.923138 10.73105 3.1881688
36.22887 10.87395 3.2855809
36.446728 10.967936 3.3538182
36.859722 11.22175 3.4851048
36.759224 12.490049 3.4954197
36.862087 12.549946 3.5283787
36.977291 12.585421 3.5643284
37.308804 12.654991 2.4900951
37.187233 12.673944 3.6311619
38.886551 13.292171 2.9760945
28.504045 9.3514757 -1.0460535
35.456825 11.283829 1.8631177
29.58102 8.3810024 2.9481277
24.906752 6.6185937 2.5603693
36.455566 10.91541 2.5676944
23.199245 5.9385366 -1.2450073
33.404476 10.345862 0.30384511
29.038002 7.9097528 2.4326999
29.463324 8.2381124 2.4397335
-0.40962583 -3.2309361 -0.12628751
21.374899 6.5466166 -0.14742182
22.463852 5.6689444 2.6508431
22.696625 5.7630301 2.6742082
21.807526 6.1953697 1.1435401
29.750286 8.4462328 2.9060807
30.173513 8.635232 3.022841
34.858921 10.366187 3.0882707
38.377899 13.088147 2.9607058
38.761097 13.201096 3.1020331
1.9729171 -2.3253694 -0.4258213
35.138779 11.061529 0.78027231
30.199635 9.2381458 0.59250641
30.098513 9.4391899 2.9835355
18.996016 4.4264603 2.6175759
30.689587 8.7670536 2.9503543
30.778179 8.8434677 2.9433205
2.0516627 -1.5100245 0.46853986
35.042015 10.408832 2.9262917
35.149345 10.446334 2.9575417
35.356163 10.533383 3.0202465
39.381958 13.483038 3.0829668
40.42498 13.841471 -2.8908677
40.496342 13.886766 3.3625798
33.082954 10.565637 0.16836774
28.992641 8.1574249 2.7046728
1.9699261 -2.2930532 1.1624254
35.110939 10.446888 2.8055279
34.364014 10.927172 1.5342656
30.100475 8.5358334 2.8111877
35.956882 10.691586 2.0585179
20.842798 6.1419163 -1.1757803
18.231363 4.0517755 2.8063133
18.245092 5.1979032 -1.3097147
22.672226 5.7533331 2.5381579
23.182337 6.7250128 1.3390415
29.448709 8.3059578 2.9943626
29.989128 8.5275707 3.1410911
30.197411 8.6472063 3.1966941
34.567719 10.20662 3.176898
34.402779 11.077102 3.1303024
32.979668 10.50868 0.40630794
29.968233 9.8522568 -0.82795846
33.333794 10.434873 0.16249381
0.59811419 -2.8332796 2.3418899
18.560553 4.193305 2.8012555
18.702738 4.282794 2.8616929
21.093124 5.1714239 2.0430284
22.109064 5.5483546 2.2515728
22.502573 5.6569281 2.3597035
29.792126 8.456502 2.7748883
36.380196 10.980119 3.1056988
36.46312 10.954174 1.8847485
36.487465 11.021569 3.1309063
37.202938 12.656628 3.3035138
37.727936 12.85138 3.4252789
38.908775 13.276792 2.5611427
28.385839 8.5823021 -0.74218655
22.689766 7.0525646 -0.48462987
28.470655 9.1987209 -1.0444517
18.418737 4.2248883 3.1865177
18.990534 4.3925457 3.2852974
22.060158 5.5559354 2.6565418
27.901413 7.7644258 2.7729559
28.067015 7.7723794 1.5758219
28.573683 7.9998569 2.9299688
28.663359 8.0690899 2.9520833
29.009598 8.2163935 3.0286932
29.255909 8.2730875 3.082675
29.337738 8.3798542 3.0938053
29.996649 8.6405325 3.2507877
34.373055 11.061534 3.0647526
35.509064 10.645671 3.338068
36.37394 10.960069 3.539423
36.695934 11.085891 3.6139469
36.879662 12.576092 3.6423893
36.987717 12.620301 3.6671696
37.08844 12.654457 3.6903629
37.197002 12.672945 3.7155094
37.609196 12.856368 3.8095036
39.892899 13.415545 3.1411686
26.301798 7.0785909 3.0297165
29.044428 8.1891632 2.5786066
20.871082 5.8173013 -0.73299801
24.83725 6.2907648 1.456727
35.279453 11.786736 -0.42119864
16.476858 3.4643357 3.0540187
21.042147 5.1660342 2.6602199
21.418991 5.2949934 2.7464626
27.796539 7.7106795 2.9582894
27.910843 7.7702508 2.9745026
28.139534 7.8673248 3.0277863
29.057377 8.2523985 3.2241237
29.179646 8.2817574 3.2525661
29.290642 8.3174925 3.2791164
29.508255 8.4096575 3.3301418
33.66914 9.9267387 3.0992444
35.609802 10.679465 3.5512722
35.832203 10.742348 3.6029079
36.870312 12.583855 3.8150661
36.891987 12.494854 -2.4487491
38.517883 13.156654 2.9671612
38.886368 13.289653 3.0565708
29.506996 9.759326 -0.70154095
16.27294 3.1779997 -0.035814296
26.619692 7.2924376 -0.030313518
26.617119 7.2619963 -0.20572135
27.40712 7.5556235 -1.1919149
20.783844 4.9588757 -1.0304037
3.6718903 -0.16516852 0.86940551
34.492241 11.044421 3.2803056
12.893677 2.0858631 3.2115588
18.567402 4.2465425 2.8662829
20.8188 5.0551534 2.0089831
26.735746 7.3600545 3.2741199
26.900969 7.3577552 2.0721545
27.869656 7.7857547 3.5230212
27.977989 7.852427 3.5450549
28.091864 7.8801003 3.5709949
28.204998 7.9121118 3.5965075
28.313675 7.9720292 3.6189685
28.439474 7.9889545 3.6505361
28.539001 8.0744009 3.6671252
28.648056 8.1275845 3.6901355
28.759512 8.1654558 3.7147937
29.249369 8.3031654 2.600719
33.741283 9.9517679 2.3640687
33.828228 10.042941 3.6086535
34.044666 10.118787 3.6555285
34.257957 10.220696 3.7006946
34.371773 10.243134 3.725841
36.688854 11.037325 3.0022702
36.793453 11.074011 3.0246701
36.989677 11.197487 3.066937
36.980606 12.56883 3.0605352
37.180824 12.656826 3.0879016
37.295082 12.678864 3.0706182
39.81633 13.486609 3.6196399
40.584087 13.976186 3.7686877
0.16248447 -3.0793736 2.2587349
22.636129 6.7938542 -0.41225222
33.041817 10.343054 0.20538856
36.210361 11.600569 -0.0030020392
29.565052 8.3549976 3.1330831
17.597578 4.7115474 2.5805838
16.171124 3.277318 2.1636546
39.38369 13.321239 -2.5275936
39.002068 13.011416 -0.97906554
18.696455 4.2613807 2.0219309
18.703844 4.347868 3.3770945
18.970661 4.3702722 2.082783
18.977024 4.4469476 3.4339793
19.108391 4.4836602 3.4626658
27.098057 7.3783197 2.6252165
28.448093 7.9885588 2.9209256
29.120108 8.2541447 3.0652659
29.219688 8.351613 3.0846751
34.048939 10.069998 2.9156976
34.247036 10.161645 2.9574168
34.361763 10.199101 2.9840875
34.392479 11.095402 2.9710276
36.429752 10.938191 3.4112132
37.141754 12.655746 3.5317576
37.23946 12.707965 3.5511668
37.4459 12.790281 3.5927317
37.659508 12.871419 3.6356394
37.76413 12.922763 3.6563914
38.075241 13.046497 3.7184031
38.106331 12.966554 -2.5302579
38.182072 13.094145 3.7395213
40.109177 13.751178 2.9518015
40.43539 13.874232 3.0122263
31.60446 9.169939 0.35049146
30.261244 9.8323278 -0.74318612
37.304214 12.755764 0.81254816
34.735287 11.149971 3.0445387
22.782301 5.4275928 0.095723182
18.625391 4.2964916 3.2806673
26.897211 7.4021683 2.7219515
27.772625 7.6473327 1.7071198
28.682323 8.0773859 3.1694613
33.557419 9.9097967 3.1561375
33.692566 9.9657993 3.1639721
34.105289 10.149479 3.3087435
35.608643 10.727859 3.6641512
36.067471 10.851808 3.1726351
36.693848 12.318904 1.5533454
36.714073 12.310122 0.45700786
36.693283 12.481605 3.8882222
36.768978 12.579136 3.9040804
36.875656 12.610453 3.9286165
37.078224 12.709017 3.9743319
37.183784 12.743317 3.9984407
37.288441 12.779795 4.0222445
38.787678 13.268827 3.1975985
38.995171 13.361848 3.2425814
39.088459 13.378613 3.259094
39.048637 13.311357 -2.725215
39.200367 13.448457 3.2867708
39.873199 13.639853 3.4298372
22.480515 6.8271422 -0.31161976
27.856718 7.4366493 1.963796
22.483009 6.818665 -0.73076922
15.544516 2.8897195 3.2412164
26.886501 7.3278375 3.2864127
26.994804 7.4104424 3.3096061
27.218931 7.4995751 3.3628898
28.113554 7.8163581 3.5779166
33.594101 9.9008856 2.4630113
33.973133 10.013264 2.5562148
2.0582342 -1.4966282 0.54152763
35.031914 10.390802 2.8377233
35.129143 10.473389 2.8626754
36.817574 12.465096 3.2418635
37.209675 12.674962 3.3299918
38.136333 13.046956 3.5364738
38.655949 13.256947 3.6510367
38.665089 13.201221 -2.6472716
38.85603 13.351995 3.69486
2.3739128 -0.61392403 -1.2530503
16.887413 4.8696542 -2.0547664
26.376822 7.1601686 2.8166945
27.396992 7.5603056 3.0476515
27.851446 7.7124033 3.1528151
33.63459 9.9410381 3.2659132
34.066196 10.082771 3.3631423
34.278069 10.165368 3.4104445
34.301575 10.158854 2.223104
37.462708 12.74698 2.9253981
38.796474 13.280381 3.2231886
22.488241 6.9496527 -0.3624754
36.209557 11.667176 2.4464357
21.109171 5.8694563 -0.051763572
14.21043 2.5224924 2.7495031
16.304079 3.3189528 3.1591101
17.7271 3.8876891 3.4262147
17.949087 3.9574349 2.1083899
26.620102 7.2640033 2.7546301
27.412176 7.5644484 2.9361486
33.665161 9.9339476 3.1365743
34.080799 10.074913 3.2530432
34.107086 10.064502 2.0694494
34.295006 10.161119 3.2746234
1.0607605 -2.6859517 -0.64834732
34.916367 10.464427 3.4391394
40.606102 13.955949 3.4870563
-0.75581622 -3.4249992 1.758443
-0.73967534 -3.3977749 1.5474243
36.168823 11.473698 2.0567129
2.7480888 -2.0984001 -0.56440437
3.8452232 0.18089435 1.8910681
16.173393 3.2724667 2.8665569
16.770321 3.4680099 3.0604453
1.0651824 -2.7255857 -0.55675435
34.914516 10.467484 3.3960569
35.021767 10.505811 3.4219968
38.506145 13.145969 3.0476682
-0.75683922 -3.4223938 1.6855614
17.321739 4.4855657 1.6811161
29.754889 9.5131893 -0.64734787
36.458061 10.891326 2.692471
3.864953 0.20337522 3.1541386
39.702976 13.564016 2.2852225
-0.43977875 -3.2100887 -1.4166989
20.832079 4.8423128 -1.4549336
26.870558 7.3812556 0.9472
23.771828 6.1197729 2.8579712
33.415218 9.8759174 2.9302466
-0.32426158 -3.2116146 1.3470156
39.971066 13.391706 3.107507
34.528805 11.055264 3.0194046
18.659355 4.0960593 2.7387843
26.805721 8.5623474 -0.082127906
19.773506 5.8876181 -0.94010526
23.001972 5.8588972 3.1334515
23.719543 6.1659436 3.3085573
33.503288 9.8282623 2.8122902
33.341019 10.444121 0.58273679
33.6847 10.607813 0.77075112
34.457886 10.025426 -0.55309808
22.285114 5.5887828 2.958529
22.409098 5.6579113 2.9838586
22.879066 5.8193879 3.0890222
38.050499 12.899604 2.557862
25.416725 7.4732971 0.73801601
34.395866 10.986079 2.067965
35.562878 10.662496 3.4861779
36.092159 10.855781 2.4546804
36.643826 11.011667 2.5620294
37.172623 11.176196 2.6449914
36.717899 12.520407 3.691256
38.579723 13.174051 2.9641266
39.008995 13.363523 3.0630164
3.4694989 -0.17313617 0.35343361
22.506714 5.6530595 2.2693975
22.50878 5.7592888 3.5761518
22.643238 5.798419 3.5713384
33.803989 10.03586 3.5790815
34.108234 10.189876 3.6428633
35.086716 10.472001 2.6793013
35.205803 10.512334 2.662344
37.188423 12.662839 3.1301541
38.219387 13.076648 3.3405561
31.693659 9.2198477 2.96523
28.338037 8.6230898 -0.85867906
30.616749 10.089697 -1.6413502
33.467293 10.532454 1.186089
38.51062 13.168053 3.3658159
38.782948 13.160989 0.76816922
22.144342 5.5736151 3.3392217
22.264542 5.669786 3.3578985
22.39439 5.7262778 3.3829839
23.004196 5.9047809 3.5101202
23.128681 5.9719911 3.5325811
32.777588 9.5819225 3.1546555
33.619217 9.9324856 3.2914312
34.280842 10.147534 2.8465459
34.697697 10.352211 3.5195196
36.925438 11.135889 2.8097417
16.694565 4.1668525 0.4428516
34.068871 10.764708 1.061342
20.781639 5.0569234 3.1868863
20.908283 5.0922318 3.2133756
21.037687 5.1637297 3.23663
22.045225 5.5327158 3.4288297
22.164524 5.608439 3.448544
22.287121 5.6445808 3.4725308
22.409843 5.689115 3.4957242
22.532963 5.7499866 3.5171475
36.698059 11.0288 2.8540382
1.3664256 -2.5986209 -0.15007329
35.734253 10.530939 2.0537136
20.979515 5.1658554 3.3098803
21.487381 5.3489561 3.4242601
22.113434 5.5912933 3.5636034
22.358938 5.6882753 3.6180468
33.664474 9.8697014 2.6464772
34.916458 10.419518 2.9207811
35.022816 10.451019 2.9453173
36.398338 10.945926 2.6754198
36.484306 11.008879 3.2778978
36.584591 11.057141 3.3003588
36.690323 12.474041 3.3065233
36.795288 12.501158 3.3300219
36.992069 12.585581 3.373601
39.973362 13.416829 2.8752489
40.27272 13.780334 2.9382787
33.502129 9.8462553 2.3637464
20.774265 5.0486789 2.7169931
33.605118 9.8564339 2.2577035
36.082497 10.815166 2.8385792
36.492489 10.932433 2.9627817
20.64119 4.8752494 -0.99293917
33.512924 9.8591223 2.7801263
40.722393 14.137763 2.1297288
20.665169 4.9248633 -1.2281879
38.965408 13.032364 -0.61929214
39.567417 13.31226 -0.47543857
33.812996 9.9819031 2.2420268
35.915306 10.751314 1.6114105
36.373917 10.985872 2.8811858
-0.33723927 -3.2102599 1.8416655
0.67556387 -2.8586907 1.7440237
36.157112 10.716133 2.7221847
33.673378 9.9141197 2.7632005
34.531231 10.248054 2.9164114
29.778946 9.789917 -2.1876369
33.776917 9.9343071 2.9769607
33.771194 9.9615402 1.8283138
33.974205 10.038356 3.0320201
34.075661 10.080848 3.0564342
36.336662 10.833578 2.4286265
31.818317 9.2896833 0.048624542
29.575611 8.0673189 1.9950151
38.78804 13.255108 2.2433856
20.653042 4.8202944 -1.2745171
20.588247 4.9304485 -1.2143602
34.482597 10.271186 0.77201599
20.549868 4.8244023 -1.047354
35.148102 10.461473 2.5494845
35.179337 10.474114 1.3541602
38.68058 13.162477 2.1805027
38.509251 11.633725 -1.6462115
33.696472 10.664706 1.0680465
3.9929988 0.25735414 2.1552057
16.669275 3.360157 2.3621659
30.613756 8.7955999 0.7008884
16.663706 3.3671989 1.8556238
39.159199 13.375426 2.8604703
39.46022 13.506909 2.967135
39.597031 13.559551 2.968895
40.083645 13.384761 1.9395272
-0.41637757 -3.2393022 1.4209292
35.688114 11.396986 1.2676717
17.132727 3.4440696 0.53553957
39.811058 13.648248 2.9887412
27.233854 7.2354369 -0.16091235
-0.29012087 -3.102005 1.8462785
39.262032 13.225298 -0.62634695
36.782745 11.782558 -0.19763051
16.176767 3.2487061 1.9363927
34.275326 10.161897 2.3220739
39.104858 13.361895 2.8085852
1.3653429 -1.787123 0.5407362
33.966534 10.71776 0.072176866
1.9784153 -2.2741466 -0.9237588
31.862701 9.8363991 -0.089926086
26.871239 7.3873734 0.76041865
17.244596 3.5395083 2.2433474
31.059826 9.5739326 1.9446932
35.94981 10.618819 -0.72987884
2.2525496 -0.77597111 -0.54348272
38.655712 13.021506 -0.83866006
35.980587 10.751084 -0.90263909
15.140806 2.6196632 1.0496358
28.557766 7.824996 -0.23297717
-0.72583693 -3.3707588 0.66923594
33.462257 9.8820744 -0.7806105
8.3977489 0.24940607 2.0172851
34.110142 10.046034 1.6030976
-0.42104998 -3.2387981 0.56400621
39.562981 13.428999 1.9511149
37.858471 12.59837 0.96611542
20.855257 5.7556415 0.37730527
33.674885 9.8767729 2.4475698
33.763134 9.8925714 2.4502981
36.580093 10.930062 2.5514815
40.217964 13.757533 2.4831221
1.6923141 -1.6845911 0.76369274
1.7572275 -2.3533762 -1.1915743
35.950752 10.593743 -1.3738506
35.951477 10.622189 -0.81091511
1.1888081 -2.6807442 1.0771978
28.78936 9.2904091 -0.0020627107
28.039703 7.5099897 0.74733245
17.209141 4.3813863 0.89861393
1.6692212 -1.6935792 0.34219974
37.195293 11.979237 1.7402297
36.033913 11.58534 2.2563531
38.478603 13.157907 3.163142
33.862305 10.59384 0.069518536
37.979572 12.989584 3.6997263
32.470585 9.4289999 2.7148902
33.557167 9.881546 2.7569823
1.268398 -2.5906258 1.7654577
36.765388 11.767252 1.8355677
-0.73920953 -3.3726261 0.7651639
36.558529 10.828628 2.2130177
1.2594031 -2.6220357 2.4936423
1.6802045 -0.95615983 -1.9099358
5.6336064 0.33303294 -0.6379149
28.187746 7.7645984 -0.23111375
37.163788 10.968144 1.9037724
13.128462 2.7785232 0.845433
1.1720262 -2.6746869 -0.82446265
36.657925 12.306865 1.7817456
39.164383 11.916366 1.3181549
0.85933882 -2.7601938 1.2357767
34.644592 11.056181 2.0703814
-0.018045079 -3.1325698 -0.33200541
38.060471 12.815784 -1.140035
17.203573 4.3580627 1.0024846
33.980927 10.705737 0.86834586
38.505379 12.803518 0.50213563
35.476204 11.286036 1.7802384
36.227825 11.459289 1.7822289
36.246616 11.525136 1.5171707
33.95845 10.719569 0.6301527
38.934166 12.988848 -1.3102851
37.541454 12.641176 2.3818452
37.826969 12.591162 1.1678218
3.6656604 0.072705768 -1.660356
38.461349 12.919385 -0.037291497
35.554413 10.412774 1.3838941
33.106987 9.4966946 2.2791355
37.340298 11.12521 1.3356944
1.996793 -2.3067408 -0.82184565
32.377026 9.3663445 -1.5370288
34.047241 10.082176 -0.14536375
3.802376 -1.757146 -0.20453185
33.945274 11.234411 -0.44968942
33.672497 11.110989 -0.30935764
30.181179 9.3242645 2.4357624
29.545485 8.0958395 1.5016915
37.384804 12.65784 1.3647649
-0.50730014 -3.2436495 0.56024462
39.977421 13.409531 1.5593383
32.282269 10.611536 -0.21984485
2.2495883 -0.76749837 -0.74048251
0.95510995 -2.7898343 0.16637531
22.674202 6.382555 -0.24145962
36.164726 10.880653 1.9018209
33.616592 10.606075 1.0153674
33.711311 10.629883 1.018236
35.14859 10.317705 0.56263334
36.905144 11.147702 1.9438077
39.0112 13.014412 -1.5455548
39.28051 13.367558 1.3654995
22.936359 5.5739708 -0.1542864
1.233904 -2.6296475 2.1715245
35.753944 10.46451 -1.0365403
37.196423 12.646588 1.9356899
33.932087 9.9527063 -1.3769636
30.887169 9.4361944 0.49808237
34.342606 10.883864 1.6531743
16.927126 4.2245126 -0.48569977
-0.7592808 -3.4238017 1.8714988
-0.21864298 -3.148901 2.4075105
22.460358 5.534668 2.4094362
34.472366 10.016045 0.87482464
37.275497 12.875255 2.1636932
34.804539 11.003143 1.9302912
40.154282 13.624742 0.060922168
38.879982 13.558313 2.359622
38.11409 12.708621 -1.8360708
36.266644 10.807194 -1.0512011
17.124113 3.4434974 -0.97802246
28.079052 9.0781384 -2.0218248
36.232845 11.491938 1.6350572
33.769066 10.653033 0.58084637
37.241615 12.829969 2.2688401
36.144745 11.498569 1.7839645
1.6329534 -2.6105213 2.1497273
1.6632695 -2.5940084 1.9453722
22.985014 6.4825273 -0.78894132
1.2880794 -2.6695414 2.6522722
22.957108 6.5340848 -0.47638261
37.28199 12.84067 1.8688054
37.227486 12.842508 2.3449781
33.472137 10.592418 0.93854904
33.499241 10.578728 -0.040981043
33.562389 10.556865 0.93697268
33.5695 10.595872 -0.053411368
33.75016 10.618773 0.95795107
33.778294 10.66682 -0.062349558
33.838295 10.631311 0.94496828
33.876495 10.689546 -0.035818916
33.935574 10.644485 0.94802004
36.75692 10.9346 -0.03010861
37.271648 12.831676 1.9488806
1.3591324 -2.5724082 -0.61385012
0.8606565 -1.8919348 -0.42829716
23.213757 6.7224522 -0.41335928
34.481037 10.023239 1.2434422
34.780121 11.073681 1.1769737
30.570007 9.9112358 -1.8094172
30.694946 9.9391041 -1.8133136
37.272556 12.870963 2.0599458
0.75928348 -2.7783406 0.758986
41.029053 13.931212 1.5016265
9.4802179 1.4365832 2.7005773
36.844563 12.278958 -1.7134364
40.175072 13.771095 3.2546673
25.581911 6.7298908 2.2125678
33.775547 9.8791838 -0.72308588
16.480873 3.2704587 0.054782685
0.76532334 -2.7982097 0.16301475
36.568401 10.906531 0.26342419
15.681554 2.9707403 -0.54364043
38.762463 12.930378 -0.62073761
40.92894 13.833729 1.9502716
37.481659 13.05325 2.3688457
-0.34664047 -2.3984828 0.1813201
23.420698 6.6330242 -0.26699346
15.068235 3.4272282 -0.24061027
32.808678 9.4494638 -1.5059544
1.6894538 -0.96186817 -2.1336527
33.493355 10.565353 0.73004138
33.647549 10.658253 1.183238
35.285969 11.101313 1.1773522
36.653698 11.614151 0.129962
22.576715 6.7554169 -0.46870649
1.2649127 -2.7100949 2.7547438
23.613609 6.827569 -0.47550708
30.150436 9.7324562 -1.7764484
23.685846 6.8665018 -0.4902094
28.860538 8.7281427 -0.2302296
37.437012 12.521581 -1.3159709
16.164501 3.1098149 1.4569805
33.537094 9.5459118 -0.9587003
37.25901 12.836361 1.7858853
23.802265 5.9428935 -0.56580597
36.283905 11.630594 1.9910243
39.897758 13.620799 3.0894914
2.3044376 -2.1486893 -0.12755324
-0.11833487 -3.1309829 2.0677471
1.2539461 -2.6001837 2.5988228
35.054436 11.637082 -0.93107074
38.773705 12.888356 -0.45853737
35.793106 11.472325 2.3593447
3.8714697 0.07317251 0.86315674
34.560562 11.417086 -0.83279717
28.852724 8.960371 -0.043841645
39.06752 13.103465 -0.13723877
34.670662 11.52643 -0.45452902
-0.11390714 -3.151372 2.2769892
36.946503 12.70863 1.7645007
34.510159 10.935352 -0.057874996
1.7116127 -0.98372674 -2.0427299
34.066391 9.928237 1.4537385
35.447166 11.304488 -0.4241116
35.487656 11.293628 0.066484101
35.533688 11.307655 -0.83324146
34.51207 10.289774 0.96921563
18.668255 4.1031952 0.76020092
36.388699 12.203274 -0.052098788
33.666954 9.7372322 1.5615761
35.461327 10.424711 0.77439278
0.764135 -2.8665528 -0.93226177
33.563805 10.606981 -0.11634104
33.665741 10.634376 -0.11786643
33.643829 10.599308 -0.98134416
33.693268 10.653437 -0.12335141
34.4944 10.16026 -0.95990419
35.042633 10.327875 -0.93525654
3.4647865 -0.17049369 0.72238231
34.722034 10.032824 0.80887401
34.733212 10.139039 0.95339513
33.795937 10.678567 -0.12968051
34.662022 11.605642 -0.010018949
34.662556 11.572546 -0.36437637
0.5729087 -3.0908875 0.18094961
33.500008 10.582277 0.1733084
36.401089 11.646844 -1.0174215
34.282581 10.876114 1.8530276
18.662786 4.128067 2.6664355
1.5502839 -2.4123712 2.1219671
17.274603 4.3518019 1.1715714
0.76045364 -2.7774866 0.86046129
33.888771 10.658523 1.0909753
34.490288 11.574523 -0.87308002
16.573938 3.2280302 1.8572949
31.068359 9.6579533 0.018311568
1.6748073 -2.4299853 0.064860404
0.062887639 -3.0699406 2.5313227
-0.72437418 -3.4383996 -0.73409671
3.431886 -0.15740286 0.89089972
13.651212 2.9156682 1.7586744
33.475765 11.123871 -2.0216489
33.571346 11.186975 -1.964174
35.177689 10.389254 -1.042743
40.060356 13.429321 0.47168484
0.022963328 -3.0553663 -1.0796269
28.270403 8.9515209 -0.60704923
16.534155 4.1463251 -0.40399539
30.766592 9.5053654 0.95120007
35.058212 11.727792 -2.0401711
-0.10785855 -3.0994492 1.8329431
0.052803941 -3.0996087 -0.91436982
1.7831812 -2.3590491 1.7598515
34.048477 10.797216 -0.15415567
30.675499 9.4711952 -0.25890127
33.36385 11.121485 -2.1523783
33.495667 11.166672 -1.7517817
35.080544 10.368275 -1.1414247
37.179905 12.585358 -2.2438467
37.258324 12.621652 -2.2543938
33.458954 11.080476 -0.010124335
1.9547495 -2.3731928 -0.23556142
35.216465 11.130745 0.68119115
32.80164 9.5712557 -1.2624886
34.645035 10.138479 0.85772306
35.050423 11.781137 -2.3025875
37.181366 12.580787 -1.9168954
36.582027 12.16116 2.0792568
34.515862 10.247702 1.6770061
33.458645 10.51848 0.75323606
36.834351 11.749601 -1.1171495
36.881115 12.461717 -1.8489796
37.181366 12.573237 -1.8441923
30.329361 8.6694984 -0.0092661548
28.236158 8.4960613 -0.62413567
29.064611 8.2595568 1.8950086
29.693436 9.1702309 -1.1152772
33.495911 10.550817 -0.34849155
34.269459 10.081964 -1.1394128
36.604641 12.356864 -2.208539
36.666569 12.395988 -2.2297537
36.768967 12.419635 -2.1552145
37.071995 12.528336 -2.1257148
29.947449 9.2027979 -0.21106534
29.710636 9.7563972 -2.2247219
33.669857 11.239737 -2.1598659
33.766518 11.288848 -2.1631529
36.872013 12.491523 -2.3540809
37.05859 12.534469 -2.34378
37.175621 12.582108 -2.3322706
38.686615 13.171 -2.1241133
2.2679179 -1.5804971 0.26185071
33.374851 11.109807 -1.9224372
33.456223 11.186597 -2.2911594
33.496735 11.19 -2.2745233
33.717411 11.256817 -1.8199944
33.783192 11.297186 -2.2157464
33.88361 11.284294 -2.2196255
36.77676 12.439187 -2.4788079
37.16452 12.593141 -2.4144981
-0.5340668 -3.2865152 0.96298903
29.889816 8.4548674 -0.58778912
30.438126 10.021723 -2.0797324
33.347267 11.131559 -2.2452192
33.712772 11.253535 -1.7886558
33.869705 11.326467 -2.17452
37.064236 12.556728 -2.4032798
20.836649 5.8083172 1.3333694
29.445538 8.1271486 1.0819775
30.466784 10.045952 -2.0922167
30.544521 10.060639 -2.0764086
33.567356 11.188687 -2.2248895
30.165533 9.8208504 -0.74767876
35.730534 10.513484 1.5182546
1.1505322 -2.6831155 -0.42494363
34.798203 11.06822 -0.43784738
34.454117 11.509671 -2.1623189
34.569752 11.580132 -2.1598644
34.689613 11.6154 -2.151211
39.678143 13.500998 -2.2373047
40.411663 13.508199 1.2419106
29.778563 9.145853 -0.0089728236
18.214844 5.372961 -0.89951462
29.958084 9.9023428 -1.8497019
33.449169 11.164933 -1.9551755
33.743534 11.233627 -1.946039
34.841549 11.097562 -0.14041235
39.589653 13.490438 -2.6307595
22.355625 6.2980084 0.74416953
30.709969 9.9548674 1.6146042
32.618828 9.4366093 -1.631873
31.200634 8.9602232 2.1702638
33.669556 10.521803 0.15714672
29.993073 9.2501516 0.26646817
16.971935 4.8721581 -1.8309854
36.919735 11.180465 -0.92402023
1.8801795 -2.3366706 -0.56544179
31.32752 9.4854183 -0.64038157
33.869694 10.717812 0.07376904
38.018986 12.639233 0.36294547
35.407959 10.558575 1.7570907
33.663879 10.596861 0.078485459
35.463749 11.296659 0.94704163
29.182835 8.0016918 -0.63466346
33.884987 11.290661 -2.0284038
33.584862 11.190519 -2.0614786
33.670334 11.218648 -2.0583186
39.565205 13.484076 -2.5440736
35.086723 10.371921 -1.0275053
33.370041 11.123894 -2.0423081
34.42794 11.44145 -1.8245897
34.452068 10.90836 -0.10905945
36.586792 12.369877 -2.1192918
36.64336 12.374108 -2.1441588
36.743759 12.391029 -2.0262814
1.7562609 -2.3718698 0.85847729
33.491634 11.133648 -1.8373671
39.227646 13.308056 -2.4660292
28.241739 9.029623 -0.69400287
37.42234 12.528572 -1.4736735
38.273773 13.054632 3.3774092
36.872517 12.459413 -1.971786
34.264759 10.849398 -0.04837247
32.98991 9.6764002 1.9072307
36.71487 12.371967 -1.9234159
34.184731 10.775037 -0.010922363
38.475437 13.063221 -1.5503689
33.980938 10.643834 0.031480543
-0.12305661 -3.1324282 1.9847047
33.695469 10.542966 0.034981281
36.669086 12.313678 -1.833378
36.988525 11.152204 1.3779786
30.193832 8.5623875 -0.61734056
30.187202 9.4256372 1.0789311
30.839787 10.304018 -1.228446
1.3866746 -1.7385057 0.46010873
3.4478197 -0.20220593 1.047567
0.078713149 -3.0292046 -0.026464185
2.0980432 -2.3197441 1.5898902
3.512378 -0.17464679 1.3103721
1.3749092 -1.7433397 0.17446627
0.78619701 -2.7394598 0.86204457
36.361496 11.990072 1.7440071
33.574478 11.163702 -0.73415488
33.491364 9.5961876 2.0377026
19.447149 5.8040833 -2.3806345
27.226265 8.1011992 -0.54785872
28.669704 8.7279873 -0.27961656
28.443607 9.1178284 -0.44294378
36.352932 10.719418 1.0611765
26.66894 7.9703441 0.63403898
27.090401 8.6773081 -0.23166713
38.851059 13.127222 -2.1093254
-0.48665956 -3.243026 0.22278525
2.0672898 -2.3601739 1.8399523
30.048819 9.7322702 -0.11890674
33.572361 11.129692 -0.41606653
33.655251 11.166439 -0.36128017
29.397005 8.2950039 2.9281693
36.693916 11.707699 1.5611991
37.182495 12.847735 1.8890965
1.8683199 -2.3409743 -0.61685568
29.077507 9.4134874 -0.26168734
32.493172 9.4590702 1.9487641
33.577869 11.115421 -0.3165656
17.244709 4.3656039 0.36614925
13.634969 2.212239 3.2349265
27.906494 8.4456081 0.7632516
28.092991 8.4061184 -0.22502255
28.075466 8.5095863 0.62903643
36.471642 10.828342 1.5600156
27.700525 8.2009201 -0.22255677
32.068268 9.2717857 2.2358804
32.168041 9.2821522 2.2429812
31.566471 10.362219 -0.28824121
38.731823 13.045389 -1.6532925
27.821333 8.4016829 0.71477926
31.875013 10.472869 -0.24629338
31.977283 10.525331 -0.22999699
32.06171 10.55945 -0.22309399
38.765335 13.027223 -1.7276837
27.912441 8.9840374 -0.16619848
27.99222 9.0260611 -0.15344213
28.071846 9.0483685 -0.14092992
34.742165 10.902201 -0.013467527
0.064437442 -3.1138093 -0.83061659
13.705236 2.1348534 -1.5282766
26.054001 8.4355707 -2.2910423
1.9592305 -2.3292539 -0.5256682
35.133179 11.112858 0.83703148
0.25121036 -3.1800952 -0.34828192
32.054226 10.547768 -0.15250984
33.801285 9.9687452 2.4604051
17.083092 4.8034077 -2.5572872
-0.55167806 -3.3899243 -0.62959427
40.289978 13.803226 -2.3507335
23.276436 6.6325436 1.5447342
23.165857 7.2032723 -0.34838083
23.277468 7.2476153 -0.32548809
33.307819 9.7756071 1.841801
3.6798558 0.0019716194 -2.1161063
22.112923 6.8653445 -1.5217741
3.4604089 -0.0072392854 2.3667076
36.36544 11.600142 1.1509511
22.584595 6.3665247 0.73057485
33.544216 10.996909 -1.0992978
15.384501 3.6213241 0.48423651
34.050034 9.9033842 2.0773726
21.873791 6.7140446 0.028722655
34.057613 9.9289055 2.1324143
0.38558707 -2.918937 -0.030930685
35.768444 11.38747 -0.8468374
36.256111 12.135031 -0.21225679
40.084412 13.67762 -1.5380027
29.63121 9.5373678 -1.4394252
34.692921 11.648198 -1.8278564
23.742592 6.2578988 0.59890252
17.091085 4.8579297 0.39587638
34.470924 11.550799 -1.7441732
36.590858 11.693359 0.88050437
25.056929 7.2613459 -0.56294441
37.634602 12.853947 -0.44123599
22.963026 6.5799499 0.55432427
22.987892 6.5936069 -0.35627776
27.077057 8.7643385 -1.4241178
27.108213 7.3721223 1.659162
1.4925466 -2.6062779 -0.53529799
15.054689 3.5225022 -0.43179759
15.052889 3.5245948 0.76061678
35.902035 11.578519 0.873532
3.7694063 0.017420223 0.065578848
30.614393 9.9913483 1.3753885
23.217337 6.7515335 -0.080758631
17.29081 4.372169 0.24858375
40.17012 13.748812 -1.926934
15.045565 3.5223494 0.36332294
36.186718 10.644455 1.3416044
36.119831 12.158843 -1.7598786
37.083347 11.156065 0.4885911
28.495796 9.2528086 -1.0391239
40.169182 13.762454 -1.7579378
36.194366 11.497967 -0.95996624
26.057812 6.9229364 -1.2537463
39.784058 13.571884 -1.5392879
36.489735 12.264446 -1.7698284
34.286564 10.866107 0.96617001
22.971222 7.1567225 -0.45218968
23.178812 6.6768856 0.45204148
40.191685 13.755549 -2.185354
38.757999 13.076163 -2.4420457
3.4674265 -0.0055123675 2.2608237
21.760838 6.1064024 0.68069029
17.048149 3.501627 2.5667953
36.18877 10.623012 0.41060987
33.890442 9.9030094 -1.3394721
33.796597 9.9001055 -1.3487014
35.186825 11.181153 1.2767713
17.065769 4.8778162 0.1406787
23.072239 6.5726175 0.85205364
24.980669 6.5617309 1.0557216
40.158638 13.759238 -1.6634543
35.474743 10.581433 0.26947603
34.508575 11.492983 0.067761771
28.543779 8.6262064 0.61388242
22.989998 6.5636034 0.87481433
21.486111 6.5565248 -0.25178245
21.767712 6.0966101 -0.24436733
34.166149 11.476907 -1.7091576
36.703602 12.372471 0.063683212
39.887619 13.42039 1.771319
27.056276 8.0440302 -0.35565418
22.539164 6.3499713 1.6923492
26.054049 6.9236732 -1.3506683
26.874788 8.0580282 0.56570697
28.090294 8.4743052 1.5354859
3.4842622 -0.26173455 0.75522774
17.086906 3.7559507 -0.061760511
23.044155 6.4567966 1.661827
23.698053 7.4484925 -1.1937671
21.028625 5.8600807 0.3260988
25.705624 6.8462305 -0.051159512
3.793735 0.058329988 0.3625778
19.902136 6.001205 -2.315449
28.985035 9.4636154 -1.9168195
29.274866 8.8236389 -0.77736306
29.376062 8.8858175 -0.73656833
29.454647 9.6484251 -1.8121874
33.552341 9.6031351 -0.587753
38.82206 13.144108 -2.3158226
16.61504 3.3520918 3.1228197
36.182266 10.839067 -1.7251379
0.66256285 -2.8804486 -0.038490541
22.283043 6.2025251 -0.62293786
28.683407 8.7531691 0.29368454
39.856247 13.415984 1.8673183
33.769226 11.262241 -0.61473411
38.886944 13.312969 -2.6270421
11.537096 1.4769156 1.0593362
20.065798 6.0597687 -0.34614319
20.354738 6.1673107 -0.32573959
8.8502169 0.48040721 0.54467541
16.003025 3.1648967 1.0613991
19.285145 4.4725232 0.29467544
22.357109 6.3594899 -0.59363025
29.127474 9.3426456 -0.70983064
33.378529 11.100489 -1.8390369
33.572186 11.123845 -1.8175595
0.65855396 -2.960659 0.1956557
11.39176 2.2526503 0.65892804
7.7875104 0.89335239 0.16103123
39.782146 13.558969 -1.0330076
33.571327 9.5661345 1.3323115
16.619671 3.5077455 3.0833156
16.614674 3.3488355 2.8795252
36.962704 12.72381 1.8584813
0.46165916 -2.8928752 2.5903161
16.558096 3.3461304 0.95694584
21.901552 6.7617798 -0.54229748
33.790779 11.262165 -0.93158633
15.674422 2.9838839 -1.035942
22.184145 6.8665013 -0.54494536
22.240324 5.5511308 -1.4651611
1.7653449 -2.4708474 -0.55053294
34.143024 10.705139 0.090537429
4.7666521 -1.1804358 2.8649366
6.8654065 -0.37093291 2.8768995
8.3664989 0.18958075 2.8883741
18.299074 5.3672543 -0.084831454
40.767487 13.895305 -2.5430224
-0.16411272 -3.1459498 2.7848771
4.8473144 -1.1652015 2.8440552
18.957626 5.5974259 0.027376261
19.181232 5.6883287 0.054658975
25.089603 7.9660645 -0.65420473
34.709385 11.66822 -0.8135581
37.944153 13.104314 1.7546742
15.454249 2.898771 3.0610116
19.117783 4.2031989 -1.0430605
26.349421 7.8867936 0.62710148
28.2491 8.5310659 1.5124844
2.4537027 -0.34786016 0.31182143
2.8270154 -0.2009114 3.165154
3.5262845 0.061977975 0.38970229
3.7777722 0.1513083 0.40862319
4.0677319 0.28838113 1.7966847
4.2571797 0.2587086 1.8608361
9.4409275 0.67875773 1.6473317
22.061754 6.8237934 0.066704258
22.162798 6.8716302 0.079582676
22.254688 6.8891125 0.092461094
22.352711 6.9300666 0.10411881
22.541138 6.4643421 1.0140288
22.592278 6.4067459 0.17255729
0.28012216 -1.5362287 -0.46037316
37.599556 12.773155 -1.6279182
22.716572 6.3418527 0.18112452
34.767746 10.09878 0.029157965
7.338448 -0.14007632 1.4009095
7.4140372 -0.10756864 2.7267921
18.310623 5.3647346 0.05967271
22.013491 5.4564567 2.3234107
23.516888 7.3608999 -0.20936519
33.464733 9.7777348 -1.2119877
38.248539 13.218372 1.8590273
38.295593 13.246619 1.89177
32.389194 9.3584032 -1.1955614
34.426098 10.801566 0.24794222
2.5200238 -0.36364013 0.1703272
3.6931877 0.0542861 1.6443276
4.1957631 0.25145286 1.6519392
4.2801623 0.20324183 3.0419142
21.180147 6.470768 -0.17488764
22.06484 6.8041415 -0.048902463
22.220505 6.3132825 0.85648441
22.186514 6.8532963 -0.45786792
25.881184 8.2562456 -0.37923333
17.261362 4.3515263 0.063340768
17.263851 3.5670044 1.8526005
3.4555502 -0.022050081 -2.6151412
9.2785339 1.4905405 0.76693106
3.5493739 0.058805406 1.4187939
40.188705 13.790233 3.3978207
4.0680518 0.2585834 1.4338086
4.1099205 0.25730678 0.081513703
8.6357956 0.35006723 0.57339603
11.985666 2.4854195 0.71817142
21.858335 6.7498794 -0.29025143
22.378773 6.9572191 -1.0573413
22.876726 6.5142527 -0.14917628
22.858227 6.5574121 0.69790775
32.485714 9.3938303 -1.2473664
35.667702 11.297745 -0.71609223
22.983423 6.5884533 0.69201684
3.6777425 -1.619019 0.17559628
4.5583777 -1.2091643 2.6502931
4.7950368 -1.1185297 2.6556032
7.507627 -0.053566419 2.7042482
17.706589 5.16752 -1.1788086
39.062756 13.533724 2.4581163
39.050594 13.521009 1.7878197
39.896137 13.428514 1.9644715
18.45458 3.9452322 1.5692921
29.98704 8.300786 -0.4158527
35.794113 11.400661 -0.95837903
38.871315 13.397998 1.6293248
36.093727 11.444981 -0.92278874
3.0248411 -0.42307556 0.48237067
4.082551 0.0012983605 0.49193776
4.854795 -1.3883657 0.58149177
6.94419 -0.47780138 -0.67906731
9.6235905 0.53062445 0.68378669
10.537558 0.8082366 0.70921874
16.624468 3.2304902 -0.11815424
20.021805 4.5041256 1.0685523
21.108507 4.9453559 1.1300757
27.05937 8.7613707 -2.266958
28.988472 8.0705214 -1.3424211
29.253063 8.0417662 1.0243628
31.317795 10.368822 -2.2360742
31.578505 10.463074 -2.1913965
31.769932 10.531199 -2.1588647
31.866077 10.571172 -2.1418054
31.962219 10.609596 -2.1249292
34.297279 11.512331 -2.4030664
34.459625 11.573088 -2.3490112
34.555973 11.612302 -2.3177347
34.692787 11.659418 -2.3229496
34.873302 11.69978 -2.301749
35.063606 11.809454 -2.2637842
35.28508 11.88453 -2.2290552
35.46767 11.950898 -2.1998804
36.993568 11.160173 -1.4583032
37.090702 12.555205 -1.9363277
37.316719 12.653646 -1.9467342
38.366585 13.075207 -2.4373376
38.574982 13.104454 -2.4052145
38.957531 13.282424 -2.3423157
39.048561 13.285052 -2.3345008
39.315155 13.455793 -3.0016382
39.287239 13.398575 -2.3079491
39.565605 13.51439 -2.966507
39.672073 13.536554 -2.9657135
39.78949 13.59222 -2.9514062
5.3318596 -0.3202914 0.57505554
4.0818501 0.31359056 -1.5411388
20.466331 4.8613396 -1.4296124
20.537451 4.8861823 -1.4166844
20.399408 6.2978349 -2.2772191
20.788261 4.9953833 -1.3994529
20.891327 5.0254865 -1.3799217
21.370861 5.1913853 -1.3054373
23.054667 7.2670994 -1.8425398
23.13096 7.2960134 -2.2534764
23.369713 7.3960099 -2.646106
24.962631 6.5874343 -1.5986302
25.133537 6.6555386 -1.5693944
25.266073 6.7076983 -1.5467808
25.581924 6.8250294 -1.5139513
25.648701 6.8162785 -1.4771336
26.772615 7.2695818 -1.2710314
26.777327 8.6862478 -1.9724705
26.990486 8.7894602 -2.3045738
27.058239 8.8413334 -2.6515551
27.888069 7.6688738 -1.1507008
28.881758 8.0081625 -1.3399584
29.353985 8.2683258 -1.6559422
31.645382 9.0578766 -1.22887
31.883434 9.1845894 -1.2246122
31.964159 9.200285 -1.5516942
32.142029 9.1396599 0.31659192
32.185307 9.2816677 -1.1493024
33.563339 9.8477201 -1.6146214
33.919613 11.3747 -2.0726902
34.477386 10.009456 -0.93027753
35.574036 10.581102 -1.3114969
35.797417 10.663317 -1.2478828
36.3456 10.845379 -1.172971
36.45533 10.909678 -1.1398916
0.24584353 -1.5641853 -1.0205365
36.569324 10.92462 -1.1335996
1.3781781 -2.5203333 2.0500104
1.3738675 -2.5219681 1.8232445
36.870892 12.502893 -2.2540324
37.28627 12.662153 -2.2334332
37.569901 12.765172 -2.1475956
37.673771 12.788595 -2.1410406
38.356098 13.112 -2.7069066
39.179596 13.38784 -2.5399404
39.29686 13.458271 -2.5363474
39.569687 13.561522 -2.5551324
30.350264 9.8233957 0.067574516
39.777798 13.612793 -2.519217
40.079773 13.763995 -2.4883397
40.375679 13.865627 -2.4668553
40.557384 13.992252 -3.1473973
40.608494 13.958571 -2.4473851
40.777416 13.995149 -2.415416
40.872047 14.060481 -2.4127781
19.360373 4.323154 -0.62168741
33.882481 10.601331 -0.086643495
2.5184631 -0.29353076 -0.98719817
2.8121765 -0.14246419 -1.6675463
8.7923489 0.40583473 -0.83479506
18.912867 4.3345871 -1.4851732
19.028307 4.3706284 -1.4670458
19.271891 4.509439 -1.4271288
19.03437 5.8124862 -2.3932543
19.378883 4.5052347 -1.4296658
20.270607 4.8260999 -1.2673388
21.125196 5.1494174 -1.111577
22.039995 6.8986168 -1.8035936
22.060537 6.961113 -2.6502123
22.163086 6.9741511 -2.6127343
22.249958 7.0434546 -2.6043749
22.336914 7.0521092 -2.5849047
22.573891 6.4652839 -0.84295952
22.436657 7.092495 -2.5609789
24.864138 6.5765805 -1.2279711
25.173067 8.0727787 -2.3404047
25.363153 8.1597595 -1.8729296
25.440104 8.1667271 -1.856267
25.579189 8.2875986 -2.6010485
27.884922 7.6794724 -1.4431512
28.115574 7.783134 -0.97900867
27.960857 9.202013 -2.7664232
28.173277 9.2879 -2.7227831
28.280144 9.3050289 -2.7055101
28.273232 9.2686749 -1.9788561
28.637983 7.9626694 -1.2312279
28.872971 8.100728 -1.2210741
28.7348 9.4509697 -2.2561693
28.981731 9.5662746 -2.5609789
29.399725 8.2786636 -1.1128268
29.073631 9.5822649 -2.5431638
29.078705 9.5625877 -1.8138475
31.263069 10.389483 -2.0088549
31.521534 10.497187 -2.2982225
31.587534 10.534467 -2.6317186
31.974964 9.2574263 -1.2824144
31.653299 10.571953 -0.87811756
31.71191 10.597792 -2.5986986
31.710693 10.55023 -1.904912
32.073936 9.3114176 -1.2587328
31.774675 10.597466 -2.2368822
32.187943 9.2904196 -1.2227005
31.838398 10.618197 -2.2222948
31.97327 10.688071 -2.5289857
32.070686 10.670206 -1.8203173
32.514938 9.4568148 -1.1629076
33.66127 9.8655539 -1.2710099
34.184483 10.058055 -1.2167658
25.098232 6.7299466 -0.27263328
34.467381 11.603577 -2.0278368
35.036892 11.860583 -2.5986376
35.098225 11.880477 -2.5863085
36.907146 12.546762 -2.2265673
37.102024 12.566254 -1.5404713
37.214329 12.654896 -2.1703539
37.278263 12.671877 -2.1598558
37.689137 12.781237 -1.7432034
38.2519 12.809601 0.74435771
38.478764 13.091731 -2.3480704
39.613602 13.575455 -2.4740648
40.485855 13.904091 -2.4045153
40.915272 14.057855 -2.3477221
30.044365 8.3153191 -0.33775231
36.252548 11.630312 -1.0783911
19.354027 4.3333058 -0.34802121
33.340542 10.535766 -0.90990925
21.930174 6.3557739 0.7648859
7.8509703 0.72880924 0.25678059
4.6755972 -1.28193 -1.4478881
4.915381 -1.1905746 -1.4126709
18.558018 4.1699672 -1.3344848
19.701096 4.5771861 -1.1278528
20.08149 4.6806369 -1.0348678
20.780096 4.975873 -0.86945796
21.075193 6.5497656 -2.6146972
22.15992 5.4802446 -1.4514513
22.463375 5.5784583 -1.4097289
22.568348 5.6374817 -1.4130858
22.775167 5.7288637 -1.3370011
22.904581 5.7858424 -1.3125732
25.188894 6.7021327 -1.6309936
25.752781 6.8678117 -1.5039415
27.402918 8.8950672 -2.176394
27.77248 7.6464229 -1.0526855
27.578423 9.0270643 -2.506604
27.75774 9.0916452 -2.4681518
27.77569 9.0473318 -1.7287109
27.868563 9.1280308 -2.444226
27.942814 9.1553383 -2.4286621
28.430626 7.6965456 0.66392422
31.980408 9.2080688 -1.2524433
33.579174 9.8481007 -0.87861323
35.786488 10.667993 -1.1516292
35.959568 10.689708 -1.1336437
35.982372 10.70034 -1.5277339
36.139198 10.773352 -1.4553523
36.303276 10.890987 -1.4193878
37.084705 12.556109 -1.853744
37.272251 12.683528 -2.4359863
37.468929 12.7846 1.6436913
37.521637 12.919137 1.0156739
37.532337 12.783152 -2.3905761
37.53389 12.931957 1.6942017
38.65321 13.184414 -2.2113638
15.055611 3.4144528 -0.34825802
25.084806 8.0700245 -1.1451771
4.3869209 0.041879728 -1.6212783
2.8016922 -0.22575182 -1.5613598
16.510395 3.3936098 -1.330952
20.368769 6.2752218 -2.4330637
20.475128 6.3032055 -2.4090159
22.026823 5.4495831 -1.126057
21.873623 6.8018532 -2.4995506
21.901947 6.8280973 -2.9132273
22.71336 5.7584553 -0.96785384
23.450777 7.4492779 -2.4776804
23.705801 7.539371 -2.4079173
24.861151 6.5151186 -1.346566
24.914631 6.570467 -1.3121532
24.996166 6.6006608 -1.2923168
25.27704 6.6551752 -1.2138191
26.093552 8.4676704 -2.5481761
26.243464 8.5035858 -2.5083811
26.389135 8.5731936 -2.4667552
26.759842 8.7155676 -2.3647654
26.897709 8.7320576 -1.9481395
28.992096 8.0659542 -1.2405417
28.962566 9.5374489 -2.5759165
29.165039 9.602459 -2.5234263
29.262194 9.6456699 -2.4967844
29.3297 9.6496658 -2.4818308
29.493126 9.71099 -1.7135206
29.595274 9.7671862 -2.4100535
