# .PCD v0.7 - Point Cloud Data file format
VERSION 0.7
FIELDS x y z
SIZE 4 4 4
TYPE F F F
COUNT 1 1 1
WIDTH 1581
HEIGHT 1
VIEWPOINT 0 0 0 1 0 0 0
POINTS 1581
DATA ascii
40.988991 33.945889 -0.62273139
41.315609 34.175587 -1.1101946
42.267277 33.939472 1.8281792
42.034313 34.262348 2.3796978
40.923309 33.841694 0.70320511
42.320938 34.001823 1.8323045
41.077034 34.064919 -1.7597806
40.917603 33.955151 -1.7383963
41.979149 34.220055 1.8419243
42.062786 34.225269 2.3618436
42.164795 34.284496 1.7732408
42.208439 34.350922 2.3937583
42.239513 34.306831 2.2178507
40.889957 33.909279 -2.0220678
42.161434 34.24176 1.9632457
40.902702 33.950783 -1.6317606
41.093796 34.061699 -1.4011698
42.185413 34.264793 1.9457575
42.17144 34.276253 1.8630854
41.080902 34.055111 -1.5569615
41.208244 34.163864 -1.8893809
40.650391 33.31596 1.5337855
40.864479 33.907589 -1.7485554
40.975998 33.977135 -1.7322714
41.092682 34.070312 -1.8414748
41.087055 34.060284 -1.6454226
41.989624 34.137527 1.7629774
41.963535 34.209805 1.7650501
40.972672 33.975269 -1.63477
41.009136 33.993343 -1.8966296
41.102383 34.056656 -1.2453998
42.288582 34.327503 2.0702405
41.472782 34.010014 1.7651924
41.371433 33.97736 1.7849948
40.709797 33.570362 1.5845969
41.008617 33.959793 -0.41062847
40.690186 33.773247 -0.5845536
40.782452 33.708153 0.39899918
41.294247 34.056915 0.53570515
40.951202 33.819931 0.25394678
41.209457 34.151321 -1.5954341
40.576794 33.432915 -0.27760825
40.78582 33.73576 0.44337788
42.170792 33.937973 1.7722001
42.072968 33.903564 1.8855319
40.664986 33.486893 -0.046047535
41.01667 33.964787 -0.12226389
40.697403 33.758324 -0.14300612
41.01907 33.532879 1.8361795
41.458672 33.992638 1.9431008
40.918301 33.967789 -1.5352741
41.546959 34.022141 2.3351402
40.861717 33.771946 0.42682937
40.852913 33.788555 1.2206682
40.936958 33.844414 0.82886499
40.865871 33.825207 1.539173
41.15979 33.965172 0.49186647
41.309795 33.987728 1.554229
42.06992 34.241058 2.2811804
41.954521 34.124435 2.1668885
41.375546 33.935528 0.56021625
40.972576 33.871975 0.27504674
41.965797 34.258297 2.1799834
42.082726 34.270821 2.2436097
42.633087 34.120533 2.0741065
41.322361 33.978912 1.3863842
41.269108 33.937527 2.2397635
40.883366 33.826363 1.0542129
41.38102 34.001362 1.1561514
41.250401 33.932034 2.1509135
41.377323 33.997047 2.2564499
41.334908 33.981773 1.2898784
41.760033 34.117062 2.1659787
41.810165 34.157257 2.183244
40.917103 33.84927 0.45855084
40.997616 33.961033 -1.0509938
41.374157 33.980743 0.95146966
41.473797 34.022388 2.3692803
40.952492 33.856613 0.9698478
40.867119 33.797459 0.28532669
42.158676 33.916977 1.9450765
41.319698 33.597237 1.9182141
41.164303 33.90995 2.1689808
40.938248 33.473801 1.9537747
40.953236 33.814423 2.0776601
42.148682 33.934502 2.0661368
40.860855 33.808838 0.7537899
40.863533 33.803864 1.1825697
40.949883 33.880299 1.3245611
41.281616 33.995548 1.4623175
40.936871 33.840385 1.2273148
41.066719 33.90873 1.310872
41.454212 34.019032 2.2499576
42.139126 33.934509 2.2278409
41.010319 33.896793 0.7392996
40.867161 33.815399 2.0714579
40.861816 33.807152 0.557244
40.944153 33.865658 0.58789325
41.201805 33.95787 2.1684191
41.029747 33.812218 1.8793324
40.870831 33.798771 2.3534269
41.160416 33.917862 2.3726833
41.204327 33.949223 2.0328834
40.945503 33.829075 0.43030506
40.983368 33.859844 2.0613475
41.327209 34.000961 0.76860392
40.670715 33.762386 2.2573299
40.584583 33.386787 -0.14598948
40.686657 33.49585 -0.51243263
40.879242 33.811008 2.2667129
40.911861 33.864967 2.2573948
40.986469 33.864143 2.2462721
42.358749 34.011116 1.9862463
42.154064 34.273792 2.2273173
41.849304 33.832527 1.9410399
41.142738 33.948799 2.3526983
42.280182 34.37009 2.6776478
40.692917 33.788048 1.8637524
41.363564 34.074757 1.8446367
42.108204 34.127579 2.022686
41.393452 34.053169 1.7864064
41.316425 34.171329 -1.3866484
41.758778 33.987007 1.8611672
42.079205 34.269917 1.7437888
42.102329 33.808277 2.1134999
40.8899 33.92762 1.6532105
42.255535 34.310459 2.3525383
41.749107 34.112259 2.2665951
41.660313 34.096462 2.2703397
42.257122 34.237354 2.3621769
41.237476 33.90749 2.3610661
42.267296 34.305542 2.1717727
40.449993 33.758087 -0.95769292
40.489666 33.672253 -1.3567843
40.485271 33.766872 0.4376137
40.717064 33.782055 -1.4010489
40.612816 33.670486 -1.0009139
40.874336 33.861069 -0.14439163
41.161125 33.998428 0.67368835
40.64592 33.605301 -0.49698859
41.254654 33.940273 -1.2301288
41.213612 34.041424 0.90331769
41.074295 33.959782 0.88506818
41.344009 34.073513 2.9863949
40.95023 33.928627 3.0593929
40.705208 33.711418 -0.49579161
41.236889 33.98296 0.83131307
41.135597 33.945263 2.8825827
41.073807 33.918797 2.8127584
41.070942 33.951664 1.0548849
40.946659 33.86615 1.0338278
42.083771 34.292686 2.4346976
41.120258 33.974007 1.5030744
41.286236 34.031418 1.3032538
41.230957 34.018703 0.33613276
41.261993 34.006451 0.24862105
41.001129 33.899498 1.5558717
40.871563 33.848145 0.93998945
40.671066 33.677666 -0.61615562
41.772106 34.192093 2.4581604
41.696438 34.200508 2.4060624
41.469673 34.075153 2.3445189
40.88126 33.881851 2.3982577
41.205868 33.963299 2.3041463
41.145443 33.999233 1.2700844
41.001801 33.924194 1.460693
40.981277 33.886021 1.163764
40.874977 33.875835 2.4747853
41.355686 34.030708 2.4833536
41.130657 33.982079 1.3668251
41.09816 33.965698 0.24146736
41.288673 34.011753 1.0578212
41.133682 34.000874 1.1090403
41.086136 34.036518 3.082021
41.212543 34.051945 0.78893965
41.471378 34.129074 3.0502408
41.457294 34.111713 2.8518252
41.114861 33.986958 0.48628247
41.076836 33.971027 0.95638007
41.02507 33.948879 1.2078335
40.990631 33.879616 1.9485699
41.687801 34.235729 2.9241517
41.189632 34.02533 0.78824401
41.140774 34.010967 2.6657429
41.677235 34.20676 2.6374092
41.480202 34.095028 2.4965715
41.206203 34.024055 0.59811157
41.189995 34.057899 -0.27580732
41.166092 34.021698 0.98023826
41.059856 33.960213 0.32168332
40.97887 33.925266 2.8348999
40.94006 33.88773 0.38210812
40.863842 33.89101 2.664295
41.147095 34.032578 3.1105113
41.158882 33.995567 2.7685614
41.772545 34.192535 2.5828974
41.703705 34.206188 2.5883901
41.94553 34.304504 2.5759127
41.866547 34.276897 2.5754077
41.775307 34.175156 2.3539965
41.672878 34.187599 2.468595
41.466038 34.098667 2.5410759
41.389557 34.083134 2.3848572
41.467644 34.127552 2.7900262
41.196903 34.047527 1.5731256
41.156609 34.030979 2.9527183
41.10482 33.986641 0.77300775
40.864246 33.905491 2.9393482
41.278053 34.087349 2.9633501
40.859043 33.902008 2.857733
41.392334 34.149872 2.8821049
41.24807 34.07243 1.2642554
41.202496 34.079235 2.9963722
40.997581 33.996777 2.9792898
40.887447 33.971375 3.0062599
40.838715 33.942612 3.01334
41.138878 34.067787 3.0444503
40.962502 33.9688 2.6707356
40.863258 33.94804 2.6738062
40.840065 33.95586 3.0251904
42.52953 34.479561 2.8863971
41.375553 34.163227 2.9744058
41.377552 34.105076 2.7485199
41.088127 34.051655 2.8955002
41.07922 34.011227 2.8572824
40.927376 34.00581 3.0632858
41.442955 34.134823 2.9425874
41.215542 34.058331 1.8789083
41.052414 34.002563 2.9513798
40.953594 33.923046 2.7639372
40.870338 33.908051 2.7753308
40.865292 33.892597 2.5825107
40.873642 33.799042 0.17213026
40.527981 33.414295 -0.75908941
41.200947 34.0639 -0.11518343
40.541103 33.39315 -0.85681897
41.360195 33.980396 0.87837756
41.825836 34.143181 1.8028944
41.866879 34.110287 2.2700682
40.974205 33.861336 0.15062521
40.939594 33.843311 0.12013784
40.538654 33.439056 -0.66905951
40.670044 33.714081 2.1675577
41.132248 33.697044 1.6897488
40.853447 33.431702 1.9721994
40.450752 33.41172 -0.73770881
40.63369 33.600639 1.936475
40.468071 33.430202 -0.85378546
42.574341 34.505287 2.3315878
41.880695 34.150028 1.7880018
41.822876 34.246685 2.4767737
41.99588 34.258728 2.3592291
41.965706 34.254246 2.4720137
42.688072 34.648041 2.679775
42.214176 34.490299 2.8319967
41.16515 34.013847 0.1373625
41.095135 33.966015 0.08411938
42.301296 34.485363 2.5841908
41.991669 34.229549 2.2701941
42.655945 34.587559 2.4931912
41.870651 34.178703 1.8240699
41.850571 34.179661 2.2387855
42.482582 34.568138 2.6724617
41.102848 33.955826 -0.037101679
40.99773 33.891521 0.061711084
42.696564 34.677631 3.1264143
41.376759 34.083553 2.4814682
41.174698 33.993282 2.4661188
42.76141 34.643139 3.0021405
42.226776 34.423416 2.8053021
42.161381 34.39814 2.6178632
42.103729 34.35577 2.4364667
41.975578 34.303642 2.6634207
41.745525 34.232403 2.6321185
41.749748 34.20298 2.7648647
41.645855 34.219978 2.8397906
41.465015 34.117977 2.6513889
41.185402 34.019196 1.6012615
42.4785 34.533234 2.8637106
42.237667 34.443607 2.9846201
41.939915 34.333118 2.7687387
41.560543 34.189674 2.8557715
41.252594 34.031342 0.53483063
41.854855 34.161381 2.0208344
42.10247 34.419796 3.0814188
41.692959 34.267586 2.7888088
41.574085 34.200233 2.9468179
41.285938 34.093563 2.8399842
41.154663 34.014107 1.746285
41.073853 33.970131 1.2150247
42.239422 34.475658 2.9619794
42.148376 34.415192 2.7555809
42.077065 34.38224 2.6897991
41.94722 34.334415 2.8574824
41.84473 34.308807 2.7661459
41.664131 34.225956 2.7508636
41.475601 34.164059 2.6693633
41.241371 34.043442 0.7891829
41.200333 34.047619 1.9273018
42.658325 34.623165 2.9581051
42.552628 34.575249 2.5761809
42.48111 34.553131 2.5812023
41.81004 34.324192 3.020072
41.489632 34.193439 2.9518516
41.362198 34.12328 2.8479061
41.363396 34.105732 2.6592355
41.190048 34.0751 2.8463538
41.269733 34.025208 0.4728252
41.159466 33.99831 2.5586047
40.970562 33.981445 2.737906
40.991989 33.956322 2.4883862
40.957184 33.823956 -0.55406761
42.561798 34.621738 3.0596271
42.477337 34.577091 2.9599781
42.054646 34.445221 3.2003057
41.994267 34.381054 2.9635932
41.934479 34.377682 3.117542
41.893658 34.374958 3.1429937
41.869232 34.355232 2.9122808
41.742287 34.297077 2.9481537
41.697201 34.312931 3.0703008
41.580696 34.249786 2.872366
41.585506 34.190037 2.6609731
41.462227 34.185753 2.8780086
41.488209 34.171177 2.5683439
41.455299 34.178432 2.7505503
41.367367 34.155869 2.7650244
41.367138 34.108131 2.5650671
41.193035 34.073288 2.750283
41.260029 34.056877 0.32751119
41.274342 34.010784 -0.24603058
42.680832 34.660522 2.8824787
42.55761 34.600109 2.8835747
42.283566 34.502396 3.1136229
42.215553 34.492939 3.0423772
42.276512 34.490105 2.8638508
42.112629 34.463326 3.0170751
42.065338 34.457489 3.1520848
42.085552 34.411072 2.949285
41.991692 34.384136 3.0398965
41.904774 34.363041 2.8710356
41.663345 34.274803 2.8376348
41.654606 34.263641 2.9552913
41.689041 34.26358 2.6316106
41.684158 34.277699 2.6060033
42.684227 34.660137 2.948225
42.582016 34.623665 2.9516997
42.488071 34.594704 3.0491152
42.477856 34.571274 2.7704117
42.357883 34.508732 2.8408961
42.181061 34.467136 2.9532166
42.167023 34.458813 2.7594397
42.076359 34.411461 2.7545059
41.896496 34.354858 2.7038841
41.878525 34.327995 2.8671854
41.864029 34.301556 2.6571789
40.955025 33.845398 0.10575589
40.943676 33.819649 -0.24013537
42.758305 34.679867 2.9636521
42.71524 34.656666 2.7534413
42.649361 34.63295 2.858638
42.463524 34.563496 2.8650284
42.475094 34.529594 2.539614
42.252644 34.485668 2.7778995
42.290009 34.478561 2.6599834
42.269608 34.472427 2.4851167
41.167404 34.005421 0.044397958
42.677402 34.607887 2.7684639
42.5802 34.585983 2.6689267
42.433296 34.523296 2.774848
42.761158 34.630322 2.6650732
42.759567 34.616177 2.7827642
42.760311 34.610977 2.4489517
42.671104 34.602623 2.6544049
42.553558 34.520706 2.5623515
40.950241 33.829414 -0.35325342
40.964157 33.811562 -1.4182969
42.288086 34.401485 2.5501742
41.329311 34.06451 -0.42498246
40.949928 33.815269 -0.048705596
41.774288 34.097488 1.7295055
40.949028 33.826794 -0.14407988
41.178509 33.992439 -0.13739891
41.343109 34.080879 -0.94013298
41.34182 34.073395 -0.53882408
42.385139 34.554699 2.8452578
41.618382 34.255161 2.9575119
41.287949 34.149601 2.8200567
41.778889 34.296997 2.8351626
41.278328 34.010845 -0.74026048
41.171871 34.002666 -0.24236222
41.954765 34.375858 2.6764858
41.607491 34.262836 2.6901097
41.862823 34.175518 2.1448071
41.777229 34.2883 2.6732764
40.98098 33.877724 -0.12712152
41.757027 34.279766 2.7820899
41.77227 34.261909 2.5024929
40.992012 33.879395 2.3878155
41.268608 34.085728 1.3692682
41.268501 34.082565 -0.13752557
41.351719 33.999992 0.55425984
40.915127 33.847122 -0.27159193
42.375061 34.494167 2.4770062
42.374043 34.485111 2.5499411
42.37059 34.51992 2.6745512
41.884247 34.214581 2.7126486
40.984634 33.966774 -1.2485359
41.00095 33.962299 -0.93577832
40.973267 33.966736 -1.525941
42.011127 34.346699 2.5364339
41.277973 34.005596 -1.2314793
41.324791 34.058796 -0.35090718
41.33831 34.072666 -0.73434824
41.105812 33.971138 -0.25027096
41.753334 34.277744 2.574924
40.480881 33.65612 -1.1469749
41.082981 33.976372 -0.33337075
41.16951 34.003151 -0.33602628
40.976208 33.88459 -0.33664852
41.006683 33.951981 -0.73117238
41.98201 34.383514 2.7510829
40.436169 33.433289 -0.41897297
40.387424 33.525349 -0.83819771
40.542011 33.405472 -0.94722307
40.981426 33.885651 -0.44600487
41.334198 34.071102 -0.61924577
40.385872 33.492565 -0.72747487
41.202324 34.058453 -0.44609475
40.908703 33.86372 -0.53678107
41.088081 33.969345 -0.44622654
41.197643 34.057381 -0.54034311
41.363651 33.609852 2.0221267
40.454746 33.417114 -0.52262485
41.032303 33.840668 2.0901616
41.421116 33.684849 1.7658561
41.058891 33.890984 0.17615242
41.955513 33.828087 1.6909707
41.659924 34.033955 1.7203213
41.041092 33.827087 2.3585358
42.159306 34.239178 2.289829
42.028637 34.099159 1.7989234
41.194569 33.534096 2.0209913
40.945366 33.830997 -1.6016392
41.370808 33.976002 0.62006587
40.95808 33.823906 -1.5361075
41.377438 34.006706 1.0525953
41.385803 34.081463 2.0690432
41.959854 33.83791 2.4121108
40.906876 33.663918 2.1381838
40.970707 33.669571 2.1289065
41.87429 33.834915 2.6229537
41.204773 33.67112 2.4779429
42.511219 34.149643 2.5472341
41.137665 33.830696 2.0609677
41.338436 33.634361 2.3720605
41.168274 33.916412 2.2616379
42.135353 33.935051 2.4649916
42.095276 34.3549 2.0557101
41.473122 33.772606 2.4503796
40.877804 33.866547 2.074831
40.44611 33.417473 -0.61984408
41.365715 33.642334 1.9718226
42.281033 34.383286 2.0988235
41.414379 34.05677 2.1328802
41.37191 33.684731 2.7606375
41.075905 33.987278 2.5736661
41.073715 33.841209 2.2503567
41.841621 33.835632 2.3593104
42.647678 34.129261 2.7452393
41.946091 34.196499 2.0852792
41.05146 33.538815 2.4772735
41.356483 33.630455 2.4618056
41.649227 33.73867 2.455842
41.866348 33.828773 2.4683592
41.924992 33.842922 2.5779214
42.647362 34.117661 2.6652126
41.279568 33.61668 2.7746952
40.986053 33.870239 2.152638
41.462502 34.054218 2.1750045
40.97509 33.510685 2.6517525
42.360344 34.014771 2.0475285
41.160168 33.906952 2.0648713
40.977707 33.518379 2.5524306
41.35778 33.676922 2.6662498
41.470203 33.715218 2.660939
41.044163 33.974995 2.6715293
42.580688 34.101757 1.8551252
40.954105 33.857643 0.44914198
41.663902 34.099876 2.1478531
41.079529 33.591858 2.157012
41.084007 33.57666 2.2693517
41.047977 33.527813 2.3751037
40.745613 33.638367 1.9939047
40.787643 33.727215 -0.035971563
42.144447 34.291725 2.0749526
40.965145 33.50898 2.7639682
40.623268 33.509613 -0.25425863
41.047813 33.884537 1.6524032
40.78986 33.614418 -1.5402707
40.63398 33.638973 0.67322725
40.717358 33.766247 -0.44749475
42.593117 34.168491 2.4491067
40.69611 33.683113 -1.43467
40.787682 33.728939 -0.44013086
41.374611 33.763645 1.6317225
40.663799 33.692299 -0.74163073
40.780945 33.727818 -0.24156478
41.078194 33.982986 -1.0418077
41.053173 33.862053 1.9618244
41.14957 33.933144 -0.84008914
41.578167 33.793594 2.1597188
40.785637 33.788166 -1.3324583
40.553497 33.584858 -0.63435918
41.074142 33.881294 2.2519145
41.055691 33.792099 -0.69289732
40.657764 33.530441 -0.44311529
40.689419 33.870914 -0.42307922
41.061626 33.921055 -0.24610487
40.778835 33.717876 -0.13049264
40.965538 33.811325 2.1534617
40.501999 33.580734 -1.6200249
42.164253 33.985615 2.3645377
40.81221 33.865604 1.8384632
40.712654 33.675564 0.13937305
42.476368 34.172161 1.8754143
40.465477 33.594254 -1.5325001
40.629242 33.496338 -0.6283561
40.620365 33.618141 0.033907562
40.473988 33.5961 -0.3341319
40.545555 33.60006 0.2586261
40.627327 33.488354 -1.5415599
41.21912 33.620522 1.6831732
40.623966 33.491707 -1.1430793
40.457531 33.662373 0.96327424
40.544548 33.659592 1.2542591
40.78051 33.780605 -1.1433966
40.788025 33.76543 -0.041001983
40.687054 33.789497 -0.66131681
40.789532 33.773087 -0.83634579
40.486763 33.660393 -0.94782478
41.054977 33.592972 2.053591
40.481125 33.655216 -0.33519569
40.480179 33.660603 -0.24599773
40.77486 33.792046 -1.5403692
40.472725 33.65826 -0.65421569
42.367378 34.035236 2.624908
41.174377 33.600338 2.5540786
41.566502 33.800056 2.0597587
40.624542 33.568684 0.84620154
41.262241 33.630241 2.0557415
40.619476 33.693874 -1.2438174
40.647282 33.583324 -1.2253902
41.965557 33.897408 2.4543612
40.468784 33.669868 -0.72786617
40.953999 33.52269 1.6573393
40.545006 33.594322 -0.23576127
41.9618 33.912376 2.0797815
41.169228 33.600266 2.360708
42.013065 33.869041 1.7024655
40.541039 33.658051 0.95889693
41.977581 33.928711 1.838779
40.453621 33.500244 -1.3507847
40.647236 33.573597 0.45695263
41.604317 33.855759 1.848998
41.085545 33.879883 2.0620546
40.658096 33.75708 -1.2704741
41.168343 34.024345 -1.4305842
41.006927 33.682518 1.7357833
40.895557 33.548023 2.0327535
40.693974 33.71537 -1.8325925
40.784672 33.770519 -0.63801116
40.671036 33.615376 -1.7307115
40.598007 33.814896 -1.1230199
40.785152 33.714661 -1.0421717
40.777157 33.728085 -0.33357209
41.56839 34.071239 2.3483357
40.856529 33.694431 -0.83601463
40.788712 33.717529 -0.84291911
42.550938 34.136993 1.782355
42.574173 34.149029 2.7490036
42.580185 34.1674 2.3632994
40.783875 33.777264 -1.0369834
40.782082 33.859764 -1.443877
40.813198 33.864185 -1.353775
42.27515 34.017696 2.2652185
40.784279 33.779152 -1.4325812
40.790119 33.762264 -0.2421609
41.182812 33.529854 2.0010283
40.794483 33.852028 -1.1453624
40.862873 33.702969 -0.44013584
40.848816 33.698227 -0.73421836
40.467896 33.599373 -0.23962927
41.575172 33.800514 1.9567389
40.468502 33.594692 -0.84546602
40.567883 33.776913 0.34819171
40.648113 33.593307 0.5692054
41.069427 33.957737 2.0768762
42.050755 34.208469 2.1467025
40.781399 33.862175 -2.0303574
40.805626 33.482658 1.9587831
41.078384 33.953575 1.9437784
40.779392 33.784042 -1.2363888
40.773373 33.86454 -1.2550659
40.783947 33.868549 -1.5732912
40.863106 33.70208 -0.34258935
41.075874 33.969746 -0.54107225
40.469707 33.60463 -0.032699198
40.466484 33.58757 -1.4322901
40.474148 33.579617 -1.3312306
40.782185 33.765308 -0.44213128
40.88792 33.861443 -0.34372002
40.887245 33.527184 1.8030679
41.370758 34.047974 1.9483671
42.08812 34.264793 2.8934314
41.878731 33.965084 2.0575294
41.970779 33.979568 2.1693053
41.944862 33.939148 1.8091753
41.979664 33.977581 2.0481563
41.995506 33.956051 2.354779
41.030331 33.923267 -1.6560709
41.983986 33.968246 2.2618768
41.588081 33.759502 2.5689142
41.3853 34.004219 2.3704433
41.372555 33.993797 1.9529029
41.978413 33.978184 1.9655658
41.956249 33.928505 1.9844575
40.849098 33.493202 1.867861
41.941154 34.091324 1.8526063
40.625637 33.596764 1.1885984
41.493103 34.079758 2.0689526
40.749874 33.375324 1.5800246
40.788074 33.772144 -0.73405313
41.467728 33.711128 2.3653092
40.796432 33.759136 0.056198698
41.448383 33.744774 1.9045566
40.787754 33.762161 -0.33708435
41.060329 33.817924 1.9737722
40.658215 33.640892 -1.5345578
40.683125 33.560673 -1.3094497
40.787239 33.873074 -1.8299595
41.95726 33.988586 1.8756118
40.783073 33.768414 -0.13892823
41.177471 34.082909 -1.5388799
41.469105 33.709297 2.4569101
40.860767 33.801529 0.3715632
40.757565 33.706627 -1.6428078
41.472954 33.710529 2.5420437
40.807411 33.797863 1.5076085
40.983231 33.581684 2.0370135
41.282227 34.039352 2.7476895
41.471027 33.71925 2.1504459
40.409706 33.526573 1.0505147
40.788029 33.776108 -0.93587214
40.778503 33.616978 -1.7444798
41.165199 33.999012 -1.2388176
40.472569 33.591187 -0.62885261
40.405033 33.602081 -0.43879756
40.785488 33.763107 1.1765492
40.980801 33.895489 -1.3356123
41.159851 33.910545 -1.2310098
40.972969 33.888115 -0.53237814
41.05637 33.915302 -0.83997375
40.403431 33.580875 -0.72669655
41.264091 34.09243 2.7611103
41.07497 33.991386 -1.433268
42.149166 34.434937 2.9403875
40.767738 33.779476 2.2566111
40.478619 33.601837 -0.95298851
40.713871 33.641479 -0.97928935
41.036419 33.526249 2.0643589
41.158432 33.60342 2.0506368
40.776348 33.737579 0.052415438
42.168827 33.982437 2.4500945
40.991722 33.536339 1.7707565
41.575008 34.052643 1.7547863
42.381546 34.073635 2.5592272
40.462963 33.66864 1.1657083
41.072281 33.872337 1.549615
40.410252 33.592102 -1.2409149
40.886612 33.698238 0.50099891
41.575188 33.784042 1.6826148
40.475803 33.594509 1.3608938
40.386635 33.415794 -0.94941461
42.55933 34.539013 2.4726074
41.206867 34.172318 -0.96545172
41.693169 34.080055 1.8770697
41.878742 34.238419 1.9641873
40.768513 33.772625 2.3590961
40.368221 33.424549 -0.47847083
40.99604 33.959961 -0.8544333
42.17094 34.000412 2.1547368
40.401615 33.512516 -1.1287081
40.790401 33.719101 -0.74127221
40.873123 33.710068 0.65658939
42.170532 33.981579 2.5564837
40.740814 33.636204 -0.51144564
40.981834 33.697449 1.4663982
41.163162 34.002106 -1.1322826
40.649124 33.580894 -1.038331
42.400757 34.156971 2.1343839
42.34811 34.333076 2.0848064
40.407711 33.653458 -0.29539308
41.14468 33.921551 -1.0483485
41.579819 33.775082 2.3588507
40.858978 33.788559 0.052598231
41.068676 33.9902 -1.238991
40.495518 33.655296 -1.5353059
40.787991 33.714607 -1.1364934
42.086903 33.970119 2.3562963
40.81094 33.787697 0.44000667
41.049057 33.919804 -1.7332554
41.364437 33.911125 1.5451305
41.536922 33.724171 2.5309129
40.787186 33.450512 1.8011646
41.670238 34.08054 1.7379013
41.485554 33.938854 1.6326324
40.796455 33.772305 0.76471764
42.349262 34.331707 2.1622033
40.776268 33.701828 -1.440863
41.351204 33.915455 1.4383801
41.352402 33.897907 1.763517
41.559078 34.159164 1.8385006
40.783379 33.762562 0.12779821
41.1637 33.604385 2.1721432
41.14819 33.934193 -1.3263956
42.677429 34.206127 2.0709238
41.064491 33.914677 -0.14729771
42.056168 33.914043 2.0654304
40.815437 33.779564 0.3428669
40.861965 33.697784 -0.13252732
42.683208 34.175285 2.5467551
41.245182 34.121582 -2.0370576
41.329895 34.070316 -0.2476885
40.809582 33.761147 0.28776726
41.93969 34.280529 1.8981783
40.402519 33.503555 -0.63133818
40.482162 33.656616 -0.42955998
41.196373 34.077572 -0.64618355
42.671379 34.203213 2.1698816
42.170578 33.992775 2.266511
41.465405 33.720219 2.0759652
40.867393 33.960415 2.851891
40.876354 33.513607 2.0595698
42.043205 34.240082 1.8484746
40.751137 33.705208 1.8660569
40.781143 33.767025 -0.53034317
41.236832 34.109886 -1.9410065
40.784286 33.772545 0.9878487
40.78577 33.706734 -1.3342731
41.083973 33.608994 1.965045
41.077507 33.983734 -1.1284596
41.970539 34.111794 1.9435366
40.459213 33.50404 -0.54034066
40.790073 33.602966 -0.32487312
40.791325 33.627209 -1.340332
41.472942 33.718391 2.2681406
40.686752 33.711479 -0.1306704
40.633636 33.582565 0.20027117
40.86264 33.806984 0.68026137
40.760921 33.776302 2.1688735
41.084347 33.992794 -1.3407354
40.465981 33.651649 -1.0548476
41.456081 33.687019 1.9453089
40.621735 33.606781 0.22531685
40.786438 33.792809 0.65101087
40.786789 33.765835 0.55489147
41.081345 33.536442 1.948107
41.071342 33.992065 -1.5363007
40.910801 33.489113 1.9252169
40.706341 33.616432 -0.66227937
40.647797 33.582088 -0.026952375
42.366375 34.377792 2.1534369
42.472092 34.096676 2.3649879
40.40559 33.598862 0.06515874
41.646168 34.084709 2.0378766
40.40263 33.606766 0.16168526
41.080322 33.806763 1.7766602
40.892143 33.814922 0.9226383
40.78598 33.809738 1.90663
41.369431 33.784813 1.8355188
40.738987 33.728336 2.3296738
40.76664 33.778561 1.9856734
40.789955 33.483593 2.0589082
42.375118 34.108055 1.9707546
40.404987 33.597458 -0.53811294
41.352535 33.765587 1.7791737
40.983059 33.571396 2.448154
40.99651 33.559341 2.3693042
41.083603 33.976421 -0.740964
42.583256 34.587872 2.7588196
42.375317 34.07708 2.360471
42.48452 34.379192 2.024817
41.111294 34.014065 -2.0183089
41.082523 33.973427 -0.93298078
41.859772 34.217415 2.5775526
42.369751 34.165966 1.9541395
42.364239 34.102383 1.8491446
41.970779 34.364716 2.8478644
42.442619 34.261295 2.0994565
40.923824 33.840401 0.57425046
42.155708 34.01033 1.7634419
40.875057 33.807331 2.1532981
41.274685 34.094856 -1.3386278
41.315495 34.057537 2.6002781
41.263672 34.084064 -1.1324426
40.875278 33.91824 1.8464243
41.392372 34.124702 1.6385479
41.274231 34.092598 -1.4281452
41.278233 34.011574 -1.035224
41.269287 34.105232 3.0792515
41.27523 34.087234 2.6785793
40.895489 33.845654 0.21821296
41.275303 34.093037 -1.230523
41.311081 34.086395 2.3973348
42.372063 34.103519 2.0645845
41.965645 34.268467 1.920334
41.298313 34.083588 2.4845805
41.265461 34.011108 -1.3301454
41.26672 34.080284 -1.0400583
40.771244 33.799072 -1.7504499
41.276028 34.01643 -1.1352353
41.263638 34.069103 2.0776987
40.761765 33.727779 2.0682445
40.683167 33.76268 2.1694691
42.352821 34.164104 2.27142
40.545238 33.591988 -1.041955
42.391232 34.1614 2.0855176
42.415131 34.15274 1.8509158
41.845238 33.854382 1.7117794
42.16391 34.009686 2.0698891
42.458271 34.11042 2.0660481
40.656525 33.682362 1.6559424
42.290257 34.064808 2.5729277
42.722599 34.135902 2.2643995
41.49297 34.058533 2.2573843
42.582119 34.198036 2.0544102
42.657822 34.230797 1.858639
42.563084 34.125698 2.3655846
41.169827 34.053379 2.603385
42.562698 34.406418 1.8751627
42.578194 34.156143 2.5622025
41.592659 34.177071 2.5673397
42.558586 34.125397 2.1650665
40.969688 33.529884 2.1596677
40.47514 33.66201 0.26936817
40.644329 33.511074 0.26638633
41.55172 34.111931 2.7946036
42.072956 33.995083 2.0719428
40.870995 33.596165 1.8421024
42.077232 33.98035 1.9799056
42.552296 34.123104 2.0392032
42.471401 34.391731 1.9464012
40.779419 33.858711 2.4381676
42.596138 34.12788 2.7586737
42.245895 33.931915 2.0380757
42.081936 33.996948 2.1660376
42.503212 34.49939 2.3131311
40.860752 33.698765 -0.53424418
42.56934 34.123447 2.5424681
40.736427 33.754341 1.616825
42.647945 34.257881 1.8530258
42.066525 33.97121 2.2663631
42.562744 34.116142 2.4536333
41.045681 33.510822 2.1449652
40.86602 33.505306 2.1707976
42.671589 34.266407 2.3660114
42.282326 34.075695 2.0648921
42.560501 34.119789 2.2739382
42.690617 34.259769 2.1527543
42.699966 34.257767 2.0481749
42.466034 34.525314 2.6678388
42.770039 34.269821 2.4886017
42.660648 34.262764 2.4668636
41.053925 33.51247 2.6882119
42.586163 34.12183 2.651051
42.035553 34.23785 2.0475502
42.379311 34.068047 2.4513021
41.826149 34.315731 2.9658744
42.37558 34.097561 2.1538582
42.214909 34.407364 2.5834394
42.032448 34.345844 1.8140174
42.346951 34.03413 2.27438
40.821056 33.727459 1.9100497
42.36692 34.07497 2.2660527
40.407021 33.570358 -1.616464
41.973507 33.906055 2.3632059
41.964821 33.906101 2.1570356
42.088257 34.266895 2.1239598
40.563717 33.51059 -1.1294324
40.955891 33.894562 0.8945877
40.797462 33.874878 -1.9781061
40.567474 33.503323 -1.3530105
40.805763 33.856052 -0.72336763
40.794476 33.877071 -1.756579
40.340172 33.703854 -0.03640876
40.695297 33.685646 -1.3469912
41.057327 33.909977 -0.63641405
40.472759 33.589172 -1.2417372
41.543602 34.02948 2.0671349
40.962753 33.823147 -0.4481847
40.779015 33.787121 -1.6327404
41.215004 34.148342 -1.1527885
41.841564 34.124649 2.170224
41.194069 34.156048 -1.3159609
40.538795 33.40115 -1.1402435
41.65633 34.095486 1.6674665
42.190136 34.070278 2.0505774
41.362457 33.772873 2.1897953
42.392452 34.547661 2.791306
42.468533 34.373981 2.1452172
41.445034 33.645279 2.4163833
42.370499 34.515682 2.7604723
41.669693 33.819519 1.7528758
41.584095 34.160782 2.4750581
41.052113 33.534901 2.5542746
42.359257 34.535061 2.9569969
42.773041 34.279545 1.9689091
41.140579 33.936058 -0.67012179
41.622826 33.733509 2.2317519
41.5597 34.202496 2.7550774
40.856796 33.703465 -0.24464868
42.689026 34.256767 1.9478251
42.576553 34.201927 1.9536405
41.363617 33.875984 2.0751674
41.576641 33.764656 2.4574344
41.097713 33.998844 0.14406949
42.054291 33.985146 1.847095
42.063831 34.022339 1.7283492
40.767117 33.814396 2.0465899
42.064487 34.401962 2.8771584
42.433945 34.330639 2.3307862
41.027817 33.946701 1.3274556
41.063332 33.914879 -1.4344143
42.584747 34.567062 2.4570649
42.477482 34.172779 2.15095
41.17606 33.612255 1.8805399
42.156815 34.295181 2.3676581
41.935905 34.199566 2.1394706
41.084457 33.972137 -0.64167196
41.166386 33.884998 -0.25631246
40.559952 33.519447 -0.5391832
40.95155 33.8218 -0.73428136
41.970081 33.909531 2.2719634
40.98584 33.88044 -0.24411456
41.676651 34.094456 1.9571444
40.405228 33.589607 -1.1236658
40.556335 33.681259 -0.86034352
40.47134 33.595814 -0.73227811
41.651711 34.15984 2.0493119
40.556774 33.387749 -0.56200445
40.866306 33.789883 -0.64133167
41.241596 33.870491 0.03789207
42.467762 34.088127 2.458245
41.058754 33.921349 -0.53388762
40.786419 33.86195 -1.6058325
40.469398 33.601852 -0.43511358
41.05518 33.911777 -1.0417945
41.178032 34.080921 -1.623477
40.547832 33.597271 0.1635178
40.529533 33.658478 -0.71748459
40.48859 33.663971 -0.13760975
42.464451 34.131882 1.9543792
42.462418 34.108036 2.1549113
41.059013 33.91153 -0.34281904
40.547836 33.594261 1.0630078
41.059761 33.898266 -1.2392608
40.483459 33.654469 -0.036138218
40.474503 33.597782 -0.52624387
40.486748 33.653522 -0.53946817
40.477005 33.587849 -1.141273
40.474888 33.658401 0.063411392
40.958263 33.81723 -0.63953507
42.486595 34.163349 2.3689482
41.068439 33.908333 -1.3379933
40.466923 33.659504 0.15528728
41.666977 33.7883 2.4584897
40.969025 33.89743 -1.4327098
41.152161 33.923103 -0.34212536
42.466408 34.099289 2.2741158
40.548229 33.590981 -0.52917784
40.47073 33.662216 0.35829791
41.489155 33.724903 2.742049
40.558823 33.584908 -1.5484787
40.552032 33.587029 -1.1341984
41.104588 33.962505 -0.150903
42.571732 34.192589 1.8607051
42.494701 34.165981 1.9549562
41.645435 33.739597 1.8552848
40.544605 33.598152 1.5669812
42.665718 34.191574 2.267642
41.76683 33.814289 2.0552809
42.064316 33.926964 2.56146
40.556892 33.587009 -1.3509521
40.55022 33.580494 -1.2385361
40.974075 33.902008 -1.2307965
40.998032 33.961765 -1.1350862
40.542568 33.600342 1.1619667
40.555168 33.521877 -0.43250698
41.141552 33.921993 -0.94172817
42.475082 34.174751 2.0676684
42.770851 34.210144 2.3587677
40.992012 33.970779 -1.3460329
40.978146 33.897449 -1.0428348
40.988762 33.967216 -1.4347811
40.8951 33.859531 -0.73706514
40.475342 33.587227 -1.0374893
41.166924 34.004425 -0.83750772
41.568806 33.811638 1.8643829
41.176666 33.90279 1.8789469
40.543396 33.598515 0.057642039
40.860687 33.790222 -1.0386097
41.21624 33.595093 1.7479807
41.287804 33.832081 1.6459845
41.588676 34.106754 1.8538691
41.836407 33.821251 2.1291468
41.375305 33.702335 2.1454039
41.569855 34.070854 2.2569323
40.787468 33.709969 -0.94283158
41.5741 34.068024 2.1792638
40.964962 33.909733 -1.5320414
40.769264 33.867702 -2.1113143
40.684227 33.700001 -1.1392395
40.618851 33.698463 -1.6094735
41.563522 33.745213 1.6008834
40.780132 33.69804 -1.5384569
41.137535 33.933105 -1.4377108
41.565819 34.165146 1.6997849
40.701382 33.706772 -1.5388395
40.670597 33.685478 1.7682419
40.696449 33.710056 -1.2608618
40.694981 33.702129 -1.0512942
40.675507 33.75716 -1.659633
40.709026 33.777332 -0.74163669
41.497929 33.750973 2.6492023
41.139286 33.913719 -0.7565856
40.671204 33.761475 -0.85053861
40.548313 33.595119 0.8581804
40.780964 33.716736 -0.64171028
40.784641 33.70816 -1.231155
40.649818 33.784744 -0.93198192
40.470284 33.602516 -0.13548185
41.855762 34.112625 1.8220358
40.828827 33.789253 0.88436627
41.095154 33.956161 2.4111807
40.86607 33.841499 -1.8990819
40.460205 33.503071 -0.43411073
40.542385 33.603352 0.36577213
41.168083 34.060406 -2.0342047
41.067947 33.573563 2.3671489
41.181839 33.906883 -0.13711366
41.084743 33.973042 -0.84024084
41.15918 33.903461 -0.015256516
41.234245 33.782871 1.5521209
41.133636 33.798286 1.555952
41.196938 34.067284 -0.83974814
40.987686 33.985584 2.852828
42.103989 33.913197 1.9861132
42.777046 34.275055 2.2666838
42.528034 34.285862 1.9380186
40.550438 33.520985 0.063012667
41.777676 34.116405 1.8510933
41.196415 34.060383 -0.34057689
40.970493 33.821487 2.2407529
41.066135 33.914783 -0.43714136
42.474541 34.08844 2.7395589
40.662018 33.518951 1.0604956
41.056572 33.916256 -1.5339578
41.539066 34.032761 2.1816576
41.064625 33.913795 -0.74049693
41.648636 33.994045 2.3399024
40.888248 33.870331 -1.143369
40.864796 33.792343 -0.54071522
40.544289 33.596603 -0.13840514
41.167259 33.92667 -0.44151399
40.951611 33.819187 -0.8331086
41.161736 33.909088 -0.53339034
41.25626 33.623928 2.1562293
41.258808 33.624985 2.4673011
41.779213 33.963844 1.9333563
40.56012 33.513439 -0.83858913
41.476593 33.994781 1.853974
40.860519 33.789856 -0.44162115
40.563862 33.498562 -1.4297526
41.7635 33.821632 2.2765832
41.549271 33.730202 2.2821832
41.271122 33.959106 2.2565501
41.264927 33.972595 1.9571319
41.561481 33.728493 2.3627925
41.269871 33.962391 2.3587387
41.262917 33.974438 2.1645603
41.209049 34.06432 2.1144388
41.195797 34.048756 2.4488568
40.546486 33.658443 1.1571703
41.572838 33.738003 2.1616502
41.54834 33.719818 2.7501757
40.940315 33.799782 1.8635217
41.559799 33.732628 2.4576197
40.552227 33.598736 -0.94338286
41.578186 33.780834 2.2623816
40.892685 33.56469 2.3663125
42.769047 34.219337 2.1609881
40.541389 33.658867 1.0658126
41.593056 34.01403 1.6395345
41.770668 33.822456 2.4588234
41.759998 33.817715 2.362483
41.254204 33.62397 2.5552211
41.299679 33.954582 2.1010098
41.064266 33.898548 -1.1365947
40.968204 33.79274 1.5886877
41.762592 33.82251 2.1551583
41.772038 33.8176 2.5594318
40.382404 33.590969 -0.63663489
41.561516 33.73365 2.0633562
40.470119 33.493099 -0.73631608
41.31588 34.036709 2.6850202
41.192917 34.07761 -1.1319067
41.071579 33.91531 0.88987333
40.548214 33.657806 0.56757194
41.108765 34.050495 2.6779003
41.088898 33.84108 -1.0096283
42.785057 34.265327 2.0642128
41.064056 33.81028 -0.35339224
42.569099 34.182739 2.1510603
41.175579 33.872189 0.017230807
40.54472 33.598976 -0.03551254
41.042721 33.825047 -1.1400695
40.540672 33.662395 -0.23316519
40.471035 33.503288 -1.0361137
41.163979 34.060963 2.6456149
40.849224 33.795025 -1.3466363
40.541935 33.589195 -0.43536127
40.464775 33.599911 0.062237892
40.479614 33.499733 -1.6212333
40.559776 33.516479 -0.6337772
40.704494 33.710415 1.8694726
41.053364 33.809273 1.5893081
40.854427 33.812576 -1.6326923
40.468075 33.503849 -0.93623519
40.54863 33.5891 -0.33768609
40.907024 33.778576 1.9444203
40.787563 33.726177 -0.54537874
40.544991 33.527447 1.057389
40.682983 33.592834 -1.4438757
40.955692 33.805 1.9708266
40.714855 33.710007 -1.9409721
40.864601 33.785339 -0.34297428
42.287712 34.357674 2.1814737
42.061592 34.281212 2.077903
40.551434 33.51664 -0.24224807
40.549732 33.578667 -0.83463985
40.651543 33.716209 2.0612171
42.468445 34.055103 2.8375523
40.477261 33.482491 -1.5367298
40.865677 33.793449 -0.93527567
40.861797 33.789963 -0.84726131
40.470688 33.510563 -0.64381272
40.862061 33.79491 -1.1324521
40.854721 33.78183 -0.13944696
41.056347 33.919495 -0.036006436
40.860077 33.793957 -1.4397826
41.863865 33.891766 2.1652222
40.972359 33.893036 2.5797133
41.872093 33.898426 1.9498858
42.566345 34.248135 2.1335437
40.402252 33.583336 1.4548582
40.462513 33.495358 -0.82925117
42.469818 34.094067 2.5605235
41.057072 33.808155 -0.52955049
40.858021 33.792744 -1.2354122
40.8633 33.787533 -0.046058573
40.477699 33.490814 -1.140395
42.579235 34.176052 2.2730172
40.557949 33.513458 -0.95397818
41.287899 34.092407 1.6753004
40.953613 33.814774 -1.2325844
42.187401 34.079571 2.16518
40.407082 33.509762 -1.0384916
40.953842 33.801651 -1.3247356
40.708729 33.780087 -1.3195808
42.458572 34.101723 2.6644483
40.552334 33.516087 -0.0366771
41.051998 33.898884 1.8592384
41.282776 33.672157 2.2661655
40.868103 33.795345 -0.24832045
40.55323 33.512459 -0.34273922
40.548969 33.523731 0.9613322
41.096157 34.003197 2.4264474
41.144672 34.013847 -1.7553419
42.503796 34.182957 2.2539291
40.542332 33.530968 1.2672982
40.597286 33.399647 -0.30001894
40.418396 33.652126 -0.42163253
42.285572 34.374878 2.3759527
40.689804 33.809311 -1.7172669
42.578094 34.375538 2.2029042
42.643456 34.134415 2.5523119
40.892326 33.85252 -0.64706939
40.545826 33.658508 0.3585583
40.547386 33.661823 0.061827239
42.257198 34.1945 2.3084528
40.637756 33.623634 0.74605632
41.233269 33.534775 2.0194671
41.171745 33.902573 1.7478192
40.686901 33.700043 -0.34328192
42.685757 34.130806 1.9640495
41.07106 33.833488 -0.94047219
40.874619 33.861984 0.041976426
40.544651 33.657402 0.46536207
40.892067 33.867226 -1.03475
40.859951 33.794651 -0.73734844
40.5359 33.667336 -0.43559417
40.667778 33.605217 -1.1392038
41.287228 33.662724 2.4544196
40.547787 33.65794 -0.024490995
40.549927 33.603271 -0.74672604
40.56628 33.567974 -1.6347945
40.969757 33.869202 -0.027971048
41.513699 34.145779 2.318459
40.886494 33.860176 -0.4137654
40.775169 33.724751 0.14931893
41.785282 33.875721 2.2657967
41.375477 33.681736 2.5493209
41.042053 33.82399 -1.2411777
41.164761 33.996925 -0.036809698
42.259201 34.010345 2.3641696
42.05703 33.927799 2.2730243
42.750862 34.224068 2.0784299
40.602753 33.669685 -0.91970843
41.593056 33.787968 1.779002
41.223511 33.914303 -0.20589747
41.143055 33.923153 -1.1321368
40.555634 33.580669 -1.4453566
41.743847 34.096817 1.9770437
41.042904 33.930267 0.76232874
42.196556 34.456337 2.6232409
41.880123 33.909317 2.0513356
41.87851 33.88596 2.2671399
40.852261 33.829021 2.8545675
41.772831 34.185009 2.2880454
41.7714 33.882046 2.1646607
40.928909 33.915276 2.944772
41.080177 33.909424 0.26032791
41.791641 33.865116 2.5444465
41.079342 34.000511 2.7496853
41.07206 33.897457 0.65930229
41.873032 33.8825 2.3632059
40.571148 33.797428 -1.7476749
41.852974 33.895775 1.8656065
40.713547 33.764595 -1.830579
41.055218 33.945633 0.61660397
41.855804 33.955795 1.9725561
42.782974 34.266022 2.3677282
42.15255 34.4296 3.0878563
42.192345 34.427227 2.8569345
42.445187 34.036388 2.8177896
42.470463 34.11013 1.8900903
41.056885 33.911152 0.48825911
40.958466 33.815907 -1.1317025
40.969891 33.909225 2.6593158
40.95966 33.817871 -1.0362526
40.893959 33.737751 1.9164366
42.761303 34.198364 2.5614045
40.647427 33.615089 -0.40114138
40.657856 33.610264 -0.2469658
41.169724 33.601177 2.4531801
40.558388 33.524845 -0.72803706
40.934452 33.66523 2.0657125
41.052364 33.648487 1.7387741
41.09177 33.978233 1.7727454
41.081501 33.888981 1.7866348
41.175789 33.579781 1.9875251
41.187923 33.672195 2.246702
41.084667 33.658829 1.9842798
41.170048 33.607956 2.2641418
41.151234 33.54496 2.5718789
41.057556 33.880707 2.1799464
41.082893 33.990372 1.8178093
41.074089 33.699547 2.1190507
42.175434 34.053871 2.2873309
40.456665 33.507069 -0.23589981
41.77243 33.871761 2.3697469
41.102966 33.974319 1.6804397
42.284546 34.016224 2.5409651
41.289124 33.703659 1.8791645
41.278606 33.675938 2.1577466
41.274338 34.054245 1.5054363
41.028996 33.828293 -0.63783705
41.604866 33.728592 1.8956932
41.101162 33.84309 -1.3022965
41.055485 33.912926 -0.94278806
40.852554 33.730804 1.7512929
40.960491 33.818485 -0.93868446
41.045513 33.813892 -0.4685691
41.194977 33.6889 1.8564459
41.039661 33.843616 -0.86886162
41.0275 33.888168 0.3277275
40.549618 33.517822 -0.14055714
40.45966 33.503651 -0.33553526
41.196033 34.072628 -1.0359372
40.539673 33.668846 -0.52353162
40.548191 33.659695 -0.62946403
42.092937 34.051891 1.9383851
41.197704 34.066586 -0.74873322
40.688412 33.528828 1.566172
41.195618 34.071987 -0.93427056
40.989563 33.60704 1.9953009
40.632 33.535187 -0.32239503
41.267807 34.078354 -0.74331665
40.973576 33.884956 -0.74762201
42.211864 33.933548 1.8524182
40.85656 33.803936 -1.5484637
41.271862 34.077843 -0.24382974
40.861031 33.816864 -1.7365065
40.885826 33.884876 -1.3409922
40.954086 33.902683 -1.8362308
40.97258 33.891075 -2.1176288
40.971054 33.884052 -0.84282207
41.769291 33.82029 1.6850797
40.979046 33.895508 -1.137508
40.982086 33.883633 -0.64474761
40.543217 33.661331 0.25889504
41.166031 33.999802 -1.0392485
41.166515 34.004692 -1.3396015
41.268795 34.079708 -0.34756872
41.274136 34.007664 -0.34297374
41.279446 34.007866 -0.43804908
41.167213 33.999771 -0.6361348
41.275146 34.010384 -0.8395136
41.158741 34.011024 -1.5285141
41.279064 34.008553 -0.64149779
41.263893 34.078678 -0.93924522
40.884926 33.867565 -0.83406758
41.065331 33.999641 -1.8296541
41.268753 34.08078 -0.63731527
40.880028 33.891628 -1.6365838
41.075508 34.001114 -1.7163166
41.177032 34.069439 -1.2440774
41.182457 34.079388 -1.7305535
41.177986 34.073799 -1.3397729
41.266296 34.073593 -0.84121674
41.173138 34.078403 -1.8454809
40.404228 33.504486 -0.43806744
40.870712 33.887062 -1.5391132
40.86932 33.908581 -1.9264984
40.877724 33.885147 -1.230229
40.964489 33.919724 -1.745013
41.073727 33.570751 2.4541619
40.865505 33.882355 -1.8307118
40.594032 33.619926 -1.832798
40.581429 33.651897 -1.3490357
40.884716 33.870083 -0.94625503
40.9757 33.996342 -1.83894
41.177666 34.07634 -1.9156106
41.175594 34.072723 -1.433484
40.396301 33.512642 -0.5444026
41.153786 34.024666 -1.6316602
40.970512 33.909298 -1.6363077
41.56794 34.015221 1.9656439
40.703667 33.686775 -0.43797106
40.977058 33.890396 -0.93452436
41.164532 34.003876 -0.7404387
41.26865 34.079796 -0.54432124
41.167774 34.004311 -0.54031396
40.703793 33.695015 -1.614956
40.936749 33.869385 -1.9561523
41.166943 34.007832 -0.94010806
41.066093 34.006569 -1.6347178
40.690517 33.700577 -0.9556638
41.27182 33.626396 1.7510647
41.275612 34.01355 -0.54135841
41.669563 34.152588 1.7668387
41.037941 34.000259 -1.9268597
41.218575 33.912117 1.6719874
40.884811 33.877499 -1.4402509
40.685642 33.701599 -1.7490337
41.124008 34.001457 -1.8369319
41.276325 33.998722 1.3919026
41.142662 34.022999 -1.9804727
41.171638 33.909752 1.9467176
41.095299 34.063431 -1.305723
41.094173 34.055164 -1.1665345
41.174843 34.001637 -0.44507447
41.27969 34.006493 -0.93504208
40.553474 33.610107 -1.7112436
41.554909 34.061913 2.0565908
41.266582 33.610138 1.5556784
40.68853 33.765965 -1.0532012
42.266327 34.010719 1.9861009
40.879524 33.683681 2.0486155
42.178242 34.031197 1.8814986
41.85482 34.12204 1.9368707
42.432552 34.009224 1.8407193
42.659248 34.136471 2.46381
41.509766 34.009399 1.6804619
40.576515 33.608826 -1.9039681
42.661606 34.113342 2.1325135
41.559792 34.125687 2.6208444
40.680199 33.612885 -0.76782894
41.268639 33.700684 1.9570532
40.555038 33.655502 -1.5727792
41.300407 33.700596 1.7734202
41.735466 33.841011 1.8769395
40.546562 33.658463 0.15974154
40.562534 33.516659 -1.036813
40.715538 33.712433 -0.82363206
41.306934 34.0849 1.9191905
40.6721 33.748913 -1.5315434
41.851437 34.278858 2.389034
41.439606 33.986576 1.5808454
40.536602 33.657883 -0.33923382
40.539158 33.653622 -0.12901841
42.258579 34.289299 1.7865635
41.263271 34.01601 1.8671548
41.566502 34.035442 1.7580453
40.875347 33.780483 1.7778182
41.654942 34.034622 2.0053303
41.664646 33.793652 1.972453
42.266953 34.005478 2.065788
40.959587 33.832458 1.7499721
41.571892 33.862637 2.0733521
42.192314 34.359127 1.9380615
42.477875 34.023727 1.927379
41.263432 34.063137 1.7577988
40.467388 33.577267 -1.8381222
40.927826 33.741749 1.6326591
40.757072 33.727642 2.1271324
40.560001 33.503349 -1.2417953
40.757771 33.734909 2.2480593
40.398205 33.57552 -0.94282115
40.54731 33.656918 0.76646197
41.394196 33.983471 1.6679375
42.761391 34.231079 1.9587125
40.678101 33.79319 -1.1430013
40.608288 33.673779 -1.7250748
41.457062 33.801598 1.7610309
41.478096 33.893085 1.9374431
41.759571 33.791122 1.9689707
41.053261 33.925934 0.099359624
41.791977 34.07473 1.6698266
41.25769 33.626663 2.3593316
41.908119 34.285923 1.7381557
40.770821 33.744041 1.6767168
42.254578 34.022831 1.8792106
40.975388 33.562988 2.1607587
42.635506 34.12812 2.2642777
41.04084 33.890114 1.0330664
41.058155 33.535679 2.2636776
42.224392 34.222424 2.123266
42.280556 34.432869 2.4788442
42.285568 34.162724 1.9864165
41.713436 34.149517 1.9840437
42.077694 34.215023 1.9481821
42.663956 34.602669 2.5741067
41.497425 33.794708 1.6765831
41.677963 33.885452 2.0680232
41.59343 34.07201 1.9751875
40.566906 33.507805 -1.5406429
41.536255 34.146809 1.7491454
40.549419 33.661465 0.65075356
42.631271 34.143539 2.3624892
41.11834 34.052933 -0.079468846
42.76833 34.201828 2.4523644
42.678528 34.176178 2.4511116
41.413525 33.767467 2.0649981
41.381351 33.760151 2.2178586
42.682404 34.191437 2.7434189
42.66917 34.183247 2.6524644
42.282658 34.070232 2.351263
42.258549 34.022751 2.1492171
40.653225 33.583134 0.33979771
42.45266 34.510315 2.4928472
40.897266 33.867584 2.1719646
40.545471 33.655411 0.86061203
40.871437 33.861137 1.9717771
42.27179 34.069092 2.2746491
40.626492 33.528076 0.015006355
41.803066 34.203445 2.0199413
41.907459 33.956215 2.4628649
42.666637 34.204388 1.9655209
42.292038 34.091969 1.9750755
42.276993 34.081036 2.1743817
42.776199 34.284817 2.1575913
42.264458 34.081718 1.8818345
41.174488 33.666496 1.9761593
41.666351 33.814651 2.0764208
41.258247 33.984352 1.798454
41.774811 33.894806 1.7747123
41.469364 33.773441 2.1479852
41.496712 33.781052 1.9622462
41.661736 33.81881 2.1621218
41.689133 33.864315 2.1733351
41.677826 33.866692 1.9673221
41.248775 34.038239 1.6809742
41.489136 33.787483 2.0710351
41.769173 33.88303 1.9649636
41.872257 33.87281 2.4522691
41.670135 33.890205 1.7592818
41.466385 33.770042 1.8801448
41.891964 33.958523 2.2310984
41.367348 33.728668 1.7750014
41.674648 33.875473 1.8636515
41.885925 33.960293 2.1547518
41.893921 33.967262 2.3924217
41.469719 33.76968 2.2795405
41.66967 33.883396 2.2682402
42.206409 34.049984 1.8802202
41.890717 33.963512 1.772264
41.684391 33.86882 2.3905883
41.3731 33.713737 2.0745687
41.673157 33.795685 2.3670795
41.45636 34.091797 1.8693677
40.882721 33.898239 1.759398
42.530777 34.278664 1.8725684
42.298134 34.187538 2.0834379
40.587914 33.484394 -1.6135269
41.767796 33.921246 1.8922671
41.885277 33.961185 1.8704205
42.154037 34.071457 1.9723257
41.446941 34.146069 1.6561811
41.180046 33.682095 1.7384658
41.296062 33.793961 2.1465178
41.342384 33.722912 1.8897071
41.7005 33.878895 2.4557202
41.169998 33.670273 2.0652072
41.265869 33.688717 2.0686188
41.36834 33.679779 2.3587437
42.155167 34.013844 1.9748973
41.16864 33.996536 1.8632283
41.372555 33.679661 2.4561608
42.671486 34.180756 2.3670976
41.806503 34.174034 1.8441043
41.358337 34.029499 1.8629297
41.291843 33.671448 2.357342
42.070686 34.062515 2.1400018
41.154591 34.011795 1.6174252
41.599201 33.84922 1.9427487
41.149616 33.686211 2.1415119
40.986229 33.576298 2.2665439
41.075905 33.657776 2.259294
41.18861 33.674709 2.3325167
41.782951 33.982719 1.7056361
41.493073 33.772625 2.3656068
41.374409 33.687649 1.9705704
41.774277 33.885952 2.058887
42.180214 34.360588 1.7405572
41.629723 33.845268 1.8297344
42.222145 34.448635 1.6774553
41.809578 33.926117 1.6982558
42.117496 34.387707 1.7272942
41.373459 33.690903 2.2635884
41.255238 33.627892 2.2725008
41.672642 33.794395 2.2688828
42.078594 34.316681 1.9131827
41.87899 33.869091 2.5496237
41.677372 33.786423 2.5495965
40.992508 33.570572 2.5429258
40.54306 33.670174 1.7478166
40.96574 33.520458 2.3647747
41.671902 33.792892 2.6607029
41.783104 34.191738 1.9777529
41.290958 33.663662 2.5494416
40.965847 33.522701 2.4514704
41.176132 33.582825 2.6497502
40.959946 33.518879 2.2685106
41.429436 34.065434 1.9876734
42.270908 34.013538 2.4609306
41.845764 33.839638 2.567333
41.074993 33.569 2.5566297
42.359459 34.029655 2.1711161
42.055557 33.927971 2.3660953
41.84721 33.833775 2.2693987
42.339954 34.029312 2.5417228
41.292625 33.664528 2.6641083
41.263153 33.629215 2.672348
42.348793 34.031593 2.3562834
42.358994 34.031223 2.46189
42.145851 33.932312 2.3771088
42.057121 33.926125 2.4570761
41.662167 33.786411 2.7355711
41.077858 33.569218 2.646647
