# .PCD v0.7 - Point Cloud Data file format
VERSION 0.7
FIELDS x y z
SIZE 4 4 4
TYPE F F F
COUNT 1 1 1
WIDTH 702
HEIGHT 1
VIEWPOINT 0 0 0 1 0 0 0
POINTS 702
DATA ascii
24.586451 8.369833 -2.8524823
24.311764 8.3497877 -2.2944303
24.52984 8.3820391 -2.962584
24.166492 8.2921438 -2.7485745
24.368277 8.3723564 -2.6550994
24.449272 8.3912716 -2.7068267
24.530172 8.4479437 -2.5859184
24.173203 8.3156281 -2.5389092
24.158575 8.2978449 -2.4503419
24.405119 8.3880863 -2.4580882
24.017326 8.2507715 -1.9195306
24.176918 8.2911606 -2.244168
24.305531 8.3034506 -2.3562629
24.470329 8.2394209 -1.2433707
24.001951 8.3734741 -2.5791252
23.914396 8.2495022 -1.8667927
24.213915 8.3693485 -1.9051251
23.971956 8.2813654 -1.2433511
24.240932 8.0917406 -1.375397
24.550657 8.4530888 -2.2971613
24.236387 8.1251574 -1.3933574
24.24226 8.1077204 -2.1489408
24.365334 8.3694096 -2.3361988
24.360794 8.3734827 -2.1419806
24.172318 8.3712597 -1.1486651
24.544949 8.4852409 -2.2433486
24.165676 8.401226 0.6222859
24.433498 8.5784845 -0.10310123
24.290453 8.3845959 -0.79144937
24.499489 8.317687 -3.0276761
24.476797 8.4581842 1.2309272
24.409182 8.3896875 -2.5439
24.463696 8.5041733 0.78285193
24.187317 8.439024 0.75594002
24.049501 8.3637638 0.22120816
24.353256 8.4960423 1.4016361
24.361572 8.4680319 -2.4747815
24.125883 8.41992 -2.1895645
24.169456 8.223382 -2.1036849
23.917942 8.3655729 1.6488689
23.99947 8.3732929 0.63583302
24.189461 8.4360609 0.61043358
24.392546 8.47997 -1.3861485
24.175728 8.384984 -0.82237691
24.30706 8.4104633 1.1636564
24.381018 8.456768 -0.8376357
24.492916 8.4499931 -0.53050679
24.264341 8.3631392 -1.0205628
23.933104 8.3869944 1.6574513
24.28764 8.4717731 -1.3297929
24.364325 8.4756613 -0.33191392
24.40328 8.5094204 0.59405565
24.47382 8.4593477 0.6542955
24.144058 8.4103699 -0.33153528
23.992741 8.3582335 -1.2827917
24.182415 8.403121 1.6157632
24.388773 8.4829311 0.61844873
24.242825 8.106452 -2.9341295
24.309776 8.1837177 -2.2321048
23.988543 8.1950941 1.3578858
24.266903 8.2041988 -2.3108149
24.479055 8.3259068 -2.7308359
24.385012 8.3606129 -1.1427404
24.372217 8.2202806 -0.64505851
24.286453 8.1833801 -2.9414721
24.558048 8.3126011 -2.9473767
24.380152 8.3722506 -1.627346
24.376104 8.3783216 -0.14809012
24.534916 8.4469919 -1.7278976
24.252737 8.2271547 0.56178594
23.982437 8.2879305 0.45079869
24.082546 8.2706451 0.57494581
24.087078 8.2710991 -0.2416608
23.987724 8.2919664 -0.80317259
24.072828 8.2790318 -0.82675314
24.078037 8.2904577 0.46032843
24.075146 8.2609425 0.6581043
24.082518 8.2796812 0.76985705
24.063086 8.2883797 -0.3262119
24.072668 8.2703562 0.15916194
24.072422 8.2965469 0.36207572
24.075518 8.2653494 1.1434126
24.079195 8.2724333 0.96992928
23.989044 8.2689123 -0.58639526
24.300018 8.1256618 1.8602265
24.454412 8.4540796 -1.687607
24.085329 8.2807398 -1.8535106
24.164124 8.2883434 -1.83723
24.373005 8.368082 -1.5510244
24.573185 8.3839598 -2.3631234
24.358137 8.2224884 -0.43423805
24.171623 8.2772684 -1.5413512
24.056772 8.2198143 -2.1317961
24.179712 8.281106 -1.7312913
24.156782 8.1125574 -1.6200771
24.2327 8.1796131 -2.5384758
24.370113 8.3707409 -1.8290638
24.055773 8.2089052 -2.0420718
24.483578 8.375473 -2.3446293
24.001692 8.1960926 -1.8402348
23.988136 8.1891489 -2.0434117
24.168318 8.293067 -2.1309996
24.466778 8.2605219 -2.6291525
24.449205 8.3290195 -2.1274898
24.475002 8.3214188 -1.7380714
24.561798 8.3739309 -1.4334458
24.553339 8.3813486 -1.7246343
24.365223 8.3947592 -1.9413953
24.385761 8.379406 -1.7286841
24.379129 8.3744812 -1.2412256
24.257339 8.1916046 -2.6118984
24.288769 8.3728628 0.37119818
24.359274 8.2309294 -0.53794777
24.474119 8.3170424 -1.825178
24.367832 8.3197184 -2.8060837
24.241882 8.2275343 -1.7453038
24.370493 8.3006296 -1.834276
24.36985 8.2978382 -1.5426745
24.154125 8.1870842 -2.573185
24.152313 8.2160091 -2.2423689
24.17432 8.2659845 -1.1444141
24.478586 8.2767229 -2.3188298
24.354746 8.2165709 -1.0315661
24.349665 8.2281322 0.16858855
24.159685 8.2025509 -1.7238094
24.271107 8.2930031 -1.6437322
24.394308 8.2477779 -2.9782343
24.369862 8.2127218 -0.73387313
24.180367 8.2021961 -2.3460233
24.177237 8.1785955 -2.4341428
24.464588 8.5890417 -1.0026177
24.406715 8.5652161 0.15277776
24.513885 8.6028147 0.24894716
24.337223 8.4894333 -0.92973137
24.49095 8.5976295 0.16416904
24.459217 8.4946938 0.13656631
24.283878 8.477725 -0.92279357
24.172127 8.2743416 -1.3348961
24.460419 8.5075874 0.23741436
24.362167 8.4523096 -0.077994496
24.394905 8.4761181 0.48209372
24.346903 8.2284403 0.46160486
24.302174 8.364603 1.5702658
24.172777 8.2873516 -1.6373985
23.959213 8.2775326 0.85983586
24.057346 8.2867432 -0.14234285
24.581934 8.4696894 -1.6391702
24.485649 8.4745274 -0.056378204
24.469915 8.4644308 0.34950817
24.577713 8.4860134 -1.5303901
24.547935 8.4603443 -0.326121
24.487062 8.3796721 -1.5383328
24.526005 8.4593582 0.36146477
24.383732 8.3890886 -0.84312665
24.081903 8.2779322 0.86364192
24.384953 8.1081486 0.42523602
23.997505 8.1747522 -1.9303517
24.522333 8.3839417 -2.6627059
24.375641 8.2101269 -0.82366145
24.264544 8.2202911 -1.4377569
24.336895 8.2754889 -2.7167978
24.35557 8.2282715 0.66327333
24.367781 8.2983875 -1.7365413
24.366186 8.3706837 -0.52534372
24.166874 8.2214642 -1.9240021
24.256592 8.2148275 1.7652905
24.171324 8.3870621 -0.042039033
24.197948 8.4593439 -0.97556633
24.357687 8.5147791 0.92561775
24.469742 8.5693693 -0.025309963
24.484488 8.3672609 0.8697353
24.188358 8.2713194 0.55919361
24.258183 8.2237854 0.96315831
24.355066 8.2151585 0.95799792
24.187809 8.2682018 -1.0366224
24.187178 8.2678814 -0.13965365
24.479185 8.4075775 -2.2278445
24.061756 8.2738295 -0.041060399
24.068417 8.3899155 -1.3192828
24.485479 8.3807011 -2.042532
24.471155 8.3970108 -2.1360912
24.265547 8.3679161 -0.25376269
24.370344 8.3007107 0.060484532
24.362177 8.2215538 0.26027885
24.182413 8.2655544 1.7527199
24.067167 8.1852255 -1.4321476
24.080893 8.2830925 -0.72652024
24.568085 8.3822012 -1.6343707
24.397348 8.5518589 0.25541687
24.256107 8.2174244 1.5699077
24.368549 8.2098236 0.76852804
24.252153 8.2195444 -0.33622554
24.454872 8.2390709 -0.45262748
24.1768 8.2655249 1.55969
24.257099 8.2236147 0.35155097
24.370163 8.2107468 -2.3127203
24.335745 8.119873 0.073798813
24.566872 8.3732929 -1.2395782
24.166935 8.2096977 1.5623425
24.258656 8.2221594 1.4528995
24.457911 8.2041597 -1.1616825
24.346521 8.2244415 1.0757232
24.468624 8.3157158 -0.53791904
24.372854 8.3713703 -2.8069882
24.569517 8.3816805 -1.3362311
24.390375 8.3638773 -1.333318
24.568008 8.3817577 -1.1343594
24.071548 8.2688675 -0.43692258
24.386408 8.3682566 0.35081622
24.358425 8.3104677 -2.0401921
24.383358 8.3650808 0.74703342
24.371321 8.2913532 1.1617618
24.482382 8.370923 -0.83279854
24.368385 8.2947655 1.5651908
24.358959 8.2188301 -0.31693533
24.240673 8.2953739 -2.764884
24.384007 8.3682308 0.058740713
24.062651 8.2742805 -1.1358442
24.078806 8.2651806 -1.0214398
24.159103 8.205061 -1.0320864
24.278316 8.2891846 -1.7308879
24.371117 8.2993317 -0.73233861
24.364063 8.485672 0.25921038
24.25683 8.221303 0.25868884
24.464006 8.3178959 0.66013104
24.256298 8.2230062 0.86444664
24.568563 8.460783 0.52219361
24.08917 8.258131 -1.2496288
24.369053 8.2890043 0.96385747
24.465403 8.2948179 -2.9328606
24.369932 8.2975979 -0.43924496
24.359043 8.1297817 -0.22760142
24.274216 8.2705679 0.86578834
24.203634 8.2240486 -2.8777943
24.289789 8.3882732 1.6440759
24.302637 8.2560081 -2.4207761
24.177984 8.2743254 0.96001452
24.365593 8.2962942 -1.0356048
24.258919 8.2234364 -0.039548721
24.257244 8.2210035 0.65529239
24.069839 8.1974468 -1.6319045
24.185049 8.2743664 -0.73881257
24.251812 8.2282476 1.2553263
24.366446 8.2959833 -2.6436265
24.173525 8.2654524 -0.842803
24.371576 8.2925749 0.86076903
24.362787 8.2141533 0.35653421
24.33918 8.2249193 0.55475056
24.067009 8.1897535 -1.1371951
24.2614 8.2083321 -1.3331822
24.163668 8.2113285 -0.03839498
24.255505 8.227128 0.76926923
24.547148 8.4596386 -1.0003127
24.461504 8.2201033 -1.6413858
24.069262 8.1871319 -1.2374228
24.272451 8.2764368 -1.8316439
24.555239 8.3992128 -2.1385436
24.260077 8.3785648 0.48371941
24.47365 8.3087673 -1.5462481
24.467726 8.2159786 -0.34691095
24.261974 8.3112793 -2.1323652
24.380522 8.3690252 0.27664691
24.164265 8.2041397 -1.3371738
24.064213 8.2722368 1.4571319
24.191933 8.2689199 0.66458237
24.467932 8.319417 -1.1348683
24.481829 8.366621 0.16060559
24.470041 8.3134861 -1.2452849
24.039228 8.3601122 -1.5336678
24.470251 8.3099689 -1.4388182
24.376154 8.3677244 0.17599531
24.358259 8.2287102 -1.4231565
24.069754 8.1964197 -1.9308443
24.259399 8.3556242 0.5526374
24.161022 8.2084475 -0.4355801
24.279119 8.2692137 1.0655775
24.071917 8.1914816 -0.73714834
24.362238 8.2213936 -1.3350903
24.372383 8.299861 -0.23526692
24.469843 8.3183355 0.85629284
24.26421 8.2278938 1.3560733
24.181396 8.1045132 -1.8054826
24.465284 8.3189831 0.76212466
24.255304 8.215992 -1.0354636
24.276848 8.2843266 -0.94037884
24.36507 8.2936811 -0.035258703
24.475359 8.4843636 0.57478797
24.367828 8.2996407 -0.33684516
24.372665 8.299264 -1.4365602
24.387123 8.3641567 0.56489563
24.273731 8.304348 -1.9315268
24.275385 8.2724972 0.45892823
24.467258 8.3160744 -0.63499361
24.375587 8.3004141 -0.53852105
23.977018 8.2984867 -0.29964799
23.998631 8.1801186 -1.6342249
24.371367 8.2966642 0.36243406
24.052263 8.181057 -1.7414039
24.082205 8.2604752 -0.95581907
24.372759 8.3007822 -1.1389972
23.992344 8.1946812 -1.7397022
24.619484 8.4687223 -1.4641433
24.374365 8.2978878 -1.6393236
24.254217 8.2221842 -0.93425947
24.27417 8.3593597 0.75060314
24.265636 8.221961 -0.73349357
24.165138 8.2075062 -0.33999345
24.160927 8.2105379 -0.13880946
24.411772 8.4461918 0.71743333
24.073473 8.1888037 -0.5333429
24.370556 8.2953339 0.46077532
24.465727 8.3208141 -0.83929098
24.472553 8.3174553 -0.93560052
24.349672 8.2179527 0.065662667
24.467279 8.3167791 -1.3307285
24.265961 8.2162151 -1.2405659
24.470703 8.3849764 -1.9441543
24.467691 8.3169136 -1.0363628
24.274401 8.2705317 0.25978991
24.072918 8.1901417 1.3631968
24.287886 8.3052216 -2.6233027
24.367552 8.303813 -0.83381313
24.372625 8.2989693 -1.2372751
24.166782 8.2733717 1.4627596
24.368271 8.2961082 0.26095051
24.488255 8.3777943 -1.7391455
24.466188 8.3195782 -0.038819931
24.468395 8.3187399 -0.74128604
24.485893 8.3675756 -0.33743209
24.074976 8.1889668 1.2640705
24.351875 8.2282343 -2.6310644
24.16592 8.2038469 -2.0442502
24.169159 8.2122412 -0.238419
24.000555 8.2617264 0.75826812
24.261354 8.2224998 2.0537407
24.275106 8.2749052 0.56021309
24.07325 8.1876974 -0.8405354
24.280102 8.2677803 0.95957786
24.070604 8.1929045 1.459921
24.164478 8.2096148 0.058696371
24.083708 8.2635756 1.5555266
24.164528 8.2152538 1.8620782
24.277719 8.2761955 -0.24079618
24.273338 8.2716713 0.36626738
24.270584 8.2739868 1.4556601
24.273106 8.2735453 1.2636147
24.360798 8.1188488 0.85623753
24.074011 8.1834993 -1.340297
24.375257 8.2990847 -0.63867313
24.242571 8.3133612 -2.2320495
24.385862 8.3673906 -0.039260883
24.271376 8.2766409 -1.3413837
24.462753 8.3183594 0.062675774
24.274723 8.2733297 0.059762754
24.485706 8.3692722 -0.53764838
24.279524 8.2885447 -1.5411502
24.566851 8.3817434 -1.5340825
24.267937 8.2737246 -1.4455281
24.274763 8.2760277 1.3584177
24.258297 8.2269592 0.46634856
24.299797 8.4234877 1.3239822
24.278093 8.2754955 -0.34185264
24.242702 8.3700657 -1.232923
24.163908 8.2049198 -0.74041849
24.357277 8.3022537 -1.9372553
24.357841 8.20788 -0.93584704
24.183088 8.2642908 0.36061302
24.481695 8.3213329 -2.2367442
24.36817 8.3040838 -1.3377436
24.256788 8.2178717 -0.44023874
24.485313 8.3717651 -1.4332993
24.180986 8.2682657 0.45601654
24.271364 8.2806044 1.5657749
24.172918 8.2586832 -0.43352589
24.273418 8.2786102 -0.83685029
24.469473 8.3202085 -0.33554542
24.629057 8.3838625 -2.7452402
24.344822 8.2282772 1.2586333
24.075706 8.1902218 -0.63766801
24.177532 8.2682314 -1.2333661
24.458149 8.323144 -1.9481763
24.178316 8.2655478 -0.33506349
24.184114 8.2734375 -0.54444295
24.163782 8.2044516 -1.141515
24.161966 8.2056427 -0.84406132
24.372194 8.293478 1.2642757
24.272711 8.2750082 0.16364257
24.162951 8.2084265 -0.53447509
24.308374 8.378828 0.2450294
24.348646 8.2294054 -1.1401534
24.276506 8.2738733 0.66062957
24.358757 8.2227564 -1.252722
24.478245 8.3781309 -1.1284695
24.350771 8.2276917 -1.6151217
24.354002 8.2244081 -0.061151415
24.192585 8.2679806 1.2642778
24.277674 8.2166109 -1.6358136
24.069849 8.1872225 -1.0435147
24.371332 8.2913237 1.0643114
24.345097 8.3065767 -2.5275846
24.16283 8.2088022 1.1615858
24.371456 8.2940197 0.65912408
24.484632 8.3693409 -0.14577295
24.254137 8.2251244 0.059514333
24.489092 8.3776846 -1.8459837
24.164513 8.2103939 1.0635816
24.167067 8.2120857 0.96212018
24.383862 8.3688068 -0.74120057
24.258009 8.2211771 -0.53576195
24.188324 8.2630501 -0.23951164
24.275616 8.2794294 -0.7406562
24.481703 8.3612738 0.064050913
24.163206 8.2017088 -0.63982207
24.481083 8.3674469 -0.9330858
24.163057 8.2114716 1.261359
24.486176 8.3713093 -1.3317149
24.459185 8.241478 -1.5256519
24.17882 8.2729177 1.6596334
24.46262 8.3211641 0.16084431
24.467939 8.317317 -0.43818685
24.273155 8.2700653 1.1595178
24.361933 8.2988987 -2.1186445
24.37199 8.2968187 -0.13513145
24.272255 8.2727108 -0.53496993
24.478033 8.3645649 -0.032654408
24.395519 8.3670979 1.1518798
24.165155 8.2136707 0.36023754
24.279743 8.2804041 1.6600273
24.179495 8.2704859 0.16699497
24.452425 8.2113428 -0.21407676
24.481434 8.3721094 -0.43762416
24.159208 8.2046642 -0.93599331
24.370514 8.2172451 1.4614049
24.385225 8.3803282 -0.4414154
24.026836 8.3629742 -0.84577674
24.273664 8.2833042 1.7651333
24.481131 8.3653812 0.7614305
24.482508 8.3690376 -0.6393736
24.089325 8.271224 0.065095745
24.076733 8.2635975 -1.3530719
24.189186 8.265707 1.3666118
24.268112 8.2851048 -1.1355671
24.270578 8.2782764 -0.43667334
24.261221 8.2232456 1.6563662
24.066525 8.2657852 0.27026811
24.16556 8.2025566 -1.542922
24.172882 8.2664175 -0.038029112
24.48078 8.3673477 -0.23870905
24.484505 8.3772345 -1.0408347
24.179995 8.2704372 1.9618924
24.281862 8.2778091 -0.64112514
24.275154 8.2728062 -0.034794964
24.368687 8.2934837 0.76085734
24.477283 8.3731537 -1.2347487
24.267233 8.2814541 1.8605621
24.4687 8.3184967 -0.23930615
24.356842 8.3127642 -2.3111868
24.386744 8.3018026 -2.2294807
24.164347 8.2131453 0.76044238
24.26026 8.2244654 1.1674101
24.258995 8.2242765 1.0588595
24.372271 8.2955713 0.56147712
24.481394 8.3678465 0.66272008
24.164434 8.2131338 1.3613114
24.175594 8.2643604 -0.64188516
24.362568 8.368681 -0.92572272
24.180105 8.2744427 0.066606157
24.075821 8.2790689 -2.2486298
24.274748 8.1392097 1.197979
24.262144 8.2321281 1.9682958
24.263393 8.2810974 1.9567142
24.161928 8.2130747 1.6629879
24.377888 8.3691082 0.67234433
24.263468 8.2258463 1.8591397
24.164574 8.2130833 0.86609107
24.374712 8.300065 -0.93116701
24.465147 8.3228865 -0.13745309
24.162407 8.208498 1.7620562
24.272829 8.2834196 -1.0391783
24.396395 8.3679304 -2.6936405
24.189566 8.2724142 0.75931245
24.267838 8.283227 2.061419
24.278231 8.2671394 0.75539589
24.347075 8.2207365 1.5635562
24.478056 8.3640146 0.25423813
24.183817 8.2706442 0.24423885
24.173103 8.2653055 1.1681508
24.469402 8.3151207 -1.6362553
24.38092 8.4728146 0.14914452
24.35437 8.2163105 -0.14864402
24.1938 8.2658796 1.0604885
24.179585 8.2670851 1.8605834
24.267647 8.2902288 -1.239058
24.692469 8.4094429 -2.8622856
24.501169 8.4909954 -0.9251228
24.279408 8.3634701 1.2742893
24.177824 8.2662649 -0.94140661
24.089457 8.2182913 -2.3056004
24.487139 8.3727093 -0.73636001
24.072037 8.1887341 -0.93730682
24.35853 8.2179241 -0.23498487
24.082628 8.2719517 -0.63524795
24.371445 8.2977562 0.15953794
24.482494 8.3686047 0.35682815
24.168024 8.2121744 0.66146994
24.163189 8.2085466 1.45672
24.259398 8.2247562 -0.63370234
24.181002 8.2694168 0.86090106
24.493019 8.4666185 1.38246
24.324875 8.1401138 -1.2426983
24.389091 8.3702631 -0.34012833
24.371574 8.3706417 1.3696761
24.260958 8.2179842 -0.14261709
24.167141 8.2246513 -2.735049
24.364948 8.208087 1.1788889
24.382751 8.3605471 0.96441138
24.251431 8.2242317 -0.23834553
24.029385 8.390729 0.47749728
24.067883 8.1863575 -0.43790582
24.376404 8.3818035 -2.905611
24.373932 8.2062311 0.8631528
24.289593 8.3306446 -2.8694825
24.399387 8.4970684 0.37929261
24.370556 8.1382141 -0.31699878
24.078449 8.236146 -2.5183442
24.275002 8.2734928 -0.13770972
24.15217 8.1106815 -1.9121753
24.251169 8.2269344 0.16474958
24.065094 8.1893225 -1.5475147
24.254442 8.2106085 -1.1379366
24.199581 8.1341724 -1.7154026
24.177216 8.3780079 -0.95950067
24.467075 8.3725109 -2.6240923
24.46666 8.3273211 -2.0314236
24.267942 8.2231188 -0.82879418
24.288841 8.3564854 0.8400768
24.066345 8.1931171 -1.827207
24.372236 8.1907034 -2.1318531
24.389894 8.3653316 -0.24502826
24.183121 8.2752981 -1.4409521
24.145863 8.1090784 -1.5360384
24.371956 8.2906761 1.3660234
24.160698 8.2032681 -1.2398473
24.27388 8.296771 -2.0307517
24.159046 8.209527 -1.8281059
24.268192 8.2152586 -1.5376213
24.37569 8.3676233 -0.63977158
24.173067 8.2830029 -1.9318914
24.365417 8.2217426 1.3582515
24.167301 8.1988173 -1.4399779
24.166424 8.2136374 0.56339836
24.48031 8.3721294 -1.6282367
24.179546 8.2846775 -2.0314238
23.968702 8.2704182 0.95463985
24.533857 8.4856615 0.8899228
24.462635 8.217907 -0.51297355
24.0819 8.2767773 1.2573223
24.003475 8.2776232 1.3677198
24.386347 8.3607635 1.2659118
24.003551 8.2646027 -0.077186443
24.305433 8.4456587 -0.62905914
24.459332 8.4911318 -0.86201948
24.498178 8.4837074 -1.1495657
24.452652 8.3679142 -2.4429951
24.398464 8.6190252 -0.90519857
24.05814 8.2787933 1.0324669
24.073732 8.2819614 1.7710649
24.562162 8.4075174 -2.2357211
24.007912 8.3061705 -0.15640002
24.241444 8.1346197 -1.753359
24.353022 8.4830112 -0.63144416
24.361206 8.4513273 -2.5432861
24.092915 8.2701035 -1.7696056
24.442759 8.4869404 -0.67525238
24.478373 8.3909302 -2.5226102
24.091148 8.2704525 -1.945721
24.578165 8.1126518 -3.0053029
24.404495 8.1834679 -2.0588694
24.503044 8.2305717 -2.0317698
24.334375 8.1401434 -1.9926249
24.489311 8.3752871 -2.8202219
24.108181 8.2994957 -2.6371701
24.494911 8.3541136 -3.0058486
24.066393 8.2724686 -1.5328038
23.996149 8.2823067 0.25705928
24.079527 8.2630615 -1.6307896
23.992611 8.2739267 1.3091295
24.073444 8.2670612 -1.4492201
24.069315 8.2747536 1.3776915
24.438938 8.2446032 -0.97583741
24.254639 8.4502001 -0.39486203
24.223219 8.4492474 0.62815386
24.303814 8.3928623 -1.7770181
24.354467 8.1377068 -0.013752355
24.089266 8.2665186 -0.54537189
23.999594 8.2863321 0.16124594
23.988434 8.2560453 1.0391388
23.996197 8.2833433 -0.2680563
24.065248 8.2687521 1.6598647
24.24262 8.447772 -0.32893893
23.980112 8.2955704 1.4504129
24.063618 8.2713261 -2.4184964
23.983448 8.2662907 -1.7276038
23.985847 8.2696533 1.554468
24.076315 8.3617535 0.80069709
24.290607 8.3628178 -0.51680452
24.00708 8.2801781 -0.38912514
24.396137 8.3685646 -1.4367656
24.087231 8.3586063 1.7703775
24.471313 8.4545364 1.4874057
24.147356 8.2914829 -2.305897
24.365538 8.220335 -1.5224638
24.082571 8.3613863 0.16232273
24.483021 8.2278757 -1.0715196
24.311102 8.3743973 -0.6834774
24.288351 8.3502483 -0.76977658
24.444918 8.2100201 -0.86663699
24.271627 8.1384983 0.27203602
24.279863 8.1300802 -0.49724823
24.465006 8.4865227 0.083770953
24.323019 8.4469604 1.244293
24.286228 8.370966 -0.040019773
24.185406 8.373785 1.7547318
24.143049 8.371006 1.2678348
24.045303 8.3588352 1.2884214
24.070681 8.3646593 -0.64160955
24.06394 8.3539448 0.32281965
24.248932 8.3837318 1.7597386
24.214903 8.346158 0.30196893
24.254915 8.3554621 -1.1390452
23.945728 8.3572826 -0.32323501
23.985853 8.2731619 1.6535881
24.528275 8.4867744 0.96826857
24.484398 8.473156 0.97193587
24.266491 8.3877039 0.16758023
24.273129 8.358614 -0.45605606
24.085016 8.3504181 -2.4259007
24.291069 8.3775406 -0.10539961
24.268019 8.3551388 -1.6185899
24.38216 8.3641863 0.85728288
24.279613 8.3524723 0.049367446
24.385946 8.364048 1.0612757
24.374163 8.3643017 0.46894959
24.059505 8.2731943 -2.11624
24.365475 8.2230921 -1.689501
24.478188 8.2181759 -1.317724
24.340769 8.2084064 -1.8121212
24.250521 8.1955976 -1.8214771
24.303028 8.3645859 -1.4152374
24.375647 8.0874796 -0.52872831
24.128242 8.3514624 -0.48867542
24.336487 8.1698952 -2.9250669
24.298212 8.3507004 1.108101
24.195799 8.3864117 -2.58833
24.028893 8.3797846 0.66056544
24.465286 8.4099302 -2.9351292
24.09635 8.350771 1.1588242
24.192377 8.4639597 0.1299669
24.382059 8.3628178 -1.0232253
23.971582 8.3728962 -0.1771505
24.001032 8.3232536 -2.4414647
24.172491 8.3954048 -2.4082615
24.26293 8.3793507 -2.4300482
24.380535 8.4656572 -2.3693821
24.183641 8.3525829 -1.7206469
24.253851 8.3614817 -1.3145189
24.278749 8.3608999 -2.1335039
24.37043 8.3892708 -2.0421443
24.434992 8.4730616 -2.0522509
24.237139 8.3590946 -1.7892578
24.289898 8.3896074 -2.5532498
24.438517 8.4783068 -2.5224731
24.508373 8.4708281 -2.1342931
23.983917 8.2901459 -1.8260567
24.182365 8.3548346 -1.8265119
24.281715 8.3802662 -2.2037938
24.367418 8.3959045 -2.2151561
24.458506 8.4498281 -1.7756542
24.360209 8.5870943 0.36128095
23.956812 8.2642965 -1.5234082
24.080866 8.2740593 -2.0375159
24.277187 8.349824 -1.9454721
24.485533 8.4524136 -1.9167749
24.004488 8.2605181 -2.053957
24.49407 8.4505987 -1.4065342
24.307795 8.3597097 0.62838703
24.456005 8.2225094 -1.4661112
24.531248 8.4550056 -0.43732521
24.246761 8.3719196 -0.34326237
24.501234 8.4723234 -0.23920144
24.26544 8.3524704 1.4446168
23.984303 8.4102287 1.1646584
24.162634 8.3722477 -1.5150318
24.259153 8.2008038 -1.9102609
24.483046 8.4647799 0.86674249
24.46447 8.4691105 -0.34927246
24.096189 8.3622932 0.084388971
24.399591 8.5021 -0.76200086
24.157646 8.4196587 -0.76303744
23.930101 8.37257 0.13802205
24.272753 8.3742743 -1.5618143
23.935545 8.3822861 0.28010637
