# .PCD v0.7 - Point Cloud Data file format
VERSION 0.7
FIELDS x y z
SIZE 4 4 4
TYPE F F F
COUNT 1 1 1
WIDTH 540
HEIGHT 1
VIEWPOINT 0 0 0 1 0 0 0
POINTS 540
DATA ascii
-7.4712462 23.387083 -1.0160544
-7.627861 23.201038 -0.96211386
-7.4800105 23.335621 -0.58782315
-7.1843452 22.494902 0.24581772
-7.3833442 22.991228 -0.79333073
-7.1738529 22.728695 0.82650375
-7.4850283 23.203041 -1.1758974
-7.4857306 23.229567 -0.93731731
-7.4854541 23.234413 -0.39812019
-7.5691147 23.192453 -1.3786514
-7.5309362 23.213043 -1.389452
-7.5277505 23.234926 -0.2900497
-7.5114141 23.272221 -1.2725468
-7.2604761 23.171146 -1.6142509
-7.2532735 22.890602 -1.128106
-7.1667209 22.844299 -1.6897018
-7.2412291 22.601973 -0.86141264
-7.3315048 22.778831 -1.1323984
-7.2276454 23.00672 -1.8661389
-7.2530289 22.974783 -1.6301472
-7.2297497 22.874601 -1.3457841
-7.3629975 23.273548 -0.94910026
-7.3351812 23.26038 -2.1547489
-7.3583517 23.261755 -0.24216676
-7.2777252 22.99099 -1.5834579
-7.2048168 22.775393 -1.5352639
-7.4103503 23.266714 -0.32464933
-7.3146977 23.093853 -1.7478926
-7.2064619 22.791111 -1.7324966
-7.2843642 22.766556 -1.6725301
-7.2200084 22.698563 -1.6431915
-7.4220977 23.030106 -0.42109022
-7.2755823 22.862539 0.32613179
-7.3171282 23.11355 -1.9313204
-7.2144489 22.77449 -1.6273139
-7.2253084 22.715244 -1.520973
-7.2969069 23.098377 -1.8364707
-7.3999286 23.122683 0.56018931
-7.3442578 23.007254 -0.060166914
-7.5160017 23.304214 0.18190914
-7.5437889 23.317129 -0.13882405
-7.4992356 23.335539 0.94642407
-7.2637682 22.791311 0.45482412
-7.1433105 22.717512 -0.21471049
-7.2188678 22.78665 -1.254493
-7.3184538 22.742882 -1.1777289
-7.5071316 23.310158 0.35509554
-7.3307066 23.030167 0.7297982
-7.5344124 23.321743 0.2894682
-7.1831703 22.774488 0.83852208
-7.22927 22.849598 -0.019005464
-7.1186376 22.478607 0.86992961
-7.4810677 23.235443 0.28231698
-7.2601771 22.882479 0.27504808
-7.3628173 23.268076 -0.62951905
-7.5151219 23.282593 -0.017649638
-7.2232466 22.788393 -1.4413844
-7.304122 22.737404 -1.2346448
-7.2250152 22.969927 -1.7258244
-7.5416183 23.407909 0.50545955
-7.0960445 22.487642 1.4932665
-7.2346134 22.700264 0.33615297
-7.2717481 23.246195 -2.2271905
-7.390789 23.114214 -0.63877892
-7.1909933 22.851387 -1.0231227
-7.1621008 22.813322 0.81528771
-7.4002967 23.119207 1.1362766
-7.2988429 22.713371 -0.6275686
-7.3241525 22.817877 -1.011194
-7.333539 23.014572 -0.43737853
-7.339982 23.204565 -1.1270746
-7.2247624 22.582853 -1.0089142
-7.4106836 23.111633 -0.92404038
-7.3440804 23.104198 -0.94110727
-7.3485651 23.291363 -1.2189488
-7.510128 23.22481 -1.2170522
-7.2346306 23.111565 0.74625814
-7.3363142 22.996218 0.24572496
-7.3248124 23.115166 -1.1418208
-7.3544078 23.10718 -0.73350984
-7.3577542 23.101128 -1.0246441
-7.3115816 22.987505 -1.1249866
-7.2233114 22.709379 0.75404978
-7.3466563 23.101963 -0.82747799
-7.3074265 22.890413 -0.9375509
-7.1774397 22.782347 0.3156049
-7.2280645 22.791553 0.75526828
-7.4108243 23.141459 -1.1283629
-7.1974382 22.517626 -0.92689455
-7.1984234 22.705879 1.2646179
-7.1571712 22.682756 0.75446218
-7.3506002 23.1064 -0.15601856
-7.333293 23.012222 -0.14984898
-7.3143692 22.892647 -0.54962593
-7.3321137 22.990181 0.3592363
-7.4066072 23.095333 -0.83420211
-7.2949791 22.779238 -0.63517815
-7.1291976 22.494141 1.2543323
-7.3481903 23.115402 0.25884771
-7.4583158 23.255228 -1.1660858
-7.3996177 23.26162 0.16100839
-7.3489337 23.106485 -0.6352874
-7.2944703 22.777552 -0.83306801
-7.2332439 22.858585 -0.13532542
-7.3697748 23.252644 0.70473963
-7.3414903 23.272779 -1.1153185
-7.2278247 22.588074 -0.93137771
-7.1847548 22.605032 1.2692317
-7.2169123 22.608501 -1.4379429
-7.2227483 22.72506 -1.4332886
-7.226243 22.740932 -1.3215934
-7.1095347 22.558392 1.0052354
-7.164125 22.601625 1.2400889
-7.1553059 22.592491 0.7770046
-7.252121 22.887087 -1.2572111
-7.1885819 22.611637 0.43709284
-7.2402768 22.881622 -1.5229721
-7.3415637 23.201496 1.261554
-7.3101916 22.873075 -1.2600622
-7.3559508 23.200697 -0.64343929
-7.2692819 22.974705 1.3188226
-7.4266891 23.273886 0.056101654
-7.4040689 23.283957 -0.93976873
-7.4110703 23.268726 -0.5396108
-7.3823791 23.246 0.78890324
-7.3122196 23.013237 1.2614762
-7.0678325 22.324446 1.2658316
-7.3614049 23.256487 0.35884526
-7.2424021 23.104362 0.63639915
-7.1730022 22.73653 1.2281543
-7.3468642 23.211567 0.068726704
-7.3194289 22.890871 1.1387528
-7.3558011 23.206882 0.55702591
-7.3446074 23.262232 1.6999135
-7.1997123 22.734482 1.3476102
-7.2513938 22.728094 -0.64420879
-7.4930043 23.260563 0.42571995
-7.4141412 23.275032 -1.0414878
-7.2252951 22.790958 -1.1326275
-7.3196173 22.895092 -0.45544025
-7.2951946 22.794046 0.14780904
-7.2953019 22.782558 -0.53985447
-7.3083591 22.99651 0.64145797
-7.3169713 22.916746 -0.82459557
-7.4116015 23.270695 -0.037728768
-7.4117002 23.120377 -0.24347283
-7.3134079 22.8948 -0.14773871
-7.3018947 22.768265 -1.4538711
-7.2543149 22.879898 -0.56722647
-7.2409329 22.958227 1.4187046
-7.1708751 22.720142 0.31149042
-7.2981491 22.883301 0.58250904
-7.4008517 23.260523 0.55416262
-7.396101 23.2628 -0.64366341
-7.3299356 23.100996 1.2663929
-7.4245358 23.273495 -0.23412493
-7.2446933 22.912416 1.3610736
-7.3457766 23.10923 -0.23870504
-7.0647473 22.314688 1.3566947
-7.1627016 22.710169 0.15994422
-7.2867012 22.889591 1.2362568
-7.320962 23.259474 -2.0359361
-7.2960019 22.905563 1.0866567
-7.0672798 22.326193 1.1578791
-7.2577434 22.778797 -0.54099041
-7.2968187 22.783903 -0.4303543
-7.50423 23.266413 0.63953668
-7.2979202 22.889359 0.48169032
-7.3257551 22.901487 -0.059189253
-7.3608994 23.213663 0.36122608
-7.3953495 23.211178 0.36128828
-7.4467101 23.355833 -0.91573721
-7.3566384 23.211889 0.26236182
-7.2083077 22.770737 -1.3276868
-7.3076105 22.899483 -0.23453559
-7.3090768 22.895662 0.15480189
-7.300611 22.728741 -0.3265543
-7.2959442 22.783096 -0.33452389
-7.2595615 22.7754 -0.64030868
-7.2960505 22.897165 0.26228166
-7.4237776 23.346769 -0.33346379
-7.2502127 22.784775 -0.042044017
-7.2979279 22.937153 0.80513549
-7.40242 23.255892 1.0521859
-7.2924728 22.931641 0.92687595
-7.2564344 22.884443 -0.92580777
-6.9743748 22.394541 1.4484652
-7.5047784 23.335783 0.58221102
-7.4203243 23.265223 -0.12843972
-7.2464571 22.786236 0.36185306
-7.2565765 22.777359 -0.73274893
-7.3579755 23.263802 1.0552059
-7.1772437 22.713575 1.3304164
-7.2837749 22.760326 0.70174497
-7.3858795 23.285563 0.8644585
-7.5208349 23.383356 -0.13469493
-7.5329995 23.383713 0.63377857
-7.3564506 23.20952 0.4602055
-7.4083858 23.200844 0.96979415
-7.2194977 22.912987 0.58055055
-7.540328 23.421944 0.55075645
-7.5297656 23.298193 -1.3007249
-7.4137402 23.205 -0.84290469
-7.1870279 22.491877 1.05181
-7.2982063 22.721434 -0.55152744
-7.2957826 23.037661 -1.4701566
-7.2187767 22.863508 -0.45848832
-7.3552036 23.209578 0.65161467
-7.4291825 23.286575 -1.2236048
-7.332902 22.987965 -0.55715436
-7.3506675 23.098242 1.4478045
-7.2587829 22.775543 -0.43232495
-7.1525612 22.840414 -0.97388029
-7.5439348 23.386137 -0.059520982
-7.1118016 22.378149 1.0595633
-7.4329586 23.135376 -1.0419196
-7.1487775 22.49951 1.0674071
-7.416317 23.192541 -1.2358139
-7.0653815 22.597445 0.47365144
-7.4165788 23.269939 -0.84691143
-7.1485419 22.480989 1.157573
-7.4167352 23.269363 -0.44108686
-7.0498271 22.365963 1.4515251
-7.2624345 22.879641 -0.31827658
-7.353529 23.258335 0.064328477
-7.4209232 23.196957 -1.1356416
-7.4060965 23.105747 -0.73783457
-7.1357236 22.511036 1.3542284
-7.396132 23.210726 1.0810961
-7.4086995 23.204157 -0.74541891
-7.3376436 23.197773 -1.0480906
-7.3583426 23.210222 0.76571834
-7.2095885 22.486773 -0.86241239
-7.3077297 22.727489 -0.93777084
-7.4071622 23.203718 -0.94153738
-7.3204632 23.00308 0.076198742
-7.4151821 23.267328 0.36835033
-7.3981605 23.213156 -0.13441841
-7.358748 23.257847 0.26711679
-7.3364868 23.105978 0.073224731
-7.1782489 22.856688 -1.5547304
-7.4059324 23.208132 -0.54155326
-7.2349319 22.706238 0.64985424
-7.294292 22.785244 -0.23592563
-7.1736817 22.671925 0.27346241
-7.3357596 23.001904 -0.93149561
-7.147305 22.476883 0.56346244
-7.2994108 23.020243 0.58771396
-7.5084491 23.260199 -0.47980219
-7.2523718 22.784166 0.05423566
-7.2487359 22.717455 -0.83208233
-7.1615734 22.770056 0.56687927
-7.357163 23.282661 -1.0356071
-7.5053387 23.205679 0.47337931
-7.2551823 22.733263 -0.32003313
-7.1498652 22.495998 0.36803278
-7.3541846 23.207373 -0.23891032
-7.4065089 23.20927 -0.64649749
-7.4201393 23.197973 -1.0462933
-7.300108 22.724094 -0.73403096
-7.3900027 23.033447 -1.0407588
-7.3365002 22.982279 -0.63976777
-7.3024697 22.719961 -0.84170705
-7.3395185 23.104586 1.1466147
-7.243206 22.891979 -1.612188
-7.2400551 22.781178 0.24655314
-7.3382325 23.110863 -0.43107837
-7.1300402 22.490311 0.7540971
-7.3138094 22.702885 -0.14884254
-7.4003901 23.260441 0.24809349
-7.293344 22.732914 -0.42683899
-7.3942323 23.217211 0.56187338
-7.1955113 22.623108 1.1391051
-7.1720009 22.51022 1.0070568
-7.4046679 23.20895 -0.43620753
-7.3517485 23.267731 -0.82026488
-7.357717 23.259064 0.85735714
-7.1333852 22.800716 -0.61482716
-7.2920814 22.766785 0.27828652
-7.1190362 22.382801 1.3652565
-7.3994689 23.213974 -0.23445717
-7.2476816 22.782122 -0.23621835
-7.4271708 23.280006 -0.72824496
-7.1070695 22.384811 1.2513011
-7.3991475 23.214552 0.059918575
-7.4614577 23.363663 -0.63605034
-7.1076708 22.370995 0.96221805
-7.1454992 22.458296 0.66571128
-7.3630047 23.279854 -0.44791475
-7.4194255 23.201433 -1.3317003
-7.4988027 23.187733 0.37209392
-7.0532727 22.374033 1.0564364
-7.1444707 22.793945 -0.571545
-7.3580375 23.20982 0.86569732
-7.2412586 23.183907 -1.315256
-7.3047161 22.724701 0.16129106
-7.0516739 22.362494 1.1647276
-7.5516882 23.391317 -0.22999723
-7.1124134 22.380413 1.1571375
-7.397697 23.21035 0.1572479
-7.1739612 22.795576 -0.80684447
-7.319972 23.007158 0.17218442
-7.2478662 22.777529 -0.83626348
-7.2329302 22.78945 -1.020228
-7.243969 22.783155 -0.13933879
-7.240952 22.777714 -0.93069386
-7.3216691 22.896641 -0.63023245
-7.1727405 22.810112 -0.73990029
-7.2270966 23.177332 -1.2805674
-7.3576927 23.203823 -0.4229497
-7.123837 22.629774 -0.82984549
-7.3953109 23.209248 0.25819483
-7.5299644 23.294685 -0.7592029
-7.2838068 22.728611 -1.0497898
-7.3572822 23.253897 -0.32224417
-7.4596601 23.139071 0.6431905
-7.3525987 23.196842 -0.53495401
-7.2378979 22.873594 1.4882658
-7.353982 23.210426 0.15952314
-7.2702169 22.959599 1.1611803
-7.2734022 22.967899 1.2710861
-7.219018 22.69799 1.0760673
-7.3391552 23.204939 -0.84374654
-7.2066636 22.703102 1.1416976
-7.3156943 22.890022 -0.32950708
-7.2358794 22.896114 -0.84757924
-7.2649274 22.952665 -0.81806612
-7.3678961 23.256475 0.45708126
-7.067452 22.326006 1.066462
-7.530632 23.382751 -0.64764065
-7.0587049 22.355755 1.3533946
-7.2410369 22.876684 -0.744519
-7.3418055 22.982079 -0.869932
-7.2495675 22.777395 -0.33396089
-7.2587738 22.957577 1.038717
-7.2834511 22.791439 1.0678146
-7.2204442 22.781343 0.66198981
-7.2493877 22.982437 -0.3812806
-7.2657475 23.102245 -1.4958577
-7.4135613 23.116039 -0.4234212
-7.2813787 22.829372 0.59122521
-7.3958616 23.2099 0.75133443
-7.2394257 22.801832 0.99402833
-7.1950769 22.595455 0.57197154
-7.3924036 23.110548 -0.53387195
-7.488924 23.130905 -0.68267888
-7.3334341 23.094244 0.56929481
-7.2413559 22.861706 1.225348
-7.2446446 22.856455 -0.64557642
-7.1934519 22.494175 0.59522349
-7.1350174 22.474777 0.26231816
-7.1971421 22.607138 1.0817487
-7.3014698 22.804478 0.88486874
-7.1984859 22.582647 0.66255617
-7.3603249 23.253059 0.16189441
-7.3280435 23.121752 1.0505952
-7.2542195 22.883106 1.0558933
-7.3953385 23.211664 0.85691404
-7.2353773 22.773855 0.5704875
-7.2327514 22.793465 1.044389
-7.0982065 22.853796 -0.67267877
-7.2546453 22.733456 -0.54335278
-7.234818 22.684509 0.50228691
-7.3677168 23.252657 0.76409847
-7.2522421 22.730629 -0.040463768
-7.2128549 22.708361 0.95791364
-7.2369194 22.893475 0.070542231
-7.1879158 22.47261 0.48009408
-7.3084393 23.003508 1.1603757
-7.4969196 23.302221 -0.31455356
-7.1957159 22.471333 -0.033922762
-7.3493977 23.108641 -0.34107104
-7.262567 22.889711 1.1445451
-7.1742525 22.735132 0.61873716
-7.2438302 22.813038 1.1526344
-7.2573915 22.987913 0.65130866
-7.1704564 22.67886 1.1573601
-7.1420698 22.794598 0.64418322
-7.3953309 23.204905 0.6517123
-7.214747 22.885616 0.65353113
-7.3862576 23.141289 0.49641773
-7.5215616 23.282551 -0.64716625
-7.3596711 23.255806 0.96672064
-7.3254147 22.989128 -0.23884468
-7.3113899 23.002844 1.0881742
-7.2657709 22.867031 -0.24938753
-7.3446112 23.029463 0.83328003
-7.2497907 22.913986 -1.4558504
-7.2707653 22.976006 -0.95578539
-7.3960214 23.109762 -0.35001126
-7.3329887 23.103584 1.5537026
-7.1805325 22.776823 1.2353072
-7.2052794 22.496132 1.1857235
-7.3147802 22.888559 -1.0111136
-7.3373432 23.091747 0.97600788
-7.3218393 22.988865 -0.70720291
-7.5134401 23.302176 -0.82173955
-7.1707497 22.702896 0.10997482
-7.2733994 22.97208 -1.349407
-7.2031407 22.580498 0.26747128
-7.1612549 22.789013 -1.8578838
-7.2766976 23.184038 -2.3257213
-7.2249599 22.624668 0.35756391
-7.2511425 23.118015 -1.7369576
-7.2753091 23.215488 -2.2617676
-7.2733712 23.098024 -1.6755376
-7.2674584 23.085276 -1.1423297
-7.2711339 23.09738 -1.9101632
-7.263617 23.01367 -1.4476167
-7.2596254 23.10508 -1.860275
-7.1785474 22.759853 -1.1462353
-7.3137112 22.785713 -1.5780275
-7.148725 22.673925 -0.56497324
-7.2847171 22.934166 -1.8560414
-7.2047615 22.603235 0.74198163
-7.2371325 22.899099 0.73980409
-7.1752286 22.663515 -0.78290325
-7.1764894 22.667616 -1.0381732
-7.1748929 22.686724 -1.5467826
-7.2693319 23.110434 -1.2268116
-7.1596127 22.682819 -1.0921562
-7.276763 23.093357 -0.49057043
-7.1740704 22.7092 -1.4065022
-7.1792064 22.73773 -1.7578688
-7.2816586 23.037653 -1.8600049
-7.1860156 22.511869 0.86214
-7.1604266 22.602119 0.55745977
-7.2727785 22.96796 -1.1807481
-7.1354184 22.576767 1.3174288
-7.1651211 22.576429 1.1541724
-7.3955922 23.002975 -0.23123188
-7.164999 22.587122 1.4921008
-7.2011571 22.728279 -1.8666151
-7.3948603 23.040194 -0.15680894
-7.3130174 22.803711 -0.94991314
-7.3851914 23.142677 -1.2244084
-7.1283774 22.47756 0.15370153
-7.2510633 22.981346 -0.72763556
-7.2166924 22.708067 0.56331772
-7.2451534 23.004589 0.56974375
-7.3107491 22.918612 0.061030228
-7.1681881 22.603733 0.23356248
-7.1388154 22.457615 0.4783254
-7.1683855 22.5191 -0.28287333
-7.16324 22.792227 -0.21670596
-7.2309108 22.632944 0.19834405
-7.1095867 22.716297 1.0184026
-7.4895287 23.165768 -0.62806654
-7.2417274 22.994652 0.75408131
-7.5414653 23.203899 -0.8778975
-7.2088289 22.693178 0.83980656
-7.3662338 23.171741 1.5472469
-7.2091775 22.529882 -0.16197902
-7.2405815 23.07498 -2.0174184
-7.0519595 22.490519 0.54770261
-7.3094325 22.949476 -1.6466982
-7.2800732 22.900436 -1.4130697
-7.2479076 22.710283 -1.2270061
-7.3357034 23.000942 -0.35526711
-7.2935123 22.786341 -0.042531967
-7.0556984 22.371761 1.2530515
-7.2946324 22.941807 -1.1415579
-7.3459129 23.26841 -0.038930837
-7.3600173 23.257429 0.56126207
-7.3579812 23.272474 -0.1186949
-7.296958 23.044502 -1.4895064
-7.2272205 22.638493 -0.091771401
-7.4033628 23.210495 -0.33376136
-7.3177466 23.102114 -1.6594481
-7.3035421 22.714863 0.84598869
-7.4023075 23.134768 -0.050143413
-7.3850613 23.066965 0.16361624
-7.3007498 22.788635 -0.13579331
-7.3615413 23.109978 -0.05993101
-7.2811737 22.897745 0.6941393
-7.2930441 22.799673 0.056222424
-7.170887 22.799553 -0.30861792
-7.2399306 22.834387 1.3334628
-7.16434 22.584707 1.0730259
-7.3571892 23.277729 -0.52957582
-7.3429875 23.011755 -1.0236306
-7.5360656 23.302351 -0.26322097
-7.2275348 22.716925 -1.0456448
-7.3542118 23.1028 -0.5300554
-7.4946594 23.175362 -0.72915721
-7.396359 23.213572 -0.042771362
-7.1517153 22.527273 -1.2305461
-7.5084763 23.287518 -0.93282592
-7.1911578 22.596199 -1.3093686
-7.2040081 22.585239 -0.084147595
-7.4002023 23.272955 0.4763844
-7.3938046 23.259733 0.97792619
-7.3961964 23.261534 0.66319191
-7.1414828 22.577919 0.89381003
-7.1468463 22.795681 -0.15570715
-7.1692967 22.778769 -0.070073858
-7.1783643 23.025938 -1.3180792
-7.3013945 22.718061 -0.24978627
-7.3411069 23.029364 -1.282763
-7.1880455 22.49259 -0.41511396
-7.2518177 22.878582 -1.8663169
-7.3069777 22.877447 -0.72547221
-7.5283661 23.406536 -1.1503689
-7.2275577 22.720947 -1.7742513
-7.1794295 22.522209 -0.99209553
-7.1336155 22.825739 -0.44884974
-7.5052681 23.215225 -0.23068301
-7.2805429 22.811863 1.368258
-7.2539091 22.730257 -0.42831346
-7.2022972 22.519711 1.327517
-7.2727847 23.101601 -0.99361688
-7.301755 22.918777 0.84698063
-7.3028116 22.714573 -0.046892855
-7.1660995 22.562202 0.65726733
-7.1525493 22.610893 0.36142078
-7.2805619 22.894506 -2.043926
-7.3951273 23.098377 -0.14405793
-7.1726375 22.554001 -0.40281656
-7.2475939 22.682575 0.10010684
-7.1521997 22.583622 0.14743587
-7.254375 22.72369 -0.23386501
-7.1998105 22.47418 -0.33574745
-7.1938052 22.706337 -1.1197118
-7.2563243 22.73805 -0.13710268
-7.2121439 22.705059 0.17141457
-7.5003777 23.22094 -0.53577435
-7.5272198 23.140821 -0.49815899
-7.3120422 23.088163 -1.2320368
-7.4004445 23.208418 0.45599848
-7.189857 22.598457 -1.2695144
-7.1024232 22.38916 1.6773204
-7.3012753 22.77916 -0.73906225
-7.2456989 22.723076 -0.75667125
-7.2398949 22.698774 -0.94068474
-7.2888651 23.016216 -1.7427876
-7.1964931 22.804707 -1.8438674
-7.3558555 23.205805 -0.33872959
-7.348392 23.19095 -0.93599755
-7.3510995 23.196917 -0.73794609
-7.1169968 22.388994 1.45393
