# .PCD v0.7 - Point Cloud Data file format
VERSION 0.7
FIELDS x y z
SIZE 4 4 4
TYPE F F F
COUNT 1 1 1
WIDTH 1612
HEIGHT 1
VIEWPOINT 0 0 0 1 0 0 0
POINTS 1612
DATA ascii
9.5372248 4.6796365 2.8638349
8.6418428 7.6797562 2.2701588
7.4888363 10.6054 2.5332119
8.7393188 7.4735661 2.4601982
9.5311556 5.3739471 2.2635403
9.2677288 5.784821 2.7653391
9.3015842 5.913002 2.6170573
8.780591 7.1816306 2.6670308
7.6078835 9.6161585 2.1345093
8.8992777 6.8985119 2.5527127
8.0861301 8.9851141 2.2619987
7.6982012 9.9972286 2.3559141
7.5879178 10.299916 2.3492658
7.5913281 10.287878 2.4556065
7.5891428 10.298536 2.1570966
7.6463556 10.192612 2.2672718
8.864831 6.9741621 2.4575884
8.8611422 6.983789 2.2621605
8.5172434 7.2077813 2.1143582
7.9068623 8.8541441 2.1251094
9.6916723 4.6579089 1.7940848
9.9367104 4.1998715 2.25213
10.288094 3.2094376 2.348841
9.4806967 5.2812738 2.5518637
9.5750036 5.0986638 2.1761069
9.2733879 5.8959694 2.4681172
8.994175 6.6038909 2.2617178
8.9443302 6.7750401 2.2546751
8.7803011 7.1909542 2.5669427
8.3320274 8.4863491 2.2487833
7.8822293 9.5064564 2.0449286
10.365964 3.0911512 2.266819
9.9803514 3.998867 2.4632988
10.047326 3.9895217 2.4670346
9.9545984 4.1757631 2.6850474
9.0897846 6.3789854 2.6539655
8.0847311 8.9905481 2.1646454
9.4670267 5.4025245 2.4461207
9.3973627 5.6019673 2.5649846
9.3783226 5.5932031 2.2560453
7.7862005 9.8030767 2.4724746
10.074174 3.8094568 2.4729638
10.106356 3.8129432 2.6614335
9.3906555 5.6051569 2.4527543
7.7389545 10.056371 2.3432271
7.7445679 10.110103 2.6372778
10.295061 3.1098258 2.1906152
7.6733556 10.255634 2.6495302
9.5229788 5.4677038 2.7093287
8.3265028 8.6575489 1.7510157
8.2397747 8.8717566 2.4904566
8.2859201 8.8647118 2.8451929
7.7962809 10.090255 2.5768824
10.083788 3.1018066 2.9692583
10.431786 3.1586385 2.7126698
10.325859 3.4029229 2.683434
9.3615551 5.8901939 2.757195
8.6621027 7.7686067 2.8229604
7.4539599 10.689938 2.3540101
9.8011627 4.7161489 2.750514
8.285078 8.7007837 1.7366614
9.3852997 5.7209024 2.7328284
8.1056232 9.071557 2.7300329
7.9998455 9.3583164 2.7852087
8.7458286 6.9757047 2.8626332
10.439006 3.0550718 2.4816651
10.422618 3.1035671 2.6097779
10.345461 3.2932894 2.6282716
10.354111 3.2898817 2.7530797
9.5307026 5.4460878 2.4023805
9.3779516 5.7026949 2.6448882
8.8328743 7.273222 2.56253
8.0426579 9.2861042 2.5401289
9.6604414 5.0850124 2.7668371
9.648036 5.1007824 2.6539791
9.4337788 5.6867208 2.6706986
9.0265999 6.7606416 2.5687859
8.8201513 7.258327 2.4562583
10.33519 3.2755158 2.566287
9.57092 5.277595 2.7678182
9.0791073 6.4029584 2.4611049
9.0546837 6.5898423 2.2547486
8.1890688 8.8778954 2.8316665
7.6584997 10.186085 2.5435073
10.281367 3.1126015 2.4412055
9.9805126 4.091979 2.5424356
9.4691219 5.3874907 2.2656176
9.2872429 5.8980665 2.5574915
8.8258944 7.2481151 2.4095349
8.6748466 7.66469 2.7788045
8.167697 8.986434 2.7612379
8.1557684 8.9809704 2.5643556
8.1318083 9.0858755 2.5295911
9.9706802 4.1836634 2.5525405
10.071267 3.8836126 2.5520144
10.076731 3.7869358 2.3516335
10.156298 3.755863 2.7066989
8.6412678 7.6941175 2.4679215
9.9491529 4.2883754 2.4428933
10.055735 3.9875231 2.541548
10.050866 3.8955653 2.3468604
9.2751131 5.9198184 2.7605979
9.9372358 4.3632803 2.6296673
9.9396191 4.3126273 2.6847324
9.9961185 4.2066255 2.7741756
10.040867 4.0951891 2.7657008
10.083715 3.9826546 2.7405107
10.156761 3.7967942 2.7472649
9.1335487 6.4076471 2.6441698
9.2679834 5.9846735 2.563765
8.6383524 7.7789259 2.5677381
8.6621389 7.5923886 2.5528359
7.8499303 9.7930937 2.5629983
8.869895 7.0073185 2.7367175
8.8797989 6.9912624 2.5532694
9.7879515 4.6915655 2.6467299
9.9276686 4.3694763 2.5959015
7.9636974 9.5495501 2.2911553
8.5679359 7.6998453 2.4553008
8.9701977 6.7874913 2.5381901
9.1010246 6.4071422 2.5598819
9.1394787 6.3692412 2.3642058
9.581748 5.2065539 2.564574
9.7692871 4.7085896 2.5561018
7.9594383 9.0145674 2.263983
7.9203315 9.6716909 2.7506227
7.9341774 9.5768394 2.5721769
8.0555582 9.2902937 2.670187
8.6329861 7.7803698 2.4423609
9.0677423 6.5062771 2.5633409
9.156805 6.3821759 2.5660255
7.6424603 10.388788 2.6528726
7.7774153 9.985302 2.6534147
7.840971 9.8701038 2.4528553
8.3746738 8.3918715 2.5620253
8.7925901 7.303206 2.6629779
8.9063959 7.0071101 2.647455
8.9547243 6.8901572 2.6404581
8.9616241 6.7980766 2.4715829
8.9934187 6.7945933 2.6529379
9.0203409 6.7569017 2.7000191
7.4807644 10.604411 2.265655
7.5453415 10.601063 2.5425475
7.6854734 10.170712 2.6239269
7.7522454 9.9907751 2.5626888
8.1789703 8.9068594 2.6714015
8.2112875 8.7834425 2.653641
8.2581129 8.7129049 2.7948451
8.6811991 7.5997744 2.6568408
8.7812843 7.295331 2.545155
8.1038904 8.9939203 2.6614821
8.5683041 7.803359 2.5370252
8.577405 7.6967063 2.6524761
7.6014795 9.7104034 2.2671964
7.5505581 10.598531 2.6550307
7.7780647 9.9080782 2.5657222
7.7897692 9.8905058 2.639405
8.0709019 9.0115204 2.5401003
8.0868845 8.9955521 2.3586977
8.1388988 9.0727844 2.7632961
8.157176 9.0037651 2.6462202
8.1870985 8.9071636 2.5671167
7.6479063 10.298042 2.5674024
7.7374229 9.9806118 2.2676806
7.7501249 9.8831978 2.063659
7.8937864 9.5027695 2.361243
7.8911276 9.5002975 2.5414212
8.3077478 8.6388025 1.7090687
9.9779549 3.8755672 2.4429808
8.6380396 6.999856 2.8470616
9.8908463 4.4035254 2.7232111
9.8708916 4.4019279 2.5674696
9.7571058 4.6888032 2.3651495
9.792573 4.0072446 2.1685393
9.9967661 3.3943815 2.7512312
9.5385933 5.3802748 2.07917
9.8406286 3.8830221 2.8406551
9.8630199 4.5974898 2.0843194
9.8403997 3.9843533 2.5595813
10.0734 3.1943283 2.7594779
9.763772 4.4631219 1.8727131
9.792182 4.4896522 1.9787319
9.7873573 4.4974179 2.1614892
9.8385201 4.603353 2.1603327
10.248691 3.5853281 2.584496
9.7848368 4.494627 2.2655139
7.6711001 10.091695 2.2557814
10.058756 4.0954189 2.0855622
8.673028 7.3043284 1.860005
9.9960289 3.5057013 2.3615072
10.300581 3.2138631 2.5362859
9.9032793 4.3998413 2.6343651
9.6832066 4.6986566 2.2473745
10.238764 3.5952182 2.0950603
9.8214951 3.8673775 2.9323897
8.5728579 7.8764381 1.7756691
9.8359919 3.9740536 2.2733271
10.228246 3.5493023 2.474973
9.8554773 3.9880004 2.7385917
9.8420792 3.9784677 2.645762
8.3002558 8.407774 2.2794807
10.354966 3.1040423 2.3523965
9.8274956 3.9698398 2.8349457
7.2650456 10.474065 2.0606027
10.065655 3.894721 2.4785807
8.2669935 7.8954282 2.0417476
8.3525496 8.4973078 2.5710974
9.8737154 4.3980069 2.1580145
9.8842602 4.0035715 1.9699364
8.553895 7.8875561 2.5463109
8.4512024 8.2162504 2.5666032
8.3281641 8.4926929 2.4458873
8.2398233 8.1533346 2.7307582
8.5548038 7.8841324 2.4498048
9.6623325 4.9918671 2.5589869
8.4592495 8.183176 2.6621385
9.8361254 3.9831297 2.3635821
10.137126 3.185113 2.6585033
9.9794331 4.0000935 2.284194
9.7394581 4.2748132 2.4539456
8.5753784 7.6943369 2.3659959
10.241177 3.5802789 2.1573868
8.7759905 7.2001715 2.4641011
8.4238672 8.3092813 2.6566808
9.5561218 5.3669748 2.6656368
10.178891 3.0104494 2.0796793
9.7570705 4.9663014 2.5945661
9.5610619 5.1907558 2.3614378
8.8822918 6.1934433 2.0611439
9.8506517 3.6740794 2.9749823
10.20988 2.9147115 2.1674018
9.2103195 5.5094633 2.1944783
9.8540258 4.6715322 2.1150517
9.9979782 3.5127373 2.0803287
9.9516068 3.5793123 2.9479179
10.446776 2.9933054 2.1455817
9.5368671 4.7708154 2.6647692
10.036284 4.0715346 2.1627715
9.731142 4.8681164 2.1479995
9.0538015 6.6790166 2.1501887
9.4620075 4.8858628 2.0756688
9.853528 4.5906663 2.000174
9.8631802 3.9155705 2.0797534
9.0037518 6.1064229 2.0624669
9.9965515 3.5443623 2.0080352
9.8858376 3.7969158 2.2704191
10.049829 3.7923932 2.06532
9.5300016 5.4273601 2.010561
9.7271538 4.9115639 2.4950252
9.9334478 4.3850489 2.0623665
9.9846478 3.9916468 2.1779308
8.9070082 6.3270502 2.0812759
9.9504299 4.2852216 2.1636453
9.8918619 3.709862 2.0803065
9.9529686 3.8677938 2.5736561
9.7798929 4.4992962 2.0624673
8.3937263 8.3014688 2.5405428
8.5990839 6.8172951 1.9278598
8.5438337 7.372716 2.0864272
9.8772812 4.343483 1.9586515
9.8028641 4.0836191 1.8446729
10.112543 3.0386345 2.3018305
9.8557882 3.9235687 1.9427838
10.073924 4.0102687 1.9575205
9.681571 4.4464989 1.5735776
8.5507174 7.8739362 2.3566401
8.3656836 8.2988501 2.2744057
10.187577 3.4907227 2.3426833
8.8375711 6.5809774 2.0578027
9.0705986 6.4047112 2.1709998
7.5882492 10.089231 2.0679717
8.9575176 6.7921443 2.0789335
9.4845324 4.7959747 2.0870879
8.7525692 7.2958093 2.0742092
9.9600716 4.0998096 1.9888334
9.8673973 4.3863869 2.0784237
8.4252939 8.3486786 2.1028726
9.3641806 5.686367 2.252661
9.224906 5.6396737 1.7587091
10.334665 3.3744514 2.159591
9.7204485 4.8896074 2.2224135
10.132428 3.2687397 2.7649014
9.6187496 4.2525845 1.9193916
7.4052792 10.199133 2.2687402
7.7360353 10.093353 2.2495248
7.9039679 8.8893127 2.2617364
8.0425253 9.1896114 2.2527652
9.2528143 5.9925117 2.2694175
9.5074615 4.7143092 2.153326
9.7129879 4.1215315 2.4620132
9.8713198 4.2014675 2.0468495
9.7907143 4.0009069 2.0957444
9.6019239 4.5012164 2.2671547
9.8211145 4.3564954 1.9841833
9.4684162 5.4885511 2.0671411
10.086667 3.2933996 2.0682654
9.6553602 4.9873857 2.4650834
8.289053 8.4022207 1.9788818
9.3970985 5.6175385 2.64569
7.3490624 10.465604 2.1717818
8.0573959 9.1845207 2.159642
7.3002086 10.600346 2.1577301
9.1495695 6.3914542 2.1617963
10.370587 2.999166 2.1590683
9.7034931 4.1071501 2.0594046
8.5698977 7.7121243 2.156846
10.240069 2.8858199 2.5561614
10.059519 3.9897482 2.1596313
9.7312717 4.8878312 2.5510764
8.3570595 8.5058308 2.1479349
9.7911825 4.0879192 2.0837512
8.6472092 7.6956458 2.5639882
7.2826161 10.501692 2.1431849
8.3663969 8.2966928 2.0732844
8.8646593 6.995183 2.0726917
8.2492533 8.183033 2.1500909
9.7543287 4.7780643 2.5621698
8.6459942 7.7922859 2.155232
9.2565002 6.0931468 2.1586313
8.3752584 8.2030745 2.3606582
7.4925499 10.038626 2.1804011
8.2604837 8.0929213 2.1564951
9.8697901 4.4972639 2.0733962
7.3917074 10.300162 2.1505213
7.7099094 9.3986521 2.1736383
9.5618048 5.0871453 2.0666065
9.5602283 5.2014999 2.4620557
9.5866079 5.1023049 2.4687264
8.5599871 7.9860916 2.1567359
9.5688314 5.1774592 2.0687103
8.9056759 6.5022788 1.8546563
10.116785 3.0313566 2.6390049
7.6461968 10.389321 2.1654904
7.7561111 10.105433 2.1651194
8.8076229 6.474309 1.9688488
10.137568 3.0736234 2.8426619
8.7485962 7.5799422 2.0933428
8.8934488 6.1791363 1.9739907
7.4770327 10.084407 2.1647854
7.6560717 10.190763 2.1565783
7.6669903 10.283757 2.1638255
9.4504652 5.6648455 2.5442805
9.2241869 6.1557403 2.7431979
8.6400213 7.6935163 2.0776069
9.3897772 5.102345 2.0863297
9.5691633 5.0940771 2.2637849
7.5006804 10.097201 2.0576742
7.6747298 10.273649 2.0871663
8.8399811 6.5533972 1.9671705
9.035121 6.7480273 1.9925487
9.0905504 5.6771212 2.1033292
7.8228951 9.2682419 2.1383178
9.6403112 4.5810628 1.8664511
8.4487705 8.1864061 2.1630943
8.6262617 7.8775249 2.0535614
7.5422497 10.005747 2.0958128
8.1677246 8.8964138 2.1539767
9.0723562 6.5871401 2.1517382
9.8307266 4.3521609 1.8596444
9.7873201 4.5032115 2.593205
7.555016 10.388204 2.0791214
9.0719576 6.6028223 2.0720456
9.7424212 4.1793184 2.7367015
8.3943014 8.1999559 2.2683988
8.381691 8.2103529 2.5218608
8.2834282 8.0089378 2.0669971
9.4697809 4.9869456 2.0856102
9.1371784 6.4816465 2.1439431
8.5583172 7.8970752 2.1692438
9.6550264 4.5759988 2.1548159
9.9492702 4.183547 2.3635967
8.7789764 6.7711926 1.9653093
7.9725323 9.6256065 2.0676618
10.053555 3.7872522 2.0002921
8.79146 7.0942779 1.9857122
8.7614164 7.2020035 1.9656272
9.2754116 6.0006456 2.0618916
9.6651449 4.9845381 2.1618562
8.7657661 7.1850581 2.0616968
9.907506 3.7128708 2.3602121
8.1605749 9.0120258 2.0605969
9.739996 4.1916013 2.1616604
8.8987503 6.3956375 2.0735457
9.7821131 4.3957672 2.1684084
8.7611322 7.3967333 2.232734
9.7876177 4.3901777 2.2581532
9.6153393 4.6094131 1.8631402
8.7686787 7.193347 2.26583
8.3493738 8.3849707 2.2674437
9.8264608 4.0611854 2.2412252
7.8760819 9.466732 1.9819341
9.9908285 3.2451696 3.1284101
10.147731 3.6845546 2.2674351
9.7956219 4.3963566 1.8723469
9.863102 4.5019383 2.5708342
9.2437325 5.5978007 1.9025689
10.218055 3.2687519 2.6206768
9.569787 4.8222771 1.9660615
9.3367243 4.9671474 1.9814906
9.1615276 6.4005857 2.0681291
7.758101 9.9913492 2.1567063
8.6462412 7.7094045 2.6562598
10.152025 3.6862571 2.3589549
8.7552776 7.2848029 2.2681575
8.7752237 7.1924973 2.3593423
8.6501551 7.5851111 2.2713211
9.4447556 5.5685339 2.5812464
7.5084996 9.9437923 2.2243488
9.079113 6.3895845 2.2588575
10.265678 2.984241 2.04406
8.8651209 6.4831166 2.0043147
8.5240927 7.8663025 1.9838531
7.7393107 9.9959164 2.0594296
9.2578402 6.0151758 1.9733777
9.6818666 4.9774523 2.7611914
9.9792805 3.1928887 3.0680964
9.3014498 5.7193155 2.2503579
8.4957867 7.2979093 2.0275996
9.8098898 3.9228168 2.0037432
7.9527445 9.3992138 2.063772
10.286818 3.2765238 2.0759678
9.3952332 5.109046 1.945099
10.135744 3.5704417 1.9997404
10.178616 3.6047597 2.0931664
8.7650967 7.1893659 2.1622891
7.6409206 10.436674 2.0994639
9.44981 5.6869893 2.0799475
8.7584438 7.2940707 2.1606712
9.9625731 4.21594 2.0781772
8.563159 7.959794 2.0965855
8.1981983 8.2007532 2.1626072
8.3599787 8.3925123 2.1653461
9.3276024 5.9119811 2.2638245
9.3273077 5.6902666 1.9670907
8.1420908 8.9101286 1.9690695
9.430563 5.5919852 2.281198
8.6668653 7.5934286 2.1546073
9.7703333 4.8149524 1.9773699
7.8813152 8.9087944 2.0241265
8.7974529 6.5576544 1.9257745
8.8751965 6.8919129 1.9627521
8.9926224 6.0813961 1.9273522
9.0617533 6.47965 1.9045999
9.6417484 4.5802994 2.6425347
9.3580494 5.6938453 2.0724795
8.6402206 7.086863 1.9750731
8.2934322 8.5043097 2.5615797
9.7144966 4.6015167 2.0250034
8.3868084 8.2001715 2.1629612
10.050791 3.387455 2.3611844
9.8230114 4.6767349 2.5657792
7.6985078 9.9953299 2.1526837
8.9627428 6.0404406 1.9858189
10.115902 2.930131 2.8527143
8.1985788 8.7052736 2.2504873
8.1827803 8.7048807 1.9793354
10.093433 3.8031952 2.5450799
9.8319807 4.5982661 2.6580234
9.0973349 6.3256159 1.7584308
8.2138596 8.4587917 1.8637748
9.6080103 4.4699273 1.6958307
9.6593466 4.7099171 2.5873313
9.4122267 5.1437693 1.8964044
9.6176939 4.5488386 1.9206128
10.095527 2.9934988 2.8575506
10.271477 3.2147398 2.0733831
9.0948925 6.2929592 2.170085
8.0028496 9.2072392 2.5403285
8.279007 8.5851574 2.5520492
8.0508728 8.6821175 2.0679464
9.9301891 4.2820158 2.247447
8.3618717 8.287468 2.1743126
8.6694374 6.993288 2.9240031
7.8104887 9.1895409 2.1702297
8.4885349 7.1521401 2.3737841
8.6265326 7.1792326 2.6567221
9.2540293 5.5759339 2.146565
9.7030287 4.703826 2.170929
9.9432468 3.7688131 2.5410771
8.3783522 8.2076216 2.0632129
9.7732611 4.5916939 2.3752251
7.7016039 9.1539841 2.3689361
9.3331432 5.8920202 2.4775469
7.6680803 10.001518 1.9669791
8.3984966 7.5549531 2.057332
9.404851 5.0149827 2.1039164
9.3001795 5.7195077 1.856387
9.882905 4.4850206 2.6488185
9.8927174 3.6960058 2.5570493
9.8357821 4.5926151 2.5747542
9.4090157 4.9210892 2.148819
9.5445194 5.2974162 2.4483416
9.5161753 4.7266088 2.0735562
9.9589434 4.2944965 2.0802488
10.22143 3.2705314 2.7203631
9.3811903 5.7847614 2.7493083
9.0508823 5.9971638 2.062875
9.4567547 5.58568 2.6848218
9.3445597 5.8874512 2.6628489
7.950592 9.6649637 2.4814234
9.7730331 4.6140375 2.4635193
9.6596146 4.5087147 2.0781367
8.6566763 6.9856305 2.7527497
9.89851 4.1919732 1.9754478
9.3031578 5.4418745 1.7518731
9.2960157 5.7063265 2.365294
9.7666817 4.3695431 2.448113
9.5443192 4.7895479 2.079761
9.730628 4.656538 1.9699277
8.2746658 8.491004 2.4621079
9.7098112 4.6325817 2.0086784
9.4698248 5.0194373 1.929593
9.795023 3.8108144 2.97891
8.7487526 7.3828545 2.4452126
9.9958429 3.5011365 2.2696238
9.8905926 4.1029353 1.9825636
8.4581242 7.5712891 2.1026525
9.3105421 5.2113762 2.1903181
9.235219 5.5803847 2.0764203
9.76509 4.6871858 2.0637379
8.7901087 7.104063 2.0625782
9.9899139 3.5028841 2.4614537
10.182331 3.5138426 2.5503891
8.4688206 8.0022564 2.1595736
8.5048828 7.8925548 2.5337288
8.692667 6.7915225 1.9464897
9.2504683 5.5823994 1.9727169
8.4681883 7.3263721 1.9831687
8.6719551 6.9074221 1.9560224
9.9000959 3.4925013 2.8862157
9.6480494 5.1804929 2.0809751
10.001893 3.8345008 1.998921
8.2713652 8.5085011 2.0742335
8.5126457 7.1963902 2.0547669
9.3263035 5.3886495 1.8129693
8.4794664 8.1416712 2.0106862
8.2661409 8.4969578 1.9721627
9.3177519 5.3080473 2.0104184
9.5723934 5.2878447 1.9001721
10.278491 3.2042029 2.1605692
9.0043554 5.8778563 2.0541546
8.0919838 8.4511929 2.0804811
9.809988 4.6723604 1.8868816
8.2742968 8.2917528 2.0398705
7.9379463 9.6109381 2.6422486
7.7506714 9.8957653 2.1613986
10.133295 3.1802421 2.7438047
9.7013168 4.0960779 2.3852897
8.0536823 9.1083479 2.0661352
7.9786839 9.2883101 2.2671447
7.7550106 9.8928413 2.2617848
8.4583559 8.0878935 2.1622317
8.2747192 8.4955034 2.1714852
9.6913214 4.7047701 2.0745468
10.130297 3.182956 2.2828388
7.5656114 10.399904 2.1712224
8.1937103 8.7011662 2.1601479
10.01249 3.8762827 1.9707751
8.5533791 8.0746498 2.0894363
9.9117832 3.7533102 1.9873545
8.4501839 8.0886717 2.0796967
9.4453707 5.6818123 1.976401
10.027664 3.3773761 2.8471503
7.9809933 9.2870092 2.4514723
8.2766294 8.4969521 2.265132
7.9558806 9.3894491 2.1688399
10.310613 3.1271546 2.322166
9.2948647 5.6612916 1.9147472
7.973248 9.2956209 2.1604812
8.0539932 9.0993452 2.2585943
9.4050894 4.926671 2.0444283
9.2683191 5.9025502 2.2517014
10.069858 3.00492 3.0635455
7.7782974 9.7942295 2.2605963
10.069717 3.9674292 2.6731157
9.0668755 5.9905787 1.9736538
9.391077 5.1664629 1.9278784
8.6797266 7.3853164 2.4396598
10.035848 4.0520763 2.6284518
9.5996923 4.902204 2.1670566
9.5559978 5.2865005 2.5464218
9.2829809 5.1069512 2.0271449
7.714118 9.9210606 2.4492049
9.4713993 5.2949877 1.9573728
9.4023752 5.4953251 2.7683845
8.0094204 8.6223345 2.1986644
9.6475363 4.5162821 1.9846002
8.6434469 7.2128506 2.8509104
9.7238083 4.9418511 1.9897003
9.5954762 5.0018306 2.2614169
8.6395302 7.0842929 2.1843934
10.188 3.695457 2.7330348
8.6991768 6.5137982 1.8960327
9.5888367 5.0034819 1.9664081
9.593256 5.0028205 2.1677656
9.5518999 4.7359352 1.9820509
9.1987829 5.7291698 1.7754937
8.2534714 8.5895615 2.1688075
8.239994 8.5934105 1.9875654
8.1968231 8.5977821 1.9739546
8.1851482 8.705512 2.3529849
8.6587706 7.5871444 2.3572464
9.355444 5.214839 1.8942682
10.135 3.8842781 2.7615218
9.3966036 5.4806633 1.8388008
8.1364202 8.474885 2.2697806
8.3065739 8.3067837 2.2601588
7.9966159 8.5748024 1.9718128
9.4043427 5.15837 1.7272149
9.3901739 5.3911695 1.7836617
9.6268015 5.0141311 1.9419379
9.1647558 6.1039014 2.0677574
9.9013786 3.4308116 2.0874004
7.882266 9.5872612 2.55897
9.9310265 4.4557858 2.1314046
8.0186491 8.6148748 2.2650254
9.9090872 3.6276379 2.6711004
9.494648 5.3055196 2.3659708
9.5124302 5.3038311 2.4534647
9.6686621 4.7152786 1.9755086
7.9005594 9.610218 2.6302817
7.8194189 9.500226 1.9933339
9.3494301 5.3308058 1.9334527
8.3067379 8.2397213 2.1006713
8.2628355 8.275835 2.3720791
8.6756935 6.668375 1.9619039
9.3705969 5.6930199 2.5675819
9.3683491 5.8779535 1.9819896
9.2786598 5.7972193 1.9500644
9.5548544 4.6950655 2.0851009
8.8670006 6.9889274 2.1510539
9.005065 7.1750679 2.1190863
8.1811104 8.7014761 2.0548368
10.384884 3.0991719 2.1513336
10.34742 3.2948511 2.0969095
10.293479 3.1995447 2.2691023
9.5695782 4.7808781 1.8933526
9.5597286 4.6690478 1.9071907
9.5774508 4.9918475 2.0583465
8.6837225 6.682703 1.8472428
9.3629036 5.6027441 2.0750282
9.3721333 5.4623003 1.8006915
9.4592304 5.4004588 1.9686223
9.3842468 5.4962482 2.0563817
9.5892839 5.0103831 2.3678801
9.5538464 4.9947195 1.8840728
9.1603937 5.7978692 1.9667169
8.284152 8.5066376 2.3582251
9.1670542 5.6892362 1.9705567
8.1860237 8.2682562 2.0702188
9.1331882 5.8674097 1.9527093
8.7658424 7.3923364 2.6777956
10.130589 3.1813598 2.0942779
7.8487463 9.5823708 1.9628375
7.7908931 9.7775888 1.7351558
8.1940536 8.6101551 2.3594134
8.1432247 8.5864487 1.8604246
9.2728672 5.4974217 2.0544608
9.489583 5.2990398 2.1675055
8.6076689 7.6174445 1.9753355
9.6670523 4.5888319 2.247401
8.2772636 8.408639 2.5719478
8.47083 8.5483894 2.5708899
9.4850073 5.2992377 2.2540004
9.4492207 4.7007608 1.9753408
7.8059797 9.7158031 2.3370755
9.910615 3.6114571 2.4643199
8.7563715 7.2907686 2.457382
9.1768017 6.0920753 2.1765127
10.138446 3.1780055 2.3595347
9.2052908 5.9971509 2.1593144
8.4921494 7.8950453 1.9730322
8.2033253 8.6107512 2.1623621
7.5149207 9.9155912 2.0817413
7.9564981 9.2705564 2.9082744
8.7620525 7.2910666 2.3649428
8.5038233 7.7835784 1.9470687
7.9702692 9.2962952 2.0540512
8.1697502 8.3157797 2.1656921
8.7505617 7.3844938 2.3558519
9.0890102 5.9030385 2.0687437
7.7652555 9.8082972 1.8854226
9.2852335 5.7725825 2.0631523
9.1490402 5.7922063 2.0349343
8.7604771 7.4064207 2.5704017
10.226398 3.6650369 2.1649835
8.2388201 8.6738997 2.0530765
8.4896917 7.9093866 2.2571926
7.5162063 9.99298 2.0529585
7.8103952 9.7194099 1.8542877
7.8068414 9.7142677 2.0714333
9.1725578 6.1856489 2.4589427
9.2050753 5.9961176 2.3384173
9.1773758 6.0621367 1.9701098
9.1908598 6.0266852 1.9481491
8.2084455 8.6200094 2.069088
8.1681271 8.6344252 2.5312438
8.1429234 8.4166517 2.1541207
9.4480133 4.9951239 2.3688476
8.1149759 8.8000164 1.8923444
7.9965215 9.1975183 2.0571165
9.4810228 5.4080787 2.549793
9.4787636 5.2920213 2.0710406
9.408968 5.5121598 2.3623137
9.389472 5.491405 2.1544306
10.436288 2.9822946 2.5598073
9.848217 4.4734011 2.4340491
7.7168145 9.8956747 2.0534534
7.7737498 9.8000536 2.0459948
7.7884645 9.6321964 2.0784955
9.5979662 4.8108158 2.7812207
10.106042 3.1337354 2.3515224
7.760303 9.7961979 1.9790664
9.4133635 5.8004422 2.0060573
7.6218452 9.8330231 2.1102183
7.7995586 9.7025518 2.1739678
7.7764645 9.7963638 2.1593463
9.204361 6.0042114 2.0536966
9.7513103 4.7936153 2.6359935
9.8682957 3.8000078 2.0730822
8.4046812 8.1128702 2.1677883
9.1999588 6.0151954 2.2635441
9.2112455 6.0374393 2.4567268
9.4321012 4.9680696 2.9593837
9.4419765 4.9973555 2.2664979
7.8164492 9.6217928 2.1521099
8.0164404 9.1185017 2.0107782
8.2296124 8.7694817 2.2721021
8.1141844 8.2347908 2.211458
8.0554714 8.6679192 1.943318
8.526453 8.0716248 2.2176952
10.160172 3.3021424 2.461812
7.6807027 9.9215851 2.672462
9.2895308 5.8017454 2.2494512
9.2461624 5.8182907 2.6752012
8.579114 7.6758814 1.9839842
8.5058937 7.823884 2.2111845
9.3821344 5.7961879 2.0863481
8.493516 7.8918285 2.4573259
8.3419008 7.8807387 2.1805503
8.4905443 7.8006549 2.2571228
8.7083673 7.3029718 2.4525428
10.115205 3.0255542 2.3348811
7.8235278 10.014321 2.496377
9.2794323 5.8200293 2.4480457
8.5819731 7.6905265 2.0713809
9.703927 4.2028313 2.5622914
8.1807623 8.5949411 2.2703893
9.7495632 4.1925144 2.2756896
7.7243123 10.226106 2.2376571
7.7640581 10.186647 2.5661707
7.991847 9.0980272 2.5233498
7.9996872 9.1157179 2.1474357
8.0257587 9.4767227 2.1133161
8.3657389 8.4824247 2.6554668
10.097141 3.1092434 2.667995
10.000587 3.7731779 2.8336005
8.4994726 7.9065762 2.0787332
8.1637621 8.7979546 2.1712711
8.1632957 8.799943 2.0645597
8.1473866 8.7676296 1.8291305
7.7110324 9.9331226 1.9622273
8.6567373 7.4966497 2.0750992
8.2826204 8.7151966 1.9328241
8.2668686 8.6919575 2.1626151
8.1593304 8.8002691 1.993816
7.7073221 9.9313908 2.1802709
7.7038598 9.9077721 2.2783124
7.8016872 9.716713 2.2614815
7.7883654 9.6952877 1.9732276
7.806253 9.6301889 1.9269589
7.9986262 9.1931601 2.4630334
7.993155 9.2183208 2.1652939
7.9962935 9.1080894 2.2622795
8.3953352 8.1058407 2.0651879
8.5054007 7.8208756 2.0788383
10.185703 3.2731996 2.2276523
7.9517288 9.5873356 2.7319856
8.3501501 8.4707251 2.359231
9.9836121 3.5005689 2.561142
8.2536488 8.6846704 2.2653954
7.7111368 9.9028397 2.5166965
7.9977493 9.2019186 2.2606363
7.9421411 9.837388 2.2801495
9.6886082 4.8005753 2.3576624
9.9441404 4.300283 2.5692701
9.6520271 4.9790192 2.2621584
9.2201815 5.681138 1.7631036
7.9282384 9.7397556 2.3094873
8.4367208 8.3621569 2.498208
8.6659899 7.190197 2.1760519
10.189921 2.9826171 2.1602676
8.0982771 8.326067 2.0881224
9.6761312 4.7968745 2.456135
9.6697912 5.0971107 2.0785079
9.2938175 5.8017144 2.3524747
9.1597366 5.7794805 2.8501446
9.9260445 4.2647948 2.3351991
9.6576757 5.08988 2.1502471
8.5730057 7.4915328 2.4550915
9.6914053 4.917202 2.6321044
10.241729 3.4996614 2.5619817
9.021431 6.777761 2.3740969
8.4984379 7.8197298 2.3699176
9.4411621 5.7134333 2.7142248
7.7681656 8.8864403 2.1073675
8.2672825 9.0032854 2.3821266
8.2612267 8.6976109 2.5628364
8.2614927 8.8095026 2.0848253
7.7277441 9.5900288 2.3491495
7.9884973 9.0749636 2.3651352
7.9476748 9.6692028 2.3495607
7.9288192 9.7146006 2.5578566
9.7912283 4.3841829 1.9871025
8.6495523 7.7132525 2.8681657
9.1336288 6.4826827 2.4952188
10.228887 3.4686038 2.4565592
7.8906484 9.4053335 2.072118
8.2041216 8.5882215 2.4492941
8.6316748 7.1961184 2.7197943
9.1530561 6.3023777 2.5612545
8.6609573 7.79175 2.0726683
10.072119 3.6040132 2.3297467
10.048548 3.8991818 2.2773697
8.5904465 7.60007 2.1793964
10.232689 3.4859211 2.2739291
8.9606514 6.7055197 1.9662654
7.2975941 10.409234 2.0308695
10.167712 3.2809045 2.3831735
9.0973349 6.3093505 2.3655603
8.1091757 8.4226322 2.358943
9.9579792 3.6915133 2.6546512
10.089597 2.9781752 2.9873538
7.9084711 9.4050541 2.1856189
9.8953934 3.5852079 2.8582611
10.297068 3.4850888 2.7779377
9.8187141 3.8033426 2.8513346
10.428326 2.9898152 2.348032
8.3786707 8.4592199 2.0079272
7.8523226 9.8717813 2.084486
8.1028366 8.4202776 2.5627391
9.6354208 5.1536503 2.7746656
9.9017735 3.6205246 2.5583563
7.9261761 9.6662569 2.1864703
8.2968874 8.5084743 2.6431632
7.9390898 9.5871058 2.3624604
7.967536 9.4975719 2.7644153
7.88832 8.7928476 1.9823481
7.9427056 9.4725943 2.6546874
8.0611258 8.5865459 2.5607042
8.1488237 8.4824343 2.3649173
8.154995 8.3922844 2.0832095
8.5932283 7.6157804 2.3559852
8.3328543 8.58741 2.2379987
8.5267086 8.0519705 2.3179712
9.6660833 4.7731633 2.6747777
10.083741 3.568135 2.422014
8.0732698 8.5867004 2.3648565
9.2510986 5.6945329 2.6522825
9.6407127 4.4862576 2.3593009
7.8642011 9.5956478 2.2541871
9.4537477 5.7539907 2.0280721
9.5403261 4.7845654 2.2725847
9.5195999 4.6288042 2.8274624
10.107015 3.1362076 2.1550713
8.1492891 8.5314693 2.0280383
8.1749411 8.5293894 2.8603003
10.003431 3.9192374 2.1682312
9.411006 4.9068189 2.7369702
8.9523849 6.189199 2.7633324
7.5889039 10.296865 2.2506475
9.6915302 4.8178997 2.5472839
7.4153647 10.703196 2.3755665
9.2646236 5.971211 2.6444426
8.2099438 8.1301088 1.8492066
9.3973007 4.9398518 2.858073
8.1619091 8.1241598 1.9741472
7.9885015 8.7954092 2.1545236
8.1846008 8.197032 2.0757589
8.1477156 8.1716166 1.9505206
9.3471203 5.389164 2.6493173
9.506053 4.7001886 2.6614952
7.861876 9.5883532 2.1684098
8.7674561 7.3149672 1.9965005
7.8648109 9.5968304 2.0712538
8.1040583 8.4234066 2.464469
7.5158305 10.376744 2.1050048
8.2388096 8.7926807 2.5391235
9.4202719 4.7302494 3.0649836
7.6608062 10.363502 2.5473828
8.1232157 8.5032501 2.1617785
7.5588455 9.8941545 2.5544202
8.2374258 8.1856194 2.4573214
9.502408 4.8046613 2.2813187
9.7012577 4.2126551 2.3391194
8.9752417 6.6993895 2.5655758
8.9366074 6.3636069 2.5626509
8.3000641 8.6093254 2.647481
8.7575388 7.3821621 2.0753675
8.2665281 7.9901915 2.7565784
7.5602331 9.8919926 2.4622588
8.3613796 7.7938452 2.0674822
7.3568745 10.255624 1.9935405
7.8740001 9.6947289 2.5759985
7.8598509 9.7860565 2.6353161
10.107007 3.1034725 2.5603647
8.4473114 7.8619285 2.7112191
7.847003 9.8054504 2.2448473
9.3643398 5.182713 2.0782313
8.983058 6.6965737 2.4639378
7.6003571 10.222745 2.0824547
8.3047056 7.9000549 2.7663429
9.2229891 5.0372391 2.1016641
9.0551081 6.5907483 2.5579441
9.660758 4.3934593 2.4653199
10.056204 3.3747766 2.0928664
10.432509 2.9877059 2.2595487
8.7094202 7.4067531 2.5623057
7.8188071 9.1378584 2.7716684
7.5447154 10.092583 2.4755516
8.6638384 7.4935484 2.2592814
8.8465538 6.5854969 2.1544373
9.9756651 3.6222734 1.9679167
10.048141 3.3916287 2.746557
7.7480435 9.6990252 2.8544259
8.3416338 8.6002855 2.6553352
8.7426205 7.488102 2.6461596
9.405344 5.0106416 2.4572124
8.948348 6.2833457 2.1686919
9.2578411 5.8977571 2.1699014
8.4776068 7.5005631 2.2645936
8.0634432 8.5898094 2.6502712
8.1456184 8.474515 2.5535574
7.6970191 9.5137119 2.5729055
9.737793 4.1914849 2.6539006
9.6826868 4.0426331 2.1662939
8.2353897 8.1747112 2.3714879
8.6147814 7.0009813 2.1586785
8.6402636 7.0813527 2.5498927
8.8811522 7.0911012 2.7495899
8.2444057 8.8004923 2.6425323
8.4110994 8.2162209 2.6377692
8.9642267 6.8686657 2.1446173
10.047186 3.3934684 2.269845
10.077483 3.7972379 2.2696483
9.103713 5.8099623 2.1519089
9.4032621 5.4892826 1.9910606
7.2988515 10.675559 2.3352833
8.958313 6.8813977 2.5612895
8.6147785 7.0289707 2.3747141
8.5541229 7.8845453 2.0729306
7.941216 8.9840298 2.5387797
8.9455805 6.8881574 2.4537289
9.0548382 5.9930067 2.2704132
9.5487843 4.6938653 2.4570682
10.1635 3.5944705 2.2687438
8.7669039 7.3951511 2.1589725
10.067579 3.5021973 2.2616761
8.5515413 7.8869905 2.2539055
7.6065025 9.7152309 2.565064
8.193347 8.6970091 2.4606721
8.1555061 8.3857489 2.2660832
8.2458496 8.7787066 2.4588056
8.8473301 7.0851455 2.2575316
7.571002 10.391155 2.3598044
8.741004 6.896441 2.1780181
9.6892757 4.0210052 3.0981534
8.1307087 9.0835285 2.1521811
10.157129 3.0003426 2.7658472
9.640563 4.3886132 2.8463423
9.1358643 5.7864227 2.2712822
9.9839602 4.1092424 2.7670348
8.5109816 7.3090253 2.3633344
8.7061071 6.8373871 2.1562612
10.13483 3.9489005 2.0891416
8.666296 6.9967408 2.5548179
7.3443503 10.584865 2.543638
9.6646833 4.3941922 2.3622134
8.283452 8.6790352 2.6579654
8.1428785 8.3845034 2.555701
8.4370775 8.2856283 2.1457975
9.2200603 6.0976191 2.6677685
8.8939171 6.2415733 2.717169
8.9049311 6.3046741 2.5584476
10.10692 3.109787 2.4734554
9.5611296 4.597137 2.6576135
10.145404 3.7854195 2.1455564
10.047975 3.4624381 2.099977
7.3592811 10.581585 2.1756172
8.3736143 7.7741489 2.1642604
9.8501968 3.9904542 2.0944929
9.6340942 5.1465249 2.4825196
10.180692 3.0047705 2.2723184
7.8386869 9.873786 2.3647027
8.6450548 7.0836883 2.4551609
8.6915302 6.8024173 2.7634361
9.6221199 4.6526699 2.9610925
8.2669582 8.7897644 2.7369072
7.9530544 8.8897362 2.6500883
9.8685827 4.1899033 2.4246218
9.6106548 4.4115539 2.754344
9.1388683 5.8751941 2.5538249
9.5340681 4.8605456 1.791546
7.3362784 10.585493 2.2430246
8.3580065 7.7914519 2.5556359
9.0815258 6.4063439 2.3777144
10.007755 3.3363647 2.5525427
8.444788 7.5949817 2.4539692
8.1322441 8.4822092 2.4818428
9.947052 4.1032138 2.064662
10.283936 3.3890357 2.0831027
7.9564786 8.8871756 2.1747108
8.1130142 8.8225203 1.9659386
7.929944 8.7225752 1.9364948
8.2807407 7.9917512 2.1735747
8.3712444 8.2966146 2.4707682
8.1465292 9.1265688 2.1030922
9.7937994 4.3996906 2.0493712
9.4841442 5.3967166 2.6619475
8.5776119 7.2835445 2.0827153
9.9669247 3.4952896 2.7635441
9.8010664 3.9370623 2.1512969
7.9426732 8.98211 2.3560669
8.2219458 8.8943777 2.0686812
9.6396608 4.387476 2.7590952
9.8857098 4.2983556 2.3565643
9.9399185 3.6869526 2.353092
8.4064369 8.1151276 2.5497706
8.958127 6.700316 2.2587733
9.6937656 4.9996948 2.6685977
9.966651 3.5887508 2.5616164
9.9479551 3.691355 2.4583609
9.183362 6.1995053 2.6608028
9.8168383 3.820626 2.5687678
7.9866319 9.0314531 1.9494622
9.8184767 3.8451152 2.7951982
8.6208735 7.0592637 2.9293849
9.9359713 3.6831138 2.7577419
9.9221373 3.6471007 2.9002626
7.7847881 9.0914679 2.3331256
9.8430557 3.9855881 2.4679821
8.5413322 7.9884315 2.5622592
9.2042961 5.5086522 2.5654161
8.3717813 8.2963524 2.3708007
10.042921 3.392159 2.1677039
8.2636347 8.772934 2.1484313
8.4754095 7.4989762 2.4581366
10.294333 3.3786445 2.7350044
7.6728439 10.087695 2.0661607
9.801384 3.9095645 2.6503582
8.580513 7.8727784 2.6375241
8.1392775 9.0677557 2.3340819
7.8586078 9.7918482 2.0674539
8.4388571 7.6797047 2.7275102
7.8440514 9.8830023 2.1473961
9.2052546 6.2414832 2.7958264
9.1676693 5.6939969 2.363189
8.5877428 7.1990194 2.2658741
10.079357 3.7984269 2.1604378
9.6565657 4.3878498 2.5573757
9.9993629 3.3027875 2.6609974
9.9692755 3.394942 2.9607174
10.286812 3.0881827 2.0420661
8.4970856 7.4014316 2.4641371
8.6319637 7.0860252 2.7657421
9.2498684 6.0908155 2.3600821
9.7335014 4.8880153 2.7441692
9.8623171 3.7994425 2.7520378
10.157644 3.0075462 2.9425344
9.8853559 3.8010507 2.3587351
9.0494585 6.1750789 2.5775156
9.3707962 5.5892425 1.9565153
7.7844448 9.7974815 2.3731334
8.459794 7.4928632 2.7640181
9.1382303 6.4807301 1.9167022
9.7309666 4.1824713 2.9576292
9.9685049 4.0368233 2.7116702
8.6877499 7.4957848 2.6476054
9.8541288 4.2059627 2.5597136
9.0825081 5.892262 2.1647651
10.224365 3.6941514 2.7782826
8.4516411 7.5818067 2.5677652
9.1361008 5.8780937 2.6276436
10.372629 2.9925127 2.2415099
10.174199 3.7122719 2.6500287
7.4849701 10.591671 2.4506514
8.6133642 6.9769998 2.0481122
9.775177 4.5778604 1.9980584
8.4706964 8.0905352 2.637342
8.4228163 7.749042 2.5485613
9.1439571 6.4687409 2.0764825
8.3534317 8.3874588 2.4624915
9.81141 3.8320079 2.6326613
9.0579901 6.5893574 2.4744005
8.967021 6.7972851 2.1578922
9.0811853 5.8984671 2.2604852
7.4642487 10.587853 2.3728781
8.1724968 8.2946424 2.4620233
10.129539 3.9717591 2.8105092
10.134216 3.2852898 2.5615594
7.3858089 10.305045 2.7543361
9.6699533 4.9032745 2.5610437
9.7474556 4.6040335 2.0677617
9.2815514 5.8925557 2.371469
9.8258076 3.9722114 2.1670561
10.046424 3.711319 2.6157329
8.6383924 7.7795439 2.3273194
10.098345 3.023205 2.7701538
8.3409138 8.567461 2.571059
9.3311281 5.8695145 2.3629508
10.442836 2.989763 2.0894821
8.5858765 7.4878964 2.2605336
10.266653 3.3964202 2.1613643
8.1642151 8.2936344 2.5567508
7.2994361 10.508032 2.6565716
9.6776876 4.8010974 2.2652235
9.4368019 5.7794209 2.9175177
10.190212 3.6938951 2.0823138
8.1723185 8.2990055 2.2624826
8.5647402 7.2151732 2.8560939
9.7069883 4.3341956 1.5067656
8.3033943 7.9153538 2.3618133
8.658165 7.7824125 2.2565131
8.6740561 7.4034777 2.1651337
9.1369753 5.8691401 2.3555264
7.316051 10.416023 2.4388781
8.0447721 8.6855068 2.5564232
8.8177176 6.4441328 2.7717984
8.4889145 7.995245 2.5411243
8.4808092 8.0993834 2.5716701
8.4000378 8.1141129 2.3424489
8.0022831 8.7143726 2.5638466
9.0749731 5.8941703 2.5597637
7.6919703 9.999402 2.0662937
10.436722 2.9698346 2.4676514
8.1908073 8.208415 2.755868
9.7524319 4.6907825 2.465476
9.580493 4.6003504 2.3663886
9.3089523 5.1949077 2.7391095
9.6352444 4.8521776 2.7333586
7.8785849 9.505147 2.261987
9.0814867 5.8967352 2.4621487
8.4681644 8.0017118 2.0752025
9.849143 4.5862799 2.7329192
9.2020931 6.2655582 2.0080581
9.8832483 4.1278872 2.8624594
8.6906834 6.8916917 2.0655236
9.4177485 4.9395714 2.4467862
8.560626 8.0011625 2.6552808
8.9372387 6.2856445 2.7828679
8.7003508 6.8088193 2.5623031
8.4510403 7.5920463 2.3628278
8.9664516 6.8766851 2.102252
7.6123343 10.218083 2.4472551
9.6611023 4.8978157 2.1666129
8.7168312 7.4324899 2.6740868
9.9393167 3.6770988 2.17219
8.3144741 8.3173237 2.1450551
8.5310297 8.0611544 2.660193
9.2716436 5.4042974 2.1613228
9.3307781 5.8720307 2.5563164
7.5029464 10.087737 2.2711768
9.3740044 5.093574 2.6605816
8.4690266 7.9994869 2.4590843
8.6884127 7.3972893 2.3553479
8.6842365 6.8808613 2.8537016
9.5666771 5.4571428 2.073514
9.0675325 6.5004468 2.0534391
10.262768 3.4088621 2.6544747
9.1322641 6.481554 2.3321564
9.6857834 4.299541 2.1663928
9.4600935 5.395473 2.1724284
7.8515983 9.0924816 2.7647922
8.4504032 7.8223729 2.7706838
10.165148 3.7072582 2.1477675
9.5950909 5.1798382 2.7467394
8.7060823 7.2706547 2.0533249
10.371509 2.9905951 2.6397352
8.5111275 7.8185053 2.4398577
9.7494822 4.188405 2.3630023
9.2407999 6.1774869 2.0686314
10.076807 3.2963159 2.2731249
8.6788855 7.3954372 2.2610319
8.8714533 6.7914133 2.5673594
8.4785051 7.5030255 2.1399944
9.0899963 6.4904847 2.6449475
10.115694 3.0387719 2.4318659
10.270704 3.3064406 2.3631406
8.0470285 9.3553982 2.7482505
9.6094322 5.0847387 2.637732
7.7488966 9.5000143 2.5435047
9.1583357 5.692349 2.2682607
10.171841 3.6029625 2.5440042
9.60221 5.1051698 2.545536
9.5398159 5.281888 2.3707738
8.6688995 7.4927669 2.4552438
7.9943032 9.1277666 2.8733642
9.9075947 3.7084916 2.1642056
9.406497 5.0050783 2.2544153
9.2442226 5.4908729 2.4561722
10.155301 3.0013287 2.85287
9.8131447 3.8263917 2.3546565
9.3860025 5.1016598 2.3580942
9.7966003 4.955934 2.2267344
9.6374941 5.0950818 2.538028
8.9448195 6.2819967 2.6451776
9.1727171 6.2916174 2.1661575
9.8336811 4.5755377 2.3821099
9.5455112 5.2990165 2.2566953
9.3453636 5.7873645 2.4563038
10.141365 3.7797427 2.3724041
10.099391 3.6966734 2.3567998
8.5052443 7.3216968 2.4783001
7.5622039 10.58829 2.1553388
7.413691 10.684991 2.4849877
10.076303 3.7084792 2.2551479
9.5629902 5.063879 2.8296044
9.8865194 4.0815616 1.884195
10.171082 3.508317 2.04233
10.347054 3.1912029 2.2772865
10.112976 2.9816957 2.5833149
10.174121 3.5073283 2.4378123
8.45889 8.1067238 2.3727646
9.2985849 5.3051496 2.3616199
8.7340126 6.8819866 2.4645822
9.1849823 5.6023245 2.5595174
10.316085 3.2508919 2.6652348
9.7105808 4.1220541 2.5646286
7.484642 10.02547 2.9461961
9.4890022 5.1662965 1.9330734
7.7556233 9.3835306 2.7513514
7.8095551 9.1945381 2.5527227
8.770957 6.6074481 2.9563293
8.0788279 8.5062408 2.6574891
8.9437017 6.1923151 2.936981
9.6555958 4.3171167 2.9611082
10.143847 3.6904383 2.4645598
8.0732651 9.098794 2.4540734
10.098421 3.2039666 2.3621988
7.9800162 8.793726 2.6597364
9.5240974 4.6051874 3.0192349
7.6118665 9.7303314 2.3625109
7.8913589 9.0070295 2.6521955
8.5396214 7.3740177 2.7777946
9.2845383 5.3960481 2.2631705
9.8946772 4.0952363 2.1871853
9.2632828 5.992487 2.3644969
9.7807388 4.2076092 1.4219998
9.0006809 6.1051931 2.3688223
9.4811058 5.2096577 2.1623304
9.4688931 5.1909461 2.3528557
8.8605537 6.494926 2.3643982
8.8700247 6.4883633 2.1606843
9.1410685 5.6912737 2.847765
7.5138674 10.013577 2.3792279
9.3466311 5.2854156 2.6511898
9.1017952 5.7997909 2.4660864
9.3581553 5.0982027 2.8470893
7.5531721 9.8987274 2.6795933
7.7562027 9.4862013 2.6549542
7.872417 9.104578 2.2615581
9.18962 5.4967403 2.9305789
7.6462617 10.287073 2.4506819
10.346503 3.2817507 2.3458316
9.0366659 6.7669401 2.1482129
8.696167 6.7926221 2.8751988
8.6769466 6.983942 2.1613433
9.4823294 5.4863667 2.1590226
10.325218 3.2618237 2.482913
7.9421916 8.9915743 2.6414587
9.1903515 6.0974536 2.4592006
8.9655476 6.1956725 2.5544727
10.06353 3.2963483 2.5553107
9.5088463 4.7085123 2.2591999
9.4992046 5.2276325 2.0815582
7.6996512 9.5200872 2.4645517
8.6642132 7.4964414 2.5473831
9.1303749 6.4616289 2.686512
9.1860752 5.491323 2.8453732
9.2038441 5.5041571 2.6489458
9.2537327 5.3862362 2.84673
9.5001297 5.1980505 2.2564275
7.3881025 10.317098 2.3719993
9.4423685 5.4815488 2.271281
8.4829378 7.4918799 2.3682816
8.962081 6.1923947 2.6564538
9.5665932 4.5850554 2.9367371
8.8357735 6.4959326 2.8269436
9.338294 5.2862597 2.2719307
9.8670902 4.3953853 2.4641993
9.4680099 4.89219 2.4624484
7.7875357 9.5595255 2.6491537
9.3961401 5.5036058 2.4507642
9.6150122 4.4298773 2.2167788
8.0338173 9.3858242 2.2489858
9.7200212 4.5308599 1.8567758
8.8543453 6.48873 2.6529083
8.2272129 8.252779 2.651449
8.2467251 8.1613035 2.5532334
9.482296 5.4677272 1.9642705
8.6113453 6.9231238 1.9312984
9.0552368 6.8577518 2.1227901
9.2628746 5.396019 2.6628799
9.8914242 3.6955688 2.6566405
9.5992222 4.5015221 2.1656623
7.3571596 10.48732 2.2330725
8.0471716 8.7893887 2.5627828
9.0912638 5.7990932 2.6587834
9.582674 4.5971413 2.268975
8.0522366 9.3780069 2.0951023
10.168388 3.3033078 2.2045031
9.6605434 4.3967199 2.2660029
7.5730906 10.399204 2.4440873
7.9044089 8.9295959 2.5934758
8.0443964 8.607996 2.7550483
8.1416922 8.4604483 2.6561127
8.228816 8.1853285 2.6592956
9.7470627 4.1677551 2.8488007
8.0398178 8.6899633 2.7445912
9.8731098 3.7990916 2.550612
8.079339 8.4933529 2.742491
10.126273 3.1064265 2.9499996
8.2682476 8.5992727 2.3635232
10.192945 3.5051463 2.2725224
9.7499275 4.7004523 2.2651908
9.0798397 5.7999821 2.8386099
8.3416891 7.8881822 2.3622444
7.9599185 8.8894215 2.4553692
10.077975 3.3009393 2.3595312
7.4455957 10.277074 2.2707293
7.4807677 10.093009 2.670821
8.2522125 8.0934916 2.5532939
8.404541 7.619904 2.6686764
8.4933767 7.3974042 2.7679129
7.6014552 9.8140669 2.2846501
9.9541922 3.4731371 2.9685838
8.6437111 7.0943112 2.263067
8.2467451 8.8661919 2.2747767
9.0652609 6.4889026 2.4695241
8.5034208 7.4044743 2.3719878
9.1589527 6.1937284 2.2610343
9.2804317 5.3931866 2.0782316
7.469214 10.107425 2.7437508
8.4503965 8.1899281 2.2598674
9.4324818 5.1644421 2.6258538
9.4529362 5.4945979 2.3795071
7.7441721 9.4984388 2.4651639
8.2859764 8.0015516 2.4619386
9.3962564 5.5013866 2.2505782
8.5621567 7.7987127 2.2700689
9.3798838 5.095417 2.562923
7.7426629 9.4870129 2.3753419
9.4603186 5.4999723 2.5428123
9.0583067 5.8126111 2.9640574
7.3142409 10.580791 2.4037721
7.9694695 8.7908907 2.7556012
7.649024 9.7953043 2.2791545
8.2489052 8.0867529 2.6568737
9.6936474 4.3016691 2.2605164
10.069556 3.890238 2.0753508
9.5796652 4.9983087 2.459533
7.5552144 9.9003563 2.8606353
8.4958401 7.3909407 2.1690414
9.4701738 5.4807825 2.4574769
7.8570709 9.2809772 2.3613124
8.8422184 6.486434 2.7607591
8.5881519 7.4938054 2.0805409
10.036468 3.4811301 2.3636115
7.9520407 9.4980145 2.263202
7.6514115 9.7714748 2.7448864
7.9718618 9.0876818 2.461925
9.1842566 6.1976848 2.3566673
7.645813 9.7714863 2.5557547
7.6512218 9.7110901 2.1631336
10.134657 3.7706296 2.4551086
8.0671244 8.8024769 2.4416304
8.0706367 8.8050337 2.0621758
9.4658403 4.8993979 2.3660665
10.230488 3.4868708 2.376895
8.6416016 7.1739845 2.5453794
9.1761427 5.8938422 2.2539234
9.4928503 4.8005199 2.4631815
9.3430452 5.9811478 2.07617
8.3338175 8.5956593 2.0682552
10.370521 2.9860084 2.0860331
9.8545446 4.3943248 2.3596931
7.572937 9.8882751 2.3597007
7.746552 9.5138845 2.1482036
7.8472185 9.2857647 2.4673007
7.8898044 8.9911556 2.0771456
7.9390306 8.9940681 2.4567218
7.9617839 8.9091177 2.0692222
7.4416084 10.407856 2.5348716
8.7543974 6.6883955 2.8537884
9.547245 4.9115343 2.5743167
8.3474789 8.5860586 2.0093408
9.4372759 5.6160016 2.8386755
7.8083153 9.2227745 2.4596601
7.630022 9.7811413 2.4574344
7.6654067 9.6945009 2.2672322
7.6838789 9.5977421 2.4613364
7.7526932 9.568264 2.4578457
7.7617869 9.4068975 2.4667139
7.7697115 9.3975172 2.2690225
7.7686434 9.3877678 2.1645174
7.8453832 9.1895161 2.456943
7.873426 9.094182 2.1742058
7.9573278 8.9929371 2.1757753
9.1903305 5.6028848 2.365129
8.2581339 8.0916834 2.4609506
10.006294 3.3279548 2.4367266
8.6757374 7.2884808 2.5451553
7.9736905 8.804348 2.5523398
9.3139029 5.2320261 2.0990412
7.6812148 9.595048 2.3741331
7.7712746 9.3959751 2.3709245
7.8488441 9.1918106 2.3730986
7.897676 9.0150728 2.3598361
9.4466934 5.6788263 2.1298926
7.965035 8.8869438 2.2725675
8.0431166 8.6829824 2.4610999
8.1001816 8.5827808 2.0691535
9.0810261 5.8984547 2.3711257
8.848587 7.1941381 2.2617702
7.634522 9.7980747 2.6647367
8.9494648 6.287293 2.5626595
8.0037861 8.7051516 2.3549726
9.3525848 5.3055654 2.0857871
8.0763798 9.0069008 2.4465749
8.5877609 7.2027431 2.1660402
9.7081442 4.1089463 2.8449273
8.5392847 7.3808203 2.3716373
8.4785786 7.5039883 2.0869493
9.1519346 5.8953676 2.1660333
9.2744589 5.9940271 2.160507
9.8831587 3.7909431 2.1591151
8.0056267 8.7131062 2.4565151
7.7571011 9.3865356 2.5507951
7.9549389 8.8839273 2.5558808
8.0888433 8.5072088 2.4561739
10.047675 3.2924969 2.8556752
9.0332375 6.6836448 2.2485094
8.4531288 8.0929632 2.4494667
10.05505 3.287112 2.9598887
10.150524 3.0874255 2.2752371
8.8493834 7.1901011 2.4591129
8.9537563 6.8688574 2.2387009
8.0651093 8.7990808 2.359129
9.9909716 3.4906986 2.1687632
9.7424545 4.468462 1.4261981
8.1641426 8.2992811 2.6616852
9.8696442 3.7915843 2.8596995
9.5079041 4.7072592 2.7468925
7.9548755 8.8967838 2.3681614
9.0456095 5.9873352 2.6542232
7.9379711 8.9779377 2.0715201
8.5381956 7.3849201 2.1487505
8.499856 7.40411 2.5625401
9.0938749 5.8077769 2.5586481
8.5562363 7.290482 2.1723192
7.8888521 9.11444 2.0747283
7.5005884 10.014012 2.6579111
8.066165 8.5960417 2.2520916
9.9626818 4.1912241 2.1555529
8.502696 7.2907724 2.8642402
9.1963778 5.5969462 2.2693853
8.4537439 7.5768089 2.1596806
8.6707935 6.9963603 2.3708792
8.3685484 7.7935085 2.2654214
8.8761883 6.8022642 2.4648085
8.0079803 8.7112207 2.2570486
9.4420891 5.8700485 2.0318122
7.9890299 9.1020355 2.0766859
8.0459175 8.6916389 2.187716
8.0628662 8.5985661 2.4697137
9.8902903 4.2060771 2.3561392
7.8556795 9.3825798 2.4569943
9.4550285 4.8908582 2.6619825
7.7846379 9.3012819 2.6679251
7.9034548 8.9368362 2.3777041
7.3449078 10.458722 2.745528
8.003499 8.7090912 2.6521707
8.3657026 7.8031073 2.3679247
8.3943396 7.703198 2.4564753
8.5680914 7.2911096 2.266762
8.5833244 7.1796017 2.0840504
9.2598524 6.0909138 2.6606445
9.5458183 4.6907549 2.1647427
9.3896847 5.0962524 2.2609644
7.9983888 8.7192802 2.1729856
8.095252 8.502696 2.3668869
8.8045473 6.525898 2.3761041
8.1918917 8.6874361 2.5310166
9.9558191 4.2054482 2.4504972
9.1100578 5.7353315 2.5624714
8.8445053 6.5865207 2.2640083
8.0580797 9.2890854 2.1476691
7.4426184 10.190698 2.6748261
9.543663 4.7736011 2.15908
8.0011034 8.6950035 2.7569168
9.0588503 5.8973627 2.7532697
8.8693104 6.3874454 2.8500688
7.4871731 10.097785 2.3747838
8.9802704 6.1905231 2.0739584
8.5427408 7.2883892 2.7603271
9.5921888 4.4889455 2.8525226
9.2059746 5.5152102 2.4592643
7.6455183 9.7833652 2.370611
9.4606066 5.1835003 2.4532425
7.5036616 9.9860096 2.7720616
7.4607964 10.213037 2.2772064
9.8449936 4.6876659 2.0769196
8.4006443 7.70048 2.1631188
9.6087666 4.4228754 2.4636288
8.9629126 6.9650736 2.0695817
8.7998285 6.6036739 2.0691884
8.8355255 6.5619602 2.7258794
9.769186 4.0948153 2.17115
9.0529585 5.9939957 2.1797497
9.9792957 3.5882366 2.0715063
9.1461267 6.0559101 2.7257974
8.9427347 6.375536 2.6613181
8.8573542 6.496892 2.0643003
10.166109 3.5028548 2.165791
8.410181 7.6124711 2.5449672
7.6398377 10.293507 2.3642416
7.6425347 9.7017632 2.5629702
8.2604275 8.2800026 2.5753257
9.996851 3.4337955 2.2532406
9.5319538 4.6916533 2.9462895
8.7156162 6.8165374 2.3900208
9.4905396 4.7119856 2.8659506
10.241113 2.8863056 2.467407
7.4745121 10.096777 2.5559268
7.5549536 10.392848 2.5409195
7.660285 9.593421 2.6518795
8.1481619 8.3868284 2.3631094
9.7941532 3.9205785 2.9560449
9.3800812 5.4037843 2.2633834
7.9477925 9.406641 2.2629614
8.8710346 6.3872585 2.9437087
8.7579479 6.7001157 2.7593462
8.848115 7.1984615 2.160044
8.1064959 8.3958855 2.756824
7.5482025 10.590351 2.049366
9.6441135 4.8993368 1.9765258
8.4162951 7.5332756 2.3292181
8.6599503 7.6918874 2.1503496
8.2352324 8.1679287 2.2693815
9.5800686 4.6155043 2.055584
9.2381325 6.1868072 2.1623964
8.7497034 6.7957177 2.5568833
8.94417 6.9915738 2.1645126
10.113262 3.6052871 2.191947
9.4813194 4.8217487 2.9513612
8.7905941 7.0131292 2.3588426
9.0484781 5.901473 2.8453293
8.1900015 8.2021608 2.5667036
8.9310274 6.992146 2.4532173
10.067106 3.1826835 2.9411256
10.245058 2.9811406 2.4723015
9.6561651 4.8930955 2.2614281
10.051364 3.9707026 2.2665484
9.5341616 4.7854829 2.3578074
8.7472095 6.7860436 2.6503243
8.2561092 8.5921049 2.0637667
8.9468279 6.9858999 2.5884414
8.9302721 6.9879179 2.2509899
7.7914882 9.3111563 2.0785122
9.5941782 4.5005713 2.5565674
9.4138288 4.9311376 2.5731497
8.4015646 8.2843037 2.6460798
9.4067364 5.0144963 2.3668079
8.5546989 7.2961068 2.4565415
9.3019838 5.2044406 2.8806674
9.4136753 4.9143505 2.6668916
9.070693 5.8937058 2.6622419
9.3426142 5.2655587 2.9107535
9.030756 6.0726237 2.6489325
7.8142653 9.2027903 2.2480388
8.3999939 7.7067647 2.3648582
8.4404879 7.6808963 2.2666194
8.0636396 9.0959549 2.3607895
8.7147655 6.7260151 2.7919505
8.8777332 6.3950815 2.7558596
8.9647875 6.0910864 2.9197679
8.9836969 6.0875683 2.8611131
9.0066128 6.0000887 2.7573977
9.0137959 5.9215298 2.8894889
7.6708279 9.6018553 2.5615242
9.909626 3.5253253 2.7804325
9.1643047 5.6921487 2.1580713
7.5932951 9.8047676 2.1685932
8.917079 6.2057991 2.9280632
9.6927118 4.1963725 2.8510053
9.7795877 4.5940995 2.2613165
8.3418455 7.8936052 2.4732928
8.8628359 7.0072627 2.359679
8.7957983 6.6104169 2.5582922
9.5562487 5.1992335 2.2505145
8.0401497 8.6941252 2.3620155
8.3262682 8.5793142 2.3737779
8.5447006 7.2890673 2.643079
8.5833683 7.117126 2.7574463
8.1374788 8.5583506 2.7457705
8.887435 6.4003854 2.4660521
10.187375 2.9031179 2.9413643
8.049387 9.1880751 2.5488882
8.9620876 6.6834517 2.1525254
9.8818254 4.2109561 2.2789507
7.8674145 9.1895027 2.0956774
8.1650362 8.9968195 2.1535723
