# .PCD v0.7 - Point Cloud Data file format
VERSION 0.7
FIELDS x y z
SIZE 4 4 4
TYPE F F F
COUNT 1 1 1
WIDTH 522
HEIGHT 1
VIEWPOINT 0 0 0 1 0 0 0
POINTS 522
DATA ascii
45.820068 28.160116 1.6685462
45.50663 29.136263 1.8143176
45.790543 28.324102 1.7812947
46.365841 26.926136 2.4595058
46.519581 26.594778 2.3525791
45.59552 28.897135 1.8747725
45.600754 29.011837 2.0696898
45.605038 28.897568 1.6838576
46.496346 26.607872 1.8841406
45.502396 29.226398 1.8752837
46.41872 26.732241 1.9020877
45.497364 29.171747 1.7584339
46.497746 26.592726 1.9696063
46.308006 27.009125 1.8634691
46.420029 26.718418 1.9256852
46.459709 26.678232 1.8714761
46.199345 27.309671 1.8539246
46.137199 27.496805 1.8804604
46.297855 27.100775 2.1636515
46.379559 26.919563 2.3739288
46.19632 27.398487 2.2400424
46.30069 27.100733 2.2518477
46.285149 27.110477 1.9622815
46.208042 27.316074 2.1554422
46.079075 27.711519 2.4695063
46.388996 26.897751 2.2577374
46.108269 27.602602 2.2530344
46.301079 27.110271 1.8829025
46.103901 27.612431 2.1624241
46.191746 27.400099 2.1621523
45.990116 27.90444 1.9703777
45.888527 28.368963 2.7416272
45.933235 28.214931 2.7369692
45.885601 28.197775 2.1609755
45.846535 28.493942 2.5528226
46.456406 26.918488 2.0009873
46.551655 26.754517 2.6177068
46.426136 27.078955 2.4556279
46.522461 26.887356 2.6661313
46.230892 27.650108 2.3947079
46.331802 27.363497 2.6510179
46.228447 27.64867 2.5141771
46.227203 27.572424 2.1742678
46.02533 28.152172 2.1769812
46.332863 27.351374 2.5050077
46.424717 27.087101 2.1703753
46.333988 27.280775 2.1812649
46.240311 27.555454 2.0977435
46.2314 27.585907 2.2709026
46.128262 27.891563 2.2851431
46.047565 28.095753 2.1786597
46.523663 26.854973 2.3199351
46.437183 27.065187 2.2927508
46.334377 27.375631 2.4109995
46.330475 27.394075 2.5538793
46.229065 27.659206 2.4699173
46.136856 27.891872 2.4016752
46.023445 28.177963 2.2769194
46.422691 27.079964 2.339268
46.227989 27.60391 2.3650775
46.542229 26.779408 2.2740471
46.133556 27.87495 2.4521651
45.929756 28.396896 2.2527869
45.822517 28.610622 2.0438211
46.431644 27.068352 2.5610206
46.123661 27.866785 2.5873625
45.932907 28.365122 2.4749358
46.526974 26.767788 2.0662165
46.02932 28.083149 2.6880188
46.06554 27.974123 2.8162539
46.355339 27.277493 2.7598338
45.999294 28.120655 2.725703
45.651089 29.076672 2.047358
46.06543 27.978695 2.6470985
45.931316 28.381271 2.5937538
45.925537 28.384993 2.3454018
46.246075 27.580509 2.4589832
45.969521 28.186529 2.6548848
46.534344 26.785969 2.4581511
45.635357 29.062475 1.9947898
45.986988 28.016363 2.4543626
45.678017 28.884623 2.0815413
46.200108 27.490128 2.7464857
46.106197 27.793592 2.6451483
45.894733 28.201088 2.2628884
45.748222 28.583529 1.9677432
46.289665 27.196909 2.3560793
46.087132 27.875414 2.7406871
46.184345 27.493923 2.5356669
46.129196 27.763136 2.7893932
46.555809 26.761353 2.8359976
46.434952 27.065519 2.7521744
46.269844 27.467058 2.7517984
46.24691 27.57029 2.6771698
46.256176 27.419157 2.7533941
46.080406 27.893257 2.6379504
45.937439 28.29958 2.1793044
46.255795 27.481867 2.8213794
46.142124 27.789495 2.3606441
45.96751 28.195835 2.5503826
45.945808 28.28882 2.4644284
45.836365 28.573931 2.2620459
46.447636 26.964756 2.0710163
46.340443 27.283009 2.4572012
46.1534 27.486229 1.970404
46.087753 27.709297 2.2545788
46.45356 26.777409 1.9620138
45.647884 28.979923 1.9689603
45.668056 28.991304 2.1632199
46.27198 27.37294 2.8146236
46.089607 27.811827 2.4577715
45.97731 28.096399 2.5641952
45.650925 28.982592 2.0843425
46.540451 26.678591 2.0745394
46.088333 27.806183 2.555624
46.524841 26.777269 2.5565977
46.535065 26.774736 2.1681826
46.049873 27.99157 2.2683065
46.490707 26.786806 2.7277327
46.449303 26.988731 2.6638858
46.069908 27.79808 2.2574387
46.191376 27.603605 2.7565889
46.156448 27.710594 2.7485645
45.935501 28.289652 2.5526066
45.852333 28.474321 2.4583771
45.841228 28.572058 2.4685249
45.8335 28.581274 2.1684752
46.546143 26.697592 2.4519153
45.937935 28.290215 2.3627143
45.851276 28.488382 2.361197
46.397346 27.016638 2.574275
46.15691 27.698072 2.368149
46.473118 26.691635 2.2589948
46.235699 27.489016 2.2737072
46.154099 27.597466 2.0651112
46.041698 27.8762 1.9705477
46.45628 26.884209 2.0757611
46.359451 26.986927 1.9713728
46.31879 27.250441 2.7946398
46.1926 27.493013 2.3650756
46.189903 27.593384 2.6651752
45.949333 28.20174 2.1702688
46.190693 27.513523 2.4509876
46.170074 27.687973 2.5542414
46.53857 26.774416 2.3460739
46.557533 26.788425 2.7604983
46.33353 27.273129 2.2594435
46.336563 27.285648 2.3629849
46.24007 27.577477 2.5515244
46.148148 27.683685 2.1861091
46.143951 27.780512 2.5317645
46.072021 27.898739 2.3587108
46.550583 26.685196 2.1623414
46.489578 26.801136 2.3631279
46.441124 26.994257 2.1682451
46.557102 26.690533 2.2763698
46.436436 26.989044 2.2706325
46.255169 27.391535 2.1702754
46.239193 27.483925 2.1802073
46.144241 27.685774 2.0501528
46.054333 27.992899 2.1614838
46.459015 26.98464 2.7595289
46.441139 26.987585 2.3618491
46.269825 27.403625 2.4586561
46.150291 27.580343 2.164072
46.136803 27.777176 2.1815045
46.054974 27.888309 2.2611871
45.981812 28.101416 2.4577513
45.950428 28.083277 2.0640962
46.547802 26.678587 2.6526992
45.885204 28.310049 2.4557111
45.849644 28.489796 2.2606056
46.494938 26.782841 2.6757524
46.355385 27.193317 2.56005
46.283939 27.396339 2.5425589
46.148056 27.787104 2.4494193
46.047462 27.989538 2.3577561
45.975353 28.094889 2.3556206
45.957626 28.188177 2.3576138
46.509838 26.734329 2.3814662
46.487164 26.702541 2.4556806
46.49749 26.836372 2.8412204
46.387726 26.991165 2.7812862
46.389019 27.016663 2.3648107
46.291801 27.303293 2.6581604
46.29298 27.398418 2.6615419
46.237633 27.504604 2.6484091
46.272564 27.297871 2.2633665
46.175495 27.501595 2.2534769
46.516453 26.786861 2.968785
46.439774 26.984207 2.4596071
46.390045 27.113649 2.6527672
46.245121 27.489349 2.3599529
46.189583 27.598364 2.5619309
46.143097 27.783386 2.6449022
46.139599 27.781124 2.277792
46.074581 27.898754 2.459147
46.51329 26.71833 2.6733201
46.467201 26.895498 2.1640403
46.350975 27.201143 2.3701789
46.468914 26.898113 2.3622639
46.443947 26.989464 2.5516171
46.38324 27.086769 2.7584143
46.349602 27.187193 2.266335
46.260948 27.386765 2.264219
46.246941 27.490826 2.4577534
46.175301 27.600124 2.3665781
46.543972 26.708263 2.743865
46.391418 27.091866 2.4567189
46.341267 27.276161 2.6567304
46.546921 26.695496 2.3617551
46.501373 26.793535 2.5582106
46.411518 27.015263 2.6530836
46.54871 26.686186 2.5488129
46.459492 26.903597 2.2746067
46.37365 27.19495 2.6571124
46.277012 27.197811 2.1559763
46.516491 26.721457 2.5306993
46.475864 26.786987 2.255913
46.262451 27.290678 2.1624727
46.06498 27.798475 2.1740601
46.075382 27.890495 2.5507798
46.04734 27.893051 2.1659136
46.050945 27.984503 2.5565467
46.030388 27.998363 2.1002336
46.167122 27.591373 2.2640343
46.172703 27.664974 2.659584
46.156815 27.678831 2.2632663
46.412701 26.988113 2.9091077
46.386948 27.089758 2.5794713
46.334854 27.298847 2.9421797
46.287743 27.305157 2.4570937
46.40284 27.01543 2.4526243
46.359642 27.190691 2.4435124
46.441891 27.00428 2.848331
46.390064 27.178822 2.8350823
46.344193 27.292028 2.5705371
46.302361 27.307325 2.5569084
46.2542 27.498304 2.5666809
46.443535 26.98838 2.9610267
46.498413 26.800331 2.4601705
46.371681 27.195974 2.7371783
46.041828 28.086287 2.3748035
46.159184 27.702988 2.4514513
46.181087 27.59993 2.4545958
46.368488 27.092335 2.2639296
46.283344 27.296539 2.3580902
45.871265 28.385368 2.4590423
46.085449 27.703062 2.351979
46.366657 26.994131 2.271045
45.750431 28.596766 2.0642729
45.900711 28.211969 2.4373889
45.833988 28.5853 2.3715684
46.344883 27.189289 2.0962687
46.354012 27.191059 2.1794212
46.25066 27.283173 1.9603798
46.385502 26.899006 1.9667174
45.848206 28.482813 2.090286
45.942604 28.291882 2.2589879
45.99242 27.999851 2.5647171
45.772461 28.595112 2.2560749
45.795334 28.590973 2.6621163
46.205025 27.403435 2.3656693
46.266056 27.390211 2.3505259
45.784988 28.493511 2.2578859
45.704498 28.588985 1.7422205
46.159752 27.494299 2.0710652
46.535164 26.585739 1.9944932
46.360771 27.090466 2.1592133
46.220463 27.404661 1.9984612
46.333954 27.205406 1.9894838
46.266216 27.198633 2.0671833
45.991573 27.897234 2.0586877
45.774475 28.595982 2.3666279
46.153542 27.775316 2.0812469
46.249516 27.388998 2.0567286
46.342819 27.257441 2.0586858
45.865246 28.397808 2.2600856
45.836891 28.380962 1.9562889
45.776867 28.502258 2.1631448
45.800064 28.40457 2.2528045
45.795441 28.498158 2.356833
46.236198 27.456991 2.0637758
45.807232 28.409729 2.3409631
45.848885 28.387541 2.0648963
45.995758 27.90469 2.1621947
45.731251 28.6681 1.9835373
45.63744 28.738014 1.704761
45.523228 28.815281 1.693591
45.886204 28.299213 2.360858
45.726429 28.402655 1.3616167
45.785976 28.356155 1.4839395
45.951702 28.185907 2.0643425
45.695736 28.342728 1.3104496
46.188709 27.221897 1.857082
45.667023 28.888527 1.7702039
46.344696 27.219368 1.8642136
45.926708 28.255154 1.851217
45.875023 28.372066 1.8478731
46.292843 27.279591 1.3957047
45.966896 27.995838 2.1611555
46.185257 27.398033 2.0651629
46.147636 27.423298 1.6620283
45.955322 28.084612 1.8651775
45.979214 28.105324 1.6305474
46.294018 27.183695 2.4302726
46.268974 27.227732 2.6655784
46.228325 27.274439 1.5514238
46.296638 27.213303 2.5444179
46.284729 27.099566 1.7761257
45.938389 28.183987 1.9612749
45.957088 28.193491 2.2668514
45.756241 28.368879 1.2806244
46.484715 26.609734 1.7769201
45.553558 29.102013 1.7664204
45.960831 28.075186 1.4870242
46.206001 27.297974 1.9534469
46.042767 28.076942 2.2626226
46.039001 28.071592 2.4556255
45.95266 28.089905 2.1685746
45.962933 27.991611 2.0629287
46.209293 27.271328 1.6978251
46.198376 27.309498 2.0731251
46.168915 27.328388 1.7683616
45.970341 28.096939 2.2664018
46.16301 27.308928 1.3971916
45.977173 27.898262 1.6841607
45.621246 29.075426 1.8574623
45.963047 28.193737 2.4477248
46.270519 27.214447 1.7039132
46.252453 27.396652 1.8760155
46.502781 26.515223 2.1621799
45.965321 27.994421 1.9697863
45.583103 28.803818 1.747576
46.016087 27.964931 1.5100719
45.987358 28.006516 1.5276644
46.078152 27.800467 2.3560252
45.858212 28.28644 1.765298
46.281067 27.207727 2.2613828
46.260071 27.322117 1.8596135
46.194736 27.406162 2.4543471
46.05777 28.054367 2.7631264
45.988411 28.002743 2.3568661
46.177761 27.389429 1.752651
46.252563 27.290604 2.0734048
45.850353 28.293081 2.0713937
45.659683 28.878151 1.8678614
46.028267 28.083664 2.56356
46.491226 26.598225 2.0653369
45.572231 28.807182 1.9799951
46.010796 27.509626 1.6886325
46.257637 27.297441 1.784381
45.67485 28.373781 1.9589278
45.578102 29.105141 2.0710919
45.56319 29.097898 1.9675932
45.956383 28.08065 1.5705626
45.964951 28.014534 1.7538762
45.982872 28.003166 1.7006719
45.465229 28.876152 1.7587214
45.912617 27.973221 1.7863324
45.901508 28.200035 2.3491611
46.116528 27.381304 1.7915683
46.469112 26.700138 2.0642316
46.182499 27.387327 1.967206
46.443493 27.089676 2.6594641
46.374687 27.096624 2.356319
46.153625 27.466522 1.7006631
46.21682 27.200432 2.0377955
45.427197 28.864586 1.8231207
45.76527 28.506432 1.8783584
45.64439 28.627043 1.5915061
45.772728 28.497759 1.965645
45.626545 29.145927 1.8101696
45.767883 28.497801 2.0546343
46.125393 27.94598 2.3793223
45.814499 28.392693 1.5514429
46.177418 27.411636 1.3183016
46.111443 27.488819 1.8840227
46.052753 27.993505 2.455241
45.855259 28.29875 1.8689077
45.702259 28.6063 1.8775949
46.234722 27.294847 1.500879
46.117924 27.458509 1.6409388
46.042675 27.887062 2.0930731
46.058586 27.897177 1.7985252
46.360523 26.994158 2.1562774
45.783157 28.172764 1.3391826
45.577007 29.004875 1.7580172
45.698524 28.468164 1.348227
46.175461 27.38921 1.8738331
45.904972 28.108156 2.0624917
46.337696 27.066744 1.975767
45.79501 28.304779 1.6731014
45.746925 28.601723 1.7635132
45.717472 28.55887 1.367986
45.657791 28.521397 1.595142
46.350166 27.081953 2.0539875
45.902176 28.08285 1.7622869
45.873234 28.319124 1.5405723
46.047573 27.782171 1.9687798
46.040646 27.795389 1.8717556
45.998745 27.816875 1.8642961
46.098595 27.597431 2.0637107
45.756901 28.566463 1.6569886
45.796612 28.409019 1.8766046
45.679218 28.785946 1.5597572
45.66935 28.506893 1.8701383
46.377975 26.892271 1.8615724
45.579365 28.995728 1.8681772
46.299389 27.098391 1.5638063
45.909222 28.025892 1.7092882
46.084999 27.598312 1.7332903
46.358353 26.986565 1.8719047
45.644489 28.810402 1.7748643
46.362431 26.921024 1.7510673
46.141739 27.469543 1.7695616
45.968903 27.997185 1.8609473
45.772026 28.406231 1.7903612
46.462654 26.689217 1.9555264
46.397038 26.806206 1.8522481
45.628242 28.966963 1.7787392
45.659397 28.787956 1.9709277
45.582405 29.004917 1.9692376
45.792469 28.304443 1.8468493
46.062885 27.892872 1.8495078
45.776539 28.493971 1.7510756
45.459518 29.299706 1.8568835
46.080765 27.695883 2.1639471
45.800053 28.400967 2.1514962
45.703125 28.606035 2.147696
46.382141 26.900377 2.1546919
46.096207 27.59934 1.953851
46.403954 26.792963 1.9749074
45.535793 29.18869 1.9588602
45.690697 28.704571 1.9558383
46.489094 26.902813 2.7572932
45.876083 28.185686 1.9500221
46.350826 27.085415 1.8803107
46.470718 26.894901 2.4649172
46.467472 26.896378 2.5558844
45.851822 28.393349 2.1606975
46.490696 26.882256 2.8617659
45.866863 28.296982 2.1550629
45.984196 28.00168 2.2581937
46.162197 27.497116 2.1607625
46.468311 26.895098 2.6613176
45.994099 27.902264 2.4552436
46.327194 27.116671 1.746266
45.998898 27.908571 2.267108
45.864815 28.394558 2.3596578
45.827065 28.483255 1.5295571
45.56163 29.079807 1.8532078
45.950977 28.081526 1.9589031
46.461723 26.786007 2.0626619
45.853054 28.48414 2.1637468
46.361832 26.996277 2.072042
45.61478 28.907219 1.94986
46.129345 27.46908 1.4655343
46.452274 26.805548 1.8685731
45.936703 28.082846 1.738688
46.376396 26.993723 1.7799804
45.872669 28.29649 2.2566729
45.875378 28.129433 1.5235555
46.190525 27.11809 1.4741215
46.023689 27.267187 1.758653
46.242039 27.182076 1.5653803
46.055588 27.976538 1.5102856
46.223839 26.771933 1.9640509
45.753799 28.672863 1.8555847
46.122952 27.679152 1.7336162
46.274776 27.180279 1.7506788
46.076988 27.691587 1.7877148
45.987553 27.899927 1.8587451
46.348011 27.146559 1.6317536
45.905933 28.114067 2.3670847
45.748371 28.684927 1.5486742
45.836514 28.409746 1.4725788
46.407391 26.925133 1.6453176
45.80545 28.520754 1.5686312
45.73716 28.206787 1.7416314
46.251549 27.446033 1.7070978
46.147507 27.587563 1.9510119
46.460991 26.884096 1.8722618
45.887951 28.410704 1.780823
46.158459 27.570145 1.8586233
46.073875 27.259544 1.8427724
45.704296 28.618256 1.9730885
45.65498 28.499767 1.7737284
45.687603 28.701061 1.8630418
46.244297 27.417896 1.768744
46.131184 27.660503 1.953092
46.29015 27.107056 2.0576158
45.743732 28.682547 2.056792
46.459572 26.792778 2.1632509
46.468262 26.698814 2.1693604
45.761002 28.591356 2.1676779
46.054161 27.789562 2.0622969
46.07373 27.692057 2.0664065
45.792145 28.410633 2.0674906
45.797127 28.397036 1.9710274
46.262394 27.194225 1.9603333
45.937729 28.287268 2.0751235
45.836826 28.6029 1.8358978
45.748775 28.596535 1.8599545
46.045906 27.966377 1.845791
46.030632 28.081516 1.7281226
45.948685 28.363153 2.1862516
46.27227 27.211699 1.8591305
45.709202 28.621723 2.0510287
46.038635 28.158476 1.88914
46.222031 27.453506 1.853091
45.767216 28.695877 1.7528255
46.135773 27.659861 1.8630433
45.658916 28.801666 1.8668776
45.840805 28.503403 1.8394227
45.830364 28.557354 1.8018919
45.69268 28.709476 1.7889589
45.831234 28.486721 1.9714549
46.090073 27.682295 1.8807641
45.725655 28.762539 1.8719296
45.99284 27.907362 2.3570535
45.661961 29.009878 1.8675122
