# .PCD v0.7 - Point Cloud Data file format
VERSION 0.7
FIELDS x y z
SIZE 4 4 4
TYPE F F F
COUNT 1 1 1
WIDTH 567
HEIGHT 1
VIEWPOINT 0 0 0 1 0 0 0
POINTS 567
DATA ascii
-4.7109995 22.764034 -0.052385338
-4.7355318 22.708225 -0.049210288
-4.855267 22.730717 -0.088351563
-4.7023787 23.14415 -1.4694347
-4.7106953 23.182356 -1.3603988
-4.9142256 23.22636 -0.081645519
-4.7471313 23.564255 -1.3448085
-4.8560772 23.587744 -1.2120731
-4.6344085 23.811119 -1.2318277
-4.7145929 23.735142 -1.2219765
-5.0032744 23.839809 -0.62949514
-4.9659758 23.803041 -0.87250489
-4.6848378 23.704584 -1.4620248
-4.628716 23.810326 -1.4537432
-5.0031924 23.996124 -0.68844455
-5.057497 24.083397 -0.6774565
-5.0937386 24.095865 -0.49609053
-5.0072904 23.774836 -0.130143
-5.0225463 23.935308 -0.78630739
-4.7807288 23.660517 -1.2189513
-4.6524544 23.848854 -1.3942523
-4.7915053 23.655581 -0.84021336
-5.0536442 23.808546 -0.28105673
-5.0362391 24.010717 -0.69222873
-4.9416122 23.881321 -0.27942032
-4.8448853 23.520128 -0.94345748
-4.9288416 23.910603 -0.13813695
-4.8384271 23.805302 -0.44948322
-4.5376105 23.024536 -0.050353967
-4.6659245 21.765814 -0.7970171
-4.5388684 22.283592 -1.2434207
-4.8724031 23.800714 -0.86267143
-4.7485633 23.293278 -1.3303145
-4.7492223 23.114716 -0.30894282
-4.8324237 23.892326 -0.14496669
-4.8791928 23.57411 -0.88302487
-4.9550352 23.917694 -0.62993538
-4.9532042 23.923754 -0.4955458
-4.6207647 23.10741 -1.4237415
-4.8915434 23.902128 -0.84562701
-4.8862047 23.848158 -0.29632956
-4.9470043 23.562317 -0.66308355
-4.9419246 23.96768 -0.045414105
-4.7086239 23.021965 -0.62485278
-4.5956297 22.697927 -0.032866374
-4.8347173 22.795645 -0.45656341
-4.8896008 23.871252 -0.41966885
-4.6984138 22.037867 -0.14034493
-4.8214674 23.197313 -0.65089715
-5.0430765 23.617069 -0.45414311
-4.6568303 22.086046 -0.82450831
-4.9041371 23.883865 -0.086877041
-5.0265398 23.496662 -0.43655729
-4.8337007 22.680826 -0.53732902
-4.5887637 22.794975 -0.023837367
-4.5380726 23.903818 -1.2179396
-4.924099 22.570147 -0.6149323
-4.6006799 22.800148 0.048303943
-4.8426394 22.886532 -0.33842331
-4.9278011 22.972054 -0.54966462
-4.6283274 22.895973 -1.2646835
-4.7694826 23.092869 -0.43569264
-4.7260051 23.400642 -0.86024231
-4.8761854 23.606689 -0.45166123
-4.7372289 23.411343 -1.3458557
-4.9241123 23.634293 -0.72573441
-4.7149158 23.065216 -0.92118788
-4.7921734 22.566462 -0.19768658
-4.5824723 21.934208 -1.575912
-4.6381845 22.400021 -1.46258
-4.8621025 23.280167 -0.083392084
-4.5625792 22.269611 -1.3048886
-4.9245658 23.190365 -0.24224536
-4.7204781 22.209187 -0.55242825
-4.678082 22.536572 -0.83411914
-4.6856818 22.534218 -0.68675286
-4.9912157 23.328104 -0.33423018
-4.9313097 23.608093 -0.54887962
-5.0137825 23.906494 -0.51976126
-5.0306368 23.999676 -0.45416442
-4.7547235 23.082935 -0.85543525
-4.8955884 23.129957 -0.55567491
-4.8242249 23.624426 -0.93466902
-4.7331786 22.025518 -0.83547682
-4.6358604 23.099253 -0.13823889
-4.7318878 22.476023 -0.33503205
-4.6344995 21.707571 -0.72450519
-4.9616003 23.375629 -0.23065317
-4.7273712 23.091406 -1.1319218
-4.9128599 23.993448 -0.4877595
-4.9770932 23.839092 -0.60919511
-4.9865103 24.086136 -0.56675315
-4.7250977 21.994505 -1.3027593
-4.535634 24.124529 -0.98415452
-4.925241 23.102055 -0.41478452
-4.7851958 23.118048 -0.561369
-4.6761684 22.049068 -1.1139059
-4.8332624 22.418219 -0.23649608
-4.7541337 23.08869 -0.61301959
-4.6588736 23.227739 -0.059245855
-4.5545526 22.045769 -1.3901166
-4.7058229 22.448225 -0.13932504
-4.8702564 23.823586 0.0031570285
-4.6276064 23.900831 -0.99000657
-4.6959891 23.811287 -0.93203908
-4.6118226 23.119701 -0.066591322
-4.6231837 23.170074 -1.1259913
-4.6942935 23.789402 -1.0388162
-4.5327649 22.891901 0.039704192
-4.7262855 22.305328 -0.066813044
-4.6347528 22.268936 0.022604618
-4.5693173 22.713568 0.0031388213
-4.7272301 21.895885 -0.5169152
-4.7354846 23.823982 -0.11756142
-4.9590878 23.501137 -0.37928343
-4.7109718 23.496468 -1.3361427
-4.5270329 22.320322 -1.4235885
-4.9354582 23.425228 -0.52000654
-4.8828573 22.468006 -0.31059697
-4.8610353 23.763283 -0.23349136
-4.6449924 23.100092 -1.0451672
-4.6655693 23.872898 -0.98115647
-4.9139633 23.668194 -0.53710645
-4.5174322 22.220266 -1.4526957
-4.9211731 22.942547 -0.26523808
-4.5870056 24.146801 -0.96499342
-4.605751 23.704317 -1.4537975
-5.0011606 23.609619 -0.35426658
-4.6416364 23.206585 -0.32187426
-4.6156521 22.301861 -0.96109319
-4.9356513 23.803158 -0.21445306
-4.7520437 22.006998 -1.018508
-4.6714797 22.37978 -1.2264379
-4.819355 22.416224 -0.62120318
-4.915894 22.88232 -0.43284231
-4.8087225 23.158627 -0.31597051
-4.8116016 22.517536 -0.65859443
-4.8650856 23.792957 -0.37405568
-4.8444996 22.607555 -0.40718082
-4.6599622 23.109177 -1.3255315
-4.8800459 23.273642 -0.13372363
-4.8616929 23.181601 -0.18555167
-4.8332729 23.587572 -0.71320677
-4.8568578 24.111408 -0.72828573
-4.6136408 23.299908 -1.1573853
-4.5749354 22.770535 -0.18796489
-4.9013166 23.362095 -0.42428139
-4.6601276 23.729742 -1.2161899
-4.5673642 21.817156 -1.5889223
-4.7282443 22.270117 -0.41404095
-4.5420761 22.821453 -0.026172016
-5.0056987 24.062439 -0.07908158
-4.7727485 23.453482 -0.94739443
-4.7374377 23.515594 -0.072057195
-4.563128 22.131119 -1.0928872
-4.9244127 22.973188 -0.33300135
-4.7656565 22.320845 -0.60158426
-4.5983715 22.081398 -0.55161595
-4.6189232 22.003609 -0.55091757
-4.9234552 22.481133 -0.42912376
-4.6302104 22.419531 -0.24417885
-4.62749 22.391399 -0.1446563
-4.4813223 22.093533 -1.5071127
-4.7479753 22.320782 -0.22591189
-5.032445 24.163513 -0.5442099
-4.7717943 21.98358 -0.92980117
-4.6178541 22.005211 -1.130842
-4.7651591 22.478714 -0.81400996
-4.5726924 22.862261 -1.119405
-4.7200384 22.325453 -0.14003542
-4.7045827 22.343206 -0.85965997
-4.5350394 23.909817 -1.1307138
-4.8231936 22.615816 -0.51733166
-4.7251453 22.489008 -0.55261177
-4.7576261 23.028105 0.025284313
-4.681201 22.318874 -1.0563664
-4.7142134 22.888922 -0.40517232
-4.9062829 22.443838 -0.72333848
-4.8226738 23.207567 -0.26100126
-4.8369198 23.396255 -0.5418455
-4.8850994 22.622904 -0.48356488
-4.7013869 22.249615 -1.1587059
-4.7436323 22.990408 -0.83305854
-4.7259102 22.56749 -0.8402006
-4.7988338 22.309643 -0.34723991
-4.9995375 23.891781 -0.27209041
-4.6967468 22.318537 -0.74315274
-4.5338898 24.170403 -0.84954977
-4.8653593 22.175247 -0.26283008
-4.719882 23.053589 -0.54613787
-4.8936014 22.592207 -0.54708141
-4.8014121 23.702049 0.054242946
-4.8545609 22.62804 -0.60206866
-4.8843479 22.786108 -0.58938062
-4.9492931 24.009848 -0.5570302
-5.0140743 24.218792 -0.63372529
-4.8419666 22.777529 -0.23635834
-4.6620941 24.024975 -1.3408173
-4.7057476 22.284092 -0.56162238
-4.7322187 22.861053 -0.08433181
-4.5211091 24.089058 -0.85897797
-4.7545166 23.10664 -1.0486617
-4.618927 22.0226 -1.3416048
-4.83392 22.298565 -0.14501725
-4.5568261 22.227909 -1.1252515
-4.9329247 23.770226 -0.53466809
-5.0222907 23.705441 -0.48329273
-4.8507156 23.70204 -0.58445579
-4.6971817 23.826023 -1.1295018
-4.8061986 22.511721 -0.52434832
-4.8676243 23.293062 -0.58237022
-4.7198334 22.382652 -0.35902163
-4.8950019 22.692984 -0.38036978
-4.7528057 23.074856 -0.073597841
-4.9346623 23.829302 -0.72870541
-4.8294277 23.464573 -0.60989654
-4.6890931 22.404995 -0.22905022
-4.7549872 23.100815 -0.24631637
-4.7040281 23.100651 -1.3167713
-4.7204933 22.289501 -0.95794171
-4.692379 22.399206 -0.96989936
-4.775775 23.538712 0.033611812
-4.8229346 22.691551 -0.23839742
-4.8340335 22.801964 -0.33610401
-4.7213869 21.879137 -0.33553725
-4.562604 21.959072 -1.4994773
-4.8783255 22.964888 -0.47753435
-4.6763983 22.407661 -1.0640075
-4.5518856 24.084461 -1.1092517
-4.7881942 23.007784 -0.75980228
-4.8358841 23.282619 -0.43742037
-4.7300143 23.493587 -1.4200369
-4.970572 23.71784 -0.65932494
-4.9046373 22.364613 -0.32922733
-4.9068651 22.415848 -0.46561879
-4.6438231 23.869917 -1.1137186
-4.7535348 23.384684 -1.1307274
-4.7382927 23.610348 -0.023719469
-4.8945746 22.273464 -0.36548507
-4.8024669 22.548353 -0.74285591
-4.7363834 22.781328 -0.10411614
-4.6614919 22.364544 -1.1522284
-4.7339334 22.087059 -0.14015569
-4.7542834 22.046944 -0.3385314
-4.5347996 22.829706 -1.2754455
-4.6824703 21.723518 -0.86012375
-4.8061647 22.469025 -0.265558
-4.8388896 22.001026 -0.231749
-4.8261938 22.120539 -0.32723063
-4.6778617 22.203112 -0.15776534
-4.5233154 22.390263 -0.14167586
-4.6799397 23.958395 -1.109825
-4.8040247 23.904202 -0.93615741
-4.8757095 23.313519 -0.35935047
-4.930315 23.503698 -0.45883939
-4.8902521 23.647896 -1.2198341
-4.9177213 23.29751 -0.54601353
-4.6421981 23.375427 -1.1714995
-4.8064356 22.41893 -0.3407045
-4.7741966 23.10235 -0.16049576
-4.7752419 22.404499 -0.72166848
-4.6817575 22.41885 -0.048154604
-4.6352201 22.38879 0.0076464238
-4.6822515 23.552582 -1.1754032
-4.5715175 24.083555 -1.3247483
-4.8210654 22.50494 -0.31791428
-4.6245646 22.621399 -0.22106682
-4.5095415 24.063593 -0.99069422
-4.7632637 22.017359 -0.24745031
-4.8806214 22.921803 -0.49269298
-4.5560074 21.944561 -1.2236152
-4.771297 22.19589 -0.19778951
-4.7605119 22.203829 -0.16391499
-4.8666224 22.017746 -0.42952392
-4.8837795 22.805901 -0.37724543
-4.6335168 21.893715 -0.89374244
-4.6562548 23.2715 -1.0213242
-4.7407842 22.093491 -0.43100929
-4.6210899 22.19202 -1.1308439
-4.5851679 22.175751 -1.3159331
-4.6401277 22.227165 -1.0016303
-4.72012 22.917225 -0.34263366
-4.9233685 22.569576 -0.38155141
-4.8238106 21.882431 -0.4184562
-4.6439056 22.212711 -0.83951664
-4.6954579 22.084061 -0.23800649
-4.8451295 22.065115 -0.89342707
-4.6179991 22.233463 -0.62585276
-4.7109747 22.593994 -0.14226674
-4.626195 22.166636 -0.048464645
-4.7785158 22.623539 -0.72449064
-4.8090444 22.100266 -0.22905757
-4.8401766 23.707054 -0.12454972
-4.6488061 22.297834 -0.83774447
-4.7377329 22.379951 0.051799066
-4.81638 23.80872 -0.10569093
-4.8407202 22.584574 -0.32512847
-4.7225075 22.391121 -0.5374527
-4.7363877 22.418806 -0.83167261
-4.7860327 22.810724 -0.53174317
-4.8446398 22.78141 -0.72406638
-4.6903896 22.685612 -0.10883112
-4.8661566 22.742867 -0.72563517
-4.8310056 23.003975 -0.64001036
-4.6314578 21.924116 -0.99846709
-4.8150578 23.735119 -0.049773004
-4.8020678 22.90797 -0.6541065
-4.8144236 22.935095 -0.84380949
-4.9633818 23.809868 -0.46275705
-4.7465076 22.695246 -0.34463891
-4.7461047 22.709295 -0.52836335
-4.8443298 22.884338 -0.4446142
-4.5269814 22.002644 -0.98948026
-4.7239075 22.721407 -0.8210119
-4.6240602 23.198011 -1.2251719
-4.8158536 23.205605 -0.84165657
-4.6156077 22.920559 -0.021675158
-4.7654886 23.378923 -0.54811209
-4.7374983 23.256893 -1.1189854
-4.7260733 23.274414 -0.99078912
-4.6174226 23.358932 -1.2596664
-4.6110573 23.368946 -1.333673
-4.7259679 23.294422 -0.8564201
-4.770679 23.227377 -1.0050901
-4.8057098 23.390141 -0.85755092
-4.8158379 23.311922 -0.22325873
-4.6082869 23.306355 -1.3721938
-4.843565 23.602707 -0.17883731
-4.8400507 23.282923 -0.14013876
-4.6250067 23.264591 -1.1958642
-4.7410398 23.664177 -0.12982813
-4.6216044 23.50518 -1.2886496
-4.7477698 23.593573 -0.12283804
-4.560318 22.355722 -1.4653943
-4.6912456 23.190872 -0.81316715
-4.7395525 23.047136 0.12397861
-4.518774 24.037718 -0.99204499
-4.8427253 23.739332 -1.0102683
-4.6041179 22.048904 -0.75018764
-4.6600914 22.565884 0.065127872
-4.6071296 23.40801 -1.4282088
-4.5904627 21.907366 -1.3500732
-4.7365046 22.892286 -0.73553073
-4.7376528 22.207935 -0.377119
-4.8305755 23.057106 -0.63513213
-4.5971794 22.567284 -0.12070051
-4.8456736 22.08592 -0.4553079
-4.749814 22.080338 -0.64178568
-4.8152728 22.05584 -0.53896993
-4.5281963 22.220049 -1.0355481
-4.841259 22.221043 -0.43410832
-4.6485686 22.224043 -0.95408195
-4.8338671 22.181421 -0.17065084
-4.7360206 22.193985 -0.028053688
-4.706409 22.087351 -0.56299639
-4.6940184 22.391918 -1.0155275
-4.7190437 22.589739 -0.45148936
-4.8937573 22.516579 -0.51109123
-4.8332167 22.731777 -0.63276803
-4.8309703 22.804844 -0.64746022
-4.8057904 22.475044 -0.81831878
-4.735743 22.980515 -1.017544
-4.7909012 22.911369 -0.54592085
-4.8381958 22.978415 -0.32013461
-4.6938086 22.921593 -0.15426742
-4.8265676 23.102043 -1.0174625
-4.8379498 22.966772 -0.49147865
-4.8463192 22.94491 -0.17286929
-4.6211262 22.281218 -1.4414433
-4.7536211 23.256237 -0.75659263
-4.8348217 23.115486 -0.30850303
-4.7555485 23.199272 -0.9343791
-4.8500705 23.104221 -0.25099552
-4.7029109 23.162676 0.037168246
-4.856658 23.309219 -0.66981208
-4.7898498 23.335531 -1.1362098
-4.7886524 23.316536 -1.2309304
-4.797442 21.867495 -0.80313057
-4.8061285 23.427097 -0.98097312
-4.5871549 23.722446 -1.3262439
-4.6619787 23.485741 -1.352489
-4.9562025 23.521553 -0.53599614
-4.6476402 23.60273 -1.270756
-4.6310339 23.465254 -1.4310714
-4.6614137 23.663862 -1.1557487
-4.8309169 23.531336 -1.0368102
-4.7590284 23.719322 -0.03559177
-4.8163967 23.693476 -0.25686195
-4.8608222 23.733974 -0.62869239
-4.8092961 23.47175 -1.183306
-5.000001 23.619545 -0.61575454
-5.0411882 23.558039 -0.517106
-4.8621149 22.524773 -0.44188827
-4.8598185 23.711212 -0.90532726
-5.0194917 23.681757 -0.53582299
-4.6841092 23.919598 -1.2536329
-4.6825247 23.654894 -1.0800524
-4.6236629 24.004982 -1.0320383
-4.8625555 23.908541 -0.52681345
-4.8742695 23.888081 -0.31008404
-5.0242224 23.783451 -0.42823949
-4.674479 23.943975 -1.2085909
-4.7077885 23.720066 -1.1289984
-4.8531408 23.665642 -1.1479957
-5.0216422 23.79093 -0.50727981
-5.0025826 23.799603 -0.29679158
-4.8447127 23.99519 -0.33880693
-5.0140352 23.892815 -0.37177902
-4.7426772 23.888184 -1.1353604
-4.8761568 24.051403 -0.46357629
-4.92623 23.99004 -0.32236925
-4.9437089 24.004669 -0.66034311
-4.936111 23.999975 -0.23476295
-4.9425197 24.013727 -0.69038057
-4.6285582 22.133991 -1.3297994
-4.9235754 24.089794 -0.67558098
-4.9188647 23.975111 -0.14291549
-4.9316721 24.08777 -0.21934877
-4.6039586 21.777031 -1.5084641
-4.8262901 22.018272 -0.62608576
-4.9505897 24.086514 -0.13704574
-4.8284979 22.205223 -0.72088969
-4.733551 22.362989 -0.63014776
-4.6275482 23.203623 -1.4548758
-4.9940815 23.75354 -0.69413948
-4.8233361 22.091866 -0.16969378
-4.6545043 21.884056 -0.62164199
-4.7453642 22.867607 -0.23023126
-4.9014473 23.361555 -0.6208837
-4.8141651 22.153181 -0.53682536
-4.5403881 21.977547 -1.1059103
-4.8312378 22.881168 -0.25283417
-4.6420755 21.595627 -0.7186752
-4.6225348 23.581827 -1.4189972
-4.906229 24.090582 -0.52084059
-4.7458625 22.98801 -0.55441773
-4.7304049 22.896805 -0.49682102
-4.7937021 22.540787 -0.74078643
-4.7598023 22.993322 -0.90253413
-4.894897 22.290844 -0.39147082
-4.6203794 22.978657 -0.06203429
-4.7076206 22.973015 -0.69252157
-4.7324467 22.909756 -0.6622088
-4.6837306 22.811319 -0.49617267
-4.7686954 23.233778 -0.46337509
-4.7019057 23.222795 -0.023134528
-4.8277621 23.121075 -1.1281344
-4.8411708 23.77346 -1.240344
-4.6850228 22.172234 -1.0790066
-4.7866712 22.361197 -0.18408565
-4.8911157 22.168776 -0.35515332
-4.8929405 23.377445 -0.1346647
-4.7068801 22.680273 -0.21707854
-4.6995668 22.484879 -0.93208396
-4.7564802 22.811661 -0.41418126
-4.6053391 21.762024 -1.4057877
-4.8332376 23.642155 -1.0571465
-4.5649118 22.182583 -1.2668471
-4.8194256 23.79838 -1.1301754
-4.8311596 23.321821 -0.76169884
-4.7425542 22.813625 -0.20748626
-4.6259737 21.996923 -0.96002901
-4.8930206 23.38015 -0.72633123
-4.6815653 22.185711 -1.2479132
-4.6097107 22.256678 -1.0255678
-4.815762 23.326441 -1.0294324
-4.6206946 22.01708 -0.88681197
-4.9083943 23.641279 -0.9692356
-4.5158162 22.236603 -1.489594
-4.8137541 23.334446 -0.94161528
-4.7832756 23.41914 -1.229138
-4.9237356 23.241674 -0.11874068
-4.7513895 23.397123 -1.253077
-4.7241135 23.197302 -1.2370616
-4.8189316 23.296059 -0.83905673
-4.9047346 23.452177 -0.61641741
-4.8239713 23.443363 -1.0745394
-4.9128327 23.507587 -0.15975699
-5.0255837 23.848816 -0.39353853
-4.6382489 22.300365 -1.2449362
-4.7658925 22.775318 -0.29493168
-4.7355213 23.187958 -1.412704
-4.6937423 22.216993 -0.82421273
-4.6001143 24.292608 -1.1051881
-4.6320739 23.178448 -1.0123794
-4.7451763 22.993591 -0.26679304
-4.7195749 22.714254 -0.72630358
-4.8153906 23.087725 -0.92993885
-4.7665477 22.822111 -0.69660562
-4.6456327 22.786255 -0.44879326
-4.6854701 22.216125 -1.1087158
-4.933465 23.70282 -0.44461638
-4.5574789 24.185625 -1.0885322
-4.8226385 23.469673 -1.3318079
-4.5424728 22.240543 -1.3636785
-4.8259516 23.218872 -0.52344316
-4.7202473 22.514523 -0.77394897
-4.8045774 23.511778 -1.246641
-4.8553848 23.522617 -0.81761146
-4.7198281 22.199135 -0.90202522
-4.5524292 24.15173 -1.2766196
-4.7325187 22.166372 -0.65964746
-4.7083268 22.811617 -0.6347937
-4.7280617 23.188433 -1.1046659
-4.7273774 21.993422 -0.044829588
-4.9051294 23.04213 -0.67701387
-4.6208696 23.206388 -1.3468449
-4.6204457 22.611076 -0.024436269
-4.5192766 23.990013 -1.1180561
-4.6967473 22.081266 -1.0861858
-4.7119122 22.090372 -0.90236759
-4.7724085 22.091812 -0.71404213
-4.704782 22.0965 -1.2814292
-4.7418418 21.87594 -1.1794466
-4.7444334 21.906395 -0.83618301
-4.997345 23.362162 -0.41153339
-4.5435486 23.87582 -1.3148489
-4.5378513 24.025101 -1.2345166
-5.0097179 23.392532 -0.36395949
-4.8172259 22.726534 -0.36184171
-4.5225911 22.498665 -0.030863967
-4.7995872 23.224792 -0.75646198
-4.5796309 22.370022 -0.025134221
-4.856905 22.725695 -0.444875
-5.0256252 24.094021 -0.43099242
-4.7234931 23.777708 -1.2202144
-4.8162594 23.096827 -0.81273127
-4.8956218 24.169287 -0.43363497
-4.7452245 21.868052 -1.0449103
-4.7315035 22.719597 -0.47365105
-4.9179382 23.180977 -0.42172715
-4.8311806 22.413429 -0.69077671
-4.5198135 24.189789 -0.96962667
-4.7860689 22.272253 -0.76768512
-4.8068261 22.408878 -0.49089468
-4.8573327 22.437073 -0.39085495
-4.8262081 23.982819 -0.16677873
-4.8358312 22.318949 -0.43063217
-4.8741236 22.249445 -0.24286172
-4.8408504 23.070316 -0.73880559
-4.8247757 21.8396 -0.99696654
-4.609714 22.039711 -0.99796355
-4.7819595 22.547388 -0.18701893
-4.7611995 21.979092 -1.1149404
-4.6467199 22.497803 -0.019164994
-4.8883324 22.200167 -0.53382087
-4.6909132 22.509262 -1.0220712
-4.7170782 23.789253 -1.3446205
-4.6930661 22.486794 -1.1481459
-4.7311964 23.170937 -0.64683855
-5.1068716 23.990511 -0.56968504
-4.9210916 23.534317 -0.69986701
-4.7172461 23.189911 -0.10275408
-4.9402609 23.698225 -0.75475359
-4.9118447 23.563145 -0.46845037
-4.9233532 23.701582 -0.3372356
-4.6869578 23.037764 -1.1760646
-4.6511106 22.137642 -1.0005895
-4.9516392 23.607962 -0.2282759
-4.634213 23.780661 -1.1339107
-4.7439489 22.581257 -0.54085028
-4.6963911 21.972469 -0.63317895
-4.811305 22.818121 -0.13720459
-4.8107214 23.19964 -0.45979321
-4.6566978 22.687611 -0.20528387
-4.7193184 22.070513 -1.116127
-4.9424434 24.183079 -0.13622127
