# .PCD v0.7 - Point Cloud Data file format
VERSION 0.7
FIELDS x y z
SIZE 4 4 4
TYPE F F F
COUNT 1 1 1
WIDTH 1572
HEIGHT 1
VIEWPOINT 0 0 0 1 0 0 0
POINTS 1572
DATA ascii
32.2719 38.292923 1.3604907
32.188065 38.337212 -2.3557265
33.976627 33.905468 -1.6340052
32.069103 38.893982 1.6639022
33.566959 35.092888 1.1683871
33.82093 34.85815 -0.46122932
32.929245 37.068733 0.55702382
32.988243 36.099808 2.3447509
33.884537 34.007229 0.25859097
31.953674 38.989086 -1.3330417
34.830601 31.998844 2.252291
33.695023 34.409588 1.0597198
33.646049 34.703381 2.4600086
32.678562 37.389889 2.0754931
33.852299 34.293358 1.7489893
32.066139 38.689102 1.9597309
33.584518 34.604145 -1.5420971
33.557117 34.807495 2.4661489
33.696709 35.004883 0.66537023
33.566429 34.802929 -1.744028
32.773972 37.094311 0.46691102
33.80019 35.01083 3.0515189
33.972248 34.296295 -0.73827022
32.847752 36.78949 1.275009
32.035862 38.982994 1.0639356
32.047485 38.889732 0.86377579
33.890999 33.773071 1.3239868
33.694538 34.394081 1.2629623
33.857536 34.274651 -0.04187784
32.772438 37.199825 1.6593465
32.890415 36.597141 0.76395112
32.203129 38.89975 -0.2246253
32.899624 36.400963 2.0654523
32.848331 36.589603 2.0691864
32.043571 38.892925 0.45855239
31.944523 39.766136 0.96870017
33.88913 33.999752 -0.035106145
32.395279 38.20137 2.3532453
32.057701 38.895145 1.3600239
32.05452 38.892754 1.1603495
32.052883 38.891972 -0.53957558
32.373177 38.093273 1.5593781
31.981241 38.996124 -0.2378116
34.422871 33.06818 2.6828923
32.112602 38.623783 3.221869
32.477253 37.698021 1.4583826
33.447811 35.082909 -2.3310332
32.792004 37.181999 0.060032036
32.811661 36.618252 2.0713081
33.67886 34.217903 2.6533515
33.546356 34.983643 0.25898424
32.257389 38.297581 0.75914985
31.973558 39.095764 1.4622954
33.643291 34.485714 2.1667938
33.850056 34.188934 -0.33561465
32.144249 38.779053 -1.333483
32.150223 39.093639 -0.036026195
32.192806 39.090435 -1.3223808
32.151649 39.19799 -1.3382905
31.888142 39.006393 2.3699086
33.793438 34.203781 -0.2405991
33.789146 34.202946 -0.53726876
32.301094 38.113247 0.05654183
34.256042 32.713512 2.9732053
32.859127 37.084419 2.0670836
32.074783 38.797829 0.96366948
31.584625 40.477673 -0.7516681
31.955589 39.196411 -0.84071881
33.364635 35.993725 -1.4399617
34.061764 33.891861 1.1625885
32.293159 38.09938 1.4647776
32.638332 37.205132 2.2726293
33.541962 34.989868 0.066286407
32.773975 37.109287 1.3605552
34.066826 34.097786 2.1481521
33.672981 34.693417 1.6646831
32.149231 39.193924 -1.0409378
32.17741 39.097534 -1.0350332
33.495079 34.519859 2.6671071
34.521099 31.867935 1.8997202
32.359715 38.700001 -1.23514
31.987225 38.706387 2.5549986
32.116787 38.443882 -0.73301429
33.747021 35.054459 -0.6802662
32.557186 37.385597 2.057807
34.005924 34.272255 2.7258587
32.779392 36.99588 1.1628103
32.867001 37.082806 -0.33933389
32.779106 37.188923 1.855404
33.586487 35.293663 -0.63406283
32.169041 38.999123 0.46611187
32.86404 37.08297 0.76203275
32.875 36.69656 1.6619488
33.742321 35.226292 0.9543162
32.803959 36.623764 1.7396179
31.92977 38.870728 3.0951564
34.43932 32.981869 2.4546962
33.954788 34.187859 2.5609338
34.145363 34.004147 -0.13458304
32.866817 37.081734 -0.050096754
32.926048 37.109558 -1.8964642
33.748028 34.789406 2.2615519
32.809326 36.516823 2.2289476
33.782017 33.911839 2.550596
32.391384 37.89769 0.75802052
33.471745 34.734879 0.67946911
32.876434 36.693207 1.4709568
32.381855 38.20409 2.26003
32.164055 39.181057 2.3441708
32.160545 39.082787 2.3495021
33.787369 34.587547 2.1516101
34.66991 32.295914 2.8601596
32.441788 37.886978 1.1586432
31.992167 38.784725 -2.2317519
33.662464 35.092182 1.3615688
34.161743 33.007484 2.9539132
32.259476 38.294159 0.16025195
33.424053 35.061272 -2.4030023
33.838409 34.86327 0.42220023
32.760857 36.991722 2.5387914
33.644577 34.687958 0.6605134
33.904903 34.741146 3.0369961
33.781784 34.896191 2.4557977
34.015862 33.888912 -2.1031003
31.953299 38.977036 -2.0494614
32.661907 37.293198 1.9534563
31.951132 39.193027 1.5543133
33.607887 34.603527 -1.1405467
33.967758 33.607944 1.9600035
34.046444 34.082222 0.35543272
32.374165 38.091602 -1.141503
33.141655 36.748474 2.7869132
32.086857 38.505367 2.3635235
32.68362 37.12146 1.1604546
32.870667 36.596939 1.0678668
34.27177 32.595299 3.2526162
32.804024 36.72805 0.23320611
32.851673 36.699051 1.3576895
33.546738 34.69191 2.1655266
32.592476 37.405064 1.1565691
33.870834 34.685986 2.1583257
34.151012 33.986965 1.2552134
33.936062 34.482498 0.46048164
34.065781 33.881821 -0.94686222
34.62133 32.708851 2.1653759
34.129719 33.261818 2.2761581
33.07095 35.89304 2.3548317
32.697979 37.121986 0.26538193
32.676735 37.114441 1.3599083
33.970089 34.297794 0.96581578
33.452641 34.890427 2.4540582
33.863712 34.087505 0.15804061
33.39772 35.19006 1.2629813
32.370522 38.19997 2.0515254
31.99247 38.800426 -1.4420587
34.429218 32.48896 2.7328515
33.898106 33.688545 2.8767183
32.943459 37.059601 -0.61428368
32.793388 36.713936 1.5553089
33.946766 34.483566 1.9702281
32.665569 37.18779 -1.1218668
31.957298 39.195713 1.6634443
32.140274 39.282444 -1.0440586
33.760105 34.492825 1.9638813
33.691185 35.003437 0.85951698
32.498215 37.603249 0.45794427
33.69595 34.896313 0.8590306
33.666248 34.689461 2.0581241
34.148613 34.024811 -2.0408738
32.772465 36.699207 2.352695
33.128426 36.676041 -0.81421959
32.80682 36.623383 1.4507999
34.26767 32.683849 2.7408147
32.061604 38.689503 2.2491808
33.462521 34.891041 2.1627488
33.689568 34.998135 0.36588043
32.783039 37.106556 1.5674206
32.36372 38.092472 1.4615967
33.847088 34.183525 -0.43034044
32.261475 38.796329 -0.036532629
34.319206 33.048698 2.4188921
33.872952 34.616447 -1.5212846
33.643417 34.689194 0.86112809
34.039238 34.180145 0.15912336
33.667439 34.500568 1.7586827
32.217346 37.942902 2.4685912
33.55085 35.094139 1.6557891
32.783272 36.602707 2.4477537
33.866524 34.594433 -0.74544245
32.156185 38.595448 -1.0293901
33.977818 34.387909 2.0626523
33.747318 35.004387 1.9595288
32.387978 38.194054 2.4583812
34.704391 32.210072 2.2768111
32.560635 37.49379 0.76024216
34.33696 33.270065 2.8371
34.476746 32.074165 2.7516458
33.604542 34.608524 1.7646276
31.598783 40.222248 -0.94120455
32.799862 36.595032 2.3583097
31.991539 39.308865 2.0663493
33.889519 34.004585 0.56233549
34.271374 32.634041 3.0443888
33.911037 34.493477 -1.5177534
33.402969 35.116936 1.6773217
31.975929 38.996365 1.7656741
32.803719 36.611191 1.5679686
32.772068 36.693462 2.4539816
34.520481 32.848465 2.4891019
33.813492 34.010235 1.1517501
32.285725 38.200256 0.45413923
34.2696 32.796249 2.2573082
33.079639 36.505352 1.8522704
33.140835 36.761726 2.6008134
33.352654 35.886749 0.56001008
33.579945 34.79723 1.9524519
32.781864 36.903534 1.8694712
34.745594 31.672161 2.3568323
32.864609 36.692135 -1.1270684
31.954399 38.992329 -1.4393625
33.028648 36.963257 -1.0413482
33.633522 35.379135 2.5929255
33.700882 34.403095 0.85425133
33.320667 36.204655 2.6155903
33.591171 34.39835 2.4477787
33.982903 33.990108 -1.6430454
32.776585 37.102837 -1.4291881
31.947269 39.196617 2.0557265
32.267799 38.394978 1.7651786
32.254681 38.194847 2.7665992
33.159168 36.615192 2.4677594
33.770535 34.798443 0.06310416
32.282986 38.197666 0.35323796
32.395271 37.898544 0.56302869
33.498829 35.307526 2.2607627
32.158188 38.789783 1.7618762
32.455166 37.783203 -0.6423313
34.05751 33.998959 -0.44352245
34.731651 31.673698 2.245645
33.586571 35.203178 -0.94715452
33.864574 34.094521 0.76111645
33.867085 34.00449 -1.5310843
32.035404 38.975147 0.95527667
31.958675 39.094849 -0.1388323
33.036411 37.121727 -1.3408664
33.582092 35.208538 -1.0565013
33.666897 34.894165 1.6652603
33.786957 34.600956 -0.64260191
33.891666 34.402386 0.5656473
33.839573 34.18541 0.56324548
34.266155 33.40205 2.7636859
33.398457 35.01054 2.0740159
32.836159 36.784981 0.64702576
34.052658 34.192318 1.7570817
33.453201 34.718281 0.76357412
33.980934 34.076691 0.45488602
33.799438 34.698292 0.26787776
32.553097 37.389946 2.2548923
32.221474 39.075478 -0.68146801
34.189407 32.904861 2.4635024
32.801208 36.806385 0.5638476
33.668186 35.086025 0.17140035
33.98526 34.079926 0.062850006
32.237911 38.38102 0.16567478
32.291473 38.100773 -0.8389464
32.033455 38.977013 -0.42362261
32.272648 38.403225 2.1590564
33.17992 36.597996 2.6639562
33.972206 33.992123 1.8590857
33.636036 34.688431 -0.044285953
33.690464 34.89267 1.0665816
32.989746 36.310711 -0.030878605
32.034988 39.578243 1.5769932
31.524092 40.500793 -1.3095132
33.966282 34.192127 1.6680694
33.547878 35.081223 1.555545
34.054527 33.999516 1.5583415
33.583565 35.197403 2.2573655
34.042137 34.184296 0.76607633
32.092384 38.703323 0.85825795
32.050014 38.692829 2.4635429
33.968143 34.08271 1.8572625
32.065136 38.695995 2.6521952
32.354206 38.687954 1.9550809
32.294792 38.096394 -0.73239934
33.580627 35.299572 0.55925322
33.364651 35.382477 -0.44212088
33.759987 34.992886 2.1591043
34.150635 34.020084 0.47445828
33.747272 35.084034 0.48504815
33.691189 34.907349 0.96260428
33.778408 34.696995 1.5680687
32.301132 38.110493 -0.24055697
31.978418 39.492321 1.6628262
33.77063 34.587654 1.3671231
32.07449 39.086388 -0.96366453
33.760349 34.59499 1.4641334
32.144394 39.268208 -0.25167483
33.761398 34.583206 1.7661986
34.546661 32.273903 2.2729251
33.495731 34.70002 2.364574
32.16457 39.076202 2.2397189
33.58675 34.793114 0.45806193
34.119587 34.107841 2.8382795
34.064426 33.892975 0.86278665
33.698109 34.997627 0.75600016
33.849514 34.202969 -0.63721925
34.197933 33.001171 1.9566996
33.770096 34.793213 1.5597684
34.129684 34.166496 2.4998431
33.980404 34.085453 1.5583267
34.256138 34.015957 1.1347523
33.98962 33.821552 0.46345857
33.79776 34.701927 0.45675614
33.977501 34.097679 -1.1339862
32.069553 38.684158 2.8517504
33.877911 34.094234 1.5606652
32.804813 36.817909 -1.3945534
32.852894 36.696697 -0.24168813
34.224319 33.939114 -0.38251981
33.583908 35.301292 0.46335873
34.085247 33.585949 2.8283091
33.576023 34.693508 -1.3427577
33.682678 34.198193 2.4628658
33.644264 34.777996 0.86189634
34.688881 32.21983 2.3602037
33.857769 34.095848 -0.34092736
34.060616 33.992245 -0.83017814
32.364441 37.993816 -0.63463295
31.586411 40.384392 -1.036247
32.506321 37.520592 1.4709332
33.990486 33.821342 0.25889009
33.954819 33.987167 -2.1260924
31.935331 39.278778 -0.33410823
33.855808 34.027466 -2.1007676
33.857391 34.08873 -0.83465517
32.042248 38.985367 -0.836667
32.667011 37.28775 1.8548961
34.066807 33.883602 0.054631013
32.360878 38.679749 -1.8407186
33.54768 34.892761 -0.34178945
32.941101 36.587093 0.15206921
32.351028 38.814651 -2.0176773
32.389263 37.900955 0.35949555
32.847923 36.799896 -0.53559411
33.839291 34.181698 0.75955689
33.661057 35.001587 2.4487073
32.253113 38.486717 0.76458639
33.986435 34.203648 0.77095366
33.790234 34.700577 1.2601485
32.038788 38.980282 0.75643903
33.836914 34.519947 2.6490693
33.860435 34.699421 -1.1339113
34.64106 32.201836 2.1601231
33.404026 35.111225 1.5522897
32.799263 36.677074 -1.3522245
33.892529 34.602222 2.35186
32.333664 38.852783 -1.9385488
33.08181 36.262611 0.079061583
32.793388 36.809055 -0.63902324
33.76643 34.292881 -0.53475535
34.148396 33.086815 2.4506462
32.851948 36.794712 1.4638059
32.16658 39.087757 -0.64525038
32.234421 39.064156 -1.5503004
34.881996 31.983416 1.9577764
34.364529 33.110096 2.1496344
32.166172 38.78627 1.3646014
32.37001 38.092117 -1.4397503
31.976984 38.997631 -0.43711084
32.799576 36.626377 1.6168728
32.802383 36.81369 -0.32861081
34.391365 32.503086 2.0750515
33.845734 34.187233 0.96014583
33.968155 33.996651 0.9623245
32.115788 38.377613 1.5829144
33.980522 34.071533 -0.94615823
31.950104 38.635262 3.9062772
33.962212 34.391014 1.6632712
32.289291 38.803375 -1.7413832
33.85331 34.082249 -0.93372244
33.795174 34.200817 1.2580147
33.84626 34.193779 -2.1103356
32.328922 38.771355 -0.83102638
33.625946 34.573219 -1.8169353
33.903252 33.78627 -0.45554084
33.696312 34.502808 0.95715564
31.98638 38.897079 1.754765
33.642101 34.585911 -1.2402358
33.66404 35.099747 0.46686807
31.986349 38.905449 1.5679617
33.854919 34.090317 -0.53552157
32.19595 38.402977 0.46232659
32.934082 36.585655 -1.2336452
32.78204 36.998074 1.8633034
33.644157 34.680111 -0.34832728
34.195129 33.597378 2.3664491
31.476807 40.689949 -0.7677511
33.769474 34.009117 2.9498718
33.379063 35.79567 0.66061771
33.872047 34.008469 -1.4219757
33.578369 35.192532 1.9566137
34.034466 34.179592 0.45413092
32.026932 38.493275 3.897244
33.672913 34.896252 1.562544
33.595062 35.194881 -0.54707658
32.674164 37.112274 2.0606999
32.665195 37.190022 -0.83502793
33.841816 34.180599 0.66230017
33.973179 33.99239 -0.93630791
33.640831 35.189507 0.17069942
33.559284 34.864719 -1.2324463
34.056942 33.998432 -0.63405919
32.091393 38.391468 2.5770984
33.65773 34.57954 -1.4249846
33.800335 34.191044 -2.1330416
32.070072 39.099884 -0.54904532
33.030537 36.195831 0.55733329
33.984787 34.083134 0.86337942
33.666821 34.989937 2.0646873
33.928516 34.600155 -0.051358249
32.954712 36.904858 1.8560861
33.602512 34.517822 1.4689506
32.057373 38.898388 -1.0474387
31.568552 40.507301 -1.0256817
32.196732 38.404625 0.66098118
33.599697 34.710869 0.25938538
33.157372 36.388699 2.070751
33.054657 36.314976 0.34863555
32.088017 38.702808 0.55883551
33.800831 35.00988 2.9465773
32.198708 38.900295 -0.62979633
33.96698 33.99638 1.6602885
32.349194 37.967052 -1.9603727
33.797573 34.210571 0.86164862
33.068676 36.120193 1.1537501
33.988525 34.199856 -0.14360704
32.799545 36.79726 -0.54447621
34.042221 34.184254 1.6655604
32.836834 36.781925 0.7642535
33.492092 34.602715 2.46591
33.050301 36.122818 1.3903387
34.561497 32.690365 1.9942517
33.712666 34.194759 1.265179
34.144882 33.877834 -1.1268629
32.880978 36.599854 1.1568433
32.065319 38.890606 -1.1341906
33.485809 34.8027 -1.994565
32.787937 36.741386 -1.240752
33.78215 34.298687 1.3615628
33.660828 34.594048 0.26175299
33.099125 36.007389 0.76056927
32.862759 36.701519 -0.34181339
32.868099 36.699673 -0.53608048
31.581886 40.494698 -0.93222421
32.287228 38.096317 -0.93982512
32.769482 36.999474 2.0628457
32.85006 37.466946 2.1948259
33.581543 34.797718 0.15900788
32.779911 36.800564 -0.84909368
33.88007 34.011101 1.6623194
32.264744 38.497791 1.9589908
33.96925 33.996307 0.35937399
33.790619 34.936527 2.856385
33.09383 36.414017 1.4665647
34.134983 34.093304 2.8396852
33.751392 34.499569 -0.53053892
32.652885 37.199661 -1.0377342
33.690208 34.899734 2.0618114
32.586891 37.395206 -0.33752781
32.025536 38.867424 3.059927
32.168102 38.59441 1.3622025
32.78619 36.698029 2.1677999
34.148964 33.983463 -0.32581952
33.8046 34.117661 -2.2984946
33.65004 34.491619 2.4523354
33.97393 33.909248 -1.0363493
31.949926 39.187801 -0.93891656
31.955927 38.873413 -1.9405072
32.226524 39.060848 -1.4601179
33.632011 35.279682 0.37991425
33.36916 35.985783 -1.612442
32.584385 37.402641 -0.44158608
31.585625 40.534901 -1.4234686
33.592392 35.102905 -0.22967294
33.469654 35.495926 -0.42524251
33.072571 36.10593 -0.028605128
32.309464 37.987152 -0.74711174
32.774311 37.109169 -0.54222637
33.087399 36.074844 0.077793792
33.600689 34.296505 2.3687577
32.656368 37.195328 -0.93853098
33.555862 35.098675 0.4563162
32.073174 38.59206 -2.0418544
32.834976 36.595905 2.4539807
33.859085 34.085361 -0.43744701
32.345844 38.092106 -0.34059563
32.825375 37.545601 2.3770895
32.086872 38.696037 -0.3403323
34.405056 33.009312 2.2542481
34.187855 32.900311 2.0703211
33.885826 34.00264 0.16419268
33.073071 36.099712 0.26734447
34.669579 31.695194 2.4511526
33.103298 36.419369 1.1742914
32.870399 36.698242 -0.91936904
32.774357 37.181953 -0.14151192
33.094101 35.909695 1.695305
33.790638 34.685081 -1.1310145
32.795761 36.706619 1.8717796
33.023884 36.154228 2.2333202
33.861584 34.089504 -0.038006004
32.098991 38.519569 1.768178
32.603287 37.192085 1.7856169
32.82539 37.345825 0.26113409
33.97184 33.997765 -0.53932089
33.069641 36.295948 0.89117891
32.492283 38.105331 1.4591807
33.550095 34.797787 -1.532303
32.33997 38.593597 1.1606199
34.063019 34.084515 1.6610155
32.223293 39.110825 -1.0045825
31.983105 38.528294 2.5887268
33.976658 33.990925 -0.83759958
32.351357 38.700226 -1.3359656
32.256725 38.396152 1.5589265
31.952438 39.182232 -1.0329245
32.390732 37.903549 0.067458645
33.033569 37.20295 -1.1709657
32.17453 38.40416 1.7689375
33.653728 34.47015 3.0776303
32.369396 37.994877 -1.0405545
33.574219 34.5994 2.6656766
33.599937 34.70369 0.7676599
32.491013 37.502293 1.9670659
33.933151 34.481945 -0.031747535
32.518574 37.299809 1.0464189
32.794044 36.609047 0.25357562
33.483353 35.469872 -0.95458508
33.985794 33.816212 -0.44315192
33.674706 34.497078 1.6559361
33.599411 34.518272 1.9632573
33.033875 36.775017 0.8540017
33.879372 34.001461 -0.43831584
34.061485 34.078854 -1.136476
33.030159 36.780643 0.56517017
32.882504 36.595531 0.15512055
32.181057 38.202507 1.4760979
32.095699 38.601727 -0.7397269
33.770847 34.095448 2.5539296
33.890335 34.308392 2.1658356
33.40258 35.706848 -1.0272024
33.951714 33.89431 -1.9906143
33.076424 36.612164 -1.4237554
34.047745 34.079597 -0.24183528
33.043045 36.178375 0.45291591
33.007797 36.23777 -0.11653802
32.694359 37.509094 0.48287642
32.494164 37.604202 0.25721142
32.68713 37.502815 1.4647789
33.941738 34.461864 0.35226473
32.075291 38.798229 1.3610264
33.762753 34.59259 1.8635597
31.946552 39.79311 0.73697317
32.155098 38.401241 2.3584571
31.596018 40.21101 -0.54976779
32.076199 38.80138 1.4584988
33.549931 35.081848 1.0496767
34.333336 32.77523 2.1676393
33.666344 34.993019 1.7616686
33.782146 34.028156 -1.9278736
32.028931 39.468628 0.054479975
31.97094 38.996899 -0.9397558
32.088272 39.091915 2.2536349
33.657753 34.594604 -0.54411352
33.641037 34.780846 1.0601331
34.372025 32.492764 2.5507483
32.126511 39.270153 -0.45557049
31.688251 40.112705 -0.63580078
31.678713 40.390621 -1.1325605
33.687759 34.891617 0.156339
33.841862 34.178459 0.25130799
32.932625 37.06348 -0.2705729
32.070847 38.899105 1.7652341
33.541393 34.98877 0.15916525
33.575687 34.822105 -2.0333161
33.890892 34.001331 0.65785414
32.063755 38.599846 3.1009817
31.575703 40.497162 -1.136302
32.785969 36.900734 0.96060926
33.742439 35.081905 1.8648641
33.553192 34.890804 0.060999963
32.408268 37.85701 -2.0169232
32.292953 38.098148 0.95753431
34.044033 34.377937 1.9954531
31.957737 38.805862 3.1717305
33.551487 34.895271 0.36427709
34.207359 32.826817 2.8444738
32.004333 38.601822 -2.6323426
33.7631 34.585423 0.38132504
33.690109 34.503834 0.36409301
33.756474 34.296223 -0.94665664
32.999916 36.916447 -1.239239
32.896187 36.510406 0.45771614
32.282269 38.098099 -1.1375334
33.672447 35.003857 1.8639696
32.229263 39.0835 -0.95856345
33.957184 34.619598 -0.61327869
32.093311 39.194675 0.25620663
33.654922 34.789314 -0.13044891
32.931824 37.055389 1.0736705
32.67614 37.694454 -0.038549505
34.409523 33.015232 2.6295173
33.891102 33.928715 -0.63996744
33.648129 34.78582 -0.04033614
32.834518 37.284931 1.2560658
33.985184 34.088463 -0.63634986
32.860512 37.205521 -0.63585567
33.106365 36.061539 -0.82564569
33.915512 33.114208 2.5887022
32.802193 36.714149 1.2567612
32.357811 37.980667 -1.1410677
33.33688 35.996204 0.058550239
31.819639 39.230129 -2.2266121
33.968575 33.997536 0.56384772
33.080643 36.089054 0.45422873
33.834263 34.892822 2.7451839
34.053562 34.001999 -0.13805839
33.876526 34.292709 -0.6320042
32.254566 38.482559 -0.13131541
33.07896 35.890312 2.2556479
33.019501 36.214725 1.2928329
33.969296 34.291218 1.0571088
33.795448 33.915802 1.8801903
31.967461 39.492744 1.8610651
33.70562 34.413757 0.55201215
33.050968 36.101906 0.34202427
33.5858 35.200153 1.3605994
34.067497 34.178757 -1.7488215
32.37146 37.999119 0.96235836
33.05619 36.216557 1.1729639
33.176315 36.567459 2.7995117
32.395294 37.720528 1.8666421
33.969292 33.911098 -0.63282394
33.643536 34.696373 -0.52490246
33.872807 34.089046 1.160454
33.795315 34.203075 1.0664717
33.705574 34.139572 2.2026947
32.561733 37.494164 -0.33339784
33.671589 34.693638 1.5564208
32.764317 36.820045 -1.5349243
33.696335 34.500366 0.76482111
32.865143 37.083397 2.1559474
33.09634 36.700153 -1.3438392
34.135788 34.105576 2.654139
33.776661 34.026173 3.1843343
32.892475 36.521797 1.7387037
33.041172 36.189919 1.3433049
33.680325 34.594479 1.3658205
33.866283 33.90237 2.547128
32.059261 38.781799 3.1832032
33.855762 34.088623 -1.0444546
32.492847 37.496174 1.8696301
32.500629 37.504524 1.7545764
33.660995 34.697266 1.4696206
33.768185 34.5914 1.1550947
32.858631 37.08337 1.8600146
33.111584 35.998848 0.94893265
32.359383 37.979267 -1.7246453
32.775692 36.992584 0.96182889
32.303871 37.998768 -0.83987832
32.081753 38.592735 2.6417723
32.199211 38.900517 0.35927182
33.121002 36.018337 1.3152248
32.606049 37.20787 0.26300097
33.05064 36.690708 1.3637366
33.858215 34.283897 -0.54925549
33.373066 35.797203 1.7588992
34.611267 32.430817 2.244257
32.565041 37.496857 -0.4346703
32.250137 39.080666 -1.7187742
33.191929 36.300922 0.5583427
32.358963 38.194809 1.9633981
32.583656 37.398739 -0.23878735
32.648865 37.282803 -0.33115232
33.56971 35.300819 1.355975
34.01862 34.433357 2.9293735
33.053123 36.786659 1.7689004
32.072197 39.184704 2.0533743
33.046597 36.8894 -1.36076
32.986698 36.796307 1.5576944
34.402454 33.003765 2.5540855
33.612328 34.332409 2.2785881
33.674526 34.699337 1.85584
33.7607 34.492786 1.7571639
33.970089 33.997952 0.16372411
33.69479 34.407017 1.361426
33.755821 34.498341 1.6683747
33.686813 35.306435 2.9640212
32.770397 37.184135 -0.24040823
34.052616 33.997482 0.86757088
33.545898 34.98455 -0.73774284
33.961613 34.407902 -1.4290299
32.90427 36.519882 0.77499694
32.379799 37.994278 1.1573765
32.771358 37.107124 0.36051124
33.582577 35.191444 -0.44626129
32.89323 36.50882 -0.42855147
33.211468 36.13496 -0.70479971
33.997459 33.845215 -1.7932984
32.295914 38.103477 1.1683533
32.342293 38.090778 0.56105781
32.782131 36.901039 1.1577578
33.969288 33.90794 -0.83705968
34.063477 34.001686 -1.1344371
32.277943 37.997746 2.452035
33.738655 34.482952 0.46717936
34.405285 33.011654 2.3684263
34.581043 32.495766 1.9507132
33.413506 35.121357 1.0634389
33.151306 36.427063 2.7327812
34.42923 33.052235 2.5890908
33.122482 35.969917 -0.55499864
31.964397 39.092869 0.8576377
34.144871 33.285492 2.5618446
33.918346 34.632141 2.9116395
32.994194 36.797047 1.0670103
33.839428 34.919209 1.8738711
33.69379 34.503109 0.66293758
33.860062 33.82616 0.6177603
33.028294 36.860931 1.2200053
34.126385 33.843941 0.94726527
33.954704 34.56102 0.39703947
33.030464 36.777035 0.46788302
33.383125 35.195385 1.8668072
33.976425 34.079739 1.1649408
31.943386 39.179482 -0.136501
31.963232 38.893608 -1.6252944
33.079247 36.111748 -0.44706449
33.673115 34.99564 1.6607891
32.668686 37.195194 0.65861934
33.782227 34.693447 -0.93261236
32.044731 38.982109 1.2599419
32.957443 36.980415 1.5613256
32.799431 36.706863 0.54830176
33.990662 34.071262 -0.3361114
33.606232 35.206547 0.65873283
34.042545 34.177917 -0.83698094
33.063282 36.697552 -0.2350577
33.968956 33.91552 -0.13667934
34.397713 32.948009 1.8817729
32.302097 38.005615 -1.2379409
33.689266 34.399586 1.8607181
33.762608 34.88813 -0.24408209
33.645359 34.578358 2.2623336
33.690327 34.90435 0.36161405
33.4016 35.700241 0.58993548
33.11058 36.738197 -2.1354921
33.847775 34.280548 1.2572342
33.846912 34.182793 -0.52335912
32.862144 37.080032 1.3645473
34.12883 34.108643 2.5580101
32.755856 36.876724 2.5447869
33.077446 36.592335 1.0663105
33.541122 34.978844 0.46477395
33.867714 34.288197 0.27193895
32.289036 38.513531 0.64857507
33.976158 33.910797 0.063921548
33.535561 35.013046 -1.5317659
32.817059 36.70882 -0.75997531
31.440166 40.87735 -1.5505015
32.791527 36.703812 2.672678
34.155319 33.976719 -0.42832071
33.757656 34.294006 -1.0313044
33.660923 34.692287 1.3623881
32.202984 38.819843 0.16755828
33.987103 34.070751 0.56297219
33.483322 35.091343 1.4616998
32.04483 38.981205 1.163936
32.190376 39.024765 -1.5384936
33.136192 35.967552 0.35365671
33.876598 34.094364 1.3631498
33.43895 35.687855 0.66424906
33.360626 35.192291 2.1667962
33.984631 34.078156 0.26118886
33.783604 34.092525 2.671896
33.657013 34.801636 -0.53074306
33.97974 33.901337 0.86243701
33.045071 36.196877 0.66273618
33.690845 34.498726 0.55843997
33.988503 34.293934 -1.3333167
33.138763 36.697044 2.3479412
33.84798 34.296215 0.17778406
31.589605 40.208168 -0.64579618
34.062462 33.991116 -0.94145
33.970337 33.90662 0.2587215
33.743465 34.886219 0.66344678
33.066299 36.116245 0.14840245
33.148346 36.589367 -1.4276912
33.364967 35.989639 2.0604181
33.668766 34.998154 2.1565526
32.175926 39.215775 -1.4346839
33.639805 35.284233 1.8615483
33.536919 34.987488 -2.0290987
34.460796 32.91433 2.0173683
33.675816 34.403328 1.9673356
32.904179 36.50563 0.16969827
32.856178 36.691841 0.65025038
33.370983 35.191456 2.0598135
32.83305 37.281231 0.26705825
32.190048 38.808414 0.76775521
31.960871 38.996445 -1.1336241
33.786621 34.21059 1.3583992
33.769886 34.392071 1.3636063
32.635132 37.38718 0.26547775
33.640793 35.189243 0.76482302
33.850349 34.203766 -1.1368499
32.13805 39.280594 -0.92606533
32.755356 36.894577 2.2574222
34.059212 33.999065 -0.33940622
32.930294 37.069065 0.36998838
32.216774 38.210381 1.3767771
34.396511 32.216595 1.8834782
32.04892 38.892239 0.96029806
32.215466 38.989235 -1.7479459
33.087685 36.073746 1.426412
32.044472 38.889771 0.76494777
32.386238 37.904087 1.4538847
33.040794 36.179764 0.089187123
33.777576 34.033745 -0.018762751
33.823078 34.861931 0.042632896
33.587002 34.608482 1.97092
32.485527 38.00835 -0.34858426
34.619473 31.737537 2.4800217
33.648766 34.78743 1.4599887
34.0476 33.726326 1.5988984
32.854561 36.696854 0.86134028
33.665779 34.696529 1.9581825
33.396202 35.698223 -0.83985478
32.692566 37.124405 0.86665297
34.076061 34.199135 2.4589531
33.033012 36.196331 1.2722942
32.040596 38.981121 1.366449
32.776669 37.187195 1.7665071
32.454636 37.795563 2.3714385
33.696655 34.401016 1.6674982
33.326057 36.072086 1.0666957
33.763649 34.590324 0.95818752
34.065334 33.897762 1.4619452
33.756363 34.587021 1.5602444
33.86396 34.49865 1.5615275
33.047207 36.695225 0.65686494
34.060867 33.381058 2.8801596
33.670639 35.088985 0.25725371
31.991632 38.901299 -0.33476317
33.516483 34.935314 -2.0490739
33.694874 34.504166 1.2575835
32.063484 38.897343 1.4572309
33.052242 36.686287 1.2568232
33.747837 34.488731 1.4622997
33.550961 34.988178 -0.3351804
33.998474 33.915646 -1.8252614
33.837475 34.182713 0.36111763
33.791142 34.605335 0.060883552
34.129734 34.22831 0.085080937
32.494514 37.613678 0.65902698
33.796192 34.201504 -0.13505484
32.347256 38.682564 -0.93173635
32.830997 36.795376 0.4680326
32.138783 38.692726 -0.44975698
32.788437 36.600906 0.75244308
34.144203 33.258751 2.662904
32.180241 39.188351 -1.6384884
31.562288 40.200691 -0.343041
32.055618 38.793835 2.3559978
33.96534 34.293194 1.353353
34.600994 32.405991 2.4752178
32.039791 38.981171 0.86909389
33.768162 34.596058 1.6623712
32.069256 38.890751 1.8601679
34.15387 33.911423 0.76195812
33.864952 34.092606 0.95934188
33.977856 34.085667 -0.73317963
33.738251 34.48225 0.35798028
33.096352 35.797062 2.2601209
33.195278 36.291924 0.25680131
33.683765 34.594097 1.4633057
34.062321 33.889652 -1.4313884
32.041733 38.973431 0.26536089
33.865108 34.09222 0.65839201
34.541718 32.702976 2.7524631
33.844727 34.107529 -2.2250125
32.839935 37.196705 0.46954113
33.050491 36.6908 1.1659414
34.105949 32.987492 2.0625968
34.44083 32.498177 2.56531
33.544056 34.988094 1.1589476
32.324928 38.780293 -0.64944273
33.839989 34.085518 -1.3390296
33.989819 33.823021 0.65996319
33.79567 34.697605 -0.73800093
33.876537 34.008835 1.9619052
32.031425 38.480541 3.6365871
33.581234 35.202724 1.6509936
34.043056 34.180859 0.96301031
32.093143 39.104511 2.3763578
33.665829 34.39653 2.0706131
33.758301 34.492592 1.5534345
32.978481 37.092285 -2.0361419
33.564663 35.091892 0.56208587
33.865768 34.095142 1.0622818
33.863274 34.500534 2.3594382
33.977608 33.902546 0.65657276
33.793129 34.206902 1.1595533
33.705185 34.413651 0.75489497
33.880764 34.000977 -0.64315683
33.178589 36.425816 2.5122175
32.135574 39.278156 -0.85719174
32.83363 36.732311 -1.4645989
33.888672 34.489941 -0.1371797
32.926361 37.048016 0.25051993
33.796051 34.7052 -0.44033581
34.042938 34.190918 -0.54670018
33.86208 34.082279 -1.1420563
34.06147 33.190277 3.3800638
31.688704 40.111462 -0.35301289
32.295773 38.106476 0.26747882
33.351711 35.893738 0.65816098
33.969913 33.9021 -1.1369154
33.738724 35.187748 2.6427441
33.116817 36.433575 1.2691957
33.880684 34.502987 1.261727
33.346813 35.898151 0.87021136
32.969162 36.907288 -0.733491
32.955872 37.073341 1.8555017
33.007587 36.205212 1.3500345
33.843834 34.187992 0.16174763
34.222153 34.046207 -0.81233227
34.170181 33.095879 2.6644456
33.989479 33.568886 2.7595396
33.743393 34.893951 0.36532995
33.887157 34.496712 0.96126854
33.910805 33.814903 -0.60898012
34.146049 34.00779 -0.22613427
33.117886 36.590515 -1.7163922
34.047127 33.8256 -1.8360758
33.967251 33.91716 -0.43434635
33.579445 35.206051 2.0626974
34.03899 34.180695 0.56651211
33.679348 35.179016 2.5542533
33.754566 34.89555 -0.33931893
33.747334 34.886803 0.062183872
33.756779 34.787468 2.3491004
33.919849 33.838543 -1.0654354
33.774727 34.796902 1.455792
33.737915 34.473167 0.65361583
33.762978 34.805347 2.5580001
32.051651 38.609558 -2.5001593
32.359459 37.89106 2.656776
33.6376 34.693459 -0.94885761
32.038025 38.985699 -0.23831992
33.139118 36.781967 2.8398929
32.673431 37.693714 0.15988283
32.772778 37.180096 -0.03919002
32.390549 37.903576 1.1625406
31.970545 38.608765 3.4449756
33.154922 36.395462 2.4357743
33.185768 36.302479 1.3615727
31.964228 39.491245 1.9634273
32.291656 38.007545 1.9651161
33.976196 33.908646 -0.041001603
33.584545 35.296997 0.66231692
32.300434 38.104767 1.0693318
32.214561 38.228554 1.0847512
33.73777 34.983059 -1.0338593
33.985794 34.298714 -0.92525595
31.955612 39.182205 -0.7404058
34.039387 34.173149 0.2705448
32.19614 38.910431 -0.7361024
34.062584 33.900455 -1.1460371
33.092743 36.008598 0.87097979
33.493637 35.002895 1.0692557
33.982666 34.485165 2.7496417
33.759659 34.889503 1.4629487
33.972118 33.914829 -0.33234915
32.301445 37.998669 -1.4391004
33.989735 33.815693 1.7608172
32.880219 36.596054 0.96635711
34.164406 33.990849 -0.82897204
32.184174 38.806992 0.96339864
32.939808 37.058155 1.1580606
32.800148 36.621582 -0.86714602
33.854488 34.084671 -0.72856706
33.861515 34.086613 -0.23854156
31.997023 38.799728 -1.3477
33.781837 34.296486 0.96224385
32.451683 37.79303 -0.040408406
33.881336 33.996456 -0.53472334
33.648346 34.791553 1.557934
33.196476 35.40567 2.1343958
33.57658 35.292702 1.7544235
32.043583 38.88414 0.061987489
34.146915 34.006809 1.0519708
33.187229 36.628517 2.8870821
34.297569 32.442612 2.5915685
32.053326 38.89164 -0.63815761
32.302975 38.003445 -1.0372502
33.045193 36.07362 2.3558257
33.673637 35.299225 2.776238
32.996597 35.922779 2.3531718
33.495506 34.989445 0.056587417
34.122295 34.215736 0.34595314
33.966171 34.293602 0.060044285
34.0755 33.879921 -0.34357452
33.852108 34.076767 -1.2423042
33.740025 35.067387 1.4760823
33.68145 34.592522 1.8635263
32.185379 38.306789 -1.5380938
34.728561 32.278866 2.3793197
33.480255 35.086971 2.0482512
33.637878 34.777134 -0.24023579
33.687832 34.50676 1.3573529
34.07283 33.816925 -1.329306
33.99522 34.200668 0.45810175
33.462486 34.690468 2.5476015
33.978561 33.9865 -1.8964576
34.679092 31.738297 2.7637184
31.845409 39.155727 -2.5870726
33.836792 34.17963 0.46196392
33.734642 34.983116 -0.2370569
33.990536 33.82222 -0.044985466
33.644314 34.77985 1.3585533
33.67981 34.904018 2.2592437
31.607021 40.301212 -0.74141675
32.394115 37.542492 2.4791951
31.679344 40.099983 -0.13335368
31.577173 40.206894 -0.8309263
34.056458 34.187275 1.8690442
33.761349 34.492069 1.8632177
31.572769 40.293983 -1.0298312
32.116707 38.363667 -2.1199613
33.190491 36.297066 0.7591114
34.212158 32.708958 2.0638754
32.056145 38.992752 1.7582011
33.697414 34.501534 0.85989738
32.393837 37.902733 0.85698402
33.67979 34.889366 1.9716666
32.331024 38.677265 1.0698986
33.744827 34.488781 1.2564787
32.951336 36.595047 -1.1334867
33.477737 35.099438 1.1576329
32.355717 38.603477 -1.4338431
33.714005 34.206657 2.0784819
33.747879 34.992821 -0.54094785
32.306976 38.002907 -0.93804908
33.981571 33.898453 -1.6983103
33.777981 34.599457 1.2671497
32.788998 36.899033 0.75887048
33.478428 35.101044 1.0657023
32.940132 37.083031 0.84889746
32.790436 36.779324 -1.3442199
32.58292 37.394608 -0.045485593
33.986233 34.079552 0.36016127
32.32243 38.763554 -1.5309864
32.100849 39.1063 1.0634714
31.950647 38.975967 -1.6391332
33.044094 36.88802 -1.2270752
32.173584 39.095757 -0.84222019
34.131641 33.892197 -1.0276878
32.17577 38.495594 -0.03710648
33.408478 35.953819 -1.4900935
32.195316 38.815746 0.044730961
33.637383 35.289433 1.4652494
33.671963 34.602161 1.0595828
32.110313 38.404182 -1.7339511
33.687176 34.174461 1.6569753
32.771572 37.10257 0.95699722
33.68396 34.597874 1.6628712
32.862411 36.90247 1.9644549
33.749565 34.530525 -1.5400926
33.848034 34.688713 -0.23565443
33.772892 34.199776 2.6581271
32.358555 37.800259 2.8527794
33.692524 34.88942 2.1640017
33.598553 34.709034 0.16501941
33.10363 35.892151 1.9736092
33.036255 36.778522 1.0606413
32.696487 37.509068 1.1656579
33.895523 34.507061 -1.2219687
32.293922 38.604431 1.1608211
32.92754 37.074619 -0.013025262
34.17733 32.989483 2.5416951
32.782177 36.791534 -0.92723918
33.733391 35.07262 -1.0071013
32.031715 38.47654 3.4263599
33.074009 36.098938 -0.34482267
32.462498 37.889793 2.1635258
33.864521 34.495144 2.4592528
34.465866 32.090824 3.0011511
33.758717 34.887611 1.566341
33.750679 34.480576 -0.44848996
34.055767 34.003841 0.6570003
32.859058 37.192928 2.0661201
33.966751 33.998047 -0.1381069
32.850052 37.084232 1.1675483
33.760204 34.48423 -0.82685035
32.67054 37.197247 1.0625217
33.650299 34.794937 -0.65944999
32.344078 38.092503 -0.23495778
33.968605 33.998215 -0.2388877
33.773548 34.192848 -1.343294
32.079594 38.799332 1.652984
32.945965 36.479313 0.34375355
32.167057 38.395061 -1.5371016
32.508736 37.339138 2.0352373
34.574871 32.599972 2.4586051
33.971886 33.999569 0.25784653
34.824196 32.047287 2.5026727
32.780128 37.110367 1.1586002
33.643082 34.686131 0.36092514
33.859612 34.091869 0.46066424
32.082573 38.694649 1.5559405
33.784409 34.591343 0.45904925
33.55859 34.993633 2.0652232
32.499054 37.513649 1.1749334
34.496094 32.096325 2.6618125
33.105679 36.4104 1.3720043
33.969734 33.997009 0.45890355
33.645615 34.781193 0.46024215
32.832886 37.28249 0.96468675
32.273872 38.113708 -1.4408611
33.395157 35.107075 0.84108108
32.788139 37.081306 2.26687
32.774891 37.104866 1.2649494
33.136982 36.579575 1.6709749
33.65815 34.391518 2.3574274
31.892826 39.038879 1.6653991
34.061939 33.994549 0.25881082
33.77129 34.29789 1.863637
33.867474 34.610271 2.5466025
33.091362 36.021774 1.0841591
34.625874 32.559223 2.4634724
34.697353 32.128407 2.4299576
33.101864 36.72039 -1.6587389
33.392578 35.712997 -0.94872713
34.059483 33.999363 -0.24177735
32.766766 37.105911 -0.43112937
32.938046 36.603943 -0.65614402
31.571007 40.30899 -1.1440369
33.939335 34.495216 1.8583517
32.9417 37.066742 1.77816
34.061657 34.000683 -0.037297551
34.044277 34.185513 -1.0460778
33.601433 35.209232 0.45778096
32.335083 38.774506 -1.3203003
33.865028 34.099537 2.1579185
33.491341 34.800785 2.1591325
34.092583 33.173504 1.4892967
33.5425 34.980694 0.56098229
33.164547 36.60495 2.5520763
32.943844 37.058449 -0.75986785
32.200005 38.909115 0.26562467
33.965332 33.996883 0.76076001
33.986317 33.39782 2.4714434
33.991909 34.21006 0.36114231
33.923275 34.659397 -0.97776324
32.581421 37.399742 -0.13883884
34.20031 32.738792 1.8629392
32.043289 38.882732 -0.037491657
33.880497 34.095913 1.7598941
34.271114 33.397873 2.6494308
33.586311 34.893635 1.7620796
32.856876 37.299934 2.0633731
31.551443 40.474586 -0.63358462
33.885303 33.913578 1.7582476
33.445633 35.281227 1.257815
33.591572 35.177734 -0.33513084
33.489971 34.912857 1.5611094
33.573505 35.300556 1.5616207
32.927303 36.628834 -1.4481908
32.853008 36.917484 -1.0318202
31.560194 40.517654 -1.24142
33.765339 34.102528 -1.9439526
33.991833 33.821709 0.56807584
32.135757 38.676926 0.3558203
32.004486 38.514999 -1.1994108
34.398781 33.005314 2.4516599
32.577606 37.501167 1.5588821
33.634037 34.787346 0.95501494
33.848286 34.188942 1.1694537
33.544941 34.987827 1.2682838
33.481663 35.092793 1.2564777
34.54277 32.118172 2.8404222
33.565029 34.987377 1.9493872
34.057358 34.002052 0.059233513
33.745083 34.892662 0.75633699
33.897919 33.940716 -1.2360942
33.797531 34.021606 1.7587337
33.664642 34.593517 0.35872433
32.10202 39.111599 0.26547331
31.949717 39.784412 1.5669961
33.555099 34.983437 -0.53533214
34.143753 33.868809 -1.2290022
34.363529 33.380402 1.9543822
33.984985 33.496132 2.4568608
34.238663 33.763275 -1.1193141
32.869743 37.082081 0.061617386
33.862366 34.585175 2.6564002
33.774952 34.295071 -0.043018445
33.890625 34.280224 2.6189809
33.864529 34.49815 1.6524429
33.638969 35.187881 0.36053112
33.063015 36.099495 0.97921336
33.747494 34.290718 -1.9367647
32.672176 36.990883 0.51639068
33.590771 35.202988 -0.74369478
33.73951 34.481785 0.75510013
33.348103 36.081093 2.055172
33.7603 34.883205 1.6595049
31.98785 38.671963 1.0113828
34.221912 34.102921 -1.4355228
32.874592 37.18084 -1.2243459
33.987255 33.854946 2.5676198
33.601391 35.201447 -0.82965839
33.567528 35.186302 1.7728596
34.038445 34.187065 1.0669782
32.354977 38.584324 1.6627778
33.785278 34.097813 -1.4330256
32.804241 36.703682 -0.43937635
32.081455 38.803131 1.7596824
32.065243 38.796734 0.6646387
31.954216 38.976917 3.4699099
33.781605 34.298004 1.0614063
33.652451 34.692921 1.0550317
33.780239 34.298428 1.5619482
33.548584 34.883907 -0.43580997
33.901958 34.409676 -0.5332315
33.540577 35.005928 -0.42741594
33.68726 34.996666 0.96007842
32.194881 38.404057 0.26373741
33.983875 33.819508 1.6608731
33.746689 34.891426 0.26486868
33.837914 34.906517 3.0718405
31.966965 39.093872 1.2546657
33.856873 34.26569 0.45255652
32.431393 37.87524 0.66201609
33.992775 34.197212 0.26317304
33.739395 34.4827 -0.24792573
34.058292 33.999317 0.96302247
33.875065 34.396603 2.4584041
33.991611 34.206512 0.86366683
34.476006 32.637146 2.3476727
32.231686 39.048122 -0.72583503
32.007015 38.609329 2.644367
32.04353 38.887566 0.26240674
32.880787 36.599293 1.5474488
32.876179 36.69091 -0.84255421
34.059162 33.997665 -0.53194594
33.745811 34.485229 1.159724
33.646946 34.785717 1.1560938
33.558704 35.087223 1.2719924
32.852695 36.697872 0.95479876
34.007282 34.109894 2.6602271
33.749069 35.065918 -1.163843
32.772038 37.106262 1.056803
32.137878 38.675667 0.14845791
33.031902 36.91573 -1.1471148
33.87925 34.08572 2.5589988
34.060608 33.99707 1.858855
33.591301 35.202076 -0.14802825
33.100319 35.988922 1.1625785
33.653996 34.583923 2.4411564
32.454319 37.883141 -0.74025857
32.0042 38.817287 1.271084
32.248566 38.189972 -1.5404948
33.460781 35.197979 1.2610047
34.138824 34.111301 0.87768549
32.057026 38.792606 2.4623342
32.076115 38.794746 1.0657679
32.045395 38.887585 0.36057603
33.640926 34.689323 0.060895052
33.457764 35.200459 2.1710031
33.87748 34.497238 -1.1187333
34.168625 32.705818 2.7552102
33.806091 34.611507 -0.041290615
32.081291 38.595013 2.0629618
33.984936 34.076405 0.66443694
32.856644 36.701344 -0.14338541
31.951797 39.281471 1.0540541
32.278469 38.798061 -1.151509
33.749283 34.888622 0.8592959
33.986832 34.077797 0.96361351
33.857273 34.092857 0.26459378
33.796329 34.199226 0.95639604
32.816772 36.514286 2.1697121
33.748539 34.388733 0.36608085
34.339043 32.690411 2.4502089
32.040482 38.986816 0.16105084
32.297318 38.099396 1.2543042
31.515453 40.709431 -0.79146731
31.957582 39.593651 2.55674
32.607754 37.198666 1.4513485
32.496773 37.598705 -0.03822986
34.466381 32.57785 2.6739902
33.550209 34.887932 -0.033384286
32.857296 36.807671 1.5610027
33.561207 34.782158 2.1459897
32.454048 37.788067 -0.43877888
33.757141 34.390865 0.96281153
33.567703 34.89682 1.0598698
31.900864 39.610023 1.4657367
32.868015 36.70163 -1.0383147
32.904549 36.519154 -0.34540203
31.930614 39.776398 1.377142
34.527515 32.788361 2.670537
33.573814 35.092327 0.8587805
32.080524 38.7948 1.5602319
33.677063 34.487125 1.9702806
33.970325 33.992962 -1.5260946
34.078308 34.189743 2.3479354
33.652279 34.687702 2.2307825
33.853989 34.192249 1.46597
33.689026 34.499359 1.4647802
33.599876 34.708153 -0.036897942
33.559658 34.990604 1.5664687
32.451771 37.794151 -0.23887879
33.890171 34.553913 -1.4263114
33.777721 34.30006 1.6577688
33.58868 35.302124 -0.93871337
33.805622 34.110607 -0.63903427
33.037453 36.258907 0.79508322
32.932621 37.150124 0.41416353
34.287781 33.536808 1.907733
33.779686 34.395966 1.7574525
33.143475 36.601501 1.9539576
32.078255 38.800385 1.8578317
32.937607 36.585674 -0.24493496
34.599735 31.907572 2.1690435
33.662743 34.592812 0.065262169
33.515785 34.499676 2.3628697
32.981445 36.801456 1.6511337
33.181877 36.296707 1.162066
33.861595 34.20269 -1.233376
33.862629 34.192959 1.8616706
33.583527 34.905491 1.9619478
33.643555 34.781818 0.26380262
32.048729 38.99139 -1.0405464
34.140617 33.869045 1.2737713
33.991516 34.079224 -0.2403505
33.738148 35.071842 -0.73851198
33.464535 35.09922 2.3262818
31.693176 40.202042 -0.43814614
33.83466 34.785553 0.065869786
33.777855 34.396812 1.9568831
33.680588 34.709152 2.3436065
33.855862 34.599033 0.06725233
32.008575 38.798698 1.6687843
33.107029 35.997166 0.56379712
33.652828 34.696587 1.2580506
33.573292 34.800446 -0.23731484
32.0872 38.702946 1.2628452
32.700752 37.014614 0.46721947
34.204239 34.060986 1.7777377
34.178215 32.714966 2.6607387
33.883793 34.491501 0.06286744
33.956219 34.38707 -0.7427398
33.639717 34.692154 -0.4427582
33.450787 35.087814 2.2601492
32.031517 38.978584 -0.041954167
34.28294 33.514599 1.9259765
33.64642 34.691139 0.96377987
31.994425 38.798298 -1.5378658
32.184589 39.005116 -0.83754063
33.940914 34.592583 0.073178038
33.574741 34.897446 1.3588387
33.541534 34.982254 -0.14972326
33.688755 35.007927 -0.3426331
34.334915 32.676029 2.2651784
34.683308 32.121521 2.5417991
33.845707 34.275776 0.65729207
33.62397 34.90723 -0.71175241
33.778851 34.393341 1.8607315
33.747589 34.391407 0.5612523
33.783497 34.29929 1.4620842
33.513348 34.62883 2.1501298
33.694294 34.908306 -0.53271979
33.674568 34.599396 1.96804
33.658947 34.791336 1.9645083
33.647366 34.797581 0.3767243
33.561504 35.092949 1.9594176
32.587765 37.202877 0.68005168
33.555737 35.091541 -0.046190277
33.966507 34.30035 0.16131502
33.962288 33.977779 -1.4416674
33.923763 34.648705 1.1778244
32.331284 38.777592 -0.73942602
33.877548 33.797134 2.2585711
33.548744 34.98164 -0.23791245
32.088757 38.698997 0.1611394
33.919758 33.805744 -0.022387778
33.095325 35.805023 2.3587368
32.090824 39.200691 0.46118048
33.195984 36.296654 0.46950611
33.972851 34.294216 0.25879455
34.441757 32.59037 2.5348675
31.960184 39.092751 -1.0347337
32.651848 37.20113 -1.3369721
33.749992 34.391521 0.66039443
32.0742 38.699528 1.6606944
32.286842 38.202194 0.86143845
33.84185 34.189476 1.0599096
31.666033 40.202602 -0.73491621
33.595535 35.298164 -1.2340796
33.359291 36.210884 2.9742811
31.687349 40.103661 -0.53939623
33.89275 34.395706 -0.64152485
34.058983 34.002224 1.1641216
33.134834 36.694008 -1.0415995
33.145988 36.688675 -1.6393853
33.150482 36.660439 -1.7379763
34.27906 34.027206 0.21322905
33.695908 34.995998 0.2588973
34.724533 32.275314 2.6679025
31.654707 40.119896 -0.73804176
33.976044 34.291557 -0.33488798
34.241859 33.869289 1.464442
33.885136 33.808044 1.9773382
33.773678 34.296619 0.064122424
33.644611 34.680134 0.16704938
33.654285 34.790531 1.6637509
33.582596 34.897964 1.660495
34.462456 32.895996 2.256516
33.875988 34.398533 2.2551169
34.344067 32.706478 2.9539039
32.908802 36.31506 2.1742592
32.36832 38.610653 -1.218937
32.588524 37.396851 0.5629769
33.174351 35.689316 1.6861476
32.980446 36.803616 1.3546337
32.864601 36.69381 -0.7499305
33.73904 34.475807 0.85968882
33.562534 34.892723 0.85793775
32.053055 38.789955 2.1551826
34.062 33.811787 2.0728748
33.190067 36.125729 -1.1540507
33.854946 34.684231 -1.3826848
32.272427 38.49543 0.86179507
33.747704 34.386642 0.26215962
33.4823 34.793541 -1.8275132
32.475677 37.69603 0.15849967
33.688194 34.998581 -0.13909581
33.854561 34.59404 0.65598559
32.85939 37.081223 0.96600074
32.263783 38.183968 2.5529578
31.857944 39.894321 -0.23985374
33.601624 34.715122 0.86036468
33.560635 34.899582 0.96575999
32.850815 36.70472 -0.64083779
33.907574 34.069378 -1.8290771
32.093304 38.702316 1.0584131
34.060352 33.998234 1.6593839
34.788216 32.008896 2.358556
32.036236 38.895309 2.8552258
34.132465 33.881954 -0.031499803
32.069813 39.188854 2.1647365
33.787849 34.900875 2.5659492
33.675514 35.284775 2.5732837
32.687405 37.110786 1.4639688
33.75864 34.296394 -0.83636689
34.254124 32.884308 2.9666095
33.975056 34.413155 2.8566468
32.06546 38.598694 2.3687308
32.250668 38.392006 1.2627572
33.883175 34.301357 2.5541482
32.050224 38.986225 -0.53626597
34.176369 33.815563 -1.1389701
32.78072 36.699966 2.2573025
33.454857 34.740639 2.7493253
31.587889 40.485062 -0.83634526
32.231106 39.089645 -1.1585982
33.585209 34.804424 1.559443
33.570972 34.893826 2.0589557
32.145641 38.683907 1.0643631
33.600849 34.705139 0.36196762
33.383121 35.09285 2.1704123
33.962616 33.584244 2.640918
32.587559 37.203407 1.2758801
32.188126 39.102985 -1.5250226
32.039658 38.982525 -0.33282241
33.693794 34.99826 0.56604081
33.86034 34.195217 1.6575181
33.855782 34.287445 1.6616865
32.49958 37.412491 2.1763065
33.863483 34.588234 -0.44276261
32.379288 38.794544 -0.48678485
32.365936 37.910934 1.960542
33.775429 33.991138 2.7634382
32.923058 37.052971 -1.0230453
33.472107 35.474483 -0.54559815
33.471157 35.476231 -0.054399483
31.949047 39.088287 2.3683712
32.838413 36.792259 0.96714264
33.62233 35.325405 0.75280797
32.180428 39.007099 -0.64887142
32.579208 37.493992 2.2611082
33.974838 34.202511 -0.73396224
31.960361 39.090027 0.36023208
33.495247 34.901066 1.6621177
32.304176 38.106579 0.65403283
33.886932 34.527954 -1.339296
33.91684 33.90501 -1.3151586
31.939785 39.17979 0.6565358
32.34687 38.690468 -1.1273961
34.149933 33.258984 2.8594368
32.852249 36.688232 0.46233281
33.885159 34.498348 0.1649092
33.974018 34.082138 1.6590514
33.868713 34.192924 1.7571543
33.667271 34.595699 0.6599884
34.264553 32.797012 2.3545663
32.340672 38.178963 -1.5047417
33.485317 34.590984 2.5608797
32.587944 37.396988 0.05696436
33.8587 34.818596 2.9580245
32.383858 38.294285 2.2600539
33.647263 34.586235 -1.6654137
32.673721 37.200283 0.86269873
32.183266 38.99646 -0.037512276
33.639767 35.269073 1.2709999
33.841133 34.701324 -1.0305241
33.773293 34.395206 1.6566973
33.356411 34.85437 1.7383308
34.361485 33.299816 2.0757377
32.281166 38.096962 -1.2431331
34.125713 34.090599 1.8541062
33.043846 36.269428 -0.044079591
32.352772 38.496727 2.3532958
33.968552 34.000828 1.363088
33.906349 33.813362 -0.73249191
32.040241 38.986782 -0.73359162
32.84708 36.802742 -1.4316001
34.638542 31.906803 2.568198
32.671444 37.28701 1.7619106
33.888313 34.495201 0.46348253
32.858746 36.697685 -0.43635979
34.133347 33.287197 2.4550245
32.790485 36.699406 1.0773052
32.250763 38.394291 1.3584982
34.374863 33.186707 2.0754685
33.969364 33.99366 -0.036110725
33.986549 34.079605 0.76030606
32.204567 39.013023 -1.6284293
33.594418 35.213657 -0.041325264
34.040424 34.191406 -0.7343356
33.77063 34.39883 2.0475473
34.056957 33.997482 0.56435019
33.594345 34.313274 2.449492
32.472366 37.698879 -0.13960734
33.96928 33.995876 -0.43317929
33.397812 35.109497 1.2499623
33.812626 34.02412 -0.32760933
32.796974 36.635597 0.17112222
32.254719 38.391373 1.4653867
33.557892 35.100174 0.37573028
34.019463 33.187275 3.3879216
33.44083 35.283756 1.1583291
33.590691 34.494801 1.1050168
34.044453 33.82938 -1.8898593
32.691483 37.499107 -0.33386511
32.171322 38.383541 2.8574712
31.996506 38.800945 1.5731845
32.050091 39.692116 -1.7135031
