# .PCD v0.7 - Point Cloud Data file format
VERSION 0.7
FIELDS x y z
SIZE 4 4 4
TYPE F F F
COUNT 1 1 1
WIDTH 1563
HEIGHT 1
VIEWPOINT 0 0 0 1 0 0 0
POINTS 1563
DATA ascii
50.484482 40.595078 2.3587995
50.477535 40.503769 2.2662137
50.888836 39.406857 2.362637
50.885834 39.305946 2.2689722
50.896503 39.300003 2.5315711
51.303291 38.315277 2.5505583
50.714729 40.813511 1.7730483
51.843399 38.17738 1.7479874
50.272095 40.996956 2.5497677
50.280968 41.092724 2.1632221
50.68409 39.8255 2.5454764
51.06723 40.362114 -1.3838
49.048981 44.391277 2.168391
50.076164 42.849613 2.1602254
50.580879 42.909416 0.68548465
49.970375 43.003124 -0.53774983
50.880299 39.322838 2.6487527
51.290508 38.264633 2.669749
50.345833 43.565823 1.578089
50.44416 43.619194 -0.36457318
50.789059 39.597527 2.4380212
51.135693 38.585011 2.6421211
51.703526 38.223446 1.1530857
49.747829 43.981018 1.9287741
50.166916 44.272552 1.4767061
50.278904 41.094498 2.458988
50.678505 40.002815 2.3608251
50.67289 39.919426 2.3703437
50.681488 39.892143 2.5581141
50.774216 39.806213 2.5437224
51.170486 38.800495 2.359797
50.467304 43.20993 0.25355607
51.861031 38.10561 1.749753
49.985771 41.798698 2.1696765
49.081738 44.301022 2.0534153
50.354725 43.580376 0.46366626
50.367378 43.765396 -0.44146103
50.890667 39.404026 2.447154
51.302856 38.325134 2.3321657
49.93325 43.107029 -1.4251931
50.783211 39.797874 2.3582587
51.190792 38.702587 2.3563993
51.389435 38.196457 2.4558992
51.87978 38.248001 1.4537691
50.139801 42.663452 -0.44861108
49.723736 45.175957 1.5483539
50.387711 43.23637 0.55360788
49.723595 45.324337 0.50991505
49.351112 44.778 -0.73986632
50.035263 42.966633 -1.2514101
50.330772 42.152794 -1.3681093
50.431839 41.871872 -1.436348
50.987385 39.196198 2.3575225
50.740131 41.092396 -0.63415384
50.929153 40.559044 -0.54420912
50.633499 42.859867 1.4617875
49.263309 45.095036 -0.93578547
49.347046 44.680054 -1.513286
49.534519 44.069088 -1.5769038
49.637562 43.884529 -0.83611351
49.941616 43.089386 -0.74697948
50.67712 40.090633 2.2619326
50.650547 42.801414 0.4628754
50.736664 42.903893 -0.4370203
51.606239 38.531883 -0.041469395
49.690098 44.855324 0.22098932
49.687912 45.21843 0.28704137
49.197178 44.803375 -1.2351003
49.592033 43.793034 -1.1397823
49.563812 43.727707 -0.82903755
49.605412 43.713326 -1.3297679
49.804394 43.216114 -0.93209058
49.888275 42.998951 -1.2409472
49.910503 42.927036 -1.0227442
50.151237 42.354599 1.1987302
50.686264 40.841381 0.56854427
49.697094 44.861694 1.52976
51.235561 39.773216 -0.72455591
48.961098 45.37339 0.85247099
48.919559 45.536587 0.93899333
49.291466 44.598232 -1.0407543
49.76025 43.393494 -1.2331076
49.870014 43.195229 -0.93909281
50.840054 40.785145 0.15169267
49.766933 42.500027 2.0643497
49.657539 45.276604 1.5706395
49.589333 45.512634 0.54510885
50.294674 42.574997 -0.43315282
50.278687 41.099419 2.2698896
50.785999 39.605194 2.36461
51.288223 38.393173 2.5416
49.969395 44.502609 0.56308627
49.961727 44.774895 -0.42100671
49.867668 45.203213 -0.3462913
50.238026 42.799698 -0.4163444
49.647919 43.882645 -0.42492417
50.312294 43.32486 0.85113722
49.338425 43.677338 2.1613309
49.992901 43.026672 2.0666308
49.927731 44.862282 1.4558481
50.47385 43.216393 1.3649008
49.552177 45.708626 0.55461174
50.097626 44.115116 -0.26719472
50.587013 43.091545 -0.24605292
50.464565 43.356838 -0.12934273
49.290974 44.5914 -1.1423787
49.504623 44.11182 -0.62654567
49.561348 43.989681 -1.1322621
49.63821 44.157635 -0.90696424
49.646492 43.986347 -0.94146943
49.66745 43.996246 -0.42060211
50.035187 42.981415 -1.0640368
50.351959 42.192009 -0.74315298
50.948257 40.568832 -0.15234014
51.035366 40.358791 -0.97366512
51.338646 39.369568 2.0710626
50.314297 43.336617 1.6004316
51.970592 38.069695 1.9604431
51.740002 38.475681 -0.92649096
50.157829 42.616028 1.9088961
49.761902 43.919296 2.0918922
50.564259 43.000881 0.4592883
49.572968 45.392517 0.34739923
49.798206 44.733711 0.15972784
50.312775 43.611397 -0.43753064
49.56599 44.403 -0.38620508
49.551441 44.100368 -0.45138955
49.557602 44.259525 -0.39945027
49.051926 44.398006 2.0629702
49.877544 44.643333 1.4923278
49.704819 45.067112 0.49239624
49.190422 44.793964 -1.5378172
49.19788 44.707561 -1.5508322
49.592178 43.837852 -0.64949131
49.680687 43.696621 -0.94008565
49.778183 43.295822 -1.2465544
49.793423 43.306709 -0.94425935
50.30904 43.319691 0.35803109
49.236561 44.926147 0.49920428
49.542194 44.184826 -1.2531788
49.640804 43.895466 -0.74096113
49.831291 43.380352 -1.3603253
50.544952 40.48922 2.2641988
50.178528 41.397823 2.2594159
49.183376 44.002094 2.267452
49.812443 43.66304 2.212218
50.074867 44.422768 0.74696761
49.565704 44.447582 -0.25794798
49.280445 45.095478 -0.73785222
49.328415 44.793259 -0.99977684
49.570118 44.098862 -0.2450563
49.555862 44.315983 -0.26569438
49.621078 44.010448 -0.30268168
49.896194 43.211689 -0.44258976
49.951023 43.185421 -0.95431018
50.267994 42.392536 -0.83572096
50.447712 41.647888 2.0694299
50.454712 41.911133 -0.21773495
50.533127 41.673752 -1.1966064
50.73777 41.078213 -0.35283035
49.636475 44.057755 2.0612345
48.857132 45.387119 1.2704771
49.708328 45.195328 0.57017529
49.692039 43.704315 -0.62898415
49.778004 43.397388 -0.94743377
49.837223 43.381168 -0.93428475
49.847862 43.29393 -1.1335727
50.678493 39.919563 2.0916717
49.664982 42.789906 2.0641611
50.109127 44.124527 0.53552473
50.006439 44.398186 0.55875987
49.797012 45.466019 -0.43839172
49.693211 42.696766 2.0623724
49.322796 43.779644 2.0134201
49.842823 43.787266 1.8864225
50.144608 44.283329 1.3960612
48.951069 45.38736 1.1688927
49.151535 45.082008 0.55907643
49.85033 43.380299 -1.2299359
49.937691 43.192516 -1.0410105
51.224602 39.764538 -1.3557342
49.683998 45.450169 0.54444534
49.251411 44.893387 -0.54391718
49.362652 44.785496 -0.83013892
49.441086 44.484924 -0.83102804
49.560146 44.295967 -0.91330308
49.546654 44.094032 -0.93602252
49.664646 43.783352 -0.64586723
49.74548 43.690636 -0.94718921
50.549911 40.490593 2.1724532
49.087048 44.213814 2.0629735
49.855179 43.481438 2.0375237
50.161247 44.119316 1.565484
50.161476 44.271805 0.49708337
49.453735 44.808113 -0.43563545
49.433952 44.485531 -1.0294381
49.445065 44.488621 -0.43399519
49.839485 43.38332 -0.54390657
49.832714 43.385506 -0.83928025
51.629246 38.665562 -1.3146846
50.363773 43.494514 1.555104
50.320122 43.649521 0.51937014
48.95108 45.293854 0.95520276
51.280457 38.414242 2.1569822
50.26635 42.535198 2.1269815
49.774731 45.09433 1.6115623
49.702507 44.113815 -0.64307493
50.33876 44.080788 -0.35367435
49.958714 44.709141 1.5698289
51.030476 40.305344 -0.80531228
51.13409 40.353912 -1.2799193
51.730568 38.452812 -1.2066871
50.741936 39.991016 2.2566588
49.351398 43.590179 2.1638732
49.682468 43.985062 1.9506761
49.733398 45.208767 0.44425261
49.652596 45.557663 0.49997243
50.580196 39.980053 2.7396839
50.924927 40.572136 -0.90663761
51.13755 40.066994 -1.0292203
51.247532 39.771118 -1.050069
51.642818 38.685608 -1.033268
48.981056 44.582745 2.0467095
49.780712 43.793175 1.9544759
49.997185 44.405083 1.4484183
50.311234 43.316566 0.25846541
49.789856 45.004021 0.45616478
50.475006 40.383705 2.6748857
49.41153 44.330185 -0.67311609
49.448734 44.293163 -1.2327025
50.051907 42.996925 2.0541019
50.304951 43.573803 1.5777061
50.08152 44.215588 0.57265449
50.013126 44.284081 0.59465015
49.606262 44.382706 -0.45675036
49.788231 43.404949 -0.84131122
50.312519 41.826569 1.794214
51.20705 39.529713 1.6656536
51.377445 38.29689 2.1598489
49.987408 43.11409 2.1289694
50.136307 44.171314 0.62047952
49.367252 44.873474 -0.34468362
49.837536 43.376904 -0.44209144
49.856792 43.291779 -0.53916496
50.139061 42.587109 -0.83556759
50.161823 42.485287 -0.53879547
51.625835 38.684753 -1.1367621
50.737652 39.982731 2.1562686
49.079884 44.296745 2.1754498
49.68063 45.075287 1.5764798
49.868126 42.109455 2.545145
49.255997 44.969669 -0.73496866
49.258064 44.798645 -1.3307972
49.866211 44.878445 1.5570666
50.460575 40.475975 2.0240526
49.746899 43.782364 2.0410714
49.680191 45.292763 0.44535968
49.261433 44.697674 -1.241055
49.311779 44.507919 -0.95771009
49.71748 44.792629 1.3287978
51.495556 38.687847 1.2753114
50.741505 39.982384 2.0636647
49.574245 45.583061 0.35809928
50.268589 42.490082 -0.53030056
49.551708 43.979221 -1.4447168
49.650467 43.788113 -1.129679
49.734833 42.67688 2.0838671
50.360764 43.776768 1.5689131
50.149857 44.1763 0.46764216
49.143623 45.087372 -0.13581464
49.392212 44.498158 -0.43650261
49.438751 44.382313 -1.0323037
49.445072 44.391945 -0.52576327
50.141205 42.71323 2.0675035
50.142967 44.279232 0.62603223
49.465492 44.391438 -0.44289237
49.243256 44.908928 -0.33610013
49.919014 41.798607 2.4569016
49.590107 43.991657 -0.45454851
50.721836 41.053223 -1.3699974
49.106499 44.112587 2.0900874
51.131489 39.96664 -1.5580992
49.58321 45.407234 1.5488054
50.276684 43.716133 0.55499554
48.883587 45.309414 1.0443249
49.268753 44.602108 -1.4351798
50.954971 39.398151 2.172585
50.264011 44.267868 -0.27601489
49.913612 41.890701 2.6478424
49.253475 44.902229 -0.65077102
49.392372 44.50219 -0.64713913
49.244957 44.984974 -0.63459724
49.432114 44.479675 -0.93738455
49.27758 45.01162 -1.2282169
50.140015 42.572258 -0.93760026
51.679562 38.195816 0.59598947
51.375553 38.298046 2.2763507
50.68771 39.894482 2.2615638
50.380585 40.891796 2.270328
49.352234 43.591843 2.2615182
50.328327 43.916832 0.80236852
48.879044 45.378746 1.3434769
49.592094 44.460037 -0.16330212
49.233032 44.909595 -0.051198047
49.735836 43.687103 -0.53167671
50.134487 42.673054 -1.0404123
50.245499 42.388596 -0.74865109
51.333504 39.568935 -1.048629
50.845001 39.690765 2.2503028
50.483738 40.589874 2.1611948
49.096661 44.204342 2.169663
49.77755 43.894436 -0.46630284
49.654152 45.390163 -0.35119209
49.870094 41.989346 2.5535166
50.487965 40.400223 2.5443356
50.147766 42.695961 -0.84063625
50.235687 42.383656 -1.1265224
50.424362 41.879196 -1.2457089
49.665031 42.781239 2.1568241
49.792572 43.659111 2.0397339
50.305698 43.320652 0.75942504
50.310787 43.306335 0.17577073
49.508671 45.567757 0.54404545
50.342613 43.901302 -0.33454543
50.091446 44.223213 -0.29635593
50.194283 41.12101 2.5355866
49.309689 44.605202 -0.73232979
49.592396 43.904102 -0.84546578
49.602695 43.817631 -0.83851111
49.660221 43.798512 -0.8435201
50.408974 41.527279 2.0837929
50.300938 43.286736 1.3408461
50.295738 43.321697 0.56713021
51.429985 38.193146 2.1472375
49.956951 41.992554 2.1649213
49.030724 44.478249 2.1773
49.572899 44.306839 2.0592997
50.3083 43.310287 1.1853871
49.671413 45.220001 1.5762509
50.31916 43.495949 0.63041639
49.75766 43.929245 -0.38324201
49.879318 42.102417 2.4500735
49.96727 42.992676 -0.44738829
50.110298 42.534863 -0.55873275
50.187511 42.394737 -0.54220444
50.733276 40.064121 2.1728601
49.296738 43.599224 2.1565633
49.777649 43.681557 2.1200581
50.265213 44.193268 -0.3265337
49.542492 44.177303 -0.74033302
49.667759 43.991161 -0.73688316
49.639126 43.878101 -1.0368562
49.661469 43.802326 -0.74648207
49.650566 43.779942 -1.3384509
49.751064 43.683521 -0.83574092
50.156078 42.592838 -0.37641957
51.008774 40.016167 2.157531
51.059605 40.378052 -1.2511806
49.001472 44.423145 2.0550141
49.004787 44.523769 1.9474289
50.096458 42.826752 1.9362149
50.297009 43.610447 1.4417708
49.543324 44.08947 -1.3263313
49.552696 44.08762 -0.74632019
49.598335 43.815758 -0.73480386
49.685295 43.699554 -0.84391886
51.453049 39.092941 -1.4223435
50.96793 39.39967 1.9722452
50.089588 44.128906 1.4465985
50.308983 43.30838 0.67249477
49.700554 45.188255 0.38016665
49.384312 44.296799 -1.445958
49.400734 44.303276 -0.85669887
49.500633 44.119122 -0.84141243
49.481956 44.103706 -1.1387649
49.496895 43.992447 -1.4479443
49.595432 43.81057 -0.94194007
49.612926 43.723045 -0.93337542
49.640266 43.672649 -1.5386662
50.899734 40.331654 0.35856417
49.735188 43.892769 1.7583628
49.758289 44.98407 1.3744613
49.98035 43.358822 -0.67302144
49.665237 45.301899 -0.55127859
50.2043 41.121086 2.4430299
50.065819 42.595818 -1.338526
51.049679 40.29966 -1.5222412
48.883629 45.478401 0.8785153
50.762463 39.53759 2.5463855
51.597778 38.185253 1.4631753
49.144249 45.06778 0.16412283
49.44442 44.483368 -1.1239917
49.423046 44.465305 -0.51839596
49.470634 44.197029 -1.13413
49.498692 44.189739 -0.53501916
49.545303 44.18684 -0.83144808
49.553928 44.084942 -0.84447229
50.629505 41.26968 -1.4429367
49.607872 44.187828 1.9568853
49.674477 45.196571 1.4550592
51.217178 39.435246 -1.5829048
49.753952 43.80275 -0.53048354
49.863487 45.415798 -0.52105415
49.877972 42.08942 2.1684091
49.900784 43.109932 -0.64662683
49.941193 43.077 -0.93713808
50.944584 40.482319 -1.4517506
49.750519 43.908039 1.9349387
49.902679 43.413879 2.0613742
50.071335 44.308323 1.5870551
50.178436 42.80331 -0.4295873
50.292751 44.270767 -0.37031227
49.241268 44.907078 -0.13096257
49.244202 44.975563 0.54299527
49.356411 44.591793 -0.74257201
50.169117 42.501785 -0.44115016
50.198238 42.394966 -0.44981739
50.832672 40.788746 -1.2372829
50.762936 39.898842 2.1734335
50.069027 44.282188 0.56193405
49.957508 44.599285 0.5649246
50.82373 40.880108 -1.4447019
50.509537 40.296417 2.655035
50.769268 39.512913 2.6796191
51.113071 38.903309 2.6555474
49.336769 44.777298 -1.260962
49.334366 44.705078 -1.2324849
49.340424 44.679253 -0.63077283
49.362099 44.581913 -1.22692
49.268845 44.880375 -1.2300383
49.448833 44.383293 -1.2315644
49.471252 44.294277 -0.64187574
49.54105 44.1768 -0.93430394
49.552391 44.090012 -1.2308418
49.560238 44.086861 -0.63842839
49.58498 43.99995 -0.63866597
49.640965 43.880722 -0.63653636
49.966125 42.992405 -0.745884
50.136299 42.588154 -1.1317761
50.148094 42.56958 -1.4173594
50.234539 42.351707 -1.4158013
50.730015 41.088871 -1.0177875
49.788788 43.781288 1.8877151
49.75058 45.111469 1.4411821
49.592041 45.466629 -0.44494447
50.404278 40.592667 2.5960994
49.956547 42.998035 -0.63822359
50.094444 42.607399 -0.64893991
50.154812 42.490124 -0.64017177
51.441559 38.196194 2.0462923
50.073479 44.277855 0.45044261
49.0783 45.098621 0.75585097
49.906994 41.91893 2.5679758
49.337929 44.683273 -0.93428165
49.393803 44.413307 -0.64411217
49.48048 44.199062 -1.0348151
49.54211 44.086777 -1.0351712
49.57954 43.996216 -0.74178302
49.554932 43.995056 -1.3348573
49.602631 43.91328 -0.73786527
50.569042 42.923546 1.4630276
51.334015 39.471214 -1.2376916
50.704475 39.817455 2.0871201
49.002319 45.509926 1.6038669
50.061432 44.305378 0.6688174
49.887005 41.998631 2.4604278
51.021881 38.817371 2.5872791
49.264416 44.994488 -1.1430473
49.283886 44.786934 -0.45664391
49.25919 44.872597 -1.1390128
49.266163 44.793037 -1.1375769
49.35437 44.592659 -1.1406311
49.364914 44.593132 -0.53933042
49.444263 44.389595 -0.84488487
49.535496 44.18227 -0.53386021
49.539646 44.19854 -1.1421207
49.554527 44.093601 -0.53372908
49.558357 43.989784 -1.2344618
49.584736 44.002052 -0.53672117
49.861927 43.190899 -1.2340198
49.951439 43.093803 -1.2381023
49.946453 43.081577 -0.6415934
50.069237 42.699097 -0.73783606
50.130466 42.581772 -1.308845
50.145676 42.5756 -0.72721469
50.229851 42.36544 -1.3305447
49.804043 44.719444 1.3563477
49.034977 44.479313 2.0404613
50.964863 39.395325 2.0585699
49.182198 43.999195 2.0725498
50.080254 42.910652 1.9657857
49.639454 45.460251 0.4539296
49.884705 42.104992 2.2531641
49.262772 45.004013 -1.4273946
49.253769 44.973938 -0.83920711
49.254459 44.917908 -1.4549147
49.251003 44.883892 -0.83340669
49.34589 44.688404 -1.1514282
49.362038 44.495571 -1.135259
50.603527 42.908043 -0.47213507
51.090332 38.796692 2.4625342
49.260048 44.6786 -1.5254098
49.357304 44.486702 -1.2339833
49.389778 44.309116 -1.2416972
49.461533 44.19323 -1.235368
49.484081 44.098732 -1.2365876
49.767586 45.095325 0.36395726
49.284134 44.591431 -1.2331148
49.345398 44.559917 -1.6438859
49.431168 44.269325 -1.6119792
49.463085 44.293587 -0.94022393
49.451763 44.183304 -1.6165818
49.483852 44.201382 -0.94373721
49.494934 44.107632 -0.94814509
49.462566 44.098648 -1.6263422
49.546612 43.978836 -1.6467917
49.843388 43.094002 -1.7184752
49.659363 43.988171 1.774038
49.737976 45.091042 1.2575531
48.886513 45.31295 0.75417048
49.352524 44.6847 -0.74322087
49.392776 44.291641 -1.3355384
49.406342 44.326962 -0.73873293
49.46003 44.187599 -1.4334009
49.505772 44.114353 -0.73980933
49.493126 44.102158 -1.0394151
49.806202 43.307415 -0.84622335
50.007027 42.705414 -0.93817711
50.091381 42.505424 -0.94420886
50.312149 41.917553 -0.53973293
49.385231 44.583382 1.9378239
49.299946 44.711327 -0.63790011
49.360168 44.595123 -0.64232159
49.389481 44.497395 -0.73965883
49.473404 44.297379 -0.73732942
49.497818 44.195854 -0.73754263
49.466946 44.09763 -1.4476715
49.873524 43.195587 -0.84044439
50.084904 42.596851 -0.93747425
50.083191 42.499016 -1.5198275
49.472702 45.699749 1.363651
50.45929 40.485397 1.9693439
49.687767 44.1166 1.8829538
49.038467 45.41737 0.85074157
49.378277 44.494526 -0.94172084
49.457958 44.293556 -1.0328859
49.45187 44.190243 -1.3411553
49.486809 44.200161 -0.64926964
49.80394 43.314358 -0.74434501
49.880043 43.199635 -0.74034142
50.065128 42.695976 -0.84360695
49.900204 43.512398 1.9583557
49.73354 45.625175 -0.42264587
49.886879 42.002815 2.2449844
49.796009 43.404587 -0.54277408
49.847958 43.292545 -0.84286445
49.882782 43.202354 -0.55422556
49.944672 43.097618 -0.55440444
49.960758 42.985012 -1.2288978
50.735115 40.879005 1.9483681
49.644531 45.405846 0.57747543
50.256176 42.379379 -0.42433265
49.894356 42.00354 2.3608303
49.897945 42.096188 2.3545747
49.140667 45.081875 -0.029804274
49.351616 44.495277 -1.4323716
49.400169 44.407753 -0.74875379
49.453056 44.280762 -1.4241447
51.156681 38.899033 2.0740352
50.198952 41.118599 2.2884135
49.258831 44.885971 -0.73861301
49.264824 44.801273 -1.4282752
49.274529 44.79744 -0.74350548
49.257607 44.697163 -1.4304181
49.299046 44.70108 -0.73959529
49.366619 44.603069 -1.4445145
49.371426 44.401424 -1.1425244
49.43681 44.365067 -1.535987
49.486881 44.20097 -0.84722078
50.144089 42.485451 -1.637918
50.938183 39.487667 1.9751617
49.051586 44.401077 1.9480966
50.371243 43.681286 0.37874261
48.80204 45.415627 0.85578585
49.274471 44.803837 -0.64775062
49.894814 41.892925 2.4696903
49.914864 41.912083 2.2326496
49.891338 42.004074 2.1648793
48.975922 45.392952 0.77225995
49.293686 44.610126 -0.66816729
49.39827 44.317642 -1.0360295
49.441185 44.286598 -1.3399165
49.891239 43.104164 -0.84678739
50.058117 42.585815 -1.5416389
50.852669 39.692429 1.9657341
50.294231 43.681694 1.3947314
49.482468 45.822189 0.36257473
49.084702 45.102711 0.45827869
50.174801 41.113155 2.0404859
50.14389 42.587414 -0.64158082
50.134628 42.957741 -0.54667121
50.798737 39.807255 1.9742192
49.331505 43.669731 1.9755261
50.249107 43.818745 1.4719106
49.702904 42.510059 2.2560315
50.479549 40.397362 2.4526925
50.075626 42.692131 -0.53813374
50.176308 42.398075 -0.64485931
50.262501 42.272884 -0.23466097
49.075764 44.219936 1.9581645
49.569946 44.383175 1.8788943
50.14053 44.199524 0.35462919
50.05154 44.39439 0.38280261
49.89212 41.780708 2.1877882
50.652153 40.191853 2.2653062
49.355732 44.594906 -0.8441425
49.44738 44.30534 -1.5194538
49.463509 44.298454 -0.83884823
49.857224 43.295158 -1.2352474
49.889301 43.100674 -0.93953991
49.924953 43.055122 -1.6164653
50.051247 42.679585 -1.6330547
49.869205 43.383583 1.9552758
49.342358 44.798813 -0.5534035
50.406113 40.610161 2.3697989
49.373791 44.396351 -1.2376162
49.402393 44.401089 -0.55207837
50.089878 42.510376 -0.8470701
51.105858 39.805271 -0.93855786
50.499622 43.091282 0.3734366
49.843174 43.386875 -0.7324034
49.180962 43.851234 1.905466
49.706245 42.498535 2.0661235
51.118931 38.725109 2.1708159
50.177124 42.397373 -0.84478009
50.591087 41.116634 -1.6465187
50.374336 43.234631 1.1533611
49.306767 43.700089 1.846836
49.682163 45.301788 1.2497951
49.04874 45.38903 0.74894708
49.918171 41.874512 2.0832644
49.98518 41.722607 2.0640161
49.352707 44.403347 -1.5352044
49.269287 44.798569 -0.83336973
49.278667 44.694851 -1.1373637
49.300758 44.625576 -0.83987916
49.270618 44.596272 -1.530775
49.383072 44.499172 -0.84091944
49.343994 44.481106 -1.5257986
49.398991 44.413536 -0.83573037
49.776051 43.294548 -1.3391068
49.860172 43.100269 -1.344456
49.88488 43.002987 -1.333835
49.994835 42.699799 -1.4293876
49.606552 42.757256 1.9627253
51.385372 38.295788 1.9727954
49.340637 44.691982 -0.55645555
50.401817 40.617947 2.4737072
49.901707 43.104092 -0.7429024
50.089218 42.595642 -0.84087849
49.352173 44.592621 -0.9341172
49.501579 44.397385 1.8528099
51.224422 38.792271 1.8533843
50.85244 39.691422 1.8760402
50.076759 42.499519 -1.4356999
49.084648 44.304287 1.8721514
49.803429 44.998108 0.36660832
49.186626 44.78442 -1.6307589
49.348007 44.379791 -1.7296221
49.350628 44.590389 -1.0330534
49.519184 44.480873 1.9503187
51.438824 38.170761 1.9731004
50.735332 40.06395 1.9769777
49.350269 43.596779 1.9535632
50.035782 44.397011 1.3667272
49.149357 44.901764 -1.6405554
51.092026 38.904484 2.2752872
50.507561 40.210094 2.458235
50.208 41.116135 2.3738618
50.151833 42.494179 -1.1377815
49.806957 44.734314 0.055073839
49.840939 43.19886 -1.6531044
50.146893 42.497044 -1.036677
49.884052 43.10582 -1.0364773
50.070404 42.678276 -1.7126508
49.944878 44.597317 0.96292961
51.272034 38.595665 2.0654192
49.19619 44.797546 -1.3463149
49.700016 43.408028 -1.4433976
49.775158 43.191437 -1.8080809
49.805382 43.213261 -1.1270812
49.990547 42.705002 -1.5328941
50.09938 42.403507 -1.2449081
49.943253 43.081459 -1.0339422
50.911842 39.527458 1.9038271
50.41124 41.531265 -1.4326057
50.519646 41.212605 -1.8031694
50.711147 40.813389 -1.2393997
50.563145 41.392056 0.6628148
51.259918 39.382027 -2.332396
50.539406 41.48637 -0.23519179
50.549435 41.485107 -0.83833104
51.040722 40.18428 -1.2286806
51.2607 39.497486 1.7548821
49.596809 42.893734 1.9770849
51.268589 39.395428 -1.8265009
50.548584 41.478958 2.0546181
51.565311 38.598442 1.8579848
50.662704 42.870552 0.13311328
51.272743 39.495827 0.76172984
51.007069 40.117104 0.25309837
50.53368 41.582382 -0.73186642
51.355015 39.293766 0.76375955
51.249165 39.589706 0.060850997
50.539543 41.481674 -0.44316494
49.636646 45.497391 -0.23550396
50.893517 39.415009 2.6403277
51.250778 39.590355 -0.13775791
51.768394 38.198051 0.95907205
50.080029 42.502357 -1.3467236
51.553493 38.791203 -0.23324643
51.55283 38.786407 -0.33877841
51.786579 38.46051 2.3417592
51.151154 39.673653 2.5873067
51.554066 38.793854 -0.54127491
49.645508 43.488571 -2.2732999
50.96714 40.190727 2.0650856
51.008327 40.120743 0.95827073
49.585976 42.983646 1.9537026
49.960938 42.871017 -2.0615942
49.990116 42.900333 -0.64389962
51.592361 38.599277 1.2597762
50.980503 40.198559 1.7624314
51.629147 38.853783 1.0765284
51.552704 38.78521 -0.43842047
51.248226 39.591866 0.6612941
51.740627 38.377026 -0.23501575
50.557186 41.194679 2.5548677
51.467525 38.787792 2.4569595
51.221581 39.961193 0.12493841
50.94857 40.389908 0.46445584
50.721806 41.293068 1.8796841
51.557281 38.798729 -0.93429565
51.843124 38.086456 -0.5408479
51.645466 38.581978 -0.4398506
51.852123 38.084301 0.46311799
51.851246 38.170589 2.0576961
51.738918 38.382294 0.45590737
51.5406 38.883343 -1.1362995
49.586838 42.987152 2.0505536
50.936214 40.479828 0.25695828
50.935535 40.475891 0.15779813
50.857399 40.682762 1.8392878
50.75301 40.795277 1.8553691
50.688023 40.908989 1.8604633
50.695435 40.998455 0.26527339
50.545467 41.385864 1.9503758
50.586559 41.298405 0.26301134
50.39061 41.69656 1.9550387
50.392605 41.801285 0.36084947
50.958916 40.191471 2.3424015
50.953983 40.28957 2.3380275
50.945309 40.479954 0.76093477
50.845932 40.649963 2.4074569
50.675667 40.89209 2.4463205
50.504597 41.554878 2.5874195
51.042824 40.289978 -0.74910253
51.303375 39.188381 1.9601561
51.30098 39.206413 1.2547183
51.867432 38.081673 2.3600922
51.845558 38.189754 0.76939446
51.039001 40.29319 1.1651039
50.941257 40.486519 -0.53644699
50.948181 40.478317 1.1506169
50.924355 40.612991 1.1824254
48.948563 44.695877 1.9776477
51.04237 40.18148 0.16329119
50.946598 40.390877 1.057108
50.74231 40.984005 -0.53999001
50.512291 40.335815 2.3507431
51.597466 38.506306 1.5749788
51.63736 38.6745 -0.035986524
50.884087 40.501362 1.0623645
50.645889 41.089493 2.0483968
50.670528 41.094196 0.36022851
51.003757 40.109619 0.85395777
50.753822 40.888935 -0.5394671
50.667786 41.089218 1.1624312
50.600376 41.207161 1.1552521
50.385727 41.803211 1.2635677
50.389664 41.79829 -0.34029812
50.778316 40.793526 -0.042109918
50.741032 40.983795 0.76006925
50.600372 41.206688 0.06257467
50.553272 41.390015 0.058840904
50.463417 41.595261 1.6645074
50.343426 41.988174 0.16018927
50.692692 40.798832 1.6775391
49.691605 42.60524 2.161397
51.245876 39.591503 -0.23760271
49.645866 45.414726 1.5850199
51.442364 39.077236 1.8421896
50.870007 40.402058 2.1652708
50.554153 41.461655 2.2150507
51.630398 38.574432 2.1594934
50.750553 40.78661 1.9586215
50.731071 40.958778 1.9496677
50.695423 41.001766 0.36874568
50.651802 41.078487 1.9682442
50.548012 41.374577 2.0607347
50.585823 41.298275 0.36076111
50.392822 41.800667 0.45918489
49.752762 42.36549 1.8000231
50.58366 40.079235 2.7579079
51.638252 38.67482 0.67832965
51.643505 38.685669 1.6569217
51.836712 38.354717 0.36098439
51.729103 38.472351 0.38358343
51.553745 38.783623 1.2659469
50.980701 40.397366 2.3874125
50.933083 40.564316 1.5590879
50.936302 40.741024 0.82302052
50.838261 40.866035 1.6664653
50.851818 40.86647 -0.74583828
50.742844 40.979572 0.063453697
50.557846 41.417419 2.5714154
51.829689 38.193726 -0.84460878
51.549866 38.78466 1.7653804
51.337151 39.380634 1.8584176
50.942596 40.397305 2.0747128
50.770679 40.686047 2.1521237
50.731071 40.987099 2.1646118
50.64484 41.170807 2.2419534
50.47773 41.595882 0.66536582
50.361767 41.794102 2.358247
49.558445 42.994713 2.285337
51.560089 38.69754 1.7556901
51.466621 38.994686 0.15819457
51.349579 39.281189 1.8558395
50.859573 40.501598 2.057615
50.847424 40.678558 2.0608578
50.743275 40.787704 2.0799789
50.661518 40.988415 2.1528096
50.664978 41.097794 0.56467324
50.587456 41.198166 -1.041626
50.552742 41.284142 2.1533158
50.566471 41.294453 -1.0385495
50.553612 41.36747 2.2650435
50.557293 41.390141 0.56224155
50.460716 41.569401 2.247004
50.267433 42.008049 2.3677239
48.911125 44.519218 1.9593469
51.770699 38.196201 0.86624527
50.884396 40.371853 2.8405287
50.947147 40.395329 1.258644
50.650429 41.186451 1.3635314
50.71484 40.819649 1.0549434
50.084297 41.596539 2.4580514
51.854206 38.176613 1.3621594
51.838234 38.082478 -0.24656786
50.953659 40.384361 1.6629974
51.05925 40.369102 0.084474072
50.933235 40.486168 1.7632288
50.940567 40.480358 0.054666109
50.858803 40.685562 1.7477696
50.935589 40.666016 0.13580464
50.645126 41.430016 1.891686
50.440346 41.689579 1.9502283
50.546398 41.718334 0.31445456
50.999836 39.920193 0.074546814
49.637787 42.869698 1.9664006
50.394798 41.701138 1.2597549
50.407391 41.610847 -0.32205221
50.392544 41.800045 0.56164777
50.28825 41.916519 -0.23571502
50.293537 42.001423 1.3665607
50.186188 42.268154 1.4569715
51.390041 39.098728 1.6671997
51.370758 39.188404 1.7560079
51.283978 39.393562 1.7685747
50.770599 40.701706 1.9658687
50.69236 40.887192 1.9605536
50.70726 40.91906 0.36484325
50.663494 40.994656 2.059947
50.666874 41.096188 0.45874113
50.569874 41.196407 2.0485682
50.58326 41.301018 0.46261665
50.506348 41.419525 0.46295249
50.463455 41.494335 2.0558619
50.477867 41.59581 0.45868281
50.450054 41.602886 2.15241
50.382915 41.694588 2.1617236
50.406612 41.717297 0.56146747
50.29443 41.897232 2.1579344
50.262798 42.082684 2.1690862
50.30209 42.01762 0.56254172
50.354214 41.990612 -1.0359191
51.667957 38.498711 -1.1392672
50.474674 41.599415 -0.33555838
50.452923 41.690395 -0.54226464
50.444901 41.784641 1.0618169
50.365261 41.895527 1.0578023
50.675125 40.720184 -0.75297487
51.64389 38.690178 0.96400809
51.381565 39.094807 1.8641422
51.403374 39.10149 0.25797665
51.35931 39.19228 1.8609951
51.30571 39.313774 0.25180504
51.206352 39.612759 0.35901549
51.238235 39.488762 1.9561027
51.155773 39.688328 1.9707154
50.475468 41.593563 -0.43696532
50.391926 41.614807 0.76803535
50.453575 41.592457 1.5604893
50.409267 41.714409 0.75783253
50.197506 42.268539 1.6485828
50.670937 40.099094 2.456898
51.847076 38.17437 1.1575754
51.73048 38.448753 2.0711062
51.574711 38.892513 2.1712039
51.654766 38.777172 0.55652845
50.934826 40.505013 2.5475466
50.755352 41.23468 -0.54962134
50.741756 41.1707 1.0544039
50.445957 41.783043 1.1631194
50.561981 41.703949 -0.43500823
50.446468 41.777882 -0.43096405
50.443699 41.977692 -0.38604712
51.841785 38.18549 1.9786736
51.387897 38.994453 2.2578399
51.04805 39.720406 1.601372
50.994286 39.889408 1.6452706
50.310875 41.643082 1.15388
50.286037 41.781475 1.155985
50.286346 41.787697 -0.44036171
50.203396 41.929409 0.39795959
51.701885 38.30714 0.35662374
51.593674 38.497089 1.9467127
51.376453 39.091919 2.0570674
51.294666 39.310295 2.0621762
51.257317 39.400387 2.1439142
51.168495 39.608604 2.1651442
51.112591 39.818287 0.5777176
50.495583 41.498238 0.86274219
50.412868 41.59119 0.87141931
50.204613 42.200066 -0.64289147
50.10244 42.345337 0.99429256
51.575615 38.679047 2.5936942
51.377178 39.094845 2.6754832
51.349339 39.215389 2.6657023
51.271729 39.390003 2.751837
51.159126 39.693619 2.7804923
50.269047 42.204483 1.5611637
51.557728 38.682117 2.2545395
51.599018 38.60405 0.66217256
51.365261 39.097416 2.3609264
51.248753 39.389389 2.3672323
50.763653 40.789421 2.638504
50.671089 40.88789 2.6574869
50.647884 41.096901 2.6698854
50.496506 41.50032 1.1605905
50.364044 41.695457 2.7579069
50.387234 41.799232 1.1613448
50.366444 41.897511 1.1598611
50.28183 42.10564 1.2650397
50.36425 41.933712 2.7975872
50.380562 43.302792 1.557363
51.407608 39.016003 -0.53797591
50.157673 42.017063 1.5466194
50.175301 42.083603 -0.042067781
50.069267 42.293495 -0.0092477966
50.181171 43.909866 1.3720515
51.389584 39.024532 0.55923367
51.207314 39.613121 0.65832525
50.304893 41.912788 1.0552022
50.301353 42.007946 1.0678296
50.19693 42.30085 -0.54350746
49.952461 44.725163 -0.54300648
51.685013 38.302723 1.9623456
51.194027 39.607643 -0.94565189
50.449802 41.690811 0.96252894
50.391953 41.801613 0.96257442
50.306091 41.931087 0.96569973
50.362175 41.891609 -0.63848823
51.54158 38.878609 -0.63905096
51.232639 39.768993 -0.54683048
50.450951 41.693859 -0.2342626
50.301575 42.005756 -0.13153145
50.88361 39.493774 2.2656488
50.566883 41.299778 1.6649401
50.501106 41.410095 1.6681722
50.408936 41.612965 1.6625674
50.394039 41.697376 1.7575097
50.476509 41.594589 0.069023959
50.303978 41.912621 1.7546058
50.286232 41.99931 1.7654382
50.367092 41.892677 0.16086175
50.998672 40.11451 -0.029750427
51.298431 39.202068 0.95901811
51.103916 39.820984 1.0582635
50.982521 39.923813 1.0683022
51.112621 39.824863 -0.54029691
50.298679 41.92712 0.65544099
50.085617 42.379025 -0.031903036
51.683647 38.295208 1.6591522
51.640102 38.600296 -1.2378328
51.639992 38.678791 1.1565481
51.363914 39.100174 2.578887
51.306965 39.310711 1.0572982
51.251369 39.392056 2.647989
51.199333 39.60498 1.0660273
51.245583 39.415421 -2.2185478
51.643497 38.598289 1.557518
51.591751 38.438721 -0.42030007
50.57481 41.415974 2.4920187
50.647823 41.362839 0.84565163
50.533665 41.585693 0.95712656
50.369015 41.808468 2.6752443
50.36409 41.986885 2.6643214
50.357044 42.093307 1.0529627
50.449203 41.688293 1.5698272
50.381889 41.577457 1.1540394
50.295769 41.738548 1.1719036
50.179424 43.785301 0.93810469
51.356689 39.326859 2.7585571
50.570801 41.194584 2.1629474
50.510334 41.411945 0.56679803
50.60001 41.21566 0.5621013
50.366875 41.694641 2.2656839
50.305325 41.803692 2.262501
50.410965 41.712414 0.64998084
50.26635 41.988983 2.26003
50.395596 41.797661 0.66424346
50.303841 42.011139 0.66227794
50.20116 42.131863 0.65895385
50.186691 42.285858 0.75309575
50.271767 42.19331 2.457664
50.252445 43.878296 1.075995
51.349709 39.295181 2.4331496
50.591522 41.098972 2.2554588
50.670834 41.09082 0.66052681
50.587589 41.299042 0.65736562
50.286304 41.895729 2.365453
50.448563 41.697155 0.76114464
50.258057 41.997181 2.4690402
50.27132 42.202587 1.6602793
50.985935 38.918468 2.5701284
51.634338 38.757675 1.0869595
50.267586 42.498234 1.7796299
51.64632 38.595119 2.0592301
50.190968 42.411415 -0.35560876
51.115101 39.013317 1.9515976
49.927475 44.679626 -1.051838
50.332554 43.885548 0.85759425
51.636002 38.686008 1.2476991
50.003002 42.611012 -1.0541373
51.242123 39.767254 -0.22797246
51.761513 38.196583 0.46216786
51.33952 39.313522 2.3382969
49.855885 44.733162 0.46081761
51.098972 38.812847 2.3468189
50.58215 40.299061 2.3679597
50.801498 39.512909 2.2682059
51.597141 38.513725 1.7648454
51.638844 38.586517 0.17283751
51.634586 38.790764 2.6289353
50.546421 43.001041 1.1444458
51.577087 38.50872 2.2641661
51.564632 38.647339 2.3160942
51.252094 39.395641 2.4646611
51.232208 39.495037 2.4470179
50.547451 41.483814 -0.5385704
51.605106 38.521732 1.3623281
51.009846 40.114311 0.055915762
51.265209 39.394218 2.0654898
51.405121 39.002731 1.7499706
51.174656 39.698185 1.8529817
50.997498 40.096657 1.8564545
51.054005 40.095303 0.35788524
51.569405 38.604744 -1.9470906
50.850853 40.484024 -2.1338129
50.839943 40.486145 -2.5811427
51.320389 39.245552 2.9472682
51.381744 39.00993 2.1659715
50.991245 40.093315 2.2667663
51.052803 40.09346 0.66051638
51.201832 39.387386 2.4583867
51.304848 39.297417 -1.1480809
51.593288 38.597897 1.3575958
50.19701 42.268349 0.43322086
51.70166 38.302078 0.15770471
51.68808 38.30706 1.7618427
51.577366 38.598701 1.759198
51.269722 39.496925 1.0587533
50.97147 40.295212 0.35834599
50.95359 40.292831 1.8584967
50.40015 41.709686 1.1587323
50.187325 42.271194 -0.23598091
50.654427 41.076443 -1.4358941
51.29269 39.40102 1.0558708
51.201336 39.608383 -0.44357172
50.298882 42.006805 -0.24055013
50.367157 41.891071 1.3602852
50.279026 42.100822 1.3583463
51.762348 38.193104 0.062598847
50.949619 40.386181 0.060170215
50.543457 41.492786 -0.63956529
50.544662 41.478363 0.96268922
50.448845 41.694649 1.0591134
50.277126 42.097298 1.4587966
50.442131 43.298782 1.6663263
51.296352 39.403179 -0.43641183
51.273663 39.493847 -0.43565866
50.96624 40.29673 -0.34006011
50.241703 42.182076 2.2503884
51.599197 38.599751 -0.13637136
51.449211 39.084118 1.4587618
51.369965 39.196869 1.5651513
50.477482 41.596745 0.2618247
50.480022 41.49226 1.8568802
50.38633 41.803776 1.0623947
50.284939 41.990639 1.9678836
50.206448 42.269859 0.36599427
50.34235 41.788868 2.2617545
51.035774 40.206696 -1.6323386
49.850601 44.767792 0.75888664
51.76844 38.196861 -0.14163354
51.5709 38.699165 1.5602642
50.45232 41.693729 0.35947508
50.271374 42.100266 1.7541215
50.058361 42.793152 1.866349
50.238529 43.808197 0.3832629
49.848854 44.764935 0.56937939
51.747471 38.287106 -0.44115672
51.595547 38.601021 1.1587954
51.576176 38.694126 -0.43683475
51.20097 39.608753 -0.24279594
50.997532 40.202126 -0.13902542
50.903431 40.41367 0.66046399
50.967865 40.299583 1.4612805
50.395893 41.801556 0.063767888
50.350712 42.001423 1.7572275
50.202675 42.205585 -0.040494464
49.851398 44.766647 0.36343732
50.29475 41.997196 1.5581384
50.285564 42.096416 -0.041046694
50.578339 41.304134 1.2581822
51.642235 38.583096 0.36192206
51.304256 39.304131 -1.2498765
51.667511 38.299515 2.3581448
51.558567 38.597851 2.3620806
51.187508 39.698673 1.0591887
51.335262 39.484722 -0.63938683
50.150612 44.068104 -0.43383461
49.991253 42.894993 -0.7440179
51.357792 39.289543 1.6557053
51.571945 38.696762 1.4622775
51.334721 39.187206 2.3521273
51.194183 39.496574 2.3694594
51.28334 39.293674 2.3729138
50.260609 42.204842 0.86177027
49.796223 44.857288 1.288468
51.592819 38.496387 1.8528841
51.575916 38.697376 0.26251879
51.374516 39.096668 1.9575822
51.400181 39.105583 0.35486728
51.271091 39.397522 1.9579701
51.337582 39.269402 1.9554764
51.182968 39.598213 2.0682011
50.956024 40.197006 2.1451488
50.995678 40.204025 0.56824696
50.850327 40.500183 2.150543
50.364349 41.895126 0.86038858
50.362343 41.894299 -0.83273625
49.725166 45.180256 0.83801174
50.2649 42.204865 1.1655544
49.856247 44.773998 1.5573027
51.554016 38.691528 2.0679235
51.352657 39.170685 2.1681216
51.282913 39.292461 2.1729505
51.152046 39.690739 2.2633414
51.194389 39.604675 1.466711
50.457401 41.980995 1.0726448
51.156796 39.799831 0.86173451
51.075417 39.990974 -0.74010271
51.161968 39.793049 -0.73803568
50.995537 40.200806 0.95955127
50.361019 41.896862 1.2616892
50.35223 43.396542 -0.62337703
51.369823 39.084377 -1.9309937
51.466888 38.992905 -0.34241697
51.297329 39.294586 -1.8420935
51.200024 39.514168 -1.8326566
51.159519 39.695217 -1.740495
51.053467 39.997345 -1.724282
51.166454 39.793766 -0.13781971
50.967384 40.193508 -1.6262585
50.508945 41.286415 1.1272062
49.843895 44.764759 -0.042361997
50.546543 41.487526 0.65822339
51.298401 39.39959 0.56350541
51.256996 39.590355 -1.0378209
51.192387 39.702477 0.5583241
50.994537 40.202042 0.66628247
50.946117 40.395416 -0.038276576
50.887421 40.496803 -0.035264708
49.855049 44.769119 -0.13855296
50.969276 40.295223 0.65735251
50.903404 40.407852 -0.032264844
50.376938 43.285488 -0.038761783
49.852459 44.765144 0.2574769
49.143211 44.998169 0.35028994
50.219547 43.865845 0.85974538
51.383755 39.198231 0.061201848
51.272427 39.496616 0.16067229
51.052624 40.090878 -0.53450036
51.053883 40.092464 1.0573936
50.889866 40.499397 0.36187711
50.988777 40.200459 1.358845
50.542549 41.48782 0.165655
51.401165 39.105057 0.059631564
51.357841 39.29287 0.065145925
51.296959 39.405262 0.060628422
51.080002 39.997627 -0.64043278
50.993572 40.200531 1.0597521
50.987732 40.200424 -0.53093785
50.886486 40.496552 0.26369649
50.772476 40.794128 -0.43673804
51.551605 38.773872 1.8578565
51.200962 39.612118 0.75953919
50.992176 40.20454 0.86092961
51.053001 40.08812 -0.73833477
50.964054 40.295742 -0.73567706
50.901676 40.407066 -0.74194092
50.906647 40.415066 0.86405879
50.857594 40.591053 -0.63382024
50.889805 40.495052 0.95641208
50.795357 40.704716 0.96011668
51.357796 39.292988 -0.33872089
51.163315 39.791679 1.3617467
51.145901 39.885643 1.3694693
51.055042 40.091156 1.45594
51.050804 40.097412 -0.13821197
50.8601 40.593021 -0.037741393
50.771549 40.799377 1.5598359
50.189613 42.279411 0.56033784
51.638283 38.583763 1.0656238
51.265484 39.500374 1.5627829
51.272152 39.499371 -0.04034448
51.155029 39.875061 -1.5345161
51.162437 39.795357 0.06130816
51.056675 40.089413 0.058918055
50.957878 40.278522 -1.4408978
50.792492 40.612633 -1.4279591
50.777843 40.794769 0.25875306
49.781075 44.902889 -0.74403423
49.784924 44.892509 0.96311343
51.269737 39.490337 1.262174
51.14547 39.817623 -1.8628395
51.085018 39.899075 -1.8284224
50.796417 40.707233 -0.13377024
49.831966 44.896927 0.49866438
50.265289 42.273952 1.7550279
51.163227 39.79052 1.2540977
50.938 40.393612 -1.857175
50.741684 40.79969 -1.7369646
50.691135 40.998547 -0.13735235
50.606728 43.004948 0.92757946
49.859409 44.779507 1.2621387
51.039276 40.183617 0.4625082
50.889111 40.496655 0.55978709
50.700729 40.908192 -0.94314444
49.868011 44.884644 -0.12438273
50.959778 40.2882 1.9539099
51.841011 38.000149 -1.2315681
50.992519 40.204769 -0.74037296
51.034977 40.181374 0.76056445
50.879353 40.499897 -0.74023664
50.561241 41.392071 1.3610744
50.372856 43.412273 -1.4420712
50.959953 40.184601 -1.8358682
50.896351 40.301907 -1.8256423
50.788372 40.589161 -1.7422637
50.885422 40.49675 -0.23797737
50.85891 40.595211 -0.13932484
50.748585 40.897297 -0.14098841
50.170643 42.295876 -1.5307492
50.173512 42.414753 0.11637212
50.703781 40.808647 -1.7418572
50.942566 40.388756 -0.34010142
49.761711 45.208771 -0.5289048
51.360443 39.288715 -0.6343137
50.680267 40.815983 -2.7485118
50.782452 40.698273 -1.1434181
50.671108 40.99279 -1.1262681
49.775097 45.093185 -0.51567018
50.494122 41.257011 3.0642073
50.503868 41.326912 1.6726222
50.364029 43.282402 -0.62950259
51.767689 38.200306 1.6500014
50.77766 40.790562 -0.94220197
50.845753 40.685474 0.56432164
50.693825 40.886189 -2.0506439
50.772713 40.795624 -0.537269
50.146271 44.093639 2.0029294
51.95742 38.156303 0.58518815
49.040131 45.4669 0.87714106
50.445534 43.293346 -0.23438945
49.630688 43.579803 -2.4147563
51.704014 38.30093 0.4609808
51.602814 38.508881 -1.1397208
49.830208 44.895321 0.84786731
50.539761 41.480362 0.46258679
49.862236 44.860977 -0.051951945
49.591969 45.594013 -0.68096954
50.351707 41.995941 1.8564979
51.297009 39.105469 0.96516496
51.701801 38.297058 -0.83040017
50.690613 40.900341 -1.3377793
51.488796 38.898636 0.85799581
50.455563 43.289703 -0.13331304
50.345684 41.990685 0.86241341
50.18858 41.189796 2.3560145
51.292274 39.297714 -1.6268513
51.293266 39.40276 -0.63675845
51.407543 39.017567 -0.74307472
51.72324 38.586464 -2.3527656
51.467991 38.805389 2.6430948
51.044472 40.270855 1.2795457
50.654396 41.087597 -1.5436112
50.692139 40.904629 -1.1274495
51.269775 39.490551 -1.2364181
51.263283 39.496815 1.6581149
51.790379 38.092499 0.55758041
51.548443 38.823933 -2.3924491
51.199776 39.610287 -0.041645821
51.199139 39.509472 -1.6403737
50.310688 43.38253 -0.15758727
51.441494 39.357845 0.46893254
51.596107 38.603027 -0.63796926
51.551804 38.796726 -0.63182741
51.581165 38.505486 -2.229198
51.734749 38.389217 0.071093574
50.151646 44.08345 1.3566667
50.992046 40.201092 -0.24145129
51.005161 40.026592 -1.1372749
51.004688 39.983555 0.46714461
51.089848 39.894775 -1.1388675
51.105816 39.823662 0.47731015
51.185631 39.695339 -0.34102347
51.317257 39.225788 -1.1760954
51.594643 38.603626 0.36295104
51.297642 39.404076 0.16472761
51.575424 38.696033 0.16245607
51.592171 38.501186 -1.5287975
51.607929 38.412014 -1.5215602
51.619999 38.386562 0.075180888
49.240986 44.79707 -1.5235537
51.052212 40.088829 -0.44640577
51.14566 39.885746 -0.53833574
51.168377 39.787895 1.0614752
51.340714 39.479191 1.0696882
51.492764 39.065563 -2.1340172
51.542439 38.901409 -2.1393273
51.635227 38.778091 -2.147567
51.135666 39.979939 0.25116637
51.2453 39.686069 -1.3244036
51.430038 39.279636 0.25994807
50.67635 40.993679 -1.241606
51.443199 39.089458 -0.037056059
51.132393 39.982216 -0.41387436
51.382236 39.199348 -0.03890587
51.464039 38.996658 -0.040005863
51.600849 38.516495 -1.6344979
51.408485 39.00695 -2.0312035
51.563736 38.925396 -1.9934916
51.601284 38.599667 -0.33770198
51.747143 38.289661 -0.34071693
50.948002 40.384853 -0.53694791
51.579453 38.699791 -0.63613659
50.284035 41.803886 2.7347112
50.694073 40.89785 -1.2411773
51.64119 38.774529 -0.038851961
51.55088 38.685123 -1.6484501
51.640396 38.488083 -1.6383502
51.67791 38.299477 -1.6544119
50.689682 40.891594 -2.1728323
50.66827 41.096844 1.3577598
50.94701 40.484913 -1.5109688
49.695362 43.512428 -1.0365373
51.646423 38.309395 2.2662129
50.365238 41.984772 2.3535538
51.662762 38.408173 -1.8459113
51.347328 39.284508 -2.1645839
51.376011 39.097782 -2.1452007
50.30278 41.829433 -0.8467198
51.266129 39.383884 -2.0300341
51.290947 39.395226 -0.33923301
50.312126 41.755669 2.6760607
51.539742 38.880035 -0.33849338
49.799759 44.88974 0.45536396
50.965027 40.292923 -1.1375247
51.160328 39.789261 -1.1335647
51.196877 39.6064 -0.33623734
51.576752 38.693535 0.45740864
49.772526 44.900429 1.3694556
51.161072 39.795094 0.56057435
51.201977 39.606815 1.3616674
51.270744 39.493637 -0.33757696
51.272358 39.493893 1.3597937
51.298115 39.300659 1.3631301
51.38102 39.201523 -0.34191683
51.136272 39.986179 -0.72694749
50.382694 43.37326 -1.2449719
51.254768 39.590565 -1.2373658
51.344784 39.205196 -2.1442726
51.531548 38.769413 -2.137712
51.598606 38.600349 -0.44033727
51.567261 38.592331 -2.1181047
50.64003 40.952942 -2.3719773
50.344372 41.985992 0.75898153
50.546185 41.48391 -0.34312263
51.292061 39.30965 -1.5366219
50.987885 40.197845 -0.83904368
51.052212 40.095585 0.7593469
51.077526 39.998108 -0.84291351
51.151871 39.889519 -0.83708775
51.54808 38.719093 -2.4167407
49.655163 45.643791 -0.41323894
50.353905 41.99324 1.1591322
51.057575 39.996563 -1.3280038
51.261238 39.499264 -1.3344742
51.360992 39.194874 -1.3386846
50.670574 41.001465 -1.3372189
51.142262 39.884445 0.46199733
51.265785 39.762405 0.49124765
51.265896 39.488602 -1.1361825
51.340874 39.386013 0.46262768
51.443104 39.088436 0.46268404
51.855457 37.999619 -1.1306677
50.338718 42.020199 2.1701078
51.661034 38.489437 -1.5351776
51.207546 39.375744 2.9859393
51.446018 39.087692 0.056823723
51.653629 38.401817 -1.6365405
49.29649 46.231789 0.17449576
51.383156 39.096748 -1.8393451
51.447144 39.084259 -0.24027291
51.64381 38.581329 -0.14099245
51.648041 38.490379 -1.8114095
50.676502 41.001453 -1.04416
50.661297 40.871059 -2.4226773
49.689644 43.498947 -1.4254216
51.371841 39.113064 -2.3550754
51.464184 38.995537 -0.6442247
51.554646 38.601006 -2.2333996
50.691196 40.948975 -2.0774534
50.692497 40.908363 -1.0461323
51.573586 38.511635 -1.94118
51.15591 39.783215 -1.4388671
51.169666 39.688133 -1.4329159
51.33749 39.288052 -2.273875
51.365276 39.103008 -2.2387357
50.505463 41.963398 0.59452778
51.362389 39.028107 -2.9105444
51.433407 38.872036 -2.8916235
51.360249 39.290016 -0.93748909
51.570793 38.593193 2.0618205
51.20126 39.51384 1.5689977
51.406017 38.997932 -1.9388905
51.545681 38.711037 -2.7313566
51.569576 38.48476 -2.7266531
51.352272 39.287743 -0.73726743
50.435028 43.27953 -1.367227
51.526958 38.853188 -2.5438318
51.842342 38.077835 -0.74443364
51.031368 40.271065 1.353618
50.902275 40.410019 -0.53920829
50.782131 40.696945 1.6570829
51.441704 39.187462 -0.33394697
51.37619 39.109955 -2.0480678
51.480865 38.80072 -2.0224204
51.742332 38.49976 -0.33552945
50.473583 43.288113 -0.74201846
51.259987 39.3741 -2.1389811
51.345509 39.202187 -2.031414
51.720642 38.55146 -0.36226377
51.558842 38.790272 -0.73863208
51.574959 38.652916 -2.3668067
51.461369 38.992142 -1.2280523
50.504555 41.327637 -0.63395554
51.697025 38.310448 -0.4321951
51.748417 38.287228 1.1602482
50.382156 43.410809 -0.89652884
51.574184 38.696945 1.160199
51.780998 38.580177 -0.48294881
51.642639 38.677444 -0.53247809
51.647335 38.493084 -2.158849
51.741978 38.377586 -0.44553006
51.748394 38.406269 -2.1657784
49.853336 44.768471 0.6620028
49.845726 44.753864 -1.1171075
51.595745 38.601326 -0.53789604
51.729393 38.513866 -2.201385
51.57658 38.699417 -0.037195157
51.743771 38.408287 -2.5542407
51.736343 38.394741 0.86395228
51.745533 38.384647 -0.83224559
50.192974 43.907421 -0.022075156
50.464485 43.290764 -0.82450545
49.879948 44.783798 -0.95987582
51.316418 39.117821 -2.1198714
50.774414 40.799507 -0.23411617
50.377838 43.288296 0.26382914
50.780331 40.79892 0.36301792
51.754593 38.288406 -1.1375227
51.268925 39.112881 -1.8043526
50.48893 43.365894 0.48734501
50.832203 40.785709 0.65960908
50.859264 40.595844 0.66370642
50.939857 40.48093 -1.0367191
51.442997 38.999195 -1.8273841
50.445595 43.279381 -0.53478605
50.449821 43.362377 0.052932978
50.741425 40.984489 -0.63943714
50.835785 40.790371 0.25135809
50.757046 40.801239 -1.5342255
50.861645 40.596901 0.2640233
50.685459 41.000511 -0.44304734
50.662506 40.88522 -2.2276049
50.749382 40.698944 -2.225054
50.880131 40.500801 -0.4358829
50.795628 40.582897 -2.241327
49.849838 44.766903 0.46077806
50.770241 40.798153 -1.0317478
50.737717 40.807816 -2.7713029
50.820976 40.664299 -2.7566545
50.782574 40.700825 -1.2441431
48.916687 44.716835 1.9458985
50.254654 42.193478 -0.73712415
50.752171 40.890255 -0.63989502
50.77396 40.693687 -1.4400023
50.882126 40.497406 -0.53958625
50.966984 40.196323 -1.4313582
49.683506 44.871613 1.062326
51.045063 40.181465 -1.0396574
51.060326 39.984962 -1.9279263
51.304646 39.32132 -0.44271716
50.253311 42.096767 -1.3440104
49.853504 44.7314 0.258261
50.935921 40.585003 0.65876114
50.944386 40.386665 0.66094542
50.957661 40.391026 -1.1395468
51.149876 39.88974 -1.0364581
51.238415 39.678734 0.66187948
50.26696 42.084549 -1.4324243
50.842529 40.681355 -0.3343204
50.93829 40.580479 0.56834996
50.94799 40.386772 0.56636196
50.95948 40.385498 -1.238337
51.039631 40.184063 -0.32844651
51.060814 40.08699 -1.1386298
51.149956 39.897701 -1.1394548
