# .PCD v0.7 - Point Cloud Data file format
VERSION 0.7
FIELDS x y z
SIZE 4 4 4
TYPE F F F
COUNT 1 1 1
WIDTH 1611
HEIGHT 1
VIEWPOINT 0 0 0 1 0 0 0
POINTS 1611
DATA ascii
43.848801 15.866294 1.7405295
43.614456 15.825285 1.9576547
43.513145 16.127577 2.0970967
43.675129 16.39328 1.4760926
43.607849 15.811901 2.4697778
43.582706 15.761444 2.7604682
41.461903 21.487709 2.5400281
42.961025 18.21294 1.7721362
43.500729 16.09498 2.2757213
41.431412 21.546474 2.6246972
43.768311 15.779794 1.6359221
42.45702 19.570818 1.9402064
41.539402 21.926189 1.8108917
42.359997 19.512522 2.5240331
41.441345 21.496437 2.6485345
41.540527 21.882933 1.6792762
43.595074 15.80008 2.6620409
41.007988 22.620874 2.2612538
43.021843 18.078388 1.8930273
41.463924 21.493423 2.3495057
43.639946 15.787452 2.1632314
43.133911 17.806339 1.8403487
41.461166 21.489664 2.4587331
43.410851 16.299778 1.9955974
42.933407 17.674177 2.2746644
43.820038 15.944921 1.7628851
42.927704 17.706923 3.0065784
41.001312 22.618412 2.0831773
42.944172 17.592491 2.3605218
43.314457 16.496607 2.0494423
43.743401 15.562284 2.341902
43.134003 17.823158 1.7735002
43.856232 15.758894 1.6146024
43.737476 15.582382 2.1489437
41.733406 20.868904 2.3509417
43.729492 15.583592 2.0839224
43.164021 17.5574 1.68068
43.602276 16.286787 2.0232446
43.746048 15.884142 1.817372
43.421032 16.453672 2.1153936
43.138664 17.153465 1.9856583
42.056015 19.991453 1.9727712
42.933994 17.683096 2.0671959
43.644409 16.499432 1.3537652
42.969242 17.715645 2.7326479
43.698227 15.611691 2.0604632
43.448494 17.001423 1.9607391
42.083328 19.875456 1.267584
41.474236 21.497608 2.0626602
43.703114 15.599934 2.1508126
41.435539 21.580814 2.5560253
42.251389 19.74856 1.5671623
40.968861 22.79888 2.1619492
41.844456 20.852749 1.9312898
43.698666 15.604198 2.2708673
42.69989 18.203167 2.3676171
42.695461 18.203369 2.4577222
43.253223 16.783154 2.6472275
43.581387 15.895392 2.4582734
43.579391 15.90629 1.8621846
43.736286 15.578974 1.9499334
41.434574 21.666391 2.1793044
42.725151 18.280075 1.8476868
43.290718 16.70912 2.0948815
43.168091 17.370178 2.4912815
40.803829 23.199478 2.0677202
43.516796 15.975559 2.8942919
41.979446 20.061159 2.9275188
43.576149 15.897538 2.5625267
42.864426 18.47802 2.0411749
42.8433 18.607174 1.8500897
41.350712 21.793234 2.3596995
43.543369 15.886576 2.8884935
43.555431 15.876079 2.7723191
43.515526 16.017818 2.4512599
42.997471 17.313799 2.4550374
43.554264 15.981075 2.6711278
43.504887 16.036366 2.7574556
43.514709 16.014271 2.3606334
43.511292 16.029198 2.5496914
40.97942 22.796204 2.062644
42.809532 18.491093 1.4413074
41.591423 21.585102 2.1745682
42.712315 18.11235 2.5643692
41.557278 21.91477 1.9751314
41.807163 20.397945 2.9286141
43.602642 15.915105 1.6737905
43.049316 17.646374 2.4498336
41.417679 21.487976 2.5705314
41.417042 21.537352 2.3172646
43.246029 16.790405 2.4561949
41.534168 21.925154 2.159719
43.539188 15.995692 2.5484059
41.574593 21.739601 2.1972351
43.582291 15.89338 2.3613575
41.563999 21.8836 2.0724225
42.153725 20.380522 2.0785921
42.178925 19.598436 2.3608801
41.53746 21.301722 2.5547712
42.022945 20.678713 1.9657609
42.044922 19.815212 2.8500695
42.044197 20.649054 1.8349488
43.108616 17.662392 1.6754689
40.948689 22.803516 2.6324928
43.589306 15.905321 2.0700452
41.584305 21.625435 1.7713901
42.027794 20.578646 2.2679963
42.645218 19.131351 1.8081175
41.417297 21.31196 1.7801576
43.118431 17.6383 1.9777374
41.971447 20.860638 2.1287241
43.548897 16.323124 1.7405174
43.30098 16.540556 2.4381769
41.068104 22.589256 1.9743991
42.630974 19.133476 1.9655752
41.928612 20.87179 2.2240465
42.099815 20.604723 2.0749738
41.834713 20.464334 2.6667447
42.029167 20.725218 1.7693275
43.247364 17.401955 1.6961554
43.071655 17.50774 1.435122
43.234566 16.872313 2.1752071
42.726139 18.724146 1.6657666
41.711391 21.51428 1.5637631
43.236023 16.884693 2.0581684
42.494946 18.698986 2.5659611
42.240337 19.668907 1.761569
41.404217 22.308071 2.0918527
42.413368 19.025539 1.9645014
43.220806 17.027641 2.3235536
41.400211 22.316023 1.7866025
41.110062 22.85655 2.1386189
42.033051 20.179327 1.4094688
42.059471 20.239147 1.1635358
42.49424 18.620193 2.8187039
41.098602 22.96582 2.0559413
41.377251 22.329903 2.2190311
43.034756 18.047249 1.6715593
42.081913 20.054108 1.2493755
41.950386 20.234772 1.5291404
41.779526 20.612719 1.7893939
43.222305 17.011044 2.1930575
42.183964 19.696133 1.2511723
42.063213 20.213537 1.4988384
41.763268 21.369431 2.0661674
42.630207 18.272598 2.7218401
42.748703 18.289701 2.0680666
42.543446 18.761457 1.6853303
42.256336 20.151653 2.078366
43.656197 15.691286 2.4573512
42.037159 20.089165 1.9672114
41.441723 21.671139 1.7657641
43.036259 17.512764 1.3825982
41.844658 21.12764 1.6938062
41.946571 20.690928 1.7401841
42.277145 19.625677 1.659952
42.037415 20.073843 2.187623
42.00079 20.576286 1.6452682
41.434677 21.674212 2.4395349
40.958023 22.839376 2.7214394
43.504753 15.998441 2.6635172
41.885612 20.810955 1.7542655
42.803661 17.90708 2.5527022
41.810253 21.236877 2.4349885
42.061176 20.669794 2.1617229
41.948624 20.923115 1.8402876
41.90583 20.459158 2.8021805
41.834675 20.665478 2.2783022
41.975651 20.852671 2.1035905
41.20813 22.178965 1.9784533
41.869183 20.687704 2.1801157
40.785595 23.200357 2.5533566
41.948242 20.895985 1.9545946
41.844574 20.493015 2.5416105
41.742336 20.78643 2.4625773
42.006355 20.578266 1.5858109
41.793121 20.695047 1.9670134
43.235264 16.868773 2.4436343
43.602947 15.907751 1.9768963
42.09338 19.716284 2.6865335
41.849461 20.490788 2.4548593
41.987427 20.603943 1.9900622
42.035355 20.676098 2.064466
41.872105 20.400112 2.4539716
42.328289 19.276442 2.3405824
41.019341 22.559347 2.7216818
43.11253 17.707047 2.0284541
41.06501 22.615955 1.8042225
41.580132 21.309437 1.8758225
43.155201 17.702038 1.9586873
43.726631 15.613907 1.7163014
43.125587 17.715456 2.236058
41.863678 21.138056 1.999728
41.096325 22.994167 2.2854691
41.360619 22.490814 2.0863357
41.685432 21.507824 1.9394094
41.842503 21.201817 2.0784402
41.600239 21.32283 1.7545836
41.90517 20.21858 2.6524341
42.772121 18.643566 2.2587223
41.823284 21.121054 1.5300419
42.21294 19.499128 1.7852799
41.239323 22.190975 2.4277823
42.505188 19.295671 2.159642
43.796967 16.276041 2.1379585
43.757107 16.382275 1.9020222
41.154869 23.005501 1.9509791
41.231197 22.186108 2.0559316
41.9077 20.48564 1.2906979
41.226357 22.175789 2.519002
41.579586 21.772449 2.3780923
41.634602 21.082798 2.5454929
41.550312 21.832062 1.5336307
41.362778 22.102791 1.5439792
41.567513 21.845221 1.7043985
42.761406 18.106014 1.4574498
41.598701 21.809004 2.067451
41.227188 22.181282 2.1428025
41.544003 21.794973 1.7627592
42.497353 18.693609 2.650918
41.878544 20.539717 2.8987443
43.490402 16.908682 1.6747833
43.490032 16.884098 1.8761642
40.938293 22.892656 2.4559097
42.096497 20.098663 1.4770986
42.123943 20.033791 1.4283165
42.844204 17.847204 1.4157765
43.47303 16.865414 1.7229769
42.812035 17.97139 1.6213613
42.641262 18.808756 1.6947154
43.600498 15.715927 2.6719038
42.756966 18.207487 1.8777925
41.17411 22.299589 1.9702708
41.829849 20.692932 1.940038
41.987408 20.043486 1.2746392
42.453579 19.190371 1.562386
42.827778 17.88662 2.5589263
42.474289 19.159418 1.6478509
43.170364 17.431583 1.3841573
41.852093 20.583044 1.7595265
41.865105 20.755987 2.5045319
41.83234 20.664528 2.0310159
42.565407 19.010603 1.8394707
42.96571 17.603016 1.4591585
43.078667 17.482204 1.6446779
43.257858 16.964149 2.4791465
43.393829 16.943258 1.6038256
41.257183 22.615778 2.1541495
42.238358 19.465168 2.5683415
42.054558 20.169262 1.6767132
41.772644 21.260935 1.5855988
41.440735 22.087727 2.2137172
42.107204 19.986956 1.6029944
43.792461 16.023615 2.0188878
41.776077 20.983685 1.6490617
42.536213 18.690208 2.6216929
43.453728 17.062201 1.8737764
41.412254 21.540249 2.2765436
42.488693 19.1805 2.270823
43.071259 17.414379 1.7906351
42.354446 18.904282 1.9472611
42.180664 19.996998 1.6684989
41.925247 20.492563 1.6119382
42.03994 20.357819 1.9388469
42.973076 17.992533 1.849032
42.478004 19.430857 1.9555247
42.68372 18.202974 2.0514019
42.701263 18.19067 2.5562871
42.704338 18.204136 2.266993
42.978683 17.990774 2.1623628
42.276615 19.999422 1.6468499
41.699711 20.944195 1.7268453
42.286713 19.886135 1.9560542
42.790352 18.499254 1.727711
41.675766 21.494102 1.6861355
41.867687 20.678579 1.8640707
41.64286 21.781143 1.7322956
43.170982 17.376265 1.9273795
41.73394 20.867708 1.8670632
41.888008 20.2206 2.0840411
41.791355 21.031273 1.7735847
41.94635 20.282906 2.0641024
42.67178 18.707407 1.7163234
41.592426 21.070387 1.8602346
41.606216 21.106485 2.0691192
41.680126 21.535744 1.485744
43.507183 16.884918 1.6111048
42.099255 20.390759 1.6546326
42.288719 19.883495 1.6596704
42.263008 19.823566 1.7669692
41.886734 20.519657 1.2018481
42.775764 18.298397 1.9491721
43.176491 17.253809 1.6750181
43.645153 16.527382 1.6659935
42.15403 19.683971 2.6359701
42.135483 19.698469 2.5466058
42.127392 20.394833 1.67355
43.230446 17.481153 1.8738075
41.585087 21.105341 1.9818025
41.288109 22.005861 1.7795349
41.24118 22.08205 2.3607907
43.177868 17.402721 1.5628853
41.249374 22.09042 2.0669584
42.267963 19.577991 2.4185007
43.232353 16.872414 2.3708932
42.748257 18.684986 1.5871397
42.071404 20.094101 1.6807888
42.162434 20.288973 2.1365361
42.626263 18.19923 1.9406669
41.789154 21.303469 1.7804117
42.155594 19.690622 2.1540818
43.648262 16.505919 1.5767233
41.498249 21.98587 1.6522331
41.859283 20.657993 1.6929115
41.269669 22.110846 1.8964317
43.772247 16.170902 1.4862971
41.330391 21.958185 1.9243784
43.773357 16.096516 1.6704841
43.603458 16.595901 1.7584072
41.488213 21.92313 1.7736642
42.281609 20.007175 2.0564663
41.296494 22.582003 2.0795
42.965942 18.01042 2.2902734
41.870186 21.01226 2.3267727
40.882973 22.99494 2.2654879
41.74427 20.804953 1.8826518
42.765633 18.612707 1.8558406
41.915714 19.991426 1.7653536
43.190628 17.297636 1.7897285
42.757992 18.597198 2.0212431
42.582077 19.216839 2.1183372
42.805523 18.603563 2.1720428
42.314289 19.328094 1.6166315
41.373119 22.378744 1.9913065
42.9888 18.029951 1.7011145
41.711262 21.389324 1.794132
42.20211 20.114511 1.7834101
42.492134 19.392885 1.7265824
42.714798 18.645681 1.6979777
42.954662 18.221367 1.8420852
41.388416 22.110353 1.8719521
41.815491 21.057978 1.9097015
41.963192 20.764221 1.9420959
42.00721 20.61396 2.0321383
42.068264 20.264362 2.1820788
43.133297 17.871538 2.0571938
41.793056 21.103077 2.2935541
41.882431 20.402199 2.1650774
40.87389 22.995337 2.4538352
41.30402 22.453907 1.9265416
41.902859 20.414206 1.8794022
43.321659 16.752014 1.8248531
42.532452 19.333694 1.5029165
43.366432 16.574432 1.863955
42.2556 20.032528 1.476848
41.487537 22.102961 2.073873
43.009495 17.459482 1.5762262
43.569828 16.675283 1.6173366
41.819077 21.116224 1.6953863
43.6082 15.714951 2.7617695
41.595383 21.641405 1.9335346
43.164799 17.556664 1.5439799
41.655411 21.600992 1.5704863
43.008335 17.424585 2.0817881
43.330105 16.581409 2.3587334
43.392452 16.402246 2.2706494
43.33329 16.569492 2.6190119
43.730675 16.317039 1.6527917
42.585678 19.200254 1.7884567
41.939384 20.956982 1.7446654
42.594688 19.202488 1.7063879
41.346859 22.406002 1.7409573
43.407627 16.304096 2.455276
43.342701 16.575151 2.1773643
43.75082 16.180016 1.8334846
43.641602 16.486765 1.9605937
42.848564 17.896114 2.063643
42.296562 19.893368 1.7343875
41.236351 22.195097 1.9820426
42.198933 19.311277 2.2312927
41.890514 20.409149 1.6668879
43.651669 15.691915 2.5589762
43.128735 17.54641 1.4501214
43.20182 17.411831 1.6736856
43.741974 16.179264 2.1697838
43.899616 15.690615 1.7734735
42.482342 19.288694 1.73768
42.482693 19.18368 1.7390876
42.627918 18.949169 1.8742344
43.77121 16.11219 1.9445258
42.387398 19.803734 1.9021926
41.635868 21.076815 2.4572229
40.874268 22.995153 2.5462148
42.090889 20.411406 2.0371792
42.687916 18.989717 2.0670927
43.666779 15.691434 2.3577454
42.603188 19.088236 1.6347041
41.823677 21.177963 1.6828821
41.891354 21.017818 1.667112
42.880039 18.326431 2.3584926
43.464836 17.040657 1.6822329
42.447937 19.577484 1.6552128
41.841599 20.859535 1.8127878
41.701801 21.272282 1.7595992
43.886059 15.701447 1.9600163
42.760868 18.724911 1.9528501
41.636627 21.078772 2.1612637
43.141323 17.172735 2.070631
42.175339 20.060741 1.9765427
43.007874 17.406647 2.2710609
41.957184 20.384567 1.6781108
43.197735 17.697443 1.6507808
43.069847 17.584183 1.5095278
42.091675 20.137417 1.5298749
41.198414 22.042925 2.5752752
43.718872 16.139639 1.4979291
42.724102 18.931124 1.450891
41.76321 21.36912 1.4612921
42.978916 18.011379 1.792562
42.680729 18.509907 1.8545501
43.459431 17.063295 1.6867306
42.702232 18.800703 1.9335799
43.002773 18.013752 1.983767
41.082214 22.999981 2.0107334
43.172714 17.184067 1.7635748
42.084484 20.073221 1.7903638
41.131042 22.977999 1.8374386
42.108166 20.300854 1.6967906
42.324905 19.979406 1.7493012
42.736782 18.407373 1.6405566
42.233253 19.479162 2.4593668
43.164669 17.68508 1.774157
43.583092 16.609762 1.850458
41.378689 22.019888 1.7715657
42.715309 18.788456 1.7672243
41.66993 21.558475 1.7966137
43.5793 16.681828 1.7426267
42.564621 19.277086 1.745778
41.477577 21.991665 1.7807165
42.75275 18.379402 1.9816747
41.78072 21.197041 1.9648839
43.425243 17.074158 1.8038903
42.090401 20.149576 1.7690969
41.762482 21.306257 1.4793854
43.579044 16.727894 1.5256238
42.444054 19.479416 1.5606042
43.766411 16.200686 1.6320767
43.163567 16.996197 2.3636916
42.784168 18.420853 1.4765991
42.745605 17.732637 2.1485169
42.728786 18.772522 1.5616394
42.762924 18.821924 1.6669891
42.236744 19.477333 2.2661488
41.361076 22.392807 1.6661582
42.470837 19.520414 1.6837277
41.9842 20.458105 1.7921211
43.479515 16.973888 1.8601413
42.156738 20.066933 1.8746681
43.650139 16.571102 1.6938131
43.535553 16.833055 1.6174606
41.462086 21.581913 1.9667697
42.475662 19.430882 1.5985627
41.460773 22.007252 1.5958509
42.733265 18.953665 1.5124162
42.381905 19.821251 1.9903646
41.699757 20.736116 2.299319
42.415695 19.433937 1.4567559
42.249146 20.045036 1.5728892
42.151268 20.190683 1.6580421
42.004536 20.35277 1.7774981
41.633266 21.07427 2.3541741
43.256577 17.099583 1.9566101
42.425934 19.675514 1.9497039
41.245186 22.699913 1.6958592
42.032841 20.564365 1.9535013
40.945618 22.990576 1.9867142
41.676594 21.159586 1.492646
42.584198 19.279957 1.6188849
42.789375 18.640015 1.7428936
42.928505 18.31423 2.3611782
40.771214 23.296068 2.2636735
42.787872 18.283064 1.6612785
41.929123 20.749882 1.6482772
43.812317 15.734074 1.732771
42.870628 18.273731 1.7456081
43.643002 16.52623 1.7531886
43.115528 17.091719 1.5880903
41.743343 21.015959 1.855311
43.773132 16.161072 1.8005855
43.366955 17.113457 1.6662884
41.309525 22.387043 1.6529207
41.609966 21.697083 1.9626666
41.950386 20.789024 1.8839384
41.347408 21.790272 2.5449522
40.898304 22.900745 2.4562836
43.876457 15.701864 1.831905
43.059574 17.67832 2.0111632
43.151405 17.618881 1.8697836
42.731525 18.980652 1.9459453
41.491779 21.828234 1.9737182
41.197598 22.587805 2.1550839
41.636261 21.079645 2.2687259
42.167522 19.997772 2.10621
42.299316 19.920399 2.038734
43.635616 16.531528 1.8592725
42.724674 18.948576 1.7597204
42.68277 19.00345 1.9833338
41.035603 23.102188 1.9938596
41.998165 20.726748 2.081502
41.701229 21.358925 2.1396437
42.002308 20.019798 2.1734474
41.462658 22.03027 2.3192494
41.055897 23.193277 2.0607445
41.912018 20.994661 1.7165654
43.535301 16.0846 2.1800444
42.67754 18.069532 1.8869981
41.988171 20.098213 2.0781908
42.22979 19.555855 1.8872573
41.207279 22.109678 2.4726615
41.466717 21.778774 2.3762178
42.580738 19.263197 2.2302597
41.929237 20.969055 2.2873876
41.997627 20.797073 2.073267
41.871086 20.481424 1.7490783
41.748749 21.399443 2.1720393
41.668007 21.608765 2.1618454
43.67897 16.379517 1.9679494
42.542957 19.191505 2.335289
42.143284 20.178118 2.2976286
42.30978 19.935028 2.156189
43.537453 16.727144 2.1178567
40.902611 22.915102 2.277374
42.275482 19.906075 2.3392084
43.552807 16.63378 2.2990153
41.792988 21.206728 2.2622416
43.094261 17.707268 2.2882819
43.560429 16.555063 2.4163368
41.398045 21.612598 2.4597197
42.278515 19.974573 2.1719809
43.457359 16.890083 2.2481077
42.239513 20.066923 2.2297609
41.911419 20.89883 2.1553292
42.423317 19.642538 2.0308392
43.555988 16.693928 2.0494432
42.587978 19.108402 2.2441988
41.770454 21.201712 2.1479459
42.998726 18.046049 2.2068031
41.201023 22.117674 2.3548269
41.996265 20.54705 2.198513
40.715561 23.306232 2.3104529
41.060513 23.20616 2.1497457
43.531036 16.65399 2.294522
41.969658 20.796032 2.1539264
43.126354 17.769396 2.2530527
41.949043 20.785364 2.3991818
42.706291 19.014799 2.3327427
43.626499 16.393738 2.2954135
42.662483 18.973259 2.2722621
41.36079 22.383966 2.0629478
43.674099 15.678739 1.8903809
41.152222 22.80162 2.3293982
42.77095 18.587063 2.3797517
42.061863 20.582451 2.3235917
40.7048 23.323027 2.4571278
41.746326 21.31436 2.2483792
42.653648 18.413227 2.0740108
43.736115 16.124332 2.4211872
41.702347 20.808933 2.545696
43.442806 16.384285 2.4400644
43.383694 16.393091 2.4549704
43.617649 15.711053 2.5268078
42.905472 17.528526 2.7893724
42.066288 19.898823 2.3604507
42.010223 19.89949 2.851079
41.998165 20.003849 2.5528686
41.978577 20.089987 2.6409431
41.952919 20.187798 2.5401254
41.893055 20.300318 2.6503079
41.858265 20.378365 2.6328964
41.810722 20.440733 2.6139574
41.794556 20.508188 2.6443682
41.783443 20.586679 2.6409574
41.747688 20.666193 2.8320668
41.70068 20.720398 2.3805401
41.690777 20.810671 2.647449
41.702286 20.754406 2.8627367
41.702412 20.811895 2.3652265
41.382523 21.701962 2.2672532
43.44302 16.284687 2.6574242
43.447109 16.290956 2.1615701
43.353516 16.490705 2.4602492
43.362228 16.486118 2.6598146
43.365879 16.499763 2.1710629
43.29171 16.59725 2.6319849
43.29689 16.6108 2.1718037
43.302193 16.602463 2.4531238
43.276531 16.692783 2.4582841
43.246624 16.802614 2.1686974
42.435776 18.978672 2.0730536
43.624592 15.86482 2.2771354
43.553753 15.997848 2.2643304
43.437195 16.288652 2.4494216
43.305031 16.607735 2.2653658
41.206467 22.105633 2.2664475
43.357967 17.112051 2.0338545
42.29295 19.297106 2.2653453
42.261883 19.392849 2.2599864
42.258186 19.392933 2.4455729
42.274406 19.397562 2.0649133
42.204895 19.513361 2.2697282
42.241035 19.486259 2.0682037
42.14698 19.694927 2.2754672
42.099133 19.803043 2.2609742
42.069401 19.899313 2.2641287
42.004795 20.009022 2.0681388
42.042744 19.984709 2.2663827
42.002731 20.010828 2.4546695
41.992088 20.095949 2.271343
41.953018 20.192638 2.361059
41.936192 20.277035 2.2612963
41.901691 20.309572 2.2594514
41.886902 20.399805 2.0569572
41.851044 20.492649 2.2654743
41.798653 20.598711 2.2667503
41.77055 20.688297 2.2740166
41.703129 20.904696 1.9775335
41.685589 20.898333 2.4637859
41.688007 20.890656 2.2661242
41.65802 20.993025 2.2689331
41.672821 20.994667 1.9619064
41.613216 21.04509 2.0013373
41.599575 21.101418 2.4558842
41.57832 21.196987 1.9815365
41.576851 21.195772 2.4575787
41.576431 21.196831 2.2661152
41.543945 21.293701 2.2660964
41.498436 21.397703 2.2678728
41.50172 21.426956 1.9520084
41.491211 21.400898 2.4655423
41.54425 21.292459 2.3577907
41.433022 21.773058 1.8375162
41.383144 21.79904 1.8685642
41.333141 21.885368 2.0564702
41.267025 21.997833 2.3663259
42.838272 18.752617 2.0149004
42.004524 19.925934 2.4786887
42.006798 20.010244 2.3602331
41.98624 20.098631 2.3606563
41.991787 20.100191 2.1613817
41.905376 20.214111 2.3811212
41.966232 20.186012 2.1719513
41.900043 20.305002 2.3654573
41.875763 20.395292 2.3669577
41.810009 20.504807 2.3639736
41.803722 20.525621 2.1461215
41.799023 20.604998 2.1641958
41.767139 20.696712 2.3560753
41.687439 20.899038 2.3542185
41.6091 21.003717 2.5731125
41.612701 21.004097 2.1629682
41.609352 21.033958 2.3631115
41.601097 21.105396 2.3559501
41.574486 21.193556 2.3585699
41.500126 21.236429 2.3590724
41.505653 21.323526 2.3711498
41.486214 21.396879 2.5523062
41.496014 21.397989 2.3600078
41.495163 21.407871 2.1678228
41.41774 21.494892 2.1227398
41.402359 21.533524 2.437995
41.400867 21.610209 2.3632255
41.384335 21.696205 2.3616929
41.389248 21.704208 2.0659308
41.310696 21.815895 2.3650486
41.299671 21.899862 2.3637528
41.293015 21.895149 2.5397818
41.298302 21.905455 2.0819402
41.279549 21.98381 2.0630891
41.262276 21.998226 2.552274
41.187054 22.201056 2.3610215
41.157318 22.293131 2.3580561
41.110481 22.329224 2.3457143
41.101818 22.401194 2.3550971
41.08057 22.503214 2.0548584
41.073658 22.498653 2.5496702
41.078991 22.488295 2.2657073
43.633354 15.780369 2.4659595
43.544163 15.994174 2.453217
43.422016 16.3148 2.7289109
43.253365 16.786177 2.2655747
43.206936 16.805094 2.4640918
43.192276 16.893673 2.5544138
43.163651 16.99449 2.4526949
43.174587 16.992142 2.2639573
43.152084 16.980553 2.7287047
43.137653 17.084007 2.4561303
43.105637 17.111597 2.4618587
43.084606 17.199665 2.4632728
43.05238 17.29143 2.4569776
42.866817 17.699066 2.750062
42.89098 17.695381 2.4698946
42.883873 17.704485 2.6704001
42.89727 17.703506 2.2709477
42.856487 17.797037 2.4647448
42.799614 17.903414 2.6765018
42.807766 17.919893 2.2740581
42.70219 18.113846 2.6735101
42.754555 18.094011 2.2651272
42.643997 18.316639 2.6514096
42.611176 18.415253 2.4555814
42.60498 18.406218 2.5476308
42.570469 18.490059 2.6560059
42.600666 18.494827 2.2639437
42.561829 18.600449 2.2637439
42.462601 18.793865 2.6531372
42.444016 18.897558 2.4562521
42.414532 18.902966 2.4520805
42.410946 18.919388 2.3680842
42.376602 19.008541 2.6391428
42.401482 19.008108 2.2665136
42.398613 18.999281 2.4590867
42.375214 19.095022 2.2592955
42.305698 19.213938 2.3599904
42.308117 19.210968 2.4634464
42.267696 19.277864 2.6412542
42.279915 19.297956 2.5558228
42.194153 19.497374 2.6488221
42.205795 19.506395 2.1644208
42.147095 19.689878 2.4465859
42.093845 19.801655 2.4592376
42.108475 19.740992 2.2010179
42.064327 19.886271 2.4619851
42.042019 19.994648 2.1581442
41.950741 20.170326 2.6366203
41.899082 20.307404 2.44578
41.844463 20.489939 2.3598044
41.778904 20.697359 2.1580324
41.70689 20.818651 2.1513669
41.67345 20.906168 2.5449235
41.692902 20.903137 2.1632288
41.652805 20.997101 2.3557379
41.571808 21.185575 2.5434768
41.505699 21.313496 2.2738507
41.403637 21.599213 2.5515459
41.400475 21.619041 2.1609609
41.300053 21.803619 2.5895116
41.311848 21.827404 2.0970578
41.246845 22.082277 2.5669096
41.155499 22.294987 2.2670343
41.154331 22.290487 2.55006
41.160618 22.295717 2.0741515
41.136551 22.380457 2.2540765
41.104904 22.411489 2.2702155
40.993271 22.698187 2.2672234
40.950047 22.899439 2.0579889
43.419685 16.217052 2.6808255
43.372753 16.38818 2.7582338
43.293926 16.599611 2.5487022
43.250732 16.686274 2.6457095
43.214928 16.736374 2.6663601
43.16967 16.899118 2.6617227
43.099602 17.032598 2.6570218
43.08683 17.109373 2.6573853
43.045456 17.17564 2.8719876
43.079708 17.191584 2.5558844
42.993515 17.315891 2.761631
42.986683 17.334766 2.8669827
42.98484 17.405754 2.6594448
42.959293 17.494797 2.5538654
42.913738 17.530365 2.6412137
42.892448 17.572149 2.8577664
42.907822 17.61116 2.4727349
42.892525 17.595903 2.6504858
42.886547 17.690018 2.560159
42.854904 17.693329 2.8551419
42.805405 17.827066 2.6337407
42.776245 17.89296 2.8469632
42.77087 17.992491 2.6471388
42.709007 18.046181 2.8389065
42.71291 18.11883 2.3604863
42.680645 18.185791 2.636703
42.631866 18.270172 2.8314602
42.618782 18.337969 2.5387967
42.609112 18.413895 2.3624303
42.57795 18.496071 2.5462592
42.554253 18.591045 2.5399327
42.506615 18.714903 2.3625817
42.475151 18.795895 2.5587335
42.405117 18.897648 2.5525172
42.451057 18.895164 2.3564918
42.35743 18.996365 2.7753086
42.391541 18.99984 2.5503578
42.319431 19.109344 2.582803
42.276382 19.224518 2.7441514
42.255501 19.39127 2.5609479
42.256557 19.396563 2.3626702
42.102943 19.70578 2.5527225
42.081421 19.682388 2.7708523
42.085957 19.804384 2.5512455
42.091103 19.793499 2.6502867
42.008884 19.915237 2.7620022
41.985989 20.093803 2.5414879
41.914307 20.207138 2.7356658
41.961525 20.19475 2.2701173
41.906818 20.220284 2.4504726
41.89185 20.308804 2.5489397
41.873703 20.400965 2.5519636
41.796974 20.480789 2.7306302
41.805271 20.513887 2.4609408
41.792927 20.600079 2.4555628
41.735119 20.650505 2.7211087
41.717426 20.689493 2.718118
41.705204 20.815973 2.4595187
41.688774 20.803455 2.7151666
41.513969 21.941452 2.2239094
42.837376 17.998125 1.348838
41.205418 22.086815 2.5368688
41.208527 22.121246 2.0914869
41.18301 22.191286 2.5584135
41.189827 22.204403 2.0729911
41.092838 22.392244 2.5681183
41.102013 22.41354 2.0626149
40.990849 22.691397 2.5472765
40.96526 22.79361 2.2585332
40.957626 22.796997 2.5413108
40.90461 22.914164 2.1629887
40.902061 22.912977 2.0737581
40.890896 22.895756 2.5496886
40.858208 23.097691 2.0698755
40.848984 23.095861 2.4545262
40.809662 23.105862 2.2804289
40.800133 23.206408 2.2639878
40.769806 23.295336 2.4542775
40.683243 23.415426 2.4597723
43.352337 16.494394 2.546201
43.283962 16.604538 2.7327242
43.21085 16.81992 2.5445797
43.157677 16.995426 2.5561342
43.084778 17.094677 2.7475772
42.992706 17.391989 2.7456141
42.858162 17.791883 2.5596249
42.815365 17.817007 2.4845448
42.782703 17.991516 2.5386074
42.790863 17.992725 2.2731802
42.753048 18.089878 2.3549702
42.595287 18.415043 2.6585431
42.603745 18.416834 2.2317419
42.593365 18.499422 2.3614089
42.533081 18.582556 2.6386795
42.555397 18.590822 2.4536345
42.510223 18.641163 2.3783045
42.504112 18.705521 2.4560268
42.477463 18.796492 2.4589152
42.398453 18.92881 2.2294397
42.450787 18.905201 2.6486328
42.286694 19.301247 2.4558079
42.201862 19.510813 2.3658149
42.149361 19.692301 2.3599415
42.096798 19.802505 2.3628359
42.059937 19.899399 2.5486729
41.901875 20.232498 2.5539982
41.900097 20.312767 2.1701846
41.793106 20.595617 2.5692747
41.762344 20.692745 2.4573765
41.695763 20.902382 2.0691137
41.584938 21.20853 2.0656707
41.499817 21.312346 2.5476315
41.236588 22.774828 2.0526419
43.221035 17.256546 1.8810943
43.761032 16.070129 2.3143735
42.40913 19.017794 2.1697137
42.386898 19.094437 2.1551564
42.338573 19.190281 2.3574185
42.308956 19.206137 2.5607197
42.295509 19.299294 2.1668832
42.292103 19.29463 2.3650503
42.23354 19.483698 2.3589811
42.098 19.804281 2.0689332
42.042061 19.990154 2.4557579
41.98592 20.097044 2.4499934
41.960674 20.204958 2.0626996
41.955914 20.193705 2.4608431
41.880253 20.398048 2.2635632
41.831425 20.572115 2.2613583
41.73946 20.789627 2.2658157
41.665672 20.995981 2.1661122
41.643013 21.091187 1.9640179
41.549042 21.291965 2.159049
41.531361 21.378571 2.1637557
41.475151 21.496065 2.1592093
41.441063 21.588167 2.2576637
41.443493 21.581573 2.1547372
41.391235 21.69651 2.1593528
41.351421 21.788221 2.1689789
41.332764 21.879824 2.1802115
41.319019 21.908609 1.8959649
41.280514 21.991331 2.1707413
43.747662 16.035112 2.4775653
41.117905 22.323811 2.5249929
43.39069 16.398764 2.3616238
43.386513 16.415092 2.6320605
43.241852 16.788334 2.5568292
43.193214 16.811787 2.6500847
43.247375 16.792088 2.3661718
43.114288 17.039568 2.3578031
43.132339 17.062363 2.7546525
43.102547 17.105003 2.5591364
43.054085 17.286331 2.5499711
43.015224 17.304874 2.6642442
42.808567 17.88455 2.7736099
42.751793 18.080166 2.5540206
42.755836 18.0805 2.6609781
42.608345 18.40313 2.7364855
42.211269 19.412495 2.4786332
42.197998 19.517986 2.4549873
42.096767 19.621714 2.6981704
42.11327 19.715366 2.2830231
42.107224 19.724087 2.4604876
41.975677 19.913799 2.6836441
41.999786 19.94022 2.2639053
41.314011 21.807844 2.1640966
41.109772 22.191296 2.5832107
41.19281 22.202234 2.1608691
41.10186 22.421368 2.1693466
40.998825 22.703665 2.0813174
40.987179 22.701841 2.3567748
40.958714 22.795229 2.3613145
40.898712 22.818813 2.5592465
40.911068 22.82066 2.0935562
40.801918 23.098785 2.5545323
40.772079 23.292767 2.3689356
41.506706 22.000965 2.1485617
43.347324 16.488049 2.7502084
43.353909 16.501143 2.3655336
43.251991 16.737043 2.7584329
43.278156 16.699762 2.3695455
43.175842 16.917704 2.7365792
43.194653 16.906696 2.362123
43.108807 17.042967 2.7535501
43.137272 17.084686 2.3589072
43.230927 16.870384 2.2611165
43.198383 16.896381 2.4537158
43.145756 16.982136 2.6580474
43.10865 17.125786 2.2695625
42.804375 17.906626 2.4576037
42.693832 18.116796 2.7420754
42.639584 18.386181 2.5433528
42.643539 18.386505 2.3488386
42.583485 18.464891 2.7187703
42.454697 18.801407 2.7354736
42.171635 19.472031 2.74336
42.054531 19.807468 2.7311604
42.012127 19.939627 2.5260823
41.973118 19.971411 2.7297566
43.661987 15.695098 2.2712581
43.660336 15.704273 2.6558011
43.645763 15.761305 2.6558819
43.640446 15.780412 2.2740216
43.547604 15.996179 2.3572726
43.441414 16.278997 2.5589445
43.360195 16.499872 2.2707767
43.137268 17.083183 2.6384029
43.087692 17.195227 2.3613462
43.052345 17.294983 2.3600352
43.037571 17.377239 2.4589787
42.861454 17.781269 2.6556776
42.868992 17.794111 2.2709284
42.83279 17.884932 2.4659572
42.742058 18.099993 2.4612014
42.455986 18.89316 2.2685966
42.435524 18.973463 2.4496009
42.300606 19.205017 2.6596663
42.344849 19.1915 2.2679863
42.310169 19.229166 2.2654645
43.216236 16.77467 2.7443757
43.10931 17.108004 2.3598073
43.070564 17.187855 2.6485534
42.90395 17.612675 2.557791
42.794159 17.965467 2.7445674
42.744663 18.167316 2.5638473
42.677216 18.202332 2.7662964
42.558315 18.570618 2.7516887
42.438805 18.875553 2.7679443
42.400326 19.001928 2.3617463
42.370472 19.095394 2.3633041
42.249699 19.298285 2.7449749
41.600533 21.106077 2.1658185
41.536777 21.382599 1.9531922
41.303394 21.911264 2.1509609
41.167366 22.29632 2.1706555
41.136292 22.39632 2.1548696
41.05698 22.593048 2.1608589
40.998055 22.706068 2.1665905
40.936405 22.884926 2.3551733
40.901909 22.905527 2.3591437
40.837364 23.173395 2.1694176
40.788425 23.290689 2.0751631
40.764565 23.391191 2.0771563
42.564621 19.429369 1.9861782
42.489239 18.794897 2.266587
42.462532 18.892555 2.1692266
42.355125 19.198021 2.0587933
42.242702 19.489229 2.1598315
42.129307 19.77022 2.2595925
42.080528 19.89699 2.0661139
41.933968 20.280569 2.4443951
41.859802 20.499743 2.0635655
41.800228 20.601234 2.0715234
41.840889 20.574673 2.4522533
41.60619 21.108694 2.2715182
41.549473 21.284317 2.4519227
41.410046 21.610483 2.2675111
41.43214 21.669083 2.0618265
43.045059 18.085445 2.0483096
42.741257 18.184711 2.1566474
42.60038 18.505468 2.1819806
42.535736 18.680029 2.3613694
42.435333 18.971951 2.3456802
42.438168 18.980152 2.1655679
42.131042 19.772375 2.3631263
42.039574 19.986755 2.3606308
41.934093 20.280945 2.3655221
41.594379 21.101837 2.5485237
43.639538 15.780771 2.3394144
43.441097 16.28516 2.3568065
43.282284 16.689983 2.2675178
43.204239 16.901413 2.1734312
43.229973 16.892025 2.5695465
43.0639 17.291815 2.1586733
42.953228 17.597221 2.1612434
42.938984 17.647675 2.565522
42.892994 17.701012 2.3614817
42.858971 17.796587 2.3574598
42.836945 17.881914 2.3644104
42.810112 17.917171 2.1766169
42.70409 18.213299 2.1709859
42.758286 18.103807 2.1712971
42.341164 19.187334 2.4604542
42.101612 19.808481 2.1763737
42.129353 19.775558 2.4577005
42.010204 20.022627 2.2809358
41.709568 20.823553 2.0689058
41.664074 20.993155 2.0632968
41.514175 21.315672 2.0664754
41.540958 21.374048 2.4584153
41.380951 21.699978 2.4662306
41.353802 21.800129 2.0766058
41.347664 21.787807 2.4601941
41.309914 21.824896 2.4648297
41.269039 21.995016 2.2645652
43.453968 17.003845 2.1489894
43.071632 17.248365 2.7316322
41.50692 21.319588 2.4673841
41.49815 21.409153 2.0524142
41.4067 21.606205 2.0683408
41.354336 21.792313 2.2597733
41.294415 21.82021 2.264936
41.293938 21.904171 2.2685399
41.188511 22.19747 2.2658613
41.110062 22.331316 2.2809381
41.098835 22.413845 2.4539962
40.917427 22.836847 2.2500648
40.859699 23.095789 2.1629074
42.933815 17.674946 2.1565289
42.732597 18.174294 2.365303
42.507702 18.714169 2.2635884
42.432198 18.959726 2.5673556
43.481041 16.887726 2.1533794
42.160042 19.696707 2.0743203
42.035854 20.068037 2.0696015
43.444046 16.29812 2.2619264
42.464806 18.900845 2.0667088
42.407074 19.007664 2.0782588
42.301105 19.308088 2.0743544
42.13607 19.767876 2.1737323
42.050304 19.978374 2.5485845
41.851204 20.502411 2.1735878
42.954178 18.403589 2.1332874
43.634346 15.775337 2.5554364
43.535866 16.081861 2.2566695
40.83905 23.179337 2.3625038
40.782955 23.294767 2.1699283
40.749802 23.39633 1.9806232
43.562542 15.985646 2.1665549
43.302608 16.61326 2.3697023
43.122002 17.156918 2.5932374
43.03389 17.372103 2.2709978
41.94326 20.28558 2.1724396
41.810944 20.525097 2.2857561
42.782867 18.700386 2.0696969
43.532642 16.068834 2.3558743
43.137028 17.087269 2.549088
43.057377 17.291025 2.2650948
43.052876 17.306623 2.65558
41.936016 20.269396 2.5557859
43.282631 16.693636 2.1700788
43.210743 16.827379 2.3593469
43.035973 17.370752 2.3587449
42.848213 17.920633 2.648787
41.388119 21.69698 2.5460634
42.575439 19.281929 2.0604627
43.760342 16.118526 2.1665423
43.090843 17.188391 2.2632294
43.096344 17.20661 2.1633537
42.916901 17.611767 2.2547193
42.898769 17.692902 2.1603734
42.873596 17.796137 2.1576898
42.641003 18.379641 2.4547944
41.702187 20.726238 2.0434551
41.294735 21.895411 2.4616513
43.533894 16.031109 2.7129202
41.780594 20.704033 2.0708609
41.349533 21.86993 2.5352435
41.142475 22.380619 2.5590551
41.044544 22.590263 2.4556961
43.143402 17.100014 2.0652003
42.196758 20.289516 2.090219
43.531765 16.077316 2.5529482
42.948631 17.58967 2.2705295
41.639576 21.092665 2.0704753
41.266487 21.997078 2.4573634
41.240444 22.094431 2.4560981
41.182884 22.203747 2.4586132
40.934658 22.884106 2.5449746
40.854034 23.089634 2.3575029
43.39109 16.404591 2.1690991
42.587776 18.598156 1.9716654
42.547058 18.688774 2.0802133
42.027252 20.070366 2.4339335
41.834179 20.594555 2.1572578
43.014046 17.323368 2.3483036
42.80484 17.793163 2.7566757
42.206299 19.427395 2.2902722
41.813995 20.511799 2.5529208
41.614815 21.019165 2.454968
41.557144 21.201735 2.6396587
41.50359 21.309134 2.648854
42.543522 18.664089 2.5766106
42.247524 19.395771 2.6382372
40.790558 23.195293 2.3591325
43.425789 16.363497 2.3468957
43.201443 16.907404 2.2621055
43.131081 17.168087 2.6148918
42.64027 18.486395 2.0573173
42.604946 18.513327 2.0722783
40.944767 22.890631 2.1607659
40.802467 23.206751 2.1722281
40.743763 23.392464 2.4488752
42.975761 18.095211 2.0409167
43.210278 16.835407 2.2572927
42.828064 17.946625 2.681138
41.054237 22.599823 2.0556772
40.94104 22.883009 2.2625301
40.851727 23.092649 2.264926
40.734802 23.476107 2.4592757
43.098434 17.184629 2.7383816
42.338844 19.175436 2.5628364
41.545643 21.273232 2.6638029
41.486336 21.40048 2.6533773
42.805126 17.841772 1.9605587
42.229572 20.184259 2.1736939
42.94841 17.598064 2.640238
42.630383 18.482618 2.1674469
43.481674 16.795727 1.5464114
42.072468 20.498606 2.1419024
42.954666 18.305361 2.1620369
42.938072 17.667065 2.4362388
42.733967 18.181246 2.259768
42.648895 18.467932 2.5420003
41.036095 22.67045 2.3591516
40.990437 22.699606 2.4563971
40.988308 22.707638 2.6530392
41.727592 21.485987 2.1151781
42.550354 19.419155 2.1179028
43.222595 17.579472 2.1259508
43.671143 15.691352 2.1595166
43.138432 17.097134 2.1666048
41.739391 20.865047 2.5553725
41.137917 22.375113 2.4689393
41.028362 22.675253 2.2668505
42.358437 19.889849 2.0374165
41.830601 20.578312 2.3452585
42.136391 20.573078 2.0520334
42.651237 19.120789 2.0730343
41.824745 20.562641 2.6302371
41.33617 21.883949 2.4470108
43.691174 15.690262 1.5924779
43.531235 16.076321 2.4394555
41.733234 20.866488 2.160886
41.043785 22.590698 2.3637083
41.041794 22.595345 2.6372051
42.413372 18.923922 2.1968534
43.044701 17.37122 2.6440027
41.736404 20.785675 2.6520176
41.339233 21.875002 2.2506888
41.239098 22.110918 2.6538496
41.173241 22.198587 2.6558905
40.837597 23.176443 2.4555724
40.833206 23.220032 2.6172667
41.231743 22.818302 2.1498451
42.268509 20.09367 2.139245
43.627842 15.675213 2.7788892
43.134029 17.178122 2.25049
42.267986 19.398766 2.1655664
41.678944 20.885834 2.6447041
40.933323 22.981661 2.1647799
40.851772 23.082521 2.5494184
40.765156 23.288958 2.5578387
41.149502 22.971071 2.1466448
42.148846 20.386667 2.1535954
42.550705 19.292459 2.1604464
42.956253 18.189411 2.1690745
42.908649 17.626247 2.364176
42.713741 18.131153 2.4486787
41.310688 21.780069 2.64218
41.063599 22.587862 2.5585961
40.871483 22.998898 2.6395311
40.78627 23.20466 2.4576828
43.200523 16.916643 2.055959
43.16703 17.010628 2.0703111
42.771973 18.082724 2.0780489
42.642155 18.462799 2.2751548
41.140308 22.378654 2.3606472
41.040668 22.672791 2.4592855
41.896118 21.012098 2.0710015
43.584087 16.610794 2.0596619
40.827274 23.190578 2.5615621
42.52935 19.363869 2.0609415
42.966618 18.297771 2.059339
42.881683 17.79003 2.0531955
41.856468 20.601793 2.5563393
41.507267 22.035492 2.071408
41.894772 20.930395 2.0509238
42.755947 18.776495 2.0498393
43.165878 17.675451 2.0404017
42.853584 17.88249 1.97508
42.441772 18.994177 1.9647301
41.935841 20.376747 2.454042
41.771469 20.962852 1.9667838
41.2738 22.003004 1.9845551
40.836857 23.184671 2.267488
43.720997 15.584214 2.5168202
41.525509 21.984127 1.988749
42.3554 19.880919 1.9806194
42.738579 18.867203 1.957154
43.132351 17.788229 1.9602959
42.033501 20.081799 2.2609208
41.598465 21.802797 2.2176368
41.547756 21.37459 2.5430105
41.53727 21.376677 2.2756209
42.743259 18.189627 2.055927
42.039852 19.981239 2.6405709
41.929699 20.386562 2.2817445
40.894295 22.919725 2.6347153
41.44239 22.308378 2.0795298
43.078644 17.970026 2.0669348
41.371403 21.682228 2.6586134
41.893288 21.011185 2.1624646
42.7057 18.916449 2.143945
41.209274 22.127657 2.1739922
41.135468 22.383606 2.6297302
41.08614 22.477074 2.6648533
41.159763 22.91118 2.1395087
42.381573 19.806154 2.1358337
41.028851 22.677914 2.620712
42.255428 20.103947 2.1005435
42.637341 19.116159 2.1434174
41.145824 22.276985 2.6409764
41.601852 21.705708 2.0807295
42.66534 18.987509 2.1630149
41.7047 20.738195 2.6984825
41.640583 20.857674 2.7460289
41.401932 21.494045 2.6667011
41.390038 21.58954 2.7332115
40.907814 22.833807 2.3715708
40.835587 23.084066 2.6645777
40.808086 23.116678 2.4695344
41.193508 22.771912 2.1722336
42.493858 19.379892 2.2128496
41.374142 22.383204 2.1447911
41.69046 21.506166 2.1346753
42.057854 20.577858 2.1437571
41.540985 21.971355 2.0534754
41.266529 22.282454 2.0525188
41.533554 21.389473 2.0664673
41.257423 22.281029 2.3596394
42.088005 20.493546 2.0869677
41.244972 22.094212 1.9778625
40.902355 22.998007 1.9582763
41.123314 23.049587 1.9860766
41.038979 22.687435 2.1762679
41.455025 21.771755 2.4693606
41.107395 22.280972 2.6663365
43.126766 17.169949 2.1851716
41.088451 23.105625 2.139699
41.791676 21.27882 2.1493862
40.904938 22.83164 2.438797
40.800613 23.10548 2.3687813
43.602127 15.719185 2.3058698
41.519127 21.903725 2.161602
43.532898 16.199606 1.8444726
40.807198 23.105406 2.6692448
40.700592 23.300995 2.586288
41.158432 22.818569 2.2445018
41.474117 22.025421 2.2484519
42.896427 17.723423 1.9612945
43.276001 16.796833 1.7799838
42.897366 18.248732 1.8900377
41.100368 22.227448 1.9074157
41.027401 22.676937 1.9790295
42.940094 17.689398 1.8524067
42.886475 17.798725 1.9681253
43.589333 15.992326 1.6657338
41.767067 20.707737 1.766646
42.244202 19.568691 2.0759218
41.794598 20.532391 1.8727499
43.272415 16.789288 1.872197
41.445557 21.673965 1.9528363
41.3437 21.882627 2.3678153
43.387756 16.783239 1.9240512
42.144714 20.380373 1.9548295
41.916523 20.171329 2.178266
42.868 17.914326 1.8450824
40.998295 22.677895 1.8904148
43.439819 16.840414 1.8206786
41.207756 22.201763 1.7416538
43.006779 17.40929 2.1513124
42.030426 20.070379 2.3580709
43.625957 16.567177 1.4214822
43.214031 16.842007 2.0415034
41.865158 20.842602 1.6148483
42.31628 19.217924 2.169313
42.801197 18.286558 2.4259255
43.299969 16.710863 1.890965
42.109245 19.729685 2.0817797
41.996346 20.122677 1.7684762
41.513107 21.235634 2.0583045
41.722595 21.634762 1.8687904
42.301758 19.299669 1.8708595
43.754951 16.17761 1.9620873
41.580982 21.690277 1.8607049
42.506355 18.834429 1.6848521
41.613731 21.715799 2.3226209
43.729889 15.549964 2.4621119
43.30265 16.704226 1.9568982
41.773907 20.793806 1.7531271
43.699665 15.693544 1.7057424
41.413944 21.681185 1.7905624
42.004433 20.107809 1.9434497
41.434525 21.672815 2.27191
43.5392 16.090771 1.7548287
43.379707 16.49321 1.7603151
43.599812 15.8604 1.8075796
42.453171 19.103746 1.7359587
42.448093 19.076117 1.8655005
41.231384 22.654484 2.2379167
41.257378 22.677612 2.1632285
43.565601 15.98847 1.8584647
42.502518 19.305391 1.8476175
43.693233 15.682401 1.7532625
42.038769 20.554955 1.796001
42.675259 18.136446 2.2051189
43.299431 16.595894 1.9751974
41.89505 20.40107 1.9681072
42.243229 19.471264 1.7390982
41.520237 21.473742 2.1340096
42.236069 19.570696 1.9517113
40.877113 23.096729 1.9672014
41.617195 21.011078 2.6522419
41.37574 21.787983 1.9671731
43.460114 15.969064 2.034898
41.866436 20.493992 1.8446625
41.731277 20.79649 2.854564
41.889503 20.424274 2.822396
42.922665 17.77383 2.3414795
41.562443 21.041801 1.8086264
41.640362 20.919956 2.8198445
41.768368 20.703289 1.4826344
40.817692 23.044996 2.3760657
41.694847 20.914812 1.8606576
42.381752 19.119556 1.5869612
40.985836 23.170027 2.3320761
42.926437 18.279432 2.0079021
42.923607 18.263563 1.7454227
42.931641 18.371712 1.6609232
43.61306 15.738119 2.4452815
42.292 19.387482 1.6008234
43.134651 17.182169 1.8689401
41.126148 23.090986 2.1538677
40.99614 23.230061 2.254318
41.367687 22.557224 1.9727578
41.165394 22.903664 1.8789494
41.795628 20.690008 1.8771094
43.147114 17.389412 2.0725937
41.655132 21.013737 1.7615353
43.676376 15.691275 1.9926472
41.570938 21.717758 1.788802
42.434807 19.60252 1.7548736
41.861237 20.488743 1.9640037
41.606815 21.539749 1.8545389
42.399387 19.469046 1.8897599
41.253727 22.457987 1.8028816
42.919102 17.780752 1.6601118
43.17017 17.06584 1.8022134
42.35569 19.877895 1.6626368
42.264587 20.10305 1.8706955
43.15765 17.089867 1.8883226
43.126583 17.170517 2.4309549
41.200325 22.798939 1.9387292
43.235413 17.4011 1.8247677
42.246159 19.983936 2.3651986
43.153687 17.094666 1.9614067
41.488461 21.926525 2.4767015
41.154816 22.798923 2.4698727
41.114868 22.201593 2.6991045
43.296589 17.209248 1.7591815
41.367298 22.460073 1.6577256
42.633423 18.568575 2.1608663
41.740753 21.358036 2.0032353
42.119541 20.319933 2.024008
42.869331 17.528591 2.061748
43.014275 17.328514 2.2555542
43.016098 17.302156 2.1977785
43.013481 17.338453 2.0233278
42.971329 17.339357 1.7689805
43.031559 17.385916 1.475561
42.628777 18.575451 2.0205309
42.317383 19.989468 1.7318919
41.193363 22.760115 1.8643382
43.288841 16.639103 1.7369757
41.514858 21.918674 1.8354245
43.062828 17.303659 1.8647431
43.455597 16.455288 1.9711652
42.731159 18.213663 1.576943
41.847752 21.201025 1.7415946
43.563927 16.616901 1.6979623
41.489624 21.27742 1.7769797
43.393253 16.401819 2.0679805
42.20108 19.514198 2.0675998
41.422977 22.262775 1.7107708
41.73312 20.890623 1.9457823
41.899925 20.174854 2.0007324
41.790428 20.345812 2.294811
42.725845 18.268318 2.1477752
42.388573 18.916191 1.7690642
41.766674 20.98457 2.4652634
41.723694 20.96641 2.221998
42.737965 18.225767 1.7546238
41.973938 20.78484 1.7741148
41.888546 20.955067 1.9782592
43.082489 17.517998 1.7854946
41.947369 20.69537 2.3144467
42.998547 17.934334 2.5469034
42.058231 19.990425 1.752547
41.791351 20.93614 1.5012496
41.932484 21.033588 1.3748037
41.346519 21.778126 2.6129296
42.823208 17.980873 2.1832695
43.396786 16.411015 1.9766352
42.370071 18.972755 1.8609108
41.663826 21.589312 2.06809
42.731369 18.795572 1.7788913
40.831123 23.28055 2.1434634
42.228172 19.604862 1.7741876
42.954662 18.25909 1.8463951
42.168442 19.403458 2.8272107
41.116009 22.939796 2.2512076
42.185341 19.456493 2.8215954
41.239326 22.711714 1.9305968
41.796204 20.621897 1.9551907
43.535904 16.795967 1.8381472
41.326614 22.452915 1.8573266
42.360214 19.181673 1.8556044
42.504639 19.393803 1.8148882
43.199333 16.835897 2.1567872
41.490479 21.94998 2.004946
41.449158 22.261999 1.7344412
41.986618 20.187695 1.9639916
42.938202 18.244265 1.6847322
42.691154 18.367226 1.6570507
42.805542 17.824982 2.5978293
42.431843 19.052391 1.6177588
42.288464 19.388964 1.9670891
41.927483 20.36784 2.1535118
41.953773 20.279936 1.874603
41.672432 20.675753 1.7888005
42.535652 18.780983 1.7902981
42.136509 19.802061 1.9714311
42.375423 19.822432 1.7605109
42.385715 19.093836 1.8648381
43.065426 17.977299 1.7547936
42.552238 18.702587 1.8638009
42.78141 18.679411 1.8550442
42.13306 20.39209 1.8579483
40.996742 22.710457 1.9741129
42.248009 19.693569 2.3117681
42.256077 19.650164 1.8294706
42.252491 19.5811 2.3566709
42.926239 17.84293 1.8506476
43.180237 17.874075 1.8353606
42.477295 19.694109 1.8237447
42.4263 19.077581 1.9506581
41.761677 20.690208 1.6742195
43.057518 17.489418 1.5672541
43.048096 17.377785 1.6620198
42.534721 19.381775 1.6779804
41.906586 20.334309 1.7506838
41.976696 20.284807 1.7548993
41.965168 20.211855 1.7710366
42.532303 18.695045 1.70763
42.208862 19.409092 2.1756248
42.065586 20.462301 1.6850002
41.990543 20.120991 1.6710024
41.990978 19.995316 1.9548365
42.574535 18.650286 1.5989252
42.571198 18.602726 1.86698
41.927956 20.538074 1.5933698
41.7066 20.931351 1.6279756
42.27673 19.398392 1.882692
42.277424 19.39344 1.6830293
41.936005 20.98078 1.6148632
42.302307 19.296436 1.7700536
42.295322 19.311501 1.9652914
42.314339 19.204344 2.0223224
42.343811 19.213524 1.7585614
42.393719 19.107258 1.9733579
43.431744 16.388906 1.7530438
42.894474 17.690037 1.7854192
41.676895 21.020992 1.856442
42.397324 19.701206 1.8638998
42.454617 19.60434 1.822204
42.274078 19.405661 1.762221
42.447357 19.651688 1.6661268
41.483841 21.500725 1.9630325
41.525955 21.402409 1.7546151
42.598881 18.525541 1.6490853
43.588943 16.586901 1.5984629
42.500782 18.708654 1.7463741
42.566032 18.603817 1.7583683
42.710701 18.874224 1.7145703
41.990105 20.561743 1.7584391
41.524593 21.373117 1.8789413
42.068317 19.983408 1.8666015
42.632568 18.502338 1.9771717
42.616997 18.4256 1.7535751
42.647236 18.393974 1.7713788
42.651951 18.475542 1.75404
43.702843 16.279196 1.7182752
42.163734 20.343826 1.7490666
41.400185 21.688879 1.9661751
41.909653 20.302774 1.992295
42.472038 18.903551 1.8698759
42.435402 18.895229 1.6712375
42.469345 18.887018 1.9738361
42.0107 20.689571 1.6731484
42.425285 19.665449 1.7387623
42.490135 19.494532 1.7980005
41.582123 21.185272 1.8328526
41.742821 21.390226 1.8628197
43.065308 17.299854 1.9626296
43.218922 17.461279 1.9173315
42.961441 17.607031 1.9605402
42.910629 17.493189 2.5801344
42.790401 17.983683 2.058985
42.943718 18.204456 1.9549397
41.509056 21.899263 2.0221813
42.139824 19.783291 2.0673347
42.957291 17.588997 2.0691848
41.499504 21.423128 1.8936561
42.065716 19.910141 1.8242111
42.087852 19.795736 1.8746507
42.862648 17.898861 1.7994179
42.225204 20.124184 1.802717
41.764038 21.381449 1.7761661
42.404346 19.079903 1.7959837
42.435558 19.023226 1.8083128
41.650818 21.586155 1.9570491
42.577217 19.163433 1.9768155
42.315601 19.195074 1.9511174
42.903633 17.708006 2.0694036
42.209015 20.023333 1.9875363
42.602859 19.115463 2.0395343
42.802334 18.570883 1.9708204
42.718914 18.123203 2.2629609
42.741383 18.200605 1.9752324
43.570293 15.984709 2.06147
42.577961 18.593788 2.0739946
42.614594 18.433578 2.0916586
42.169224 19.69898 1.9608009
42.983273 18.108154 1.8764563
42.293228 19.94532 1.8878454
42.003922 20.07811 1.8986636
42.107033 19.803753 1.9872096
42.825729 17.995213 1.9466307
43.894402 15.639481 1.9428284
42.997375 18.095066 1.9541841
42.274139 20.038097 1.9414304
43.367775 16.502174 2.0691662
43.448521 16.260233 1.8840907
43.363941 16.497267 1.8373377
42.691742 18.385456 1.8659705
43.549393 16.679726 1.8196082
43.170525 17.00363 2.1725674
42.492157 18.797817 1.9929438
43.276653 17.219261 1.9334353
42.597996 19.223423 1.9089497
43.466621 16.859833 1.9773228
41.114105 22.334328 2.4367843
41.780922 21.309233 2.0390742
42.491917 19.508152 2.0912466
43.116821 17.105627 2.1551671
