# .PCD v0.7 - Point Cloud Data file format
VERSION 0.7
FIELDS x y z
SIZE 4 4 4
TYPE F F F
COUNT 1 1 1
WIDTH 1611
HEIGHT 1
VIEWPOINT 0 0 0 1 0 0 0
POINTS 1611
DATA ascii
30.105661 18.475763 1.8966382
30.103725 18.485823 1.9532064
31.601587 14.012753 1.680938
31.899279 13.30744 2.3761981
30.02812 19.066071 2.629215
30.116089 18.47333 1.7676755
30.083902 18.797747 2.5511591
30.102005 18.496902 2.1603341
32.263893 12.994998 2.3623395
32.278034 13.008034 2.2737992
30.045763 18.375816 2.0503912
31.735279 14.366129 1.4096677
32.276962 12.398486 2.1691766
31.345634 14.787109 2.4565859
31.815151 13.397423 2.4907856
31.367575 15.137499 2.4175324
32.28846 12.412955 1.8597776
31.655207 14.687378 2.5570667
30.177059 17.998009 1.8949637
32.327705 12.975718 1.8963213
31.675058 14.633709 2.0735006
31.803232 13.488453 2.7586367
31.90733 13.285083 1.9857062
31.410374 14.50562 2.3529751
31.819443 13.440021 2.5162327
31.33136 15.606514 2.2822437
31.351349 15.617348 2.7339733
32.257511 12.388855 2.4627693
31.775568 13.413238 2.1032002
29.99139 18.30673 2.649267
30.015203 19.037743 1.6769435
31.67713 14.591687 2.1627917
29.935131 18.581875 2.2685175
31.345911 15.150681 1.8201607
30.038239 18.375599 2.355263
32.293732 12.301959 2.1725535
31.671608 14.602646 2.2649491
30.086018 18.600321 2.4734123
30.091663 18.591398 2.0625043
30.095871 18.702953 2.3661733
32.540596 12.489987 2.3190451
31.234245 15.821438 1.9641657
31.660519 14.669215 2.1629584
31.899305 13.30364 2.1601677
32.321209 13.0274 2.1991692
30.034948 18.979986 2.2501824
31.351948 15.478635 2.1888001
31.779648 14.393103 2.0661254
31.869726 13.282266 2.0973363
30.791199 16.695505 2.2679169
32.033428 13.782948 2.2712941
30.795023 16.590343 1.4537394
30.203011 17.718204 2.570339
30.374874 17.396793 2.2614195
32.560635 12.451075 2.2639461
32.53635 12.407933 2.2728086
31.703289 14.396967 2.3714564
31.870327 13.396797 2.45908
32.213913 12.475141 1.8822405
32.549664 12.380775 2.0721152
29.947687 18.587318 2.4576807
32.548409 12.380577 2.2005
30.290489 17.596966 2.3664083
30.2348 18.454468 1.7655056
31.75667 14.386659 2.1710174
32.241802 12.498394 2.265101
32.306034 12.308727 2.2714598
32.199352 12.596292 2.1615884
32.356232 12.355824 1.9574965
30.335979 17.577242 2.366534
31.335611 14.788522 2.5496547
30.561834 17.239107 1.9199913
30.567875 17.072428 2.2462513
31.305048 15.455748 1.5529811
31.289293 15.506757 2.2610633
30.860884 16.790005 2.654767
30.651941 16.832968 1.8797963
30.738026 16.493559 2.1733031
30.754061 16.391541 2.3563547
31.801987 14.192335 2.6643343
30.636618 17.474432 2.63502
30.795193 16.300255 2.1666172
30.057268 18.894781 2.546715
30.624372 17.494703 2.7565503
30.133537 18.689255 2.4654279
31.531174 14.461906 2.2334762
30.631983 17.487909 2.5509939
29.992577 18.118357 2.8338628
31.371252 15.07905 1.94046
30.16398 18.67948 2.8294034
30.551809 17.522707 2.7410526
30.560946 17.590555 1.9711543
31.685692 13.899364 2.3613122
30.690483 16.772322 1.5576582
30.691984 17.111034 2.4466434
30.62858 16.856094 1.5753217
30.694021 16.796879 1.66432
31.678934 13.705213 2.6589181
30.706562 17.111742 2.5463693
30.677538 16.710636 1.366712
30.047901 18.288935 2.4562547
30.682858 16.590744 2.1550181
30.536127 17.549463 1.8810716
30.279842 17.791096 1.9564528
30.729183 17.177538 2.4689975
30.416536 17.674028 2.5063148
30.583641 17.091877 1.9747127
30.565907 17.06953 1.7730814
32.310112 12.101236 1.4819332
31.521385 14.450881 2.1985917
30.276548 17.865547 1.9350253
30.86474 16.093008 2.3561485
30.492971 17.707165 2.4586391
31.917591 13.014674 1.5954914
30.540785 17.065722 1.6898855
31.146887 15.477707 2.4779961
32.577972 12.183584 1.9847326
31.225676 15.50142 1.4539412
30.188812 17.706884 2.1797471
31.103258 16.008226 2.5427001
31.54616 14.491103 2.039319
30.128595 18.781828 2.5596712
30.241035 17.782299 2.4543805
30.249716 17.684078 2.4596627
31.38933 15.0935 2.2671571
31.893845 13.299723 2.4607048
31.586149 14.095224 2.5558975
32.207577 12.43213 2.6445382
31.028173 16.442495 2.6891558
30.407011 17.810375 2.4606152
31.380438 15.490951 2.0605772
31.534338 15.071938 2.555898
30.290874 17.595863 2.090162
30.165754 18.495384 1.9870703
30.261808 17.691355 2.3608305
31.607386 14.60513 2.4588141
31.129105 15.468823 2.2584705
32.137802 13.499836 2.2754273
30.772999 16.392151 1.9895689
30.166702 18.595556 2.5560126
31.942978 13.976351 2.2479384
30.134787 18.695137 2.6676323
30.138752 18.684099 2.3700318
30.154257 18.713818 2.0651255
29.994122 18.311316 2.3640337
31.537443 14.372816 2.5450563
32.10556 13.331074 2.3847938
30.429205 18.00107 2.226757
31.418411 14.356912 1.580451
32.261757 12.319729 2.0906925
31.512964 14.225906 2.5535364
30.237665 17.772335 2.5370088
30.138769 18.673464 2.2560279
30.852137 16.958515 2.5221114
32.179585 12.523357 2.6485176
31.497944 14.905567 2.6960118
31.723673 14.57615 2.1186786
31.740913 14.493017 2.3664193
30.258993 17.880058 2.5743723
30.605608 16.724813 2.2755959
32.186226 12.598726 2.3626716
29.965195 18.494249 2.2659812
31.138636 15.383885 2.5450873
31.599483 14.71242 2.4457791
32.496277 12.485242 1.95841
31.838379 13.384568 1.8203592
31.240822 15.80166 2.0612547
30.727482 17.31489 2.4079425
30.951511 15.893354 2.2627842
31.71953 13.529963 1.8523459
30.833813 16.961182 2.3979568
30.564396 17.057426 2.4730508
30.470491 17.483658 2.1682575
30.721039 16.628647 2.2098093
32.489647 12.401853 2.4586217
31.735992 13.879698 2.2620254
31.531364 14.377393 2.4636252
31.311399 15.069281 1.7490431
32.217468 12.469234 1.569265
30.56356 17.606417 2.0420175
30.827642 17.054422 2.4878376
31.664082 13.880588 2.7517123
32.280296 12.818881 2.3714695
30.238846 17.888002 2.2790499
31.703613 13.903448 2.0665941
31.56423 14.200406 2.4627864
32.598206 12.207733 2.3515093
32.189182 12.342899 1.9782505
32.272224 13.017128 2.4604845
32.494854 12.404501 2.2618489
31.76778 13.894021 2.7009978
31.429998 14.676522 2.275842
31.542995 14.205173 2.753782
31.292097 15.514514 2.4611647
30.994678 16.424644 2.843713
31.599173 14.111916 2.3688972
31.512985 15.130621 1.9645503
30.724241 17.256243 2.6612983
31.353886 14.797862 2.3627672
31.4265 14.669306 2.3538609
32.247341 12.481198 2.4628232
30.927565 15.846741 2.6143079
31.529327 14.375441 2.623919
31.580938 14.201734 2.2644386
30.393131 18.000559 2.5516157
32.140095 13.496458 1.9688114
32.579002 12.205274 2.3005683
31.227642 15.87599 2.353827
29.985968 18.907536 2.2674735
31.239105 15.785411 2.4634569
30.649195 16.791256 1.7144134
31.505598 15.008101 2.5635259
31.354643 15.573846 2.0625708
30.72551 16.676544 1.8836737
30.366583 17.545424 1.5382189
31.371634 15.39776 2.5610054
30.114254 18.129232 1.8960313
30.989416 16.315966 2.3639934
31.038055 15.677949 2.4616315
30.348495 17.910027 2.0733509
30.322508 18.257469 2.5614407
30.533503 17.691963 2.4655664
31.362131 15.392124 2.2706249
31.717121 13.560371 1.9209516
30.444902 17.825129 1.560339
30.782009 17.151825 2.0388222
30.270557 18.294216 2.3612447
30.232513 17.773357 2.682652
30.568836 17.486101 2.2713315
30.531826 17.67824 2.3656387
30.65896 16.668144 2.0808268
30.557589 17.582676 2.1842697
30.668629 16.701559 1.9752303
30.451765 17.563793 1.5680496
31.577541 14.803254 2.4614067
31.002447 16.34403 1.6304154
31.460293 14.388669 2.7410703
31.679697 13.578982 2.0746114
31.548796 15.050115 2.3582625
31.802465 13.609137 2.2672002
31.038361 16.373955 1.9852786
30.781803 16.913107 2.2616315
31.507097 14.315427 2.4675961
30.440422 17.895193 2.275929
32.042175 12.98799 2.4548137
31.384064 15.393734 2.0616593
30.882906 16.79351 1.961221
30.991257 15.702365 2.4553869
30.256258 18.396568 2.065309
30.084551 18.184464 2.0991187
32.50219 12.401266 2.0804272
31.613979 14.014264 2.2172179
31.215565 14.990495 2.0938361
30.383516 17.906254 2.2491558
30.192398 18.400116 2.1698895
31.143709 15.487478 2.3607805
29.987724 18.675846 2.1738508
31.191776 15.201141 2.3675976
30.133675 18.771973 2.4932868
31.457199 15.274351 2.1580496
31.872374 13.868214 2.1292973
31.244261 15.785063 2.6616147
31.401487 14.600529 2.4631422
31.777599 13.600658 2.5494583
31.803225 14.106945 2.4693274
30.216829 17.755213 1.4314638
30.19965 17.809444 2.270242
30.173264 18.601677 2.6637976
31.07873 16.10183 2.7415676
31.393257 15.378592 2.7465034
30.397984 17.905708 2.5514555
31.177252 15.553743 2.6257498
31.725279 14.566282 2.4647372
32.510063 11.836122 1.5118928
29.972927 18.326984 1.874724
30.530195 17.78093 2.7228405
30.381142 17.918615 2.6741977
31.799652 13.501355 2.0732672
30.362179 18.098114 2.5548835
30.451921 17.889547 2.5630257
31.278427 15.274703 2.5831988
31.022285 16.390142 2.9124999
31.30578 14.921012 2.1596441
31.497778 15.09326 2.6490631
31.204615 15.103409 2.5647445
32.687973 11.836977 2.1168513
31.72963 14.506491 2.2590976
30.939659 16.684248 2.7433009
30.457962 17.787693 2.152586
31.719481 13.738857 2.0862319
31.113827 15.318901 2.3787651
31.127434 15.394692 2.663877
32.076515 13.602901 1.9676824
30.194572 18.508993 2.6464643
31.727917 13.874281 2.4364202
32.302059 12.193003 2.6666651
31.737177 14.605083 2.5231507
30.486704 16.9897 1.7047848
32.213085 12.963047 1.8760386
31.903204 13.92067 2.4427438
32.251213 12.494131 2.5518916
31.646618 14.692895 2.2746978
31.500059 15.012525 2.643676
31.624043 14.194786 2.5311306
30.896252 15.903606 2.6523159
30.692352 16.54232 1.6788379
30.683788 16.513517 2.0595157
31.559881 14.190158 2.5560338
30.245228 18.385548 2.4548233
30.273626 17.687881 2.1720433
31.336189 15.352845 1.586893
32.36306 12.506602 2.0685935
30.810736 16.085554 2.1287556
29.932579 18.676842 2.3517177
31.463114 14.798133 2.3106866
30.905149 15.849463 1.9421659
31.65336 14.685354 2.4551778
31.539791 14.998258 2.1676908
31.241533 15.178278 2.0720608
30.931303 15.963759 2.4686465
31.822632 14.280656 2.1598234
31.892376 13.392647 1.9852563
31.059263 16.295595 2.8886359
31.289568 15.100053 1.9913547
31.162355 15.299811 2.365629
30.298368 17.509178 2.3718045
31.427176 15.41208 1.9797367
30.925934 16.70134 1.828096
31.98024 13.16825 2.7511401
31.277037 15.158787 1.7371413
30.294458 17.498653 2.5636153
32.046928 13.139219 1.9039727
31.674431 14.766842 1.9694283
31.271812 15.603274 2.4670711
32.150028 12.366496 1.8843997
31.37594 14.89402 1.8684878
31.608355 14.347909 1.3112205
30.698208 16.687902 1.8165871
31.089077 15.495653 2.3633947
31.055092 15.490753 2.6545739
30.481512 17.694084 2.3705888
31.270855 15.59144 2.3685305
31.582851 14.19537 2.3607206
30.574734 17.473196 2.0472953
30.571688 17.500381 2.361553
30.490864 17.695374 2.2532451
30.577549 17.491426 2.4617898
30.575268 16.891663 1.9654822
31.506365 14.298083 2.7584321
30.3472 18.19549 1.9722099
31.946804 13.90244 2.4544327
31.521183 14.796834 1.9722629
30.399363 17.30249 2.1635339
30.770819 16.818241 1.8729349
31.303415 15.492789 1.9405375
30.470463 17.791845 2.265836
31.359045 15.395337 2.3644636
30.473885 17.492174 2.2446129
30.550806 17.592607 2.5539775
31.449242 15.349653 2.4370117
31.372017 14.795611 2.1692979
31.557451 14.969913 2.2605848
30.995747 16.304638 2.6416545
31.284309 15.604939 2.1730423
31.987757 12.945786 1.9007192
32.151165 12.779064 1.8689282
30.797455 16.806379 2.3590126
31.476595 15.195638 2.052479
31.930401 13.98939 2.3729949
32.144905 12.796483 2.0750287
32.145393 13.402288 2.1749699
31.983702 12.978628 1.981907
31.075441 16.010582 1.7900205
31.046238 15.677103 2.5385947
32.161594 12.696424 2.0605907
31.595638 14.807048 2.1520233
31.042797 15.810776 1.8578862
30.479832 17.486078 2.3596642
30.395721 17.266554 1.9965842
31.063084 15.498325 2.5620589
32.218918 12.615251 1.5687737
31.319572 14.64479 2.0554855
31.349131 14.808521 1.7422818
30.947193 16.677286 2.2522044
30.466993 17.790194 2.373209
29.907494 18.499327 2.378268
31.070715 16.010672 1.8715268
31.154099 15.898673 1.9554071
31.083103 15.996807 2.0280893
32.300156 12.695846 2.0773847
31.394709 14.593376 1.8775175
30.56958 17.512377 1.7928501
30.477579 17.697474 2.0722039
31.269041 15.46237 1.8605179
30.47957 17.492781 1.6486825
31.400188 14.598081 2.1608758
30.867395 16.864277 2.0072479
30.596069 17.335072 1.9065042
32.494652 12.343832 1.9397597
30.301773 18.196791 1.997792
30.397419 17.744419 2.1361973
31.394138 14.605132 2.0826693
31.930983 12.960407 1.7879316
31.834682 14.269068 2.3650217
32.28429 12.766331 1.6293705
30.592649 16.677944 2.0004041
31.192772 15.737453 1.9494528
30.526133 17.125004 1.4794978
31.644161 14.793915 2.1620903
30.454357 17.898195 2.0588458
30.838566 16.763191 1.7194104
31.832426 14.278894 2.0509806
30.564789 17.491983 1.8884693
29.838707 18.533487 1.9331267
30.984205 16.497913 1.9763577
31.95396 13.611399 2.0516624
31.578035 14.925816 2.0510709
31.822329 14.275527 2.2811816
32.585976 12.085352 1.7817634
30.954277 16.529097 1.8979709
31.1264 15.482647 2.5396256
32.398716 12.134337 1.626891
31.895714 14.000529 2.0403404
30.205786 18.492998 2.0458446
31.572367 14.887769 2.1772716
30.400211 18.062717 2.0465467
32.17062 13.286707 1.8847737
30.645416 16.687685 2.2583976
31.458864 14.883583 1.8875318
31.470552 15.102965 2.1868131
32.270889 13.123528 1.9009113
30.908417 16.496935 2.3746159
30.683382 17.208986 2.0711005
31.488056 15.217789 1.7881857
31.863258 14.089142 2.1430507
31.648891 13.985271 2.4622369
31.671606 14.007002 1.84086
31.673975 13.993094 2.1697769
31.803974 14.196404 2.4604635
31.822968 14.261627 2.4597778
30.247362 18.487808 1.9683862
30.540306 17.698973 2.1569097
31.788193 14.115666 2.1550598
31.254539 15.680539 2.1581147
30.929981 16.686296 2.530623
31.891994 13.299501 2.5591862
31.664253 13.995532 2.3573625
31.779373 14.196327 2.3576939
31.595205 14.714582 2.5450587
31.661695 14.013136 1.9951668
31.667261 13.996646 2.2597258
31.783485 14.094298 2.5307899
31.833099 14.277022 2.5832636
30.750326 17.102005 2.0560193
31.800516 14.105 2.2772102
31.516434 14.235783 2.4743054
31.607038 14.707503 2.2554934
31.717089 14.342263 2.2221348
32.341583 12.909982 2.1295948
30.320604 18.255915 2.1347587
31.162441 15.99481 2.0517406
31.440868 15.487501 1.9706068
31.162945 15.898151 2.0555212
31.12014 15.561238 1.9277338
31.596975 14.704715 2.3557975
31.455688 14.845897 1.7020154
30.736984 17.184135 1.9409801
30.807848 16.895573 1.9716686
29.786617 18.827322 2.0528998
30.542473 17.693489 1.9659125
30.778095 16.978439 1.9590118
31.459925 15.283706 2.0656219
30.251314 18.472895 2.0567653
30.348207 18.103624 2.1612322
31.951488 14.008412 1.9550121
31.547224 15.072898 1.9588195
30.281967 18.391624 2.1730223
32.173893 13.207409 2.1629856
31.617241 14.745292 1.9362408
32.052776 13.590054 2.0521026
31.536192 15.0543 2.1526082
30.882427 15.997925 2.4626329
30.908176 16.020809 1.9771702
31.608976 14.662421 2.1074569
30.6852 16.595455 2.0759523
30.571453 17.667839 1.9008027
30.763279 16.393728 2.1727083
32.391579 12.67495 1.9105698
30.745897 16.578239 2.3601766
31.788208 14.226896 2.285501
30.636234 16.79203 2.1559684
30.668882 16.593163 2.3691075
30.703102 16.619907 1.9097645
31.666447 14.094959 1.9652528
31.782236 14.226668 2.178637
31.872259 14.022437 2.1524339
30.45652 17.899986 1.968129
31.802523 14.215122 2.5578418
30.700991 16.512047 2.1565111
30.010387 18.226042 2.3582535
32.109989 13.431285 2.0740736
30.143032 18.692835 2.1596041
30.906042 15.729438 2.4729605
31.064114 15.892065 2.1931911
31.567337 14.90098 1.94959
30.999165 15.701683 2.363975
31.073883 15.581871 1.9483179
30.326103 18.279493 1.9628431
31.389328 14.79801 1.9698714
31.153374 15.482461 1.8872731
31.292923 15.678919 1.8730525
31.252958 15.098309 2.2645607
30.626822 16.777016 2.2367153
31.453791 15.40677 1.7154181
30.542841 16.979765 2.3590353
30.615749 16.814381 1.9450303
30.688704 16.499323 2.4577372
30.549814 16.991243 1.9412299
30.559536 16.890413 2.3603921
30.66036 16.593678 2.4542241
32.156033 13.393949 1.9667298
30.77854 17.109276 1.9516938
30.679537 16.604422 1.9636863
30.77239 16.293308 2.4620938
30.490639 17.02537 1.9369489
30.498064 17.002863 2.1656439
30.590567 16.795534 2.1599944
30.616037 16.705864 2.1702452
30.677355 16.600464 2.2589614
30.463778 17.094503 2.4614346
30.492184 16.998346 2.4665387
30.591146 16.802452 2.2649348
30.450348 17.193285 2.1734858
30.555037 16.898584 2.2640989
30.552561 16.893244 2.4464021
30.382738 17.302822 2.4672449
30.401543 17.30508 2.2618351
30.451559 17.192745 2.2625329
30.484051 17.003361 2.5636642
30.496187 17.002499 2.3722091
30.339977 17.492453 2.4583967
30.358948 17.393551 2.4597664
30.5396 16.88801 2.5514684
30.585426 16.802977 2.3597734
30.60191 16.699331 2.5586357
31.060318 15.596475 2.2659121
31.15246 16.00633 2.2606778
30.306902 17.411112 2.5782547
30.389795 17.308193 2.3591635
30.400324 17.200418 2.4602592
31.514023 14.189543 2.6488554
31.598619 14.019467 2.3921299
31.698553 13.89626 2.1645424
30.352173 17.477886 1.9941407
32.366867 12.717044 2.3926179
30.890709 16.59948 2.3723459
30.43387 17.184681 2.5544782
30.464136 17.0938 2.5535519
30.539278 16.967026 2.5488522
31.957157 13.886177 2.380342
31.235851 15.174972 2.3522198
31.248394 15.177058 2.1581745
31.182583 15.199528 2.4591544
31.066183 15.603959 2.166955
31.137821 15.491729 1.9604537
31.255205 15.198292 1.9829241
31.135544 16.092709 2.6609726
30.839857 16.183352 2.3596323
30.941345 15.885986 2.4520504
30.852757 16.097153 2.4537787
30.880892 16.094015 2.1722589
30.935328 15.981977 2.2657738
30.961929 15.895281 1.9631376
30.961281 15.895752 2.0702167
31.044037 15.577492 2.5529387
30.946125 15.976555 2.0752795
30.964554 15.79637 2.4533231
31.010872 15.71383 2.0521064
31.23316 15.173939 2.2629764
31.271441 15.088387 2.0572834
30.903124 16.115063 1.9858092
30.945566 15.892634 2.3603537
30.987633 15.796406 2.1694782
31.034058 15.758154 2.169826
31.067459 16.431261 1.9020727
31.377506 14.793944 2.0785532
31.425392 14.733254 1.8183148
30.248249 17.781605 2.0877337
30.273722 17.703316 2.0652452
30.336187 17.577049 2.2739484
30.436609 17.385418 2.1175091
30.456274 17.310881 1.9593275
30.435617 17.277193 2.1725597
30.438049 17.275444 2.3630157
30.482365 17.223904 1.933305
31.100866 15.491877 2.0732791
31.121902 16.248138 1.985653
31.451342 14.489588 2.5605955
31.392012 14.699964 2.0849893
31.481462 14.492299 2.0674345
30.373199 17.398821 2.3602204
30.34617 17.38728 2.5622275
31.891878 13.391418 2.0733993
31.791815 13.608706 2.071965
30.505894 17.011148 2.2657399
30.606743 16.71035 2.3527558
30.657639 16.591925 2.5558989
31.965725 13.818973 2.0214469
30.791187 16.295918 2.2696247
30.782166 16.294849 2.3627071
30.851919 16.185808 2.0716803
31.697758 13.896335 2.2676671
31.697508 13.828798 2.2766447
30.706915 16.409309 2.5676689
30.540506 16.980644 2.4569526
30.539309 16.994982 2.0789063
30.688335 16.498991 2.5602682
31.87583 14.166449 2.0379367
31.468555 14.416622 2.0822954
31.47872 14.398892 2.5576751
30.60067 16.706165 2.6294975
30.601982 16.706882 2.4630756
30.379936 17.298708 2.5532169
30.453022 17.196632 2.3580623
30.621635 17.490597 2.1569128
31.450415 14.593345 2.2644284
31.458828 14.492054 2.4615643
31.474554 14.50068 2.2673321
30.570675 16.797028 2.5555408
31.572762 14.908869 2.2539847
31.305603 14.909011 2.2723179
31.288885 14.890073 2.5525551
31.284245 14.995951 2.2675686
30.401587 17.202124 2.5558252
31.504074 14.196985 2.8838675
30.430128 17.282957 2.2583625
31.494265 14.40221 2.3630388
31.494972 14.378074 2.8576224
30.893351 15.999686 2.3619082
30.896971 16.02014 2.1684093
30.868275 15.987679 2.6559632
31.032349 15.579259 2.6659169
31.089699 15.505089 2.2688847
32.452248 12.589803 2.2558734
31.048859 16.298075 2.1662312
30.872198 16.093912 2.2624881
30.883993 15.99533 2.0808692
30.977903 15.795953 2.0717404
32.054764 13.000883 2.1719282
32.081547 12.894336 2.2652574
32.098743 12.815266 1.9524093
30.235134 18.460522 2.1306841
30.702097 16.507463 2.2761998
30.73119 16.470436 2.4543867
30.848339 16.085321 2.5509923
30.762032 16.396173 2.2666159
31.781837 13.694268 2.2643223
31.285072 15.002939 2.0644085
30.160351 17.890064 2.5582285
30.197088 17.800138 2.3632104
30.241844 17.784113 2.3621743
30.271067 17.592714 2.5556657
30.901207 16.00408 2.2647512
30.930891 15.989179 2.5491168
30.971628 15.797743 2.36098
30.997499 15.710231 2.1606529
31.967196 13.201464 2.0601046
31.94878 13.283004 2.5344524
31.947292 13.281015 2.0638411
31.990332 13.115993 2.0579104
31.980375 13.565009 1.9929669
30.240969 17.788216 2.2658019
30.248945 18.00049 2.2489197
30.242708 17.790514 2.1785583
31.057501 15.593186 2.3573627
31.997776 13.096102 2.2654836
32.05019 12.985644 2.362143
32.202789 13.201363 2.0456502
31.14077 16.102186 2.0460641
30.251358 17.899475 2.3595071
30.264069 17.697496 2.2567575
30.295361 17.980896 2.0704148
30.935614 15.890224 2.5489676
31.09573 15.504299 2.1710565
31.863342 13.494433 2.0581825
31.950933 13.374306 2.5550311
31.082804 16.225164 2.0697742
30.840637 16.176149 2.5441916
30.931351 15.974337 2.3702748
30.951771 15.901278 2.1773527
31.644585 14.082232 2.5607569
31.646368 14.10081 2.0619197
30.329943 18.276623 2.077909
32.056419 12.986432 2.0691121
32.065464 12.89257 2.6382225
32.071751 12.892208 2.3580298
32.260765 13.107927 2.0695379
30.566669 16.871063 1.8678753
30.430096 17.277409 2.4665799
30.540665 16.974115 2.1642146
31.25593 14.992485 2.5598874
30.447523 17.280804 2.0640662
31.073805 15.494921 2.4707177
31.14448 15.389821 2.2526715
31.198095 15.19523 2.0786028
31.238487 15.075537 2.551347
32.107403 12.723115 2.2522693
29.998095 18.304298 2.4633205
31.271727 15.693955 1.9594005
32.079369 12.799508 2.5536156
30.574024 16.799408 2.4594259
31.174026 15.193473 2.5603499
31.249008 15.091763 2.3537922
31.260536 15.003868 2.4602273
31.291359 14.997489 2.1644878
32.05043 12.88964 2.5519893
32.087799 12.88332 2.0727651
32.09425 12.816888 2.0560257
32.118958 12.713832 2.0530229
30.397852 17.211044 2.0858407
29.952782 19.002335 2.0641332
31.200897 15.204274 2.2705991
31.277376 14.995054 2.354049
32.362061 12.796988 2.0459301
32.169373 12.576468 2.6416497
30.093275 18.100847 2.3644757
30.08042 18.097477 2.449893
30.180929 17.888927 2.3568604
30.193092 17.799528 2.4667664
32.377758 12.688831 2.1692417
31.464924 15.189018 2.1535437
30.159603 18.585842 2.1713495
30.189047 17.803076 2.5635362
30.247366 17.695925 2.5590496
31.436756 14.577845 2.5655999
32.343639 12.180055 2.5686407
32.384102 12.102551 2.2592411
30.836626 16.883381 2.2553077
30.250183 18.377668 2.2761712
30.097878 18.102083 2.2555151
30.698666 16.508047 2.352942
30.762621 16.288109 2.5542872
30.801376 16.205309 2.3613703
31.41095 14.527411 2.5676804
31.472233 14.496439 2.3610959
30.270924 18.292109 2.2724266
29.984425 18.395033 2.356463
29.993019 18.297049 2.5634413
30.102362 17.999588 2.4488375
30.510853 16.913361 2.3668137
30.508083 16.912331 2.5610976
31.207336 15.10256 2.3624802
31.991297 13.016679 2.8963134
31.997128 13.003736 2.6557906
32.06105 12.897998 2.4606979
32.047165 12.856206 2.9345214
32.081924 12.804574 2.6599336
32.105888 12.709764 2.4611647
30.013428 18.207317 2.2354226
29.862206 18.691942 2.5549855
32.206192 13.015758 2.4244032
30.181812 18.496626 2.3685825
31.23982 15.080978 2.4568844
31.959471 13.195054 2.3630013
31.988768 13.100333 2.3636785
32.089722 13.529867 2.0758162
30.64385 17.368229 2.1522903
30.481337 16.999464 2.0767846
30.486916 17.08296 2.0703859
31.750912 13.789126 2.1661501
31.775204 13.696504 2.3577533
31.782312 13.696162 2.1725919
31.800735 13.583789 1.9557592
31.837742 13.58474 2.3593624
31.856182 13.498012 2.1633511
30.307703 17.626616 1.9878478
30.332291 17.602417 1.9503944
31.756775 13.693251 2.460669
31.643272 14.087873 2.173013
31.750937 13.788363 2.2630036
30.487595 17.820034 1.9761603
30.044144 18.283752 2.1637464
30.089499 18.10047 2.1699047
30.07346 18.193563 2.2570753
31.844269 13.579141 2.4541492
31.854298 13.508764 1.979668
29.95956 18.48329 2.1702216
29.995445 18.391497 2.2548552
30.056591 18.286936 2.0701106
30.048901 18.290802 2.2609222
31.240742 15.190417 2.4566777
31.856562 13.485237 2.4465339
31.967905 13.195103 2.2664568
31.943624 13.292644 2.4702129
29.984653 18.400406 2.1669123
31.846004 13.577303 1.9728551
31.025505 15.761589 2.2334032
31.625011 14.170078 2.3652089
31.134312 16.10462 1.9672799
30.345186 17.492321 2.2653737
31.026608 15.767815 2.3481517
31.731722 13.873001 2.5549355
31.666584 13.884952 2.6502492
31.731358 13.879048 2.152442
32.533257 11.769822 2.069267
29.9366 18.593914 2.0542872
31.759138 14.474478 2.0853691
31.047676 16.395124 2.0539291
30.73461 16.485249 2.35673
30.8388 16.179031 2.4501038
31.448023 14.590987 2.1651545
31.497189 14.410898 2.162919
32.351273 12.193276 2.3648443
32.392952 12.097962 2.1776488
32.446129 11.977183 2.6621718
30.067865 18.19602 2.1672261
31.624454 14.86751 2.1567075
30.841986 16.894957 2.0481825
31.699329 13.80678 2.3664551
29.973085 19.079762 2.0709159
31.782419 13.601315 2.4570174
29.991596 18.399633 2.0883791
31.175158 16.014359 1.9756322
32.533367 11.776418 2.4493103
31.596071 14.116048 2.1743002
31.781294 13.699697 2.0726085
29.967501 18.505154 2.079212
29.9554 18.491278 2.4508381
29.975933 18.406015 2.4524715
31.477835 15.086747 2.2615621
32.438316 11.892117 2.5443823
31.636793 14.089499 2.2588501
32.446384 11.979585 2.072454
32.438576 11.985585 2.4537392
32.47971 11.874312 2.0690746
30.925014 16.831533 1.9463726
30.098217 18.026003 2.3556178
31.976606 13.102275 2.5526645
31.433268 15.401286 2.0425215
31.79096 13.594151 2.3641746
31.981756 13.800821 2.1672845
30.738693 17.085005 2.1815057
29.878679 18.695793 2.3638606
29.894966 18.612244 2.3677089
29.938833 18.585743 2.3597732
29.973793 18.399149 2.5560431
30.030697 18.282242 2.5583618
30.048113 18.187389 2.64659
30.40773 17.220881 2.3766215
30.87422 15.993324 2.5574188
30.905848 15.898211 2.5554645
31.634855 13.988651 2.6448717
32.331223 12.193424 2.6694689
32.360516 12.103403 2.6494694
32.366627 12.094689 2.4567168
32.451103 11.900306 2.460582
31.766577 14.471447 2.1581774
30.487511 17.66675 2.1668406
29.881636 18.697119 2.1721456
31.592619 14.194817 2.1678214
31.700169 13.802182 2.4623947
32.424702 12.079649 2.1520929
32.476166 11.89472 2.172945
32.501751 11.802733 2.2690537
32.650364 12.094764 1.9539983
30.739767 16.477209 2.2572079
30.842577 16.195248 2.1614439
31.431351 14.671544 2.1679068
31.447859 14.590443 2.3556197
32.089176 12.898113 2.1704013
32.130512 12.90026 1.9133059
32.218071 12.591887 1.9505203
32.231789 12.579702 2.4613762
29.948004 18.48785 2.5632381
32.035576 13.066924 2.2534773
32.050404 12.985497 2.2646852
32.138622 12.779735 2.2651205
32.197433 12.592558 2.0812819
32.166054 12.599359 2.5506155
32.23452 12.570687 2.5425568
30.562412 16.799454 1.7641962
29.89949 18.593676 2.1649101
30.263351 17.894751 2.171648
30.827339 16.261429 2.2772765
30.871693 16.104464 2.0734203
31.43919 14.685521 2.0608318
32.233906 13.203273 1.9812533
30.142136 18.181404 1.9738226
30.139748 18.088331 2.1684387
30.151089 17.991024 2.0877326
30.349709 17.576086 2.4500525
30.56341 16.907213 2.07657
31.747183 13.791922 2.3583143
32.383827 12.136318 1.8613091
32.422596 12.062919 1.8761275
32.44239 11.985458 2.3589866
32.459599 11.983539 1.8912032
32.504364 11.894005 1.8592721
32.528061 11.863543 2.3894331
32.530037 11.777615 2.1702487
29.854628 18.802925 2.1767952
29.861788 18.806589 2.0689099
29.853552 18.785389 2.2637267
30.748476 16.59079 2.0589707
30.842281 16.272062 2.0593607
31.264629 15.087255 2.1691372
31.931032 13.37002 2.4520743
31.942131 13.290393 2.2690747
32.029526 13.078197 2.4680095
31.196718 15.706983 2.4448376
29.883774 18.687967 2.252058
29.841299 18.797186 2.4678509
29.859753 18.692875 2.4622116
30.83613 16.26659 2.3525581
31.835958 13.584977 2.2632232
32.039825 13.716989 2.0518456
30.885616 16.591639 2.1815352
29.89991 18.610474 2.2661133
30.171497 18.071194 2.6430295
32.144535 12.788235 2.5572021
32.154324 12.698428 2.352592
30.952114 15.79207 2.5638235
31.475977 14.493007 2.167876
32.108627 12.80696 2.2616343
29.888317 18.707071 2.0603654
31.575142 14.993994 2.0624444
31.453453 14.593609 2.6457913
31.940964 13.288011 2.3612201
31.972719 13.190663 2.1622899
32.036491 13.076838 2.3662822
32.156475 13.390358 2.078084
29.887215 18.598446 2.4577932
30.03322 18.279448 2.6581199
30.902412 15.906385 2.4580526
31.43618 14.583044 2.4591947
31.863298 13.393947 2.5580044
31.945133 13.264593 2.6597514
31.956755 13.189914 2.4627635
31.97781 13.094724 2.4606442
32.035595 12.996732 2.6556897
29.953661 19.002417 2.1757858
29.795248 18.900414 2.2594404
29.793633 18.817343 2.4798436
29.894096 18.601406 2.5546641
31.005899 15.609139 2.6715217
31.635464 14.069389 2.4568241
31.666807 13.898564 2.5520532
31.695217 13.800797 2.7654607
31.738914 13.782756 2.5605764
32.338608 12.189939 2.7561822
32.362621 12.098493 2.5543716
32.378807 12.100039 2.3630629
32.390339 12.002184 2.5587802
31.662548 14.265129 2.0236814
31.186417 15.905337 2.2537277
30.65999 17.301287 2.1589513
32.156986 12.87588 2.0670962
32.334076 12.286947 2.1779675
32.342422 12.926466 2.062474
31.015831 16.414169 2.0539742
29.833153 18.876099 2.1638496
30.459135 17.204748 2.0677755
30.380522 17.989326 2.265491
30.37694 17.906567 1.9602509
31.578709 14.202392 2.0731268
31.622906 14.173644 2.4184289
32.234154 12.576806 2.3570125
32.33746 12.277094 2.4646678
32.102024 13.390252 2.3652685
31.590687 14.962792 1.8981806
30.410486 17.076723 1.7285721
29.766357 18.993917 2.3498688
29.790171 18.895494 2.1769662
29.837143 18.871155 2.3550191
31.447441 14.597916 2.0842319
31.974937 13.220488 1.9057618
32.000019 13.103012 2.1612146
32.0952 12.889796 1.9825116
32.129173 12.866062 2.3929965
31.980629 13.186546 1.9721527
32.110783 12.810163 2.1661205
31.732071 13.876509 2.0750194
31.799442 13.615164 2.1680474
32.325603 12.264612 1.8357483
32.334396 12.209076 1.8460022
32.393696 12.101854 2.0778646
32.402771 12.017195 2.0986533
30.53047 17.052547 2.5742302
31.32486 14.959019 2.3569856
31.734221 13.872555 2.3579361
31.835352 13.598892 2.5565233
32.463631 11.879091 2.6625836
30.6014 16.820101 1.6445694
29.769943 18.987829 2.2668011
29.786982 18.903732 2.3587346
30.90457 15.906419 2.3702695
31.108595 15.936655 2.6131263
30.1602 18.169399 2.0435984
30.766853 16.904451 2.1651635
32.197815 12.495677 2.5417113
32.342838 12.187217 2.4581852
30.798782 16.201891 2.4716837
29.749311 18.985762 2.4595797
30.386333 17.989597 2.4593823
29.776316 18.897638 2.5463278
29.840969 18.790943 2.5658772
29.952866 18.594105 2.6135206
29.826626 18.872257 2.2592862
31.67721 13.899025 2.458071
32.095711 12.807792 2.3582776
31.154369 15.982429 2.1737478
30.16184 18.589636 2.4631965
29.904245 18.508909 2.5565779
30.508963 16.910221 2.4538798
32.006092 12.995329 2.2674606
30.597027 17.39588 2.1572237
30.159914 18.501875 2.1791971
30.895182 16.603233 2.4475672
29.805962 18.80258 2.1686933
30.198183 17.812279 2.1617253
30.70961 16.416069 2.3730335
32.195049 12.501504 2.4656277
31.768734 14.297647 2.1739459
29.83436 18.876558 2.0549059
30.78808 16.222128 2.157145
31.109943 15.505442 1.9725966
32.230942 12.558407 2.1658652
32.357811 12.203149 2.0528321
32.364651 12.687755 1.9713635
30.587214 16.817831 2.0730238
31.999512 13.125237 1.9853497
32.202759 13.28447 1.9778543
31.544266 14.282531 2.5555294
32.411385 12.036345 2.1764348
32.436882 11.973129 1.9803555
32.463867 11.915789 1.9648476
32.474304 11.895951 2.2618585
32.500751 11.81512 2.0687015
30.674168 16.514645 1.9673483
31.927097 13.375412 2.3776133
29.987255 18.680189 2.0744679
31.973248 13.916965 2.0677936
31.767651 13.698309 2.6413698
31.784338 13.601802 2.6571658
30.635628 17.470898 2.038352
32.398121 12.003548 2.3683465
32.427109 11.992905 2.5307837
31.751404 13.80303 2.0709558
31.07123 16.287746 2.0638502
30.789711 16.901077 2.361423
32.333595 12.269819 2.3611081
32.450878 12.609965 2.0675006
31.961586 13.900282 2.1594181
31.413742 14.481016 2.156188
31.854095 13.400263 2.6471169
29.858051 18.889742 2.4666669
32.004829 13.007376 2.3708501
32.501122 11.8071 2.1708879
32.488266 11.800336 2.3665254
32.470802 11.79671 2.5480425
32.708729 11.92001 2.1454978
30.855806 16.783369 2.1736374
30.138693 18.80098 2.1655817
30.565767 17.503752 2.1707194
31.697357 13.817764 2.0811629
32.061886 13.062034 1.9911696
30.13382 18.855154 2.003432
30.471827 17.578186 2.0585234
30.525501 17.706558 2.0682638
30.267418 18.005264 2.3662546
30.289948 18.096659 2.3741829
30.529949 17.052601 2.1986532
30.55999 17.287464 2.0436318
30.572975 17.382946 2.0439057
32.048298 13.079242 2.0717394
31.296522 15.688203 2.0747571
30.895069 16.496517 2.5473742
32.215919 13.21999 1.984971
32.418064 12.040805 1.9648355
31.837948 13.56982 2.0510039
32.24522 12.654636 1.9591935
29.740995 18.98822 2.5672746
31.019653 15.742175 1.9991105
32.415974 12.74573 1.9548112
32.335167 12.286345 2.0770643
32.533401 11.778399 2.3503733
30.807314 16.205004 2.2648766
30.40337 17.210648 2.2868421
29.801279 18.803461 2.3511517
29.801971 18.795076 2.5429375
29.800785 18.80719 2.6510611
31.753292 13.690075 2.5505044
30.448196 17.39604 2.2665298
32.129864 13.016045 2.0867715
29.829065 18.794834 2.6468248
32.235191 12.569231 2.2795668
32.687847 11.901066 2.1078835
31.837334 14.211112 2.1694014
30.684385 17.213272 2.4514365
30.822601 16.261433 2.1511092
30.831644 16.264891 2.4500384
31.940651 13.395906 2.0718513
31.935055 13.366862 2.2536948
32.029884 13.204813 2.1480722
32.433197 12.068104 2.2682836
32.469719 12.571489 1.9682415
32.026138 13.868319 2.0122108
30.577744 16.714146 2.0767007
32.424416 12.091196 2.4386878
32.034214 13.82939 2.0018992
31.575766 14.994745 1.9787469
30.673445 17.191589 2.2591393
31.640816 14.179005 2.2818193
32.122299 13.60223 2.0010197
31.041601 15.912601 2.3466008
30.289671 18.094893 2.4568298
32.044197 13.152596 2.0516529
31.124641 16.210234 2.0196223
32.024876 13.2183 2.0104692
31.38586 14.341583 1.70023
31.941891 13.96921 2.0788069
32.397865 12.01367 2.2916043
31.726723 13.987906 2.0447588
31.28721 14.897985 2.0798221
32.638012 12.092889 2.0352182
30.695808 17.196648 2.3619359
31.498226 14.302366 2.6560957
31.508301 14.308548 2.3703511
31.836102 13.571291 2.6706324
32.173965 13.307697 2.1486261
32.412834 11.972929 2.7336204
32.372242 12.794131 2.1891916
30.266245 18.276377 2.1573837
31.82762 13.657122 2.1509032
31.83285 13.669628 2.4663627
32.522034 11.867066 2.2027831
31.03689 15.770157 2.4310811
31.638477 14.179822 2.1542275
31.75811 13.95911 2.3570485
32.367714 12.204759 1.9634793
32.442883 12.670082 1.8743231
31.334129 15.685406 1.9284192
31.457655 14.601936 1.9891553
31.129217 15.511686 2.0570428
32.398369 12.001045 2.4627376
31.23263 14.968534 1.893779
32.42281 12.72116 1.9848899
31.841578 13.646772 2.5151649
30.602455 16.810081 1.8124286
31.824673 13.6593 2.2766225
32.123394 12.863788 2.2478302
32.129765 12.869226 2.4334714
31.254944 15.694015 2.4572089
31.025888 16.535416 1.9515247
32.33279 12.31973 2.5685585
32.22504 13.248308 2.0129192
31.006824 15.608124 2.4692624
31.694628 13.799589 2.1667864
32.234451 12.48563 2.6376944
31.741144 13.973125 1.9776816
30.629807 17.599272 2.0282569
31.471376 14.689251 1.9760247
31.784491 13.901895 1.9489464
32.22226 12.546326 2.0550256
31.502636 14.297275 2.5595105
32.358334 12.284882 1.9800802
30.814495 16.61816 1.7543054
32.002693 12.998892 2.1746452
32.111225 12.727731 2.3728704
32.242661 13.164676 2.13834
31.13307 16.087233 2.1845396
30.792908 16.800943 2.2809687
32.134106 12.771084 2.6384904
32.153214 12.708427 2.6729176
32.407104 12.592647 2.1752396
30.971901 16.407482 2.1767728
32.434532 12.104694 2.030417
32.030117 13.146132 2.2890902
31.671303 14.038622 1.7618706
30.624203 17.44593 1.9728233
32.134613 12.881388 2.1478751
31.067623 16.49864 2.0555758
32.230198 13.251852 2.0016303
32.685028 11.993985 2.0628667
31.69376 13.798766 2.5570483
32.181522 13.196945 2.3817406
31.490355 14.159869 1.8654027
31.34639 15.576009 2.1633554
31.312948 14.822474 2.3670492
32.515743 11.731279 2.2632899
32.390903 12.003591 2.6438878
31.966272 13.100368 2.6555855
31.601347 14.000859 2.659055
30.902081 16.413225 1.850091
32.676743 12.00858 2.1796083
30.797649 16.891983 2.4604769
31.510796 14.318668 2.2802598
31.308519 14.815728 2.5600345
31.008896 15.608875 2.5625746
31.63492 14.848553 2.2372777
32.409031 11.927407 2.4693894
32.000835 12.993571 2.4637201
32.438438 12.585291 2.1971097
32.031685 13.679636 2.1994255
31.607185 14.014224 2.5528419
31.404379 14.530624 2.7655509
31.414864 14.525037 2.4689136
31.004818 15.621971 2.3815217
30.913536 15.904222 2.2896013
31.938618 13.96474 2.1661634
31.016005 15.624855 2.2820001
30.868624 16.280693 1.8025805
31.197113 15.111442 2.1568995
30.284672 18.005108 2.190254
30.208832 17.738253 2.3985376
31.68668 13.810729 2.6520576
30.20488 17.714161 2.4592352
31.9104 13.776572 2.1424627
32.429016 12.087964 1.7069085
31.2073 15.104292 2.2778046
29.993464 18.891111 1.9866986
32.637894 12.093885 2.1300533
31.648605 13.989793 2.7494245
30.942175 15.794075 2.6465273
30.010303 18.21604 2.1620002
32.104904 12.699924 2.5481801
32.411415 11.917198 2.5321286
32.127426 13.505928 2.3743482
32.742504 11.877702 2.1562347
31.584085 14.820895 2.251169
31.70117 13.709777 2.791734
31.712027 13.724454 2.3722417
31.112381 15.322206 2.6480823
30.80954 16.11307 2.5614843
31.446264 15.205803 2.2581134
30.806105 16.369097 1.8902348
31.708447 13.728136 2.4731503
30.909571 15.826276 2.6459632
32.406521 11.913193 2.3699741
30.480221 17.402735 2.5339849
30.47646 17.368578 2.3719778
30.346777 17.708525 2.2670741
30.154837 18.155251 2.4133005
30.192354 18.207621 2.3341117
29.992521 18.806684 2.2530746
29.932301 18.760473 2.6195993
29.888889 19.00667 2.3785806
32.043541 13.681642 2.4627662
31.607719 14.014013 2.4693439
31.307549 14.82967 2.2751353
31.111622 15.326958 2.4708016
30.806709 16.117329 2.4684234
32.345909 12.478564 2.3051097
29.907629 18.507313 2.2832019
30.953695 16.493069 2.2502635
31.057375 16.198364 2.4532003
31.504766 14.322197 2.1703081
31.709856 13.710019 2.5634167
30.534544 17.698614 2.2549098
31.137821 16.169168 2.2187922
32.401215 11.930358 2.6439137
29.802458 18.798908 2.2579854
31.773113 14.30049 2.2594099
32.104095 12.713332 2.6452169
31.766521 13.741298 2.8306382
30.432743 17.973719 2.3668733
31.162354 15.896879 2.1699004
31.111065 15.318368 2.5758858
31.050323 15.495979 2.7586679
32.21328 12.429429 2.3915284
31.883451 13.46531 2.7753928
32.105255 13.421478 2.1524293
32.372887 12.631365 2.246474
32.130089 12.701799 2.7870626
32.044022 12.895568 2.8096287
32.014168 12.933995 2.8220358
31.597252 13.998901 2.7824674
31.442593 15.29004 2.338825
32.072693 13.485853 2.2695265
32.416477 11.88133 2.7367787
30.93199 15.808981 2.7480552
31.866776 14.007967 2.2818887
32.39328 12.701182 2.2675741
31.771919 13.606796 2.7435269
31.723402 13.776613 2.7738791
31.237942 15.785533 2.2706978
32.134827 12.622891 2.7465959
30.711945 16.429523 2.2547455
30.10886 18.027916 2.267983
29.903839 18.514704 2.4627011
30.586866 16.961683 1.4941161
32.175968 13.224839 2.2408061
32.740269 11.887988 2.2769375
30.336643 18.174971 2.1595011
31.894974 13.830906 2.3172991
31.847805 14.192306 2.2685411
32.682346 11.985993 2.2790425
31.861874 13.402676 2.7660789
31.405758 14.516762 2.6607389
29.812832 18.731094 2.4500065
32.323414 12.140665 2.775291
32.310925 12.134256 2.5405526
32.016109 12.96664 2.75174
31.958807 13.124878 2.7738464
32.166595 13.296963 2.2867494
32.169975 12.513911 2.7494383
32.113209 12.631516 2.5513878
32.109901 12.654646 2.712512
31.618502 13.937957 2.4895506
30.513956 16.91169 2.2729731
30.350338 18.100008 2.2551677
32.046513 13.687274 2.2578492
32.36237 12.807693 2.2802358
31.881306 13.291132 2.7344146
31.450222 14.499586 2.8462241
30.24242 18.396029 2.3580072
31.164406 15.901555 2.3498003
31.862469 14.105031 2.2624648
31.959709 13.901048 2.2659779
30.308495 17.416479 2.4679124
29.814508 18.741962 2.4021654
30.28779 18.202774 2.3585415
32.235432 13.218046 2.2748957
32.119694 12.626197 2.4039004
32.006855 12.943821 2.5003359
30.652277 17.299255 2.2702847
32.063789 13.594426 2.2639034
32.015923 12.934098 2.2822833
31.616602 13.934886 2.628963
30.71172 16.333389 2.5535884
30.607758 16.6217 2.5867491
32.148434 13.394558 2.2894032
30.691692 17.094885 2.2792623
30.909771 15.819354 2.4952512
30.41407 17.096151 2.4495087
32.649796 12.086501 2.264782
29.972534 19.068783 2.2659333
32.250988 13.107656 2.3689046
31.194925 15.796776 2.2604904
32.152863 13.568727 2.2943242
30.153055 18.604023 2.2580042
30.915478 15.842989 2.5335569
31.433853 15.403973 2.2496977
30.010698 18.199663 2.4760907
30.296721 18.202551 2.1696346
30.035988 18.915882 2.1594067
30.073481 18.672436 1.8503451
31.253315 15.68992 2.2527061
30.910847 15.816919 2.4023962
30.200138 17.743145 2.281996
29.810299 18.714611 2.5336587
29.808092 18.726171 2.2713518
31.140232 16.071438 2.2504463
31.686043 14.329539 2.0074997
30.216421 17.632351 2.5193512
30.101089 17.927736 2.3792205
30.619926 16.610304 2.3551013
31.861523 14.094595 2.5637093
30.515539 16.918089 2.1560938
29.90625 18.484282 2.1749458
30.107166 18.001959 2.1624458
30.104593 18.005203 2.083015
29.911951 18.424984 2.4291959
31.876099 14.083641 2.3603127
32.101887 13.409176 2.45732
32.391262 12.584773 2.4687388
30.695112 16.866423 1.8153654
30.592678 16.873934 1.7730784
30.709608 16.981169 2.1721265
30.690798 17.010168 1.9542902
30.695946 17.007477 2.2302992
31.654324 13.76614 1.8650876
30.519663 16.804167 2.0548685
30.433554 17.984533 2.546771
29.964678 19.09411 2.3732319
29.978798 19.096445 2.5525889
29.967527 19.092232 2.4589033
30.256191 18.385939 2.5556955
30.190735 18.497385 2.4552085
30.003057 19.000223 2.5631406
29.984848 18.998068 2.3659446
30.445408 17.886295 2.4653275
30.451912 17.896292 2.645288
30.364614 18.100368 2.6550169
30.352921 18.088598 2.369004
30.340445 18.175943 2.4728861
30.283682 18.300005 2.5545228
30.200243 18.500263 2.5568659
30.718304 16.988148 2.5132725
30.391262 18.004423 2.6614232
30.177557 18.608847 2.752893
30.465111 17.799112 2.4624841
30.341885 18.188559 2.5566528
30.304169 18.206009 2.5543737
30.292503 18.204933 2.6483583
30.248575 18.394281 2.641314
30.232204 18.456654 2.5859363
30.296577 18.202288 2.4567361
30.159332 18.593763 2.3687782
31.447334 15.302746 2.251929
30.747139 17.091356 2.3686807
30.684511 17.194027 2.5520213
30.664633 17.304136 2.4551287
30.575806 17.496569 2.5499246
30.362337 18.092541 2.4800074
30.345736 18.189379 2.6471496
30.274172 18.295332 2.4686239
30.777466 16.998802 2.4596252
30.666126 17.295658 2.5597913
30.624245 17.587284 2.7613235
30.247383 18.390724 2.739074
30.873648 16.691675 2.6492047
30.593527 17.504419 2.6472685
30.273235 18.30335 2.660166
30.237045 18.479452 2.7593045
30.656878 17.288988 2.6555841
30.573231 17.600588 2.7438202
30.543858 17.697624 2.7432556
30.442799 17.993498 2.7516687
30.355251 18.181904 2.7440574
30.73118 17.245907 2.5197766
30.37892 18.087645 2.7531161
30.32869 18.262434 2.6658878
30.284151 18.295877 2.7275431
30.234095 18.481962 2.4579182
30.232656 18.553293 2.5212414
30.753809 17.171207 2.5836365
30.542261 17.681124 2.5694664
30.465618 17.85989 2.8254392
30.664743 17.296799 2.3605568
30.176636 18.488352 2.2566364
29.994635 19.002235 2.4605126
30.498299 16.773462 1.9279203
30.754297 17.099728 2.2809026
30.39826 17.90048 2.3554173
30.100979 18.69541 2.6830482
29.983767 18.998936 2.2699215
30.335499 18.184656 2.3630559
30.827316 16.964214 2.4872274
30.711597 16.95887 2.4214759
30.742905 17.179148 2.2691686
30.594322 17.405775 2.5472414
30.861708 16.792185 2.3629398
30.843096 16.863188 2.3488855
30.429401 17.87615 2.7207603
30.404577 17.912777 2.4562883
30.638885 17.491772 2.4699702
31.372076 15.086982 2.0751622
30.995266 15.955464 1.3737049
30.258589 18.187599 2.0637486
30.626276 16.939257 2.0398166
30.233805 18.490566 2.3723536
30.968708 16.135359 1.5965419
30.625681 17.489664 2.3931289
30.45512 17.892599 2.3790421
30.395641 17.989317 2.7538044
30.130062 18.747349 2.4019234
30.198517 18.4051 2.4625549
29.998543 18.909832 2.5598028
30.590836 17.406809 2.3530025
30.734066 16.235558 2.0050471
30.01128 18.881302 2.6338618
30.533251 17.337582 1.9301002
30.855116 16.78709 2.4584506
30.001896 18.919975 2.4519315
30.190636 18.393719 2.27176
30.180008 18.41102 2.5379276
30.480558 17.587072 2.4687295
30.590473 17.305679 2.3526769
31.437653 15.374963 2.5383449
30.800364 16.733099 2.6271641
30.329359 18.268929 2.4489126
30.285275 18.056215 2.6411667
30.704269 17.096191 2.373147
30.67943 17.098406 2.0802374
30.280603 18.111567 2.2650635
30.632044 17.596516 2.61448
30.695208 17.19997 2.6517687
29.991777 18.912794 2.3689489
30.731176 16.469616 1.8294557
30.222546 18.468483 2.297945
30.165161 18.19487 2.1471364
30.413301 17.78092 2.3966346
30.497734 16.904829 2.0655529
30.183153 17.615715 1.9874934
30.667194 17.027466 2.0976028
31.19685 15.806567 2.5421331
31.772617 14.299989 2.5509262
31.202208 15.716824 2.2699451
31.959217 14.162326 2.1165271
31.484749 15.154684 2.8427424
31.963978 13.084555 1.8229221
30.348038 17.697195 2.0754828
30.859833 16.423119 1.6673286
30.772255 16.106894 2.0807619
32.383305 12.5941 2.57848
31.63492 14.791158 2.3691096
30.131292 18.795689 1.9959137
31.545017 14.990568 2.6380064
31.639576 14.881931 2.3581367
31.922636 14.083949 2.3784831
31.636124 14.771181 2.2780662
31.109085 16.011703 2.2826219
32.102852 13.038675 1.3050902
31.644899 14.771029 2.4828036
30.974804 15.786226 1.2275944
31.539301 14.991129 2.5622423
31.651474 14.894998 2.7236762
30.333139 17.684294 2.3972483
31.563442 14.896997 2.4613109
30.470783 18.060036 2.3777375
31.54085 14.991121 2.3667073
30.380732 17.810938 2.1552675
30.398544 17.814629 2.5819285
30.83392 16.898912 2.1553044
32.406147 11.940095 2.1260257
32.229748 13.346526 2.2998893
29.890198 19.080715 2.3838499
30.236656 18.485065 2.6481452
30.37649 18.00276 2.3617041
30.335239 18.183899 2.2593734
30.095192 18.616835 2.3716063
31.103718 16.01799 2.357563
32.414852 12.52019 2.4772112
31.846157 14.190274 2.6579792
31.806524 14.1162 2.6358497
31.616852 14.606577 2.5588048
31.263227 15.693708 2.5436926
31.564171 14.891519 2.3610177
31.053371 16.290663 2.37606
31.047516 16.29138 2.4744656
31.049177 16.286938 2.7592783
31.773659 14.291275 2.4608092
31.235897 15.783333 2.5685136
31.247234 15.898561 2.6329792
31.236664 15.896791 2.4903488
31.561243 14.900989 2.5656035
32.514904 12.344836 2.0876384
31.864021 14.094066 2.4555862
30.335615 18.250404 2.3748701
31.27018 15.704977 2.6526968
31.845425 14.196609 2.4648468
31.042372 16.401428 2.4723523
31.849321 14.183811 2.3624752
31.08016 16.180534 2.6639242
31.181057 15.883183 2.5565085
31.168564 15.906778 2.6395414
31.077192 16.349312 2.8937886
30.952993 16.485165 2.3499894
30.95364 16.504486 2.4654703
31.028326 16.461761 2.3572907
30.961252 16.4897 2.6562722
30.96982 16.398643 2.6554754
30.975746 16.496548 2.7658904
32.501316 12.294433 2.1950893
31.536703 14.272943 2.9429514
31.443419 14.502578 2.9409504
31.592545 14.79803 2.5645142
31.769896 14.301293 2.3539567
31.044947 16.294601 2.5571742
31.172033 15.99662 2.646771
30.014547 19.097334 2.8286664
30.992069 16.450275 2.8336005
31.575172 14.273439 3.0704772
31.105183 16.183174 2.8496785
30.883877 16.602335 2.5652001
31.03606 16.465839 2.48195
31.538319 15.113035 2.4792738
31.148445 15.990305 2.4516802
31.152544 15.991041 2.7512484
29.896046 19.103924 2.1558309
31.756992 13.899028 1.3467621
30.72377 17.26568 2.3050792
31.147385 15.983335 2.559525
29.97163 18.903038 2.0750728
31.438627 15.270916 2.4468715
32.31234 12.777129 2.0966337
31.171753 15.895542 2.4624016
31.182501 15.908477 2.7402232
30.577656 17.300365 2.1231055
31.86005 14.083322 2.6534753
30.991348 16.387121 2.7494853
31.080822 16.207806 2.7578812
30.597561 17.405729 2.655484
30.884329 16.614817 2.6639621
30.849014 16.875834 2.6411176
30.336029 18.314854 2.2269123
29.885281 19.082787 2.0626674
31.753769 14.66307 1.9971527
31.163834 15.631354 2.5473788
31.109465 15.78981 2.6008675
31.558525 14.009663 2.1348016
31.554035 14.024095 1.9484177
31.650196 14.180409 2.7385545
31.20591 15.610916 2.4680693
30.701303 16.416368 2.0988429
31.04546 16.384789 2.3507347
30.497936 16.889046 1.9502298
31.044054 16.357805 2.2559583
30.615932 16.596355 2.0280373
30.818167 16.720169 2.1517613
30.758951 16.713877 2.0934727
29.991442 18.853569 1.898365
30.098801 18.489176 2.2697232
31.553093 14.138276 1.8697859
31.558048 14.008486 1.8578684
32.211552 13.010457 2.1606727
31.039249 16.483757 2.1866291
30.791086 16.896894 2.6524522
31.562046 14.237381 1.8388523
31.587475 14.007299 2.1011696
