# .PCD v0.7 - Point Cloud Data file format
VERSION 0.7
FIELDS x y z
SIZE 4 4 4
TYPE F F F
COUNT 1 1 1
WIDTH 1612
HEIGHT 1
VIEWPOINT 0 0 0 1 0 0 0
POINTS 1612
DATA ascii
28.140814 43.851639 1.6624126
27.833115 44.578373 1.9624851
29.065252 41.284885 1.4301693
28.618372 42.235577 1.5699213
28.774998 42.157894 1.5084082
27.390007 45.351044 1.9859161
28.318888 42.850506 1.8673025
27.370377 45.574677 1.9102104
27.838224 44.173241 1.6089839
28.705706 42.193363 1.5232882
27.949572 44.01469 1.2182374
28.440842 43.183784 2.2629638
27.162121 46.343979 2.3902361
27.657656 45.011909 1.9436767
27.196011 46.517559 1.680035
28.090425 44.357239 2.6728716
27.800087 44.392418 1.6716958
27.025965 46.9879 2.5790253
27.126635 46.460224 1.9068347
26.844765 47.165623 1.6854043
26.825689 47.038948 1.648478
27.450312 45.690109 1.6689248
26.888294 46.545036 1.6275154
27.013811 46.743534 1.898178
27.035446 46.685448 1.8805999
27.472706 45.590195 1.7634227
27.156033 46.37479 1.7841694
27.721409 44.27174 1.6771288
26.939919 46.884411 2.158076
26.964874 46.642811 1.6478223
27.071503 46.669189 1.6588696
27.385639 45.776138 2.0544994
27.434092 44.895016 1.6946054
27.779619 44.194408 1.7369407
27.072191 46.374603 1.6882991
27.166355 46.365681 1.6869563
27.166592 46.33543 2.0930843
27.980343 44.244411 1.7617854
27.341412 45.919083 1.764995
29.005438 40.876686 1.8475537
27.984303 43.680176 1.7661502
27.514624 44.791931 1.7382082
27.034296 46.107937 1.7047005
27.718048 44.885391 1.937691
27.457571 45.686783 2.1209764
29.148336 40.438774 1.8433187
27.392242 45.800007 1.7920268
28.944178 41.634041 1.8784198
26.960052 46.900581 1.8910713
27.486401 44.914406 1.9018552
26.907906 46.397732 1.8769552
27.017487 46.726192 2.1645436
27.660599 44.992054 2.0979543
28.541042 42.814983 1.9635549
26.858576 46.681297 1.9695662
27.493568 45.407692 2.4337382
28.236786 42.899635 1.961185
27.182901 45.713181 1.9698259
27.202744 46.265568 2.2962146
27.373102 45.833923 2.3946655
27.446646 44.965168 1.8833635
28.186808 43.709236 1.8734275
29.068609 40.822758 1.8690889
29.148737 40.93269 1.9035507
29.286924 40.794186 1.9568352
27.928873 43.796104 1.8962879
28.366125 43.314663 2.0998061
29.365501 40.65995 1.9878256
26.694044 46.924004 1.9045446
28.096657 44.017193 2.4567714
29.18651 40.400433 1.9739685
27.784237 44.899967 2.4660749
29.08169 40.725704 2.1403024
27.107315 45.922165 2.0880151
27.178814 46.305401 2.5872648
29.540127 40.283325 2.6414905
27.665974 45.009422 2.1463494
27.283749 46.080307 2.0597162
27.284983 45.334625 2.0391388
28.090727 43.856613 2.5158119
27.725361 44.855648 2.1619878
29.088737 40.653473 1.9740149
27.863819 44.725437 2.0884342
27.467636 45.507153 2.1836958
26.884178 46.435192 2.0009737
28.264957 43.498325 2.0584745
28.213989 43.622051 2.5580809
27.179077 46.412231 2.3659017
28.102875 43.998974 2.558636
28.635948 42.695351 2.2713909
28.637426 42.676739 2.4559827
29.363136 40.691959 2.4612556
29.337095 40.761559 2.0993214
28.528757 42.954174 2.111654
28.144499 43.704475 1.9392827
28.581402 42.616737 2.4681444
27.505028 45.608753 2.5547462
29.282206 40.793343 2.2545128
27.296379 46.120903 2.4893801
27.489738 45.485554 2.4836988
28.680927 42.49371 2.4633143
29.339689 40.782391 2.4689112
28.954031 41.790577 2.6581984
28.17837 43.696632 2.1780782
29.288496 40.796959 2.4706345
28.509756 42.901508 2.5460215
29.38546 39.912369 1.9722782
29.233242 41.088585 2.4622862
29.238829 41.077198 2.3587518
28.310846 43.410374 2.5464706
28.594009 42.623859 2.140099
29.025898 41.666302 2.5574269
28.59045 42.600746 2.0633695
27.099047 45.853626 1.8391783
29.198627 41.007992 2.1551046
29.086714 41.29549 2.0671761
28.455206 42.900112 1.8472234
28.394974 43.121567 1.9739401
29.063475 41.490192 2.6489804
28.983719 41.702427 2.6505001
29.004847 41.604759 2.6354468
29.236509 41.083508 2.2720027
28.278704 43.512383 1.9649258
28.579004 42.797474 2.5537179
28.29454 42.764297 2.1432886
27.983614 43.607319 1.9376858
28.269306 42.89048 2.0322933
27.815306 44.209843 1.8393936
26.745228 46.969677 1.8383083
27.844038 44.313099 1.6171807
26.809687 46.693821 1.9003172
27.014046 46.049168 1.958351
27.818981 44.438595 1.5105947
28.949059 41.700195 2.070303
28.04879 43.392693 1.7845938
27.82375 44.871712 2.5535774
27.38026 45.762566 2.1595263
27.437252 45.966797 2.6332006
27.24637 46.391666 2.6585968
28.041882 44.106224 2.0850403
28.320581 43.582836 2.553916
28.26862 43.594357 2.6507003
26.811895 46.644447 1.7320461
29.489305 39.992168 2.0481637
27.549152 45.758507 2.1659303
27.701883 44.502396 2.1542475
28.393999 43.212566 2.1690183
27.20767 45.783875 1.9864861
27.670341 44.604843 1.8708797
27.133732 45.881859 2.5742962
27.436817 45.887035 2.6440299
27.684748 44.660011 2.6633337
26.90061 47.20266 2.5620053
27.972378 44.387077 2.5606844
27.292168 45.99221 2.5262516
29.07515 40.896416 2.3633626
29.296144 40.289093 2.2686381
27.743832 44.501961 2.5719442
29.287539 40.295082 2.4565842
27.570251 44.98214 2.3404248
28.614361 41.907295 1.9486941
27.169777 46.683205 2.0847189
29.092169 40.741673 2.0314827
27.175661 46.609528 1.8664888
27.776659 44.190315 2.3592162
27.428736 45.887123 2.3932528
27.741278 44.511723 2.2534225
28.294504 42.80492 1.7096075
29.136686 41.366215 2.457732
27.809673 44.021107 2.4754338
26.93873 47.189743 2.652983
26.950417 46.568336 2.1569333
26.971045 46.876335 2.0709429
27.514263 44.73983 2.6686039
28.344757 43.649906 2.1417167
27.860468 43.997379 2.3638639
27.766123 44.48616 2.3491154
27.753475 44.520889 2.4739184
27.168077 46.445244 1.9546556
27.077646 46.447685 1.6704389
26.869242 47.198528 2.3607917
26.946465 47.189167 2.4556949
27.928179 44.223846 1.6131837
27.757948 44.483917 2.1888704
27.769135 44.371399 1.884842
27.803688 43.848125 2.3987241
28.703705 41.611969 2.66201
28.368328 43.614544 1.8723824
27.348841 46.09095 2.568759
27.683428 44.461067 1.746182
26.925591 47.205738 2.4012969
27.705288 44.492332 2.0797007
27.888212 44.002872 2.1461091
29.309036 39.99984 2.8891568
27.762199 44.394688 1.9754332
28.360611 43.596207 2.0649841
26.717838 47.057743 1.95882
28.67799 41.883629 2.0575337
28.349033 43.570854 2.2408948
28.537151 42.982109 2.3795059
29.305599 40.414246 1.8557301
27.507313 45.399826 2.3494859
27.205723 46.468281 1.465494
28.036263 43.450157 1.8386912
26.99737 46.821568 2.2327502
27.754433 44.395718 2.0742137
26.964441 46.816795 1.9727484
27.002071 46.795063 2.4760518
28.847168 41.361992 1.7794099
26.959499 46.710106 2.273308
28.326197 43.738823 2.0712447
26.852964 46.690842 2.1656277
28.681583 41.742451 1.8887118
27.313248 45.505104 1.9690138
28.321129 43.571667 2.3531382
28.32136 43.830933 1.9325366
27.703245 44.376175 2.0569723
28.636332 42.756699 2.3788688
26.885433 47.08736 1.6500409
29.351984 40.281139 1.7940094
26.964968 46.297443 2.3594763
27.71187 44.225513 2.7464008
29.385904 40.100418 2.1449392
28.099012 43.217262 2.2879696
27.565659 44.985664 2.1577184
27.807079 44.110798 2.2573383
28.343199 43.599533 2.1798596
27.546038 45.591084 2.7576191
26.911367 46.336643 2.5856829
26.904558 46.337093 2.6429975
26.930639 47.149174 2.1877897
27.66386 44.595131 2.1593912
28.462292 42.497646 2.3692429
28.948503 41.282139 2.456404
27.054741 46.802097 2.1629691
29.265627 40.189507 1.9310088
26.736176 46.89875 1.8805556
27.173595 45.802887 1.7652994
29.282187 40.489349 2.1408398
29.055523 40.888275 2.8276353
27.222301 46.237465 1.8881243
28.464243 42.589241 2.578079
26.955589 46.300953 2.4669397
28.751696 41.493244 2.7498477
29.362349 40.296204 2.0680113
27.73732 44.489315 1.9618775
27.530703 45.678352 2.4708197
27.629086 45.368683 2.4837134
28.929316 41.951954 2.619417
27.777103 44.395271 2.5585859
27.714027 44.213699 2.6531823
28.306005 42.824146 2.9127014
26.949455 46.471321 1.7657903
27.705046 44.30706 2.4679348
27.784668 44.405243 2.6731009
27.477367 45.603447 2.0717044
26.915586 46.330704 2.4081178
29.598866 40.001465 2.2553997
29.479008 40.183479 2.2740233
27.6873 44.591713 2.0598459
27.756962 44.192371 2.5597465
27.683521 44.750706 2.627543
28.941629 41.947609 2.5216894
27.901503 44.500168 1.733829
27.674812 44.901642 2.3938665
27.051676 46.275429 2.3830066
28.676388 42.366905 1.9759985
28.05299 44.192665 2.5571549
27.07542 46.263081 2.4270408
27.053635 45.985298 1.7866077
28.034822 44.277985 2.4681811
27.717606 44.237183 2.5417919
27.011656 46.499844 1.6930709
27.344864 46.086868 2.3794925
27.828909 44.492096 1.6205279
28.382359 42.695194 2.1624222
28.627127 42.7463 2.6440039
26.848263 46.798157 2.5458012
27.447329 45.292068 2.0777988
27.895777 43.72485 2.375905
28.623152 42.770195 2.2866144
28.037586 44.288239 2.3780746
27.541586 45.589218 2.6579299
29.32049 40.866829 2.5310009
27.820969 44.846497 2.6319902
27.154238 46.59454 2.6533937
27.58573 45.206894 2.4410365
27.372526 45.812828 1.5974933
28.143764 43.7789 1.9666318
27.077932 46.907841 2.1123531
27.661446 44.704052 2.0504026
27.040367 46.893921 2.4510562
26.982862 46.055054 2.1619763
26.902437 46.408283 2.4543638
28.175255 43.598389 2.4430349
27.638487 45.429714 1.7657603
28.807354 42.099571 2.5649245
27.097429 46.997829 2.2328699
27.276064 46.407028 1.7366303
26.878754 47.024483 2.3658605
27.771854 44.351257 1.7512407
27.696611 44.623074 1.6705155
27.843744 44.18808 1.7102046
26.8477 46.924488 2.3994906
27.120419 46.235825 2.2963221
27.849148 44.003819 1.9660988
27.231964 46.468548 2.466768
27.909092 43.728188 2.5693834
27.149899 45.893951 2.4584863
28.470577 42.585289 1.8574845
28.793959 41.397564 2.662025
29.754978 39.698391 2.6356156
27.962341 44.002899 1.779845
28.415705 42.855492 1.207736
27.574923 45.323505 2.4484203
27.101297 46.703426 2.4609451
29.742748 39.782681 2.5733216
27.650467 45.088108 1.9499267
28.576647 42.086769 1.8800672
27.151934 46.593548 2.2649202
29.754105 39.693508 2.4664209
29.197805 41.107788 2.6478951
27.154354 46.599129 1.5636029
29.767349 39.691376 2.5542831
26.842934 46.783745 2.1516492
28.462982 42.78157 1.8614461
29.735296 39.780201 2.4596512
27.092314 46.600487 1.9573168
27.524223 45.655052 2.7168999
29.060392 41.142536 1.3091065
28.820839 41.953144 1.6033585
28.78965 41.96183 1.261603
27.044451 46.876259 1.9588275
27.052425 46.885269 2.6632531
26.97493 46.831673 1.898428
29.181053 41.190845 2.4545918
29.736145 39.784451 2.379616
27.403112 46.010326 2.0953577
26.83396 46.886765 2.4763579
27.006166 46.117012 2.3729069
29.081051 41.120354 1.4456391
28.623667 42.779896 1.8511471
26.828365 46.780838 2.3726344
27.146788 46.024471 2.0323856
27.136772 45.963852 2.3561583
27.732222 44.379692 2.3529909
27.378265 45.314934 1.7735742
26.902029 46.507065 2.2831514
26.838316 46.878242 1.8771584
27.033823 46.952141 1.8171116
26.860796 46.887741 1.9530411
26.875221 46.892105 1.6613109
28.624048 42.228107 1.1303997
26.904524 46.898495 2.6604798
28.480635 42.897945 2.0545547
28.609177 42.289989 1.476759
28.459152 42.285187 1.8203814
28.693031 42.114487 1.2875003
27.79365 44.109241 1.9589423
28.676079 42.112663 1.7828054
27.830584 44.87035 2.1755672
28.64135 42.237751 1.4674644
27.673111 45.187477 2.3593559
27.079777 46.626183 2.6117918
26.876377 46.790504 2.6297112
27.706648 44.32032 2.3747842
27.621 45.518745 2.1361649
28.666594 42.080833 2.2715507
28.659512 42.097794 2.4531796
28.555714 42.897316 2.2943335
27.660313 44.692368 1.955168
27.866049 44.002441 2.2605553
28.770996 41.911983 1.2543983
29.3304 40.401188 1.5558317
27.803434 44.289276 1.8415799
27.902254 44.000141 2.0622129
27.271311 46.024445 1.8764043
26.876556 46.964466 1.76941
27.339466 45.871384 2.1903706
26.996511 46.296581 2.1815603
28.291607 43.497581 2.8327413
27.009718 46.071262 1.7616509
27.273214 46.0289 2.085052
29.380207 40.492474 2.1351914
29.390545 40.512215 2.4500201
29.408854 40.426853 2.264719
28.601482 42.000267 1.9532082
29.309248 39.977993 2.5557804
29.331087 40.46257 1.964149
29.683403 39.794395 2.1571698
29.460075 40.098389 2.4499385
27.010983 46.144436 2.3020685
26.783052 46.890572 2.1691031
27.244156 46.375168 2.2645729
27.821121 44.413692 2.6211233
27.456282 45.094063 2.2676539
28.956177 41.285252 2.5891161
28.980495 41.600681 2.0737848
27.690216 44.404343 2.3634009
27.042526 46.777748 2.2953429
29.359341 40.182911 2.6629133
27.942436 44.371407 2.1310594
27.201315 46.599548 1.7835948
29.494146 39.785553 2.7634761
29.346962 40.292324 2.4611373
27.608406 44.612911 1.947404
27.752768 44.489269 2.0588868
27.76289 44.694168 1.9990841
28.960808 41.188427 2.6628461
29.127825 41.613243 2.034729
27.559116 45.243404 2.1109843
27.176365 46.572075 2.1242442
28.047318 44.014297 1.8913426
28.610165 42.010674 2.0284004
29.287468 40.215523 2.2350473
27.836128 44.788635 2.6585684
29.293306 40.112926 2.5090027
28.93697 41.291782 2.6677771
27.758995 44.398022 2.1562798
29.588196 40.105675 2.3790715
28.553249 42.70541 1.8134537
29.175436 41.095623 2.2666106
26.993938 46.222565 2.1752176
28.060341 44.015972 2.1651649
28.791996 41.514233 2.4727798
28.808264 42.10833 2.642431
28.69105 41.707024 2.4704189
27.997625 43.723351 1.8641009
28.9035 41.792427 1.9318395
29.182987 41.166534 1.5972683
29.286528 40.098286 2.7590015
26.89345 46.488678 2.3592939
27.350391 45.368614 2.5751493
28.477419 42.594616 1.4370092
28.457209 42.579029 2.4580445
28.057039 43.975346 1.2625217
28.042347 43.5299 1.7009553
28.575045 42.201229 2.3594096
29.409946 40.134575 1.9183556
26.983074 46.978287 1.9743888
28.486732 43.006462 2.6492615
27.237537 45.782036 1.9848403
28.555695 42.525841 1.9066657
27.068428 46.800266 2.4711065
27.92778 44.39006 1.9524841
28.674345 42.000832 2.5585043
29.396347 39.992699 2.2622557
28.966505 41.183098 3.1714027
27.558083 45.48336 1.9819715
29.293106 40.299488 2.3689334
29.789223 39.618404 2.1728945
26.994608 46.310276 2.256875
27.563337 45.302902 2.0255663
28.683529 41.891644 2.3700137
29.459997 39.990002 2.2683156
29.575308 40.018055 2.0888851
29.473133 40.182724 2.0852883
27.577576 45.389122 2.0406835
28.839766 41.421947 3.0276229
26.773304 46.830765 1.5963835
28.078154 43.991154 2.2703774
29.399719 40.014091 2.3707118
28.902275 41.820183 2.537374
29.386141 40.40406 1.7669426
27.611109 45.048019 1.8892707
27.907074 43.734116 2.6848068
28.950817 41.481014 1.6200397
29.078163 40.97995 1.855106
27.630703 45.362186 2.4105558
27.632961 45.380093 2.6262937
29.626045 40.057961 2.2976093
26.911737 46.537029 2.1449101
28.58309 42.115112 1.9807894
27.641787 44.588585 2.6287241
28.511162 42.375946 1.5351493
28.654009 42.487923 2.1500306
28.215702 42.785152 2.8964334
29.457556 39.686066 2.7572312
26.875994 46.496964 2.5680697
27.602978 44.75811 1.6947148
26.720057 46.974483 2.0671844
27.277529 45.59182 2.2594359
27.394241 45.835827 1.702979
26.962351 47.094715 2.4685082
29.237503 41.061409 2.659476
26.858414 46.501068 2.0761771
27.476814 45.200912 1.9394866
28.017788 43.988464 2.3463631
29.756824 39.89444 2.0712385
28.056984 43.68597 1.7763034
28.384251 42.519947 2.0741026
28.839964 41.289043 2.7436318
28.21377 42.823898 2.7382913
27.281387 45.885105 1.8725145
28.811924 41.414837 2.0342467
29.282177 40.475327 1.7283151
28.829613 42.196606 2.3790004
28.085379 43.550163 3.3534141
26.855577 46.588764 2.4641275
27.118898 45.80547 2.5562367
26.861706 46.58913 2.3569865
28.805017 41.61552 2.0727682
26.964058 47.08947 2.5609004
29.13706 41.377048 2.6468492
26.840569 46.601158 2.559191
29.728769 39.781925 2.2806835
27.052494 46.291409 2.0582988
28.333681 43.006424 2.0570107
27.878771 44.399021 2.1782663
27.48107 45.486546 2.0652211
27.286173 46.197212 2.0576591
27.039595 46.277805 2.1504514
27.963959 43.975922 2.4859338
27.471447 45.59185 1.9707229
28.162796 43.899178 2.6545062
27.311636 45.501251 2.0594592
27.696198 45.4496 1.8328521
27.782225 44.097172 2.5654676
28.143011 44.207199 2.7113955
26.82955 46.878414 2.1070688
28.613113 41.803066 2.8371367
27.560741 45.320095 1.94804
27.013386 46.019176 2.6797886
28.90489 41.303608 2.1952159
28.441496 42.379669 1.8515683
28.087711 44.001717 1.791553
26.881775 46.636093 1.8692693
27.469538 44.900948 2.0694811
26.87789 46.501602 2.4668462
28.545404 42.790836 2.136169
29.393568 39.895576 1.8395493
27.971254 43.590839 1.8149239
26.848661 46.90387 2.2643056
28.139641 43.122528 1.7661965
26.987425 46.323257 2.0665507
27.535282 45.658573 2.6825583
26.858702 46.78746 1.9606757
27.249731 46.120937 1.4740673
27.590134 44.909744 1.9281079
28.956095 40.997967 2.8438866
26.984142 46.697762 1.9628904
27.69409 45.104733 2.4763207
28.639484 42.168919 1.2190065
29.102148 41.219025 2.2594528
28.672556 42.416443 2.0478282
28.090487 43.894871 2.1607134
27.943901 43.9086 2.6449795
27.283638 45.515549 1.8723357
29.006351 41.23127 1.3202057
26.860279 46.598358 1.6029686
29.482981 40.204117 2.457094
29.596836 40.012627 2.4686584
29.358143 40.316151 1.6432415
28.205835 43.642685 1.9540924
27.108557 45.809757 2.6392376
27.265831 45.607384 2.1669877
26.747629 46.886883 2.4553063
27.05661 46.686192 2.2554564
27.531965 45.666901 2.5666034
26.950422 46.475212 2.4163737
27.677155 44.377823 1.743739
27.105297 46.450699 1.5776991
28.378656 42.813869 2.0643051
28.438789 42.690327 1.2602857
28.685608 41.693642 2.6766474
28.871265 42.19545 2.060791
28.226141 43.747437 2.6584125
28.400909 42.523666 1.8838547
27.857685 44.54496 1.6098543
28.990303 41.025673 3.1691213
27.895229 43.903725 2.3668547
28.230228 43.781639 2.5803003
29.554436 40.193668 1.9799942
29.518301 40.230659 2.557689
29.594734 40.003521 2.5299177
29.559881 40.194313 2.1753774
28.455431 42.700809 1.5611503
26.941692 46.8097 2.1613827
27.837313 44.787956 2.3571298
27.464512 45.788925 2.3649466
28.404985 42.452072 1.7562971
28.045229 44.249779 2.12205
28.611259 41.926247 2.3643751
27.056355 46.318035 1.6918012
29.559458 40.189281 2.6493678
28.492289 42.397038 2.2682941
29.274185 40.494484 1.8645408
28.150928 43.192516 1.9945596
26.750929 46.911686 2.6226609
28.662497 42.109154 2.1584969
27.728298 45.441574 1.760658
27.869234 43.862465 1.6852394
28.178493 43.213844 1.700969
29.55611 40.184574 2.0569928
27.095516 45.921509 2.2569015
27.547825 45.314278 1.8554534
28.326712 43.552261 2.4200077
27.056538 46.182358 2.440311
27.267168 45.494453 2.4611509
28.377966 42.395325 1.7456151
26.839638 46.895374 1.7154689
29.173382 40.788971 2.2536526
28.06551 43.792995 2.3776007
28.063763 43.974766 2.0724583
26.751768 46.889065 2.3708956
27.068651 46.707901 1.9663293
29.602633 39.976105 2.6187267
28.510759 42.11639 2.5778842
29.5583 40.187351 2.2806046
27.48148 44.930058 1.9759392
28.590111 42.094875 2.2589235
26.948231 46.953869 2.0650134
28.105671 43.207829 2.5558295
26.959646 47.085258 2.3568051
28.761898 41.908169 1.6217531
29.019091 41.386791 1.4605436
27.609858 44.741409 1.9648634
27.063826 45.987049 1.6581267
26.997757 46.198563 2.2761068
27.111824 45.825474 2.4767735
26.869987 46.907005 2.1845305
27.66186 44.721199 1.8550414
27.89447 43.810398 2.3767762
27.988544 44.227085 1.924883
28.408749 42.41787 2.2948787
27.782091 44.101204 2.6516702
28.984308 41.489838 1.7448995
26.88043 46.602989 2.2618237
27.872671 44.432323 1.8842831
28.356701 42.680073 2.5578904
26.932369 45.914471 2.6370065
28.151606 43.372604 2.359915
27.834187 43.981529 2.658417
27.664503 44.806282 2.5468595
26.73558 46.893147 2.5594842
27.65733 44.410847 1.9263052
27.930878 44.584042 2.3431003
28.559093 42.383755 2.4645
28.876474 41.219631 2.9283774
28.580687 42.310959 1.3776842
27.879341 44.514683 2.1346898
26.78677 46.894585 2.0739038
27.153349 46.5228 2.265765
28.077179 43.909973 1.7531236
29.136175 41.374546 2.558383
29.312447 40.455513 1.545136
27.873241 44.085808 1.7525889
27.075932 46.794456 2.5700116
28.482849 42.592346 1.7394096
28.687626 42.498226 2.5571759
26.908388 46.991146 2.1446445
28.008671 44.076675 2.356636
29.168951 41.20776 1.9527858
29.395685 39.782722 2.8538589
27.234293 46.057053 1.7399273
27.953396 43.961868 1.9651402
29.629599 40.076996 2.3595629
28.888494 41.906208 2.3613217
29.369968 40.110256 2.2715876
29.152557 41.389801 1.7458963
29.140392 41.373489 2.3625789
27.804485 44.005798 2.6589599
26.838047 46.624104 1.6387719
28.661848 42.491245 2.0546618
28.005177 43.906086 1.2111125
28.048635 43.596058 2.2559729
28.736956 42.277748 1.9851768
28.161337 43.127708 1.969063
29.150934 41.289822 2.1743057
26.884808 46.591599 2.1645184
29.652121 39.976982 2.372344
28.664351 41.788395 2.1825988
27.479103 45.527504 1.9676582
27.685101 45.435432 1.9538493
27.069176 46.785946 2.3702805
28.137051 43.31168 2.6414287
29.450895 40.084538 1.9497051
28.372494 42.433414 1.9446486
29.463921 39.893402 2.2679408
28.008373 43.592339 2.0916915
27.50819 44.802502 1.9237329
27.14537 46.338528 2.6501327
26.849369 46.804272 1.7798989
29.457241 40.096436 2.2697153
27.058516 46.710327 2.1942306
26.84053 47.14328 2.1184487
29.127302 41.39632 2.0657868
28.934389 41.901245 2.2980134
29.692217 40.141628 1.9543761
28.787594 42.100494 2.2530634
29.055576 41.109222 1.7680848
27.115723 46.19022 1.6936816
29.455503 40.059391 2.0607927
27.211996 45.612564 1.9897637
27.759802 44.405952 2.4525924
28.20936 43.700191 2.5791028
26.843296 47.007111 2.3100636
26.875858 46.528984 1.9880543
29.280561 40.193241 2.6701803
26.982714 46.197365 2.5604172
27.05241 46.447021 2.3413732
29.59647 39.994373 2.1672213
29.496801 40.205444 2.1714354
26.852982 46.598427 1.9689221
27.755136 44.389927 2.2629094
28.859562 41.621964 1.7925854
26.884502 47.114822 2.2801538
27.417572 45.209808 2.1960528
29.303308 40.006256 2.6802442
29.197876 41.166145 1.6634225
29.200905 41.064583 1.928331
29.220766 41.179482 2.3299861
27.833714 44.097584 1.3839005
28.385941 42.500153 1.9660203
27.115379 46.499638 2.4223745
27.717552 45.136086 2.1762543
28.364267 42.578163 1.9509341
28.753582 42.192154 2.0596654
29.181265 41.292625 2.005018
29.167894 41.195343 2.3568892
28.250641 43.16523 2.8382533
28.936159 41.889015 2.4672668
27.96336 44.10627 2.2768331
28.277699 43.086273 2.6444321
28.128784 44.085144 2.4969687
28.081543 44.092823 2.6575518
26.892403 47.077702 2.3498724
28.548166 42.901287 2.5578635
28.800676 41.784554 1.5822456
27.05423 46.945766 1.7745025
26.898291 46.55925 1.7598304
27.642014 45.474941 1.7565553
29.182352 40.486427 1.8749493
26.815111 46.64444 2.3886576
29.365736 39.995728 2.5649304
28.89641 41.787319 2.2652695
28.87561 41.58411 1.9007806
27.049244 46.267509 2.2383876
27.645231 44.488255 2.566628
29.647306 39.985001 2.2697508
29.636526 40.067158 2.5473018
29.097507 40.624126 1.916244
28.57996 42.396931 1.8560565
29.672541 40.105682 2.056247
29.134127 41.237465 1.8419065
27.463049 45.292725 2.137105
27.841541 44.084938 2.3548272
28.356304 42.680779 2.4616137
29.58498 40.00872 2.3571272
29.5 40.207302 2.3427804
27.991179 44.201218 2.5994506
26.898239 46.58007 2.0878756
27.672302 45.071419 2.0809529
29.256083 40.993824 2.4653618
26.942114 46.825687 2.3263435
29.311363 39.987099 1.7876313
26.708729 47.19405 1.9725472
27.01631 46.304974 1.6533012
29.383564 39.998497 2.1646833
27.459354 45.635574 1.6815904
27.607641 44.487762 2.8344626
29.74229 39.695496 2.1691754
27.595352 45.403198 2.6559763
28.10162 43.281837 1.9679265
27.119581 46.502174 2.1260879
27.170284 45.819794 1.8971422
27.875275 44.518471 1.9844683
27.898407 43.908817 2.2713404
28.686119 42.095631 2.0522783
27.913582 43.920975 2.1774628
28.199821 43.709801 2.4706059
27.010059 46.131042 2.4632783
27.890463 43.892426 1.8760768
27.688566 45.081169 2.2743278
27.319736 46.342129 1.9539214
29.573156 40.188015 2.5612116
29.232384 41.285244 1.7981087
27.873501 44.012482 1.8685256
27.90868 43.853413 2.0364156
29.162443 41.191463 2.0526588
27.668472 44.704174 2.1613729
28.403168 43.205353 2.5629113
28.123842 44.061626 2.5275719
27.076674 46.796356 1.9762141
28.380486 42.413681 1.9036454
29.369848 40.096428 2.6634412
29.649736 40.261635 2.0433917
27.868427 44.399311 1.7575213
29.180353 41.294289 2.0588222
27.244116 45.874847 1.7116104
27.443783 45.881687 2.2869921
26.969685 47.108566 2.2722511
27.475906 45.691093 1.8793553
29.189228 40.800667 2.0596631
27.137983 46.690434 2.6462619
29.44796 40.073986 2.156075
28.713974 41.531975 2.8651469
28.911007 41.020084 2.6582847
27.653027 44.695457 2.3616498
28.498047 42.797398 2.037267
28.663435 41.999046 2.36291
28.894829 41.296635 2.4564028
28.054003 43.461735 3.4112694
28.84742 41.285408 2.65922
28.435074 43.265385 2.3758125
27.961588 43.796604 2.2679665
28.970139 41.075199 2.542249
28.06802 43.446808 3.4510918
27.98542 43.801003 1.9642348
28.989677 41.093887 2.3697603
27.700741 44.500099 1.9715353
28.469103 43.092037 2.4645939
27.675013 44.477901 1.6921916
27.091806 46.009789 2.2598591
27.119291 45.950405 2.0915956
28.910612 41.001812 2.8662198
29.793608 39.609505 2.2573442
28.403761 42.728085 1.2488754
27.778473 44.311024 1.9645045
27.157488 46.661549 1.8112359
29.486944 40.083054 2.5689251
29.290726 40.092846 2.5784287
28.570526 42.504845 2.1716871
28.648794 42.451645 1.8359393
27.151484 46.310623 1.405663
28.295418 43.390152 2.1486056
29.410517 40.125401 1.8095375
29.319862 40.141045 2.1939168
29.001902 41.596752 2.5568025
27.718445 45.094673 1.9023026
29.130749 41.371342 2.2214222
27.767784 44.291309 2.2796962
27.705708 44.395096 2.2830484
29.009645 40.784908 2.7519724
28.203075 43.04718 3.352411
28.424818 43.26804 2.5632312
28.411329 42.59026 1.7684504
28.547962 42.887074 2.6426036
28.4795 42.793846 1.2833307
29.66465 39.890369 2.2756765
27.299723 45.498108 2.270191
29.682497 39.896149 2.5643978
27.672443 44.903793 2.0595086
29.369703 39.893707 2.6587462
27.241341 45.582954 2.5544744
29.002563 41.289177 1.2097329
29.045773 41.257858 1.3486155
27.382931 45.178642 1.9166062
27.498493 45.196365 1.848614
27.238316 45.813858 1.877419
28.830364 42.172379 2.4602413
27.388859 45.206722 1.735015
28.543381 42.893078 2.466239
27.012901 46.175564 1.8587542
29.318132 40.042793 1.8843113
27.333902 45.243469 1.6474837
27.908472 43.805611 2.3076849
28.655968 42.5923 2.4553161
28.885466 41.113716 3.159178
27.634298 45.378025 2.5618942
27.229708 45.964195 1.7501004
27.893867 44.487495 2.2887931
27.374241 45.608772 2.4818439
27.682325 45.10685 2.3624384
27.041779 46.454762 1.8807706
28.964308 41.391411 2.5582178
28.849245 41.595245 2.4595509
27.281029 45.631519 1.9798496
27.299067 45.607937 1.7503643
28.443817 43.182957 2.4539926
28.856159 41.690136 1.7447605
28.124617 43.962231 1.4343188
27.060904 46.929581 2.0633802
27.900896 44.515095 2.5620906
27.869354 43.899258 2.4637299
28.071095 43.2911 1.771626
27.401138 45.21151 2.0587838
27.691748 44.370697 3.1161079
27.864109 44.591297 2.2662647
29.264122 40.289951 2.6621132
28.392906 43.199783 2.4640582
27.471087 45.823723 1.8042722
27.158552 46.842464 1.9799089
28.43924 43.191296 2.5620849
28.154463 43.716812 2.0791194
29.727613 39.852772 2.1562345
29.070507 40.893726 1.9617959
28.718863 41.964302 1.8612703
28.437332 43.185852 2.8323445
26.919363 47.030079 2.4772766
27.391975 45.68367 1.7600771
27.650276 45.479431 2.0559039
28.41695 42.334625 1.6735433
28.756193 42.405422 1.8569992
27.323277 46.417511 1.4701687
28.163788 43.289829 2.2577677
28.198946 43.012661 2.3488016
27.757399 44.103638 2.8400803
27.111668 46.586929 1.5174574
28.801172 42.271389 1.858838
28.333401 43.489079 2.4667096
28.804258 41.305576 2.7625117
28.708082 42.300297 2.600529
27.67186 44.493191 2.3668697
29.587772 40.097523 2.1708529
27.868196 44.512024 2.0339742
28.623795 42.806644 1.7338445
27.597809 45.173134 2.2183363
28.771332 41.564285 1.9654542
27.880373 43.786331 2.7559519
27.655109 44.40604 2.7515039
26.849562 46.601746 2.651741
29.360634 39.89632 2.844799
27.942257 43.883278 2.2593153
26.832357 46.683361 2.5490534
27.058676 46.304222 1.8529749
28.686302 42.113995 1.8773197
27.472088 45.193531 2.0578723
28.169449 43.495193 2.447016
27.367167 45.192749 2.5662351
27.115538 45.830124 2.3703339
27.410191 45.640099 2.077404
27.661491 45.429436 2.0512962
27.286776 45.600159 2.0413485
28.987772 41.265095 1.7141359
27.213999 45.48708 2.5865161
26.782537 46.918373 1.9944596
27.094105 45.892143 2.5500185
27.067041 46.019531 1.9136472
28.899307 41.795403 2.0706456
27.040379 46.283913 1.9675958
29.269108 40.493221 2.2756889
28.75087 41.78035 2.6533825
27.278969 45.799007 1.7697697
27.637739 44.491203 2.6554983
29.268999 40.487701 2.0706465
28.946419 41.153824 3.0970147
29.560808 40.092567 2.0637488
28.563759 42.309299 2.1650326
27.571457 44.902782 2.0541749
28.894703 42.179405 2.1209159
28.747509 41.568398 1.7767785
29.28109 40.20311 2.5595396
29.2918 40.205914 2.1767581
27.134836 46.206467 2.4372892
28.269566 43.096146 1.9349976
29.146507 41.286007 2.3567393
28.16552 43.267292 2.0745509
27.75404 44.183777 2.7375176
29.246178 40.599541 2.2507451
28.659014 41.786865 1.8286388
28.581272 42.014374 1.8224717
26.954611 46.493919 2.3641784
28.697929 41.99052 2.0803611
27.493877 45.357327 1.9696927
28.469995 42.407108 1.9750233
28.303776 42.989189 1.7765943
27.235277 45.503242 1.6482366
28.76841 41.694511 2.3602278
28.744011 42.419086 2.0909193
28.548071 42.464336 1.9393523
28.458473 43.007732 2.0620744
29.312113 39.977177 2.2309694
27.716145 44.427853 2.1806173
27.162796 46.755646 1.702556
27.708441 44.374626 1.6851873
28.481901 42.30072 2.4669507
27.424969 45.676727 2.0600014
28.685381 41.997604 1.974696
28.650906 42.085812 2.3636715
29.176823 41.094044 2.0577731
27.306931 45.517788 2.1599684
28.259199 43.108727 2.5525427
27.013008 46.013123 1.76114
28.36414 42.700081 2.3615859
28.362175 42.59864 2.5645289
27.855595 44.182735 2.461859
28.049973 43.392113 2.6518781
27.094006 46.587975 1.7485857
26.799288 46.811092 2.1786659
28.648062 41.798622 2.7574573
29.232208 41.058968 1.9640267
28.282652 42.872795 2.965874
27.158216 46.663239 1.9645512
27.185955 45.807056 2.1849456
29.243908 40.390533 2.7344491
27.376297 45.19149 2.4643118
29.171926 40.589787 2.4749928
29.061754 40.804604 2.7564883
27.260582 45.829948 1.7100539
27.296381 46.078953 1.9481043
26.684258 47.095978 2.2563367
27.09664 45.897518 2.4597309
27.100407 45.892063 2.3594747
29.188839 40.497284 2.0696445
27.594725 45.409096 2.5640497
28.026718 43.718967 2.4948785
27.223564 46.477543 2.6540577
27.714975 44.219719 2.816422
29.018885 40.713936 2.5737827
27.685637 44.420891 3.0771892
27.802383 44.801311 2.6484575
27.740143 44.281937 2.5643458
28.812986 41.704796 1.8940059
29.159306 41.186749 2.1673388
28.800129 41.529808 3.0727665
29.24589 40.574299 2.4456189
27.877859 44.206966 1.7591029
28.561459 42.389412 2.3515911
27.144062 46.589729 2.3596218
28.705984 41.537411 2.7856429
29.450884 39.818405 1.9346592
28.327532 42.844597 3.0454466
27.975109 44.199558 2.4491801
27.56303 44.797649 2.3506963
27.881996 43.833443 1.8510642
29.486395 39.810879 2.2774987
28.34276 42.978302 2.5237856
27.086658 46.583416 2.0641229
27.044298 46.605507 2.3463674
28.66885 42.10775 1.3737054
27.88879 43.803253 2.6528563
27.908371 43.765961 1.9187635
28.901779 41.500141 2.0645359
27.892017 43.868122 1.8027055
27.852226 43.962814 2.7307131
27.914909 44.366287 1.6953076
29.560122 40.11343 2.263238
29.045942 40.997257 3.0144761
27.966536 43.879044 1.7854626
28.866253 41.599174 2.1450338
27.862228 43.890644 2.5541198
28.770855 41.786781 2.2565632
28.086731 43.908215 2.4543872
27.32192 46.253666 2.6255102
27.344044 45.287846 2.5535662
27.84424 43.986168 2.5584617
27.093119 46.595356 2.1654596
28.660055 42.140007 1.707569
27.644337 44.531235 1.5821552
27.389544 45.199577 2.3571632
26.838682 46.78669 2.0834694
27.676056 44.501492 2.2721674
27.064491 46.760792 1.8718932
27.601452 45.14856 2.3344655
29.269596 41.06665 2.1712754
27.734842 44.596542 2.4578211
27.579575 44.888767 1.8817719
28.104263 43.305691 2.0591772
27.619522 44.512276 2.3668644
28.935921 41.418049 1.8220631
28.565264 42.250362 1.6977968
27.898327 43.798733 2.4702785
27.178129 46.60479 1.6743908
29.222731 41.164597 1.9244901
28.890585 41.313126 2.3666079
28.356789 42.921925 2.0737104
27.076515 45.994549 2.360589
29.048401 41.140736 2.511905
27.782043 44.899796 2.5671477
27.822521 44.306484 2.6153185
27.088428 46.70491 2.3470898
27.997805 44.298939 2.4750433
28.70116 42.113503 1.144017
27.559402 44.699623 2.5603378
27.07962 46.422771 2.4710982
28.307602 42.715382 2.4674489
27.859768 44.403503 2.4300408
29.094641 41.035095 1.4604769
28.969868 41.183598 2.1551831
28.172853 43.940269 1.4910705
28.537823 42.961739 2.2901502
28.470177 42.613632 2.6185987
29.342289 40.314224 2.5589147
27.777565 44.101311 2.7518141
28.745718 41.883636 2.3547709
29.038544 41.598064 2.5532169
27.545101 45.596729 2.4568293
27.850309 44.192158 2.0706825
28.570896 42.49382 2.2380412
27.104954 46.619556 2.5880086
27.490421 45.698322 2.4576275
27.947769 43.889648 2.3793056
29.514015 39.66164 2.189337
29.415649 40.547775 2.1097293
28.941463 41.872086 2.3839979
28.868267 42.114403 2.0662389
27.93148 44.564861 2.445539
26.712242 46.988148 1.7526054
28.570585 42.135635 2.142925
26.84078 46.975414 1.8816737
28.331875 43.292908 1.9695015
29.541096 39.793446 2.0578701
29.465803 40.374908 2.0729294
26.702772 47.023857 2.1934569
28.583935 42.24234 1.8587216
28.888569 41.403091 1.5871313
27.227266 46.471794 2.567035
29.153685 40.814892 1.969334
29.288757 40.79644 2.1776161
28.450603 43.342461 2.0711944
26.971272 46.994576 2.3701732
28.39345 42.579933 2.0663478
27.284416 45.76115 2.4171236
28.662954 41.895584 2.4580913
27.074297 46.795006 2.6619449
29.159964 40.695244 2.361706
27.84449 44.286991 2.4879928
29.088673 40.711159 2.4537241
29.055042 41.101788 2.3643885
27.746674 44.287933 2.4721024
28.369209 42.992222 1.961911
28.152861 43.604656 2.0653443
26.976795 46.192291 2.6577473
27.556337 45.480938 2.2725039
27.077175 46.568707 2.462661
27.164696 46.360313 2.2419055
27.595394 44.801613 2.1480231
28.893728 41.571407 1.9896482
28.960125 41.193947 2.4646578
27.912241 43.727776 2.4692197
27.247534 46.005428 2.4725125
27.207352 46.212719 2.3799601
28.774544 41.595078 2.4603384
27.594622 45.400143 2.4593928
28.018572 43.520908 2.1407194
29.145622 40.87936 2.5577722
28.768078 41.876068 1.9532332
28.236332 43.319504 1.9672103
28.109694 43.129833 1.9327123
26.762491 46.796719 2.47034
28.298882 43.502739 2.5470886
29.270546 40.29652 2.5615752
29.187305 40.83136 1.4653
29.189953 40.499363 2.1885703
29.496885 40.307629 2.557194
27.901855 44.522282 2.4459565
29.316195 40.11779 1.9319639
28.155577 43.285725 2.3727741
29.595694 40.100098 2.552016
28.849611 41.577396 2.3599551
28.258095 43.280472 2.3761408
27.667595 44.392712 2.667238
29.481432 40.30476 2.3549209
29.582039 39.934273 2.3576922
27.142992 46.391483 2.0714586
27.796871 44.016201 2.315069
27.856194 44.074493 2.6530554
27.380356 45.912178 2.0626998
28.654247 42.593693 2.5566154
27.961765 43.993179 2.5648878
27.411514 45.670521 2.2734826
28.870909 41.19429 2.8446953
27.650555 44.38591 2.8498268
28.175571 43.46357 2.7748182
28.855907 41.488232 2.5621626
27.173347 45.898788 2.0444777
27.883631 44.497044 2.3565567
27.203033 46.190643 2.1398878
27.252174 46.189358 2.2523627
28.797626 42.10342 2.4638391
28.570414 42.696426 2.0798256
28.680645 42.500404 2.649256
28.159073 43.492332 2.3464766
29.24468 40.513111 2.5283275
28.216122 43.581863 2.2612875
27.97366 43.539742 1.6502458
29.055109 40.879524 2.665719
27.746708 44.269943 2.8519063
29.087139 40.712891 2.9384789
29.258001 40.99308 2.5590301
27.458725 45.795059 2.4628959
29.390486 40.494663 2.5524533
27.823704 44.296204 2.5793841
27.734514 45.072987 2.5610909
27.816193 43.93787 2.5332079
28.290489 43.504066 2.6522059
28.274136 43.009754 3.2996471
28.859552 41.388359 2.5621572
28.196611 42.901474 2.8524454
28.102032 43.198009 1.7691578
28.00577 43.377426 1.7275792
27.960604 43.525333 1.8812943
28.343002 42.67487 2.65414
28.461809 43.175568 2.1467264
28.524519 42.488014 2.561327
29.234409 40.619259 2.5249913
28.196344 43.798023 2.5568948
29.149168 41.292282 2.5518146
28.587109 42.291367 2.5480926
27.604111 45.31522 2.5575411
29.234854 40.503345 2.7675204
28.272085 43.276867 1.8450162
26.77717 47.183338 2.4315274
28.439329 43.195473 2.3612149
28.35914 42.595001 2.8561838
27.102566 46.703808 2.5707414
28.759712 41.587532 2.5583961
28.662975 42.186813 2.6427722
27.162474 45.889278 2.2651517
27.988213 43.879616 2.4609008
28.188431 43.798607 2.4668038
29.12829 40.727898 2.8381765
29.148294 41.286797 2.2515106
27.397976 45.904449 2.4759851
29.065815 41.494469 2.5574036
28.673853 42.499493 2.2648098
28.38814 43.203804 2.3624458
29.373787 40.603264 1.9814355
27.479887 45.703526 2.3612368
28.853619 41.588272 2.5430272
27.652918 44.587872 2.3604546
28.748095 41.88018 2.2612097
29.15724 40.799652 2.4511693
29.369297 40.694736 2.5659175
29.258308 40.590057 1.5812504
28.756163 42.284973 2.2627506
29.279545 40.81377 2.5530422
27.534155 44.781891 2.5552201
28.989607 41.491722 2.5639505
26.692638 47.003143 2.3619494
27.268019 46.114079 2.1520271
28.595177 42.60463 2.26002
28.847101 42.08062 2.4742877
29.187265 40.500378 2.4731734
29.271887 40.382065 2.455744
28.892141 41.200188 2.1996787
29.158392 40.902641 2.1683872
28.657684 42.082775 1.9599187
27.533129 45.663158 1.9132478
27.605844 44.510757 2.6472061
27.577494 45.389977 1.980299
28.861496 41.908897 1.9765453
28.247713 43.695461 2.1707947
27.774345 44.931946 1.9659743
29.041538 41.190624 1.9848233
27.256662 46.280701 2.2545316
28.45801 42.58923 2.2646143
28.368187 43.409496 2.0512249
29.212824 40.510258 2.3821244
29.462727 40.390518 2.3593347
29.532101 39.768784 2.3636498
28.649971 42.191101 2.2701728
27.27129 46.028439 2.3656766
27.792318 44.694565 2.2952888
27.943501 43.634949 2.1181095
28.473957 42.801548 2.2751231
27.742134 44.559944 2.1895628
28.475313 42.912403 2.2569191
27.61261 44.68615 2.1339967
29.160627 41.315422 1.8695761
28.262205 43.596367 2.173192
28.614342 41.909012 1.8788905
27.97456 44.13266 2.058414
28.972824 41.202316 2.3632512
29.179396 41.093803 2.3657262
26.860031 47.067581 1.8787911
28.24017 43.22245 1.9569538
29.066946 41.064812 1.9595135
27.191309 46.462349 2.1027334
28.463181 42.81168 2.1679673
28.289803 43.406395 2.4613328
28.30175 43.397297 2.3501687
29.145134 40.491058 2.7482407
29.256687 40.409096 2.6531272
28.765236 41.900696 2.4662068
28.933331 41.081944 2.7455914
28.663074 41.679325 2.8556099
27.153704 45.881294 2.3552403
28.533049 42.477657 2.0496471
27.27606 46.292141 2.4566941
28.274347 43.255699 2.5332229
29.053068 40.900227 2.7573836
27.37586 45.997036 2.4547324
28.245029 42.992683 2.4603696
27.536991 45.598213 2.3762796
28.800972 41.506893 2.2648735
28.186386 43.798256 2.2735286
29.353531 40.685543 2.2584152
28.883572 41.695267 2.3656268
27.24728 46.377068 2.4531572
29.053169 40.703842 2.7482953
29.462061 39.798561 2.5499284
28.515184 42.873795 1.266929
29.171158 41.200718 2.657479
28.733753 41.658134 2.8443887
28.329111 43.24358 2.8655376
29.066877 40.689083 3.1405816
28.172092 43.708923 2.8579702
29.40308 39.783676 2.9396577
29.221525 41.155697 2.5713139
29.175407 41.20105 2.5582867
29.40159 40.602077 2.665103
27.563976 45.493996 2.6596286
28.770061 41.706127 2.6401267
27.433416 45.407871 2.5915709
29.155775 41.199669 2.2601204
28.387112 43.093513 2.9175797
28.80109 41.504417 2.0741222
27.968943 44.284805 1.9488274
28.7829 41.387466 2.7623873
29.246284 41.150948 2.03736
27.803331 44.013176 2.5553539
28.199041 44.130211 2.3005457
27.287941 46.125965 2.5710888
26.765299 47.108971 2.472893
28.557808 42.401062 2.6204748
29.56576 40.192791 2.3831046
29.146528 41.295876 2.4638951
27.566437 45.500828 2.4576581
29.400045 40.605122 2.556309
27.707811 45.001789 2.5641704
27.166292 46.592003 2.0533056
29.220984 41.208344 2.4505224
27.280052 46.222576 2.3514776
27.369694 46.003502 2.3856008
27.561121 45.491783 2.3713634
28.951521 40.990459 2.7474141
29.236485 40.893738 2.7663245
29.364906 40.594994 2.1573749
27.776108 44.901287 2.282583
29.541868 39.584068 2.6620731
28.989889 41.602604 2.3647616
28.12989 44.071774 1.873065
28.186407 43.801235 2.0819449
28.110258 43.577267 3.2285585
27.638247 44.791195 2.4455588
28.809042 41.439468 1.9575728
27.395859 45.916672 1.9687992
28.902718 41.79541 2.1622529
29.480801 40.290287 2.264384
29.56719 39.892574 2.2564845
29.689495 39.810974 2.2702546
27.421543 45.999691 1.836095
27.133833 46.683113 2.5794966
28.784912 42.105473 1.9873903
29.174974 41.257114 1.7957457
29.156334 41.285816 2.6491175
28.587112 42.497902 1.6321341
28.801323 42.087704 1.5527014
29.61396 39.616688 2.0795534
29.462383 40.601479 2.0752637
29.450457 40.587399 1.9739318
27.853748 44.446175 1.4390308
29.429482 40.587032 2.2793448
29.582064 39.589725 2.2710321
28.678925 42.326721 1.7334957
28.55204 42.683258 1.7510649
27.284027 46.397411 1.616298
29.398298 40.463844 1.869803
27.860626 44.279217 1.7520051
29.380516 40.594357 2.3625209
29.465984 40.6026 1.8703821
29.562433 39.600761 2.176856
29.45554 40.579624 2.1560311
29.168844 40.977432 1.6079254
28.513744 42.612152 1.3674674
28.649004 42.271172 1.2690425
27.85741 44.208401 2.2813137
28.773264 41.893169 1.371296
29.115692 40.906555 1.6811504
28.695589 41.596668 2.8495977
28.980831 40.98381 1.9798439
28.859999 41.385334 1.9666636
28.535337 42.514599 1.5901899
27.825594 44.880501 2.4735944
29.183172 41.25943 1.6384479
28.802471 41.93322 1.5512062
27.960968 44.074883 1.3329378
29.123732 40.940376 1.4108402
28.581442 42.376305 1.2520761
28.978271 41.343178 1.3365812
28.555672 42.29163 2.3643401
27.70973 44.275688 1.980003
29.258179 40.580772 1.8517861
29.141071 41.587177 2.3209124
29.094822 41.398998 2.6539493
28.754398 42.001034 1.4799186
29.11491 40.898647 1.7738196
29.185028 40.769382 1.8237621
27.652302 44.672489 2.2780221
28.922279 41.560669 1.4020191
29.13509 40.885662 1.7640903
29.216738 40.808231 1.7551326
28.134205 43.990108 2.6508043
28.597149 42.452339 1.4977527
28.879372 41.283031 1.9903052
28.59169 42.301617 1.2876165
26.671413 47.003387 2.6499343
29.112988 40.917446 1.5222888
26.863968 47.109707 2.0710471
28.108978 43.771912 1.3001711
28.043516 44.089935 1.2583451
29.255877 40.737965 1.4488273
28.264355 43.833035 1.4101461
28.21063 43.856647 1.3717828
29.00161 41.513077 1.5715781
27.859737 44.328236 1.5859177
28.061352 44.093536 2.270129
27.673714 44.726986 1.668288
28.691847 42.363541 1.413667
28.60821 42.351906 1.3324841
28.294121 43.722755 1.5255871
29.106909 41.167862 1.6313076
27.90242 44.45269 1.8205143
27.612036 45.571373 2.1664674
29.396313 40.191578 1.851052
28.412251 43.419979 1.8767151
28.468876 42.595448 1.6542428
27.358278 46.202621 1.6780344
27.65094 45.282875 2.5647161
29.081327 41.313011 1.5657842
27.76211 44.620918 1.5733038
27.814972 44.441135 1.6056463
27.481621 45.30772 1.8015553
28.977451 41.274509 1.5033083
27.537106 45.750465 1.4643064
27.642458 45.284271 2.2465174
27.678352 45.311321 1.9691267
27.669556 45.274548 2.1322694
28.534073 42.70446 1.5724864
26.940105 46.685509 2.3702202
29.137047 40.833183 1.6876377
28.032471 43.973267 1.6884699
29.153215 41.017246 1.6946362
28.851309 42.067181 1.7419903
29.206402 40.683006 2.0045683
28.347988 43.66592 1.8593919
26.958956 46.982323 1.8930267
28.956699 41.492142 1.9756545
29.273159 40.405071 2.1555896
29.57881 40.276428 2.1669381
27.661341 44.79097 1.9475913
26.773647 46.79562 1.8775529
26.90316 46.444401 2.2392023
28.855312 41.69331 2.0543165
28.938959 41.104664 1.9629492
29.106045 41.422028 1.7253641
28.844799 41.292156 1.6006721
28.20816 43.800232 1.8298948
27.67621 44.61776 1.9847856
28.830902 41.99395 1.7619696
27.974924 44.309032 1.6683209
29.073362 41.005356 1.949708
29.283369 40.514393 1.9902986
29.316648 40.372849 1.9923192
28.041998 44.21904 2.266485
28.311996 43.094887 1.8793857
28.535347 43.077049 2.0660448
29.003508 41.017178 2.3746479
28.252613 43.185368 2.1567948
28.27375 43.591137 2.2645669
26.966946 46.931961 2.3503795
27.334431 46.206715 2.1671379
29.050175 41.69841 2.0882568
27.864069 44.69281 2.3665705
29.261568 40.890732 2.2643347
26.864449 47.13549 1.5970151
28.265245 43.587383 2.3745642
28.860792 41.29052 2.0553145
27.64006 45.288361 2.3788044
29.062004 41.491512 2.2798665
27.841717 44.776146 2.2751651
28.757412 41.962994 1.5371442
29.325832 40.905144 2.6288853
28.538588 42.971073 2.5512509
26.994118 46.992535 2.4559064
28.878965 41.229099 2.4803824
29.037916 41.484871 2.0721765
28.737898 42.003132 1.835876
26.700619 47.005592 2.2858479
27.297459 46.385643 2.1451688
28.55547 42.795105 2.0636139
29.174261 40.69598 2.2576191
28.552858 42.245792 2.7053077
28.896189 41.2015 1.9948879
28.383551 43.476398 1.8694857
27.986046 44.370522 1.7022059
27.533142 45.760155 1.9279448
28.597775 42.627983 1.8830053
29.270266 40.907249 2.1654305
29.190399 40.70565 2.0663345
27.348709 45.982559 2.1608508
28.566311 42.997322 2.059392
29.68494 39.911423 2.0284281
27.988632 44.284706 2.1683252
29.068895 41.397591 2.1577857
28.994003 41.079395 2.0154665
28.768845 41.890331 1.8773999
27.854151 44.398159 2.2795703
29.045771 41.591263 2.1713042
27.326311 46.323814 2.1945617
29.175484 41.094147 2.1609251
27.283352 46.300209 2.3611829
29.194174 41.004532 2.2646296
27.982752 44.205494 2.1678932
27.928373 44.536232 2.1718955
28.984163 41.60231 2.1691506
27.779301 45.000759 2.1934011
28.789091 41.999393 2.148416
29.263514 40.373646 2.3635776
27.685631 45.235863 2.1277056
28.706551 42.27951 2.0884995
29.158766 40.784622 2.3547378
27.075487 46.676598 2.0592961
28.280804 43.784943 1.9713711
27.475758 45.291313 1.8967181
28.663185 42.613708 2.0285296
29.335806 40.901554 2.3342891
29.801044 39.632755 1.951556
28.848564 41.582092 2.0911384
27.666553 45.206696 2.2533276
28.682232 42.401787 2.2755139
29.16185 40.895237 2.6535499
29.145384 40.690445 2.5504682
27.539488 45.655563 2.3094678
28.489447 42.903461 2.3559575
27.848293 44.870686 2.3212507
28.784109 42.099949 2.3656623
27.166779 46.593285 2.4524097
28.955141 41.383652 2.4569793
28.491835 42.905357 2.4534791
29.280884 40.701824 2.5498929
27.645737 45.296555 2.6493392
29.054743 41.086315 2.6607125
28.205441 42.936039 1.9111615
28.158886 43.894936 2.5612991
28.987713 41.698673 2.5598171
28.662939 41.892471 2.5558591
26.865074 47.087639 2.5435855
27.889404 44.602161 2.5544102
27.855049 43.989147 2.4626122
27.569254 45.498398 2.5669196
28.461779 43.098202 2.5595765
27.354736 46.093979 2.4717228
28.245937 43.691765 2.4732234
27.436413 45.882698 2.5731299
29.193426 41.106613 2.4560258
27.003244 46.91301 2.6581185
27.995255 44.308521 2.653867
28.895786 41.817596 2.6544702
27.400761 45.904045 2.5659087
29.289289 40.892193 2.6590028
27.334616 46.183502 2.449028
29.101639 41.316059 2.5687213
28.857401 41.59758 2.2778368
29.480011 40.401867 2.5572076
29.521889 39.783501 2.5468798
27.300644 46.20076 2.4523602
28.233315 43.776417 2.4655931
28.759226 41.496159 2.6572666
27.969572 44.397724 2.6593423
29.506718 40.323612 2.6455581
27.758562 44.984962 2.5646966
28.593126 42.707966 2.5609486
29.409101 40.367863 2.5969448
27.543102 45.583122 2.5642307
29.20063 41.003952 2.5539489
28.982807 41.69532 2.463784
28.979473 41.094353 2.1768112
28.364435 42.987076 2.2730594
29.098152 41.30431 2.36128
28.282974 43.394878 2.0642459
27.444519 45.873764 2.4631865
28.296535 43.499382 2.4593937
29.1964 41.102417 2.565897
28.774927 41.5028 2.5606771
27.888538 44.385391 2.5739825
27.831476 44.791656 2.5566947
28.695431 42.402119 2.5548687
29.67915 39.820389 2.6489863
27.995644 44.300121 2.5634613
28.564072 42.391739 2.2487986
29.361319 40.699333 2.6635952
28.107668 43.897697 2.626693
28.118196 43.185604 1.9346927
27.266506 46.299007 2.5664968
28.890781 41.911194 2.6479237
29.012564 40.851295 3.037205
27.193628 46.499184 2.4726286
27.97897 44.107925 2.5615602
28.894232 41.907745 2.5572124
28.206722 42.954887 1.772831
28.143793 43.978367 2.4714425
29.093952 40.765686 2.0732207
28.244062 43.680046 2.5562294
28.495968 42.998844 2.4670613
28.230408 43.231319 1.7948843
27.326962 46.160816 2.3889308
27.803383 44.1064 2.3685718
27.379162 46.000065 2.5680335
28.276157 43.59911 2.5589411
29.071339 41.205551 2.6151276
28.569323 42.797039 2.2852271
27.598143 44.504307 2.7469344
27.475893 45.183365 2.1722543
28.353289 43.397896 2.5643132
28.792088 41.999725 1.9850368
27.293638 46.203186 2.5605729
28.555441 43.255089 1.9666698
27.184671 45.791027 2.2654445
27.802273 44.811817 2.5570519
28.996775 40.958248 3.0329976
27.753189 45.00259 2.4801872
28.877804 41.399696 2.2576284
28.511124 42.082169 2.475059
29.121313 40.678757 3.1751478
27.56875 44.7971 2.2667754
29.3515 39.998352 2.7563612
27.969494 44.397846 2.4732022
29.322939 40.066017 2.8531778
28.687307 42.303619 2.3679676
