# .PCD v0.7 - Point Cloud Data file format
VERSION 0.7
FIELDS x y z
SIZE 4 4 4
TYPE F F F
COUNT 1 1 1
WIDTH 1614
HEIGHT 1
VIEWPOINT 0 0 0 1 0 0 0
POINTS 1614
DATA ascii
37.093143 20.407677 2.3448915
39.320457 14.713179 1.975752
36.553902 21.468334 2.6377811
38.827175 15.366184 2.2501974
38.288048 16.700878 2.1746519
38.57547 16.015696 1.9592512
39.326378 14.059278 2.2043417
39.252827 14.759754 2.3744249
38.014076 17.325304 2.3996272
39.386055 14.493922 1.7810133
38.037922 17.28229 2.7504642
37.876862 18.368433 1.7518154
38.195614 16.903751 2.3750231
39.088993 14.600673 2.1711571
37.279102 19.306606 2.543535
37.968166 18.268827 1.9933882
39.339348 13.888014 2.6565139
38.133968 17.930698 2.0340786
37.137058 19.867092 1.5843109
38.094231 17.18548 2.0663023
37.525703 19.348076 1.7743381
36.568134 21.487345 2.2953072
38.706657 16.199057 1.9715831
38.397179 16.31085 2.6558506
36.409588 21.617155 2.2476196
36.846626 21.197617 2.1607282
36.938393 20.280718 2.4483764
36.832638 21.284124 1.9646987
37.75457 18.692728 2.3839986
38.634056 15.787458 2.5529237
37.044933 20.698826 2.5532451
39.062416 14.586299 2.7883444
38.20113 16.907974 2.1673021
38.235546 17.623077 1.7608134
39.42564 14.369661 2.0255599
38.238659 16.875631 2.4552119
38.709015 15.435653 2.7183216
36.506645 21.314034 2.2437568
38.611179 15.722673 2.6526322
37.661556 18.926758 2.3803568
36.695801 21.484657 2.2598467
39.584145 14.07975 1.9618478
38.365765 17.153442 1.7662386
38.642391 15.786597 2.3649027
36.445293 21.585722 2.3670583
37.034344 20.079185 2.2544658
39.446617 14.38783 1.9335464
36.970516 20.94659 1.5320537
39.100983 14.510577 2.4669075
38.370323 17.109529 1.6603924
37.998928 17.893055 2.4938781
39.198654 14.239408 2.9039354
38.863987 16.18351 2.2248623
38.358181 16.829748 2.2122862
39.177601 14.397615 2.0771456
39.140446 14.491058 2.2563086
36.442158 21.672388 2.5376153
37.643372 18.46711 2.4539702
36.67625 21.379051 2.2937691
36.783157 21.29698 2.4612186
37.786621 17.994591 2.3554766
37.789295 18.722551 1.9775944
37.033245 20.79418 1.5734333
39.164471 14.471814 2.6242716
37.757584 18.694674 2.4565868
36.957836 20.313677 1.8492817
37.684132 18.920259 1.9426988
37.64164 18.444086 1.6635656
38.885529 15.108336 2.0736828
38.829403 15.976877 2.0427439
38.61095 15.571213 2.2096813
38.035469 18.080221 2.0679922
37.169121 20.486834 1.6994069
36.690151 21.491592 2.5573277
37.026855 20.334242 1.8038267
39.080109 15.32877 2.192996
37.861462 18.43169 2.1864727
36.741291 20.792219 2.3688593
38.832031 16.062939 1.9537652
36.663525 21.687099 2.172271
39.205704 14.207423 2.4657469
39.142273 14.4813 2.5484631
39.230083 14.841159 2.133642
37.011501 20.304543 1.4968064
39.101994 15.200183 2.3699384
39.14793 14.394316 2.5550094
38.704979 15.427209 2.5227892
38.536392 16.72287 2.2204309
37.162582 20.419868 1.7879896
37.583027 19.111462 2.5617261
37.453579 18.882429 2.5461988
38.193951 17.693562 1.7931163
37.701054 18.884838 2.5786817
38.978107 14.798798 2.6506362
37.366379 19.688852 1.8316097
37.630695 19.172676 2.0517871
37.09227 19.801271 2.4619079
36.70882 20.804882 2.7415969
37.84631 18.655172 1.7669783
38.631649 15.886906 2.2595308
38.707355 16.149078 2.2318506
37.574623 19.195255 2.4442842
37.591751 19.104572 2.454566
39.100964 15.18755 2.1696403
36.790668 21.198994 2.4489818
38.844719 15.40818 2.5121117
39.367031 14.522424 1.6985774
39.275127 14.795888 2.2489355
38.228687 17.02702 2.0146906
39.400215 14.364922 1.6397519
38.055893 17.287157 1.9589514
38.548279 16.092503 2.5542796
38.606213 15.73393 2.4642777
38.872337 15.52844 2.1819534
36.661026 21.156893 2.3007371
39.246029 14.188747 2.3555951
39.07835 14.597629 2.2617469
38.045311 17.489538 2.2575662
37.665562 19.118994 1.7680186
38.262806 16.692608 2.6455412
36.630054 21.186275 2.1837983
38.953644 14.901096 2.5575879
37.046692 20.287136 1.9494414
37.674698 18.901855 2.4534969
38.763367 15.394032 2.6546469
39.372974 13.899043 2.0660806
37.811752 17.911011 2.7623985
36.89608 20.801418 1.8586046
36.98061 20.079781 2.6556592
37.364388 19.090755 2.6604447
38.510307 16.821224 1.8678455
39.243034 14.185503 2.4580874
38.632286 15.880943 2.3967898
37.045387 20.697067 2.0577416
39.017498 15.394286 1.957063
39.058064 14.594053 2.6545758
37.037018 20.85664 1.9043559
37.91328 17.692122 1.9696161
37.946846 17.587891 2.2589102
36.93325 20.266016 2.6719534
38.992756 15.416097 2.3312416
37.70787 18.947624 2.6341767
39.234959 14.780465 1.7631519
38.671043 15.524218 1.9434503
38.2402 17.625328 2.2394326
39.01009 14.716895 2.5673673
38.53838 16.78618 1.5251417
37.666718 19.115364 1.8761102
38.022255 17.612852 2.4019175
38.557541 16.702131 1.4757884
37.569065 19.182859 2.5615735
38.619694 15.723329 2.3829551
37.431477 19.09721 2.1803646
38.594017 16.713999 1.8061801
36.420708 21.758636 2.463517
38.181831 17.487837 2.376771
38.195881 16.906607 2.2646363
38.058846 17.798048 1.9524363
37.505398 19.355141 2.0603254
36.894672 20.897486 2.5804646
38.617149 15.71596 2.5299466
37.452942 18.894033 2.2696095
39.308823 14.807112 1.9913788
36.973408 20.596363 2.5496707
37.826035 18.656761 2.1345134
37.97794 17.495937 2.3623888
38.152142 17.709297 2.2411206
37.05265 20.755993 2.5786159
36.884113 20.873436 2.3562877
37.875942 18.208391 2.2557216
38.994038 14.800688 2.4609799
37.339272 19.279945 1.9770062
37.847916 18.664291 2.047349
38.095127 17.884254 2.1661644
38.46682 16.403921 1.7648059
37.393948 19.106043 2.0841579
38.542522 16.68869 1.5593143
37.546692 19.295033 2.2722611
37.994984 18.12207 2.1555288
39.233875 14.177166 2.6436119
39.012455 14.717803 2.4596729
38.242992 17.485601 2.0422094
38.180969 16.911758 2.6490262
36.852158 20.491175 2.4587569
37.903603 18.545292 2.2040985
38.615078 16.495478 1.8336717
38.834293 16.007765 2.1391385
36.473133 21.495708 2.6380734
37.094925 20.397408 1.8507998
37.97258 18.040846 2.435631
38.796371 15.302729 2.77143
39.18882 14.192539 2.96257
38.975628 14.895344 2.0722926
36.989086 19.927073 1.8737457
39.337803 14.060992 2.3648281
38.090401 17.197285 2.163583
37.838905 18.788448 1.8410184
38.979328 15.241566 2.2401664
37.837673 18.08894 2.4434588
38.983719 15.229787 2.3289361
37.936531 18.277613 2.243974
37.475761 19.504019 1.8791513
36.988174 20.091782 2.560061
36.851307 20.493439 2.5668409
36.429951 21.677841 2.3574233
39.15279 14.433206 1.842209
39.214684 14.229429 2.2676132
39.198402 14.207535 2.6458902
37.695526 18.637039 2.3791077
39.380226 14.405371 1.8650891
36.986507 20.789574 1.6692965
37.455906 18.893936 2.1759598
38.290646 16.768248 1.5864102
38.935219 15.794772 1.8696113
37.979279 17.495081 2.2617111
38.253208 16.801991 2.058852
37.951866 17.671478 1.9780499
39.327579 14.299057 1.5369304
39.340351 13.969392 2.2401721
38.634846 16.069553 2.3799152
38.461216 16.992294 1.7631627
38.555534 16.314173 1.4982433
37.938496 17.662554 2.443481
38.106567 17.116652 2.3501265
39.114395 14.443659 2.3575907
39.002132 14.730277 2.1649811
38.900108 15.011934 2.5659029
38.505638 16.110302 2.1650281
37.802624 17.904013 2.4591184
37.93782 17.665598 2.3573883
37.99157 17.78137 2.1517899
36.920986 21.070309 2.6235418
39.099739 14.496836 2.5547071
39.282928 14.774117 1.8506857
37.859779 18.606529 1.7735797
37.553196 19.133659 1.8339719
37.806122 17.911211 2.3604662
38.280376 16.697182 2.3616195
37.725155 18.973343 1.9753541
39.044266 14.695276 2.3675365
39.189869 14.291296 2.4681158
37.806335 17.911392 2.2639422
39.220558 14.357042 2.4251635
37.940105 17.67934 2.1671233
37.816025 17.821423 2.4736972
38.067947 18.013416 2.0744796
38.694233 15.461419 1.7199353
36.993374 20.62632 2.1959229
38.703369 15.677176 1.9844599
38.740303 15.57539 2.0586295
37.772072 18.689043 2.6414268
38.55827 16.191216 1.9711373
37.007904 20.102205 2.071156
36.80484 20.522987 2.4562089
38.457733 17.056602 1.7771071
38.994141 14.798356 2.362093
37.722824 18.159988 2.7766733
37.523621 19.448046 2.2389565
38.29541 16.631821 1.9501538
37.498161 19.408978 2.4673164
36.929161 21.04932 2.224632
39.395741 14.353656 2.2072654
37.540249 19.277866 2.6638355
36.804279 21.397772 1.6946868
38.272049 16.992094 1.4110014
37.66024 18.989088 2.561969
38.595085 16.200323 1.8875891
38.141438 17.09763 1.9647301
36.96397 20.363331 1.8292636
37.490662 19.2952 1.7702417
36.516693 21.32 2.1710875
39.068893 15.167957 2.0509555
37.32962 19.359102 2.1131823
37.139229 19.79114 1.9817028
37.005341 19.929264 2.5237169
39.291042 14.479886 1.8385898
36.970242 20.290619 1.7980611
37.770073 17.728359 1.9542065
37.791447 18.68972 2.0748849
39.011696 14.72339 2.3247218
37.354637 19.714693 2.369195
36.771149 20.384083 1.8803501
37.738674 18.181498 2.2643147
37.600067 19.204924 2.1609955
38.379471 16.407213 2.766829
38.702564 15.621137 1.892964
36.803638 20.526043 2.368448
37.475681 19.674959 2.2959211
36.756222 21.509026 1.9347417
38.577454 16.210274 2.0571671
38.33894 16.567348 2.554527
38.232231 16.873522 2.3608601
37.798897 18.478539 2.5593348
37.098934 19.798136 2.1681414
39.311012 14.555461 1.7554883
39.463634 14.306118 1.9668624
37.811943 18.635038 1.4580286
37.388142 18.991755 2.6467574
36.813713 20.484503 2.558454
37.724686 18.326813 2.3897853
37.276218 19.276976 2.7612965
37.734653 18.181141 2.1849549
38.137802 16.995029 2.7812636
39.361832 13.897135 2.1630242
36.632099 21.089897 2.262547
39.614906 14.157394 1.8499428
37.320396 19.512024 2.5802252
39.328949 14.654596 2.0374115
39.35825 13.888683 2.26492
39.357365 13.892406 2.358691
38.305557 16.617653 2.2788384
37.890888 18.302015 2.5421753
39.013718 14.740561 2.0448613
37.371914 19.100082 2.2682548
39.395947 13.800368 2.1675642
37.063091 20.161667 1.6313465
37.049316 20.088009 1.5626237
36.815159 20.526861 2.2700138
37.073486 20.478991 2.4451022
38.155487 17.725468 2.63711
38.035275 18.114164 2.2744663
37.392635 18.999268 2.452538
37.407745 18.91106 2.4656198
37.409702 18.910536 2.364089
38.75423 16.248898 2.2123873
38.144135 17.800776 1.8292712
38.732227 15.590317 1.9965626
38.31366 16.526321 2.3547144
38.42757 16.370113 2.4482694
36.792152 20.596123 2.5585513
36.939198 20.292 1.9640057
37.841755 18.557739 2.4018016
37.49044 19.493473 2.0927184
36.945675 20.385397 2.1605275
36.941669 20.387682 2.2581365
36.802204 20.396072 2.0105288
39.34473 13.885817 2.5597036
37.360092 19.900703 1.8483673
36.61359 21.714991 2.4399831
38.374409 16.350779 2.8341722
36.891376 20.319958 2.0786328
36.856617 20.512804 2.073173
39.037891 14.777839 2.2595346
37.546642 19.364567 2.3175678
36.803093 20.603865 2.1731424
39.10535 14.507804 2.3610229
37.484432 18.804796 2.1695554
38.34441 16.49128 2.5518229
37.794849 18.608044 2.5683043
37.321697 19.222633 1.8542749
39.097923 15.227859 1.9995074
37.500683 18.702566 2.4638147
39.148682 14.494913 2.0737138
37.28973 19.298882 2.361413
36.819557 20.433586 2.4112258
38.153923 17.157164 1.7538117
38.072453 18.005852 1.7573432
37.653107 19.11895 1.9631541
38.684639 15.60379 2.0812011
37.108356 20.258814 2.147028
38.271137 17.25049 1.84475
39.287506 14.487702 1.6505053
37.675407 18.937508 2.1715436
39.1031 15.196456 2.2439828
37.118458 19.801611 2.0101047
37.043694 19.972519 1.5822142
38.54594 16.179485 2.5802724
37.904678 18.400845 1.8447119
39.490437 14.347042 2.1212542
39.421917 14.479902 2.0154963
38.018456 17.486654 2.9260318
38.270794 17.301926 1.7714207
38.396774 17.01013 2.4384105
38.73008 15.594706 2.1711178
37.097351 19.624643 2.7483244
38.575901 16.156891 1.7213644
37.086952 20.598665 1.9584571
38.897724 15.79166 2.1731172
37.209991 20.107054 1.6881815
39.036674 14.800564 1.9719231
37.136429 20.196877 1.562333
37.966846 17.891949 1.7181875
38.180145 17.72151 1.878129
37.670746 19.065378 2.6649191
37.647545 19.072042 2.5674045
36.810257 20.494589 2.1612091
37.635815 19.077438 2.4817433
37.194187 20.295305 1.7780749
36.996822 20.123724 1.8676269
38.688198 15.402467 2.4661701
38.603474 15.813094 2.2593379
37.457214 19.363302 1.7890465
39.291698 13.993851 2.5665858
37.800026 17.904135 2.5654364
37.839424 17.886131 2.2603607
38.26746 16.719648 1.6809831
37.746826 18.183887 2.0544372
39.059624 15.38404 1.8701975
36.788521 20.6043 2.456475
38.511333 16.032993 2.1837206
37.098755 20.424406 2.5184522
37.801498 17.897579 1.8803961
37.325073 19.955727 2.1806698
36.936752 19.945179 1.7018895
37.987862 17.49716 2.1817851
38.408039 16.31102 2.5395103
37.164299 20.419849 1.6582799
37.101376 19.618372 1.6893758
37.153248 20.403685 2.1569068
39.204803 14.213091 2.5655282
37.790161 18.712818 1.7802672
37.478813 19.309669 1.8453941
38.895351 15.700672 1.9484437
39.27515 14.854159 2.0143707
37.169838 20.404819 1.6045008
38.505257 16.025282 2.6518273
38.883217 15.881504 2.1324098
38.122082 17.160494 1.9601767
37.62241 19.147181 2.5025096
37.835239 18.675806 1.9343483
37.48996 19.376766 2.53532
39.075619 15.303381 1.859362
37.490826 19.390806 1.6679549
38.676662 16.190746 2.209893
38.514896 15.826278 2.5271518
38.662354 16.406889 2.2301769
37.959702 17.874744 1.6571159
38.997959 14.806761 2.2555909
38.790909 15.415803 1.9559252
38.034428 17.349951 2.7663872
38.964947 15.523482 2.2417037
38.088997 17.107224 2.6524303
38.103786 17.107498 2.5569561
38.6576 16.090872 2.2714736
39.01334 14.716522 2.9620514
38.358448 16.496481 2.3596377
37.319031 19.034784 2.1574724
37.331738 19.482815 1.6600034
38.913391 14.999454 2.2750914
37.079926 20.386757 2.147161
37.22776 19.560776 2.064153
38.98896 15.519772 1.775795
39.229885 14.176377 2.7598314
37.27491 19.997192 2.1629817
37.103271 20.424339 2.2678447
38.410126 16.320683 2.2527053
37.460003 19.600298 2.0519052
39.100834 14.600331 2.0671103
36.805115 21.204124 2.3499298
38.601055 16.514027 2.2488556
37.879646 18.414097 1.9550438
39.015671 14.821245 1.7083408
38.344219 16.5009 2.6621642
38.334663 16.578753 2.3584692
36.710701 20.735556 2.534744
37.57254 18.930798 1.9728205
38.394417 16.75041 2.5651474
37.311119 19.322964 1.9591544
39.068443 14.597408 2.5553734
38.358429 16.762466 1.7885597
38.388695 16.413639 2.1749763
38.378479 16.695261 2.4383426
37.440277 19.667627 2.1567297
38.105145 17.111425 2.4558368
38.391918 16.397375 2.3603625
39.254124 14.806137 2.035383
37.910522 17.611397 2.4686821
39.003189 14.799031 2.0681617
38.403225 16.314423 2.4700441
38.479919 16.198332 2.159214
38.487015 16.216938 1.9867673
39.078217 14.590704 2.4571793
37.016731 20.614601 2.2916343
37.390511 18.831743 2.0283251
38.408104 16.624222 1.9357241
36.677971 21.595135 2.2598536
38.394756 16.404156 2.269135
38.740742 15.726084 2.0434029
39.17643 14.295518 2.7472475
38.714348 15.516666 2.0774045
38.408886 16.319084 2.3724651
38.511902 15.999892 2.5520346
37.317276 19.983082 1.5433598
37.265728 20.030453 1.8643565
39.393581 13.794928 2.2593024
36.884636 21.100138 2.0644152
38.270866 16.938122 1.6827658
38.249569 16.88254 2.6333663
37.631973 18.497431 1.8587825
38.232552 16.891562 2.5447843
38.139969 17.887739 1.4765737
38.785412 15.406332 2.1535692
38.232994 17.673813 1.7630708
38.26635 17.213787 1.7782563
38.180317 17.610552 2.1577582
37.00935 19.828255 1.6085596
39.155838 14.932903 2.2310648
38.43272 16.373484 2.0764258
37.078156 20.098476 1.6699492
38.944824 14.98548 2.3651278
38.706676 15.507385 2.5604842
37.440498 19.602608 2.3917623
39.278164 13.994453 2.8446221
38.73502 15.816528 1.787366
38.78112 15.397975 2.2607162
38.16967 17.580263 1.6144568
38.372124 16.387625 2.6547177
39.234863 14.314311 2.3815441
36.984203 20.59943 2.4388852
38.174316 17.631775 2.2585981
37.846893 18.579809 2.5144749
36.948681 20.508413 2.282701
36.910854 20.229204 2.3423522
38.990391 14.791575 2.5606699
38.31654 16.667389 2.0077775
36.795052 20.617325 2.6480036
36.702843 21.612093 2.1433163
36.651581 21.722042 1.9661821
37.27578 19.396805 2.0681298
37.273941 19.392921 2.1683199
37.635616 18.639059 1.8926418
38.676159 15.598782 2.5532148
39.034828 14.771667 2.1645176
39.090382 14.466269 2.9602649
39.085545 14.480729 2.8200834
37.102165 20.47636 1.5646737
37.677029 18.305021 2.1705725
38.52087 16.856693 2.2241049
36.866203 21.211582 2.0980959
37.800968 17.826668 2.682797
37.019169 20.575539 2.3746846
37.892555 17.899364 1.7045085
38.309719 17.031988 1.785252
37.848217 18.583191 2.4909739
38.237244 16.882881 1.864885
38.383892 16.795841 2.4186373
36.848022 20.493402 2.3597739
37.056519 19.902344 2.6381426
37.652245 18.30164 2.7567601
39.006927 15.493717 1.8887256
39.087845 15.180243 1.8613489
39.133739 14.478409 2.4569573
39.006477 15.405266 1.8018875
39.141235 14.567204 2.5671458
38.503208 16.033558 2.743566
36.847408 20.533266 2.7621624
38.687428 15.591015 2.654834
36.597488 21.113699 2.1812549
36.856171 20.500225 2.2651436
38.956406 15.690727 2.4136119
36.435959 21.682861 2.1967158
38.999596 14.808475 2.1658156
37.728104 18.74999 2.530694
37.587288 19.185385 2.6297019
38.890762 14.941536 2.5682461
39.401062 14.422018 2.0638816
37.063629 19.89333 2.5486095
37.737244 18.279972 2.576231
37.04092 20.756628 2.1518118
39.028881 14.784103 2.4594023
39.320705 14.063627 2.0651376
39.053089 14.696157 2.1653495
37.00634 20.17437 1.2484757
37.090004 20.236555 1.8402554
37.43705 19.678696 2.049562
37.029388 20.74789 2.3681409
37.366768 19.700603 2.5455792
37.057571 19.882139 2.7378612
39.045803 15.336363 2.4580133
36.872704 21.094547 2.5472527
37.645897 18.461689 1.9688281
38.932243 14.833145 2.824784
39.001106 14.702464 2.7881958
39.004906 14.700212 2.6598876
38.995495 14.671033 2.9037199
37.724567 18.86101 2.4542308
38.983078 15.43209 2.0560586
36.691975 21.581509 2.0646968
36.662663 21.59865 2.3798051
36.638615 21.699854 2.482574
36.64077 21.680758 2.2583313
38.522209 16.864798 1.681885
36.669327 21.590765 2.4694796
39.041252 14.789956 2.0640004
39.013031 14.709765 2.2317276
37.996143 17.398907 2.5513706
36.690407 21.625551 1.9715781
37.418964 18.835333 2.4877226
38.472515 16.747787 1.4530396
37.813053 17.718145 2.0823348
37.306538 19.21534 2.3664615
38.910839 14.681682 2.1476374
38.19379 16.924736 1.9552914
39.203178 14.934021 2.1015661
37.149971 20.551159 2.4516804
38.73542 15.39141 2.8410902
38.258286 17.092945 2.4724898
38.211884 16.917999 2.0697584
38.073925 17.209295 2.7480676
38.490891 16.260815 1.4806714
38.057308 17.295412 2.356616
37.88583 18.419968 2.0607018
38.073692 17.286053 1.8710461
39.208401 14.213133 2.3663809
37.869839 18.348993 2.2675068
38.046478 17.844584 2.2107217
38.185452 16.897232 2.550123
38.194271 16.893744 2.4540918
39.040634 14.679697 2.6403792
38.442005 16.27685 2.6838276
38.158173 17.176537 2.5441914
39.039043 14.671624 2.762567
38.440609 16.282648 2.7154579
36.908451 20.865261 1.4366374
38.438152 16.286163 2.3669755
38.462891 16.26791 2.9345589
37.586071 19.090179 2.3594859
39.040997 14.687722 2.561249
38.49897 16.94194 1.7776004
39.198521 14.193255 2.736182
37.736107 18.181652 2.5610809
39.335846 13.977973 2.5684056
37.749668 18.171818 2.6823268
38.132278 17.171129 2.1563849
39.034592 14.788574 2.5848098
39.066257 14.735774 3.1400847
39.03368 14.777391 2.3819795
39.331108 13.968768 2.4691803
38.122002 17.872292 2.2155552
37.188648 20.296267 1.6611592
38.494713 16.914871 1.8515104
38.457767 16.293896 2.1621053
37.898792 17.604284 2.635107
38.437382 16.282539 2.4514551
37.300205 19.283743 2.6488161
39.016945 14.765442 1.9467229
39.229214 14.274716 2.557394
39.325672 13.894065 2.9169154
38.749706 16.219454 1.9831626
36.982567 20.797832 2.3779581
36.712769 21.501055 2.0319769
37.504887 18.551174 2.0714126
36.950981 20.138226 1.5487154
37.527908 19.522667 2.1595318
38.380264 16.488155 2.0462198
38.705212 15.502151 2.6524594
38.692932 16.286533 1.8871856
39.18 14.296396 2.560627
38.94545 14.890383 2.6543794
39.11042 14.433243 2.4742734
37.027542 20.176199 2.6208141
37.541878 19.288898 1.8706676
39.152218 14.555816 1.9406472
38.892929 15.087204 2.2654977
37.238022 19.481247 2.552454
37.800812 18.495785 2.371819
38.883194 15.718723 2.3657575
37.644855 19.174587 1.9681965
39.144047 14.489691 2.1589017
38.080086 17.903923 2.2500513
38.904102 14.917383 2.4738472
37.553867 19.299377 2.0626769
38.353058 16.462032 2.761786
39.188393 14.308534 2.3508716
37.88316 18.426731 2.6559911
37.963806 17.784344 2.2276776
37.843956 17.896427 1.9667469
38.739788 15.474524 2.5588462
38.712318 15.5138 2.3641937
37.912697 18.391262 2.5715818
38.911541 15.095663 1.8081598
36.680664 21.492704 1.8179305
37.846077 17.889467 2.5572
38.708733 15.498302 2.746413
38.943195 14.987717 2.1564553
37.301983 19.180706 2.733089
39.330193 13.882346 2.7389059
38.033173 18.077843 2.1994507
39.252934 14.193228 2.266691
38.047348 17.427517 1.5975946
38.065739 17.289335 2.0720353
38.130287 17.155878 2.6865151
39.299961 14.717453 2.0446346
38.472061 16.871151 2.0152152
38.333797 16.572832 2.4584937
37.574474 19.202795 2.250881
38.353058 16.496805 2.4647262
36.980972 20.204105 1.8067341
37.360245 20.021959 2.4620616
38.002144 18.129753 2.3177102
39.043861 15.41455 1.7848599
39.160332 15.186248 1.7934908
39.306152 14.574674 2.0420909
37.240448 20.191408 2.0786736
39.052044 15.390287 2.0568378
39.134975 15.200782 2.0434527
37.876427 18.499447 2.0605388
37.050644 19.988125 2.2640765
37.860722 18.327662 1.7419381
38.538372 16.127291 1.9826875
39.261597 14.097242 2.5660067
39.19577 14.299846 2.2670379
38.938068 15.789867 1.6586206
39.315941 14.015733 2.0691304
36.954899 20.179008 1.9009882
37.893276 18.492323 1.6461147
37.304485 19.208218 2.1605852
37.85405 18.610899 2.0490842
39.045471 15.40542 2.5694802
37.280937 19.393053 1.9874167
38.944733 15.701915 1.7676178
37.46558 19.614941 2.2456036
37.950771 17.526579 2.7407298
38.220177 16.782146 1.8326288
38.779617 15.404358 2.0652511
38.737995 15.49191 2.6628017
39.326401 14.662552 2.131959
38.491352 16.097031 2.5581324
39.15258 14.262741 1.9738147
38.240017 16.791357 2.5489221
38.742729 15.479064 2.7628841
39.05529 14.894086 2.0489793
37.800629 18.248674 1.8261323
36.990868 20.585972 1.843235
36.845078 20.578615 2.5499737
39.264744 14.09602 2.4701989
38.341389 16.892586 2.5485497
37.000916 20.084042 1.6918099
38.461727 16.573782 2.2053187
38.049847 17.736261 1.7911701
39.199776 14.306804 2.1644111
39.304977 13.997684 2.3607452
37.115696 19.881117 1.464578
37.391697 19.812628 2.1763167
37.38028 19.804745 1.8612336
38.434395 17.051044 2.0242
37.031658 20.151667 2.3386989
36.838085 20.575071 2.4534459
39.278721 14.729295 1.7808423
38.1656 16.99346 2.3657379
36.680878 20.903811 2.4573615
38.037052 17.370338 2.442178
36.945953 19.92342 2.1132817
38.238064 16.883276 2.266067
38.048931 17.384079 2.1645763
37.894184 17.70129 2.3575907
36.906471 20.307106 2.2679634
36.863644 20.493986 2.1631782
37.104935 20.507202 1.8706266
37.090862 20.154858 1.5397296
39.338669 13.980967 2.7398689
39.343678 13.980653 2.3545887
38.007355 17.34478 2.1701319
38.110733 17.022722 2.7718177
37.692177 18.212791 2.5601156
38.697071 15.597537 1.9687098
38.386223 16.305119 2.844908
37.507267 18.707939 2.2584279
37.084705 20.603157 1.8725393
36.951698 19.99614 1.9916375
39.156006 15.291864 1.7721931
38.238049 17.072876 1.7226639
38.195312 16.90934 1.7443804
37.33297 19.282761 2.3547378
38.045712 17.490944 2.3203089
37.738659 18.281849 2.2616658
37.966423 17.492373 2.5549049
38.045055 17.451851 2.1793017
37.0844 20.51092 2.1524796
38.764244 15.393113 2.5625308
37.692631 18.211681 1.9836984
38.260098 17.058231 1.9230053
38.907566 15.644584 2.2829909
36.983269 20.514023 2.4639597
38.006489 18.128521 2.5110724
38.008987 17.702377 2.6650255
39.263031 14.561049 1.9634671
38.356678 17.195383 2.2409656
37.865627 17.793165 2.2594075
37.715137 18.215214 1.8828987
38.358162 17.191704 2.0457313
38.339447 17.166273 2.3197556
38.026939 17.480288 2.5242062
37.69635 18.999462 1.8520508
37.871586 17.797306 2.1795671
37.401314 18.998232 2.2724817
38.777588 15.38006 2.7607183
37.598007 19.223497 1.9619986
37.872589 17.780035 2.0466268
37.209576 19.508265 2.1784093
37.40979 19.095865 1.8949705
38.231709 16.885366 2.1612766
37.468193 19.512054 2.3456311
37.435947 19.733549 1.8700428
38.037411 17.385786 2.2615993
37.839348 17.980568 1.9773512
37.093979 19.799984 2.7349894
37.902195 17.700893 2.1744483
37.897709 17.700941 2.2654245
37.859188 17.792782 2.4602776
36.615318 21.029621 2.5492439
37.497978 19.357666 2.304359
37.947701 17.588076 2.8242636
38.708397 16.160587 2.3939815
36.494827 21.599674 1.8407426
37.909836 17.712481 1.7989621
36.730854 21.59396 2.4792421
37.396397 19.005768 2.3630955
38.453968 16.927027 1.6037501
38.282867 17.378063 1.9510981
38.491806 16.9783 1.8603621
38.368641 16.553982 1.7853374
38.310329 16.521587 2.4904966
39.149128 14.658452 2.025475
37.707893 18.824419 1.757669
37.536469 19.336861 2.5484781
36.741844 21.459927 2.3526502
38.691628 16.275064 2.0397177
38.297314 16.689569 2.0656917
38.554764 16.687578 2.1607349
38.147888 17.875824 1.76254
38.183495 17.765396 1.5857635
36.754578 21.510201 2.4900875
36.602528 21.740652 2.2674842
37.291664 19.301828 2.265785
37.157364 20.110537 1.4619381
38.230141 17.522268 2.521522
37.430664 19.564598 2.5635214
37.296066 19.319401 1.8585517
37.881248 18.479021 1.7865604
38.048824 17.279699 2.5504451
36.665672 20.995203 2.1675868
38.938412 14.980932 2.4570167
37.152328 19.716244 1.6218623
37.430851 19.709284 2.54477
38.959263 15.705423 1.8551605
38.344772 17.207664 2.4834971
39.350384 14.627467 1.8440788
38.07962 17.739792 2.2892613
37.023575 20.152691 2.0075188
38.95916 15.007545 1.9564142
38.937572 14.964391 2.642345
37.927017 17.575605 2.7125497
37.156807 20.018263 1.5870286
37.073593 20.597778 2.1739326
37.978123 17.590595 1.8659338
38.855125 15.199281 2.3662961
37.953423 17.597855 2.173141
38.189102 17.705765 2.0538146
38.114708 17.837547 2.0275888
36.953232 20.889402 1.672896
37.338634 19.499653 2.2748485
37.383831 19.778141 1.9749548
37.979412 18.231684 2.0244932
38.343857 16.478354 2.8381796
36.987015 20.017923 2.0481396
37.132515 19.858173 2.5887027
36.839863 20.578485 2.354506
38.425888 16.352583 2.5534515
38.853485 15.645015 2.3865685
37.005486 20.016918 2.1658347
38.419811 16.944084 2.3099568
37.008316 19.936153 2.3293796
38.500294 16.090845 2.750778
38.271328 17.204601 1.8525525
38.845657 15.191297 2.5575767
36.921314 20.559111 1.9639227
36.916985 19.989344 2.0202198
37.983803 17.592808 1.8026649
37.36729 19.786947 2.0646579
38.396626 17.003567 2.7697158
37.202656 19.507318 2.268605
37.069016 19.894567 2.4543426
37.150944 19.698675 2.2649207
36.95789 20.196833 2.3613641
37.494122 19.504946 2.1719041
37.177486 19.594368 2.4547882
36.618668 21.732319 2.0807588
37.675819 18.890795 2.2308197
36.965523 20.538675 2.5515747
37.412773 19.014975 2.0853822
37.217976 19.495743 1.9967395
37.762779 18.873114 1.5681875
38.335274 17.273796 1.7887626
36.889389 20.45929 1.9999522
37.837486 17.989159 2.0311179
37.095299 19.802683 2.5600274
39.029385 14.898532 2.3706598
37.560574 19.09671 2.0357285
37.028519 20.694187 2.3804007
37.944862 17.590248 2.3580961
38.330421 16.54837 2.6222644
37.896069 18.295576 2.3320479
37.836945 18.599905 2.1860416
36.437717 21.762329 2.1495056
38.355846 17.214539 2.1708481
37.955963 17.61429 1.9777747
37.942028 17.58025 2.4551032
38.302437 16.522804 2.5519447
38.181461 17.698847 1.9958644
38.14592 17.873726 1.5299665
38.463699 16.952412 2.1485665
38.412952 16.502663 1.8723862
37.347244 19.183151 2.5454698
38.363876 16.497782 2.2576015
37.90427 17.627687 2.2646673
36.424145 21.661924 2.050899
39.077892 14.651558 1.7296278
37.936413 17.584881 2.5549724
38.181316 17.580822 1.9385593
36.922588 21.044342 2.4224756
38.156525 17.784969 1.7517855
37.287632 19.138245 1.8614124
38.818981 15.232829 2.073838
37.962093 17.597143 2.0620077
39.308105 14.01114 2.158622
39.10482 14.51244 2.2735512
37.595173 19.137728 2.2529526
39.186306 14.98371 2.3787699
37.399925 19.013111 2.168992
38.61396 16.430374 2.2416677
38.593567 16.407936 2.0794439
37.250927 19.538208 1.5889581
38.888863 15.799644 1.8608342
39.280849 14.699513 1.9537821
38.352631 17.070318 1.7538065
38.83606 15.683885 1.7879488
38.33997 16.586063 2.2555807
38.459278 16.794193 1.6279389
38.490723 16.307316 1.6755501
37.90789 17.621126 2.3623734
37.892731 17.623842 2.1741076
37.868294 18.512085 2.6239476
38.168636 16.995152 2.2558746
38.87149 15.788504 1.6460803
37.843452 18.474062 2.364011
37.193577 19.689325 1.5548298
38.094139 17.908943 1.9724025
37.293201 19.807001 1.9881088
37.482285 19.58201 1.5926118
38.392117 17.070826 2.3203869
38.272751 16.695431 2.4596903
38.334099 17.091419 1.4657457
38.162403 17.517952 1.8484324
38.829994 15.153323 1.7593867
37.069374 20.214621 1.2668638
38.542397 16.071114 2.256053
39.44072 14.44952 1.8475466
37.394791 19.691204 1.6653264
38.422813 16.850805 1.6631868
39.113861 14.777566 1.7160941
38.963181 15.162505 2.4238105
38.904518 15.194324 1.703458
37.385185 19.441952 1.7542703
38.477421 16.647135 1.7798822
38.394077 17.093157 1.9592215
38.98912 14.891858 1.9756706
36.879528 20.901066 2.0060737
37.353558 19.914961 2.057734
38.077526 17.399189 1.7557778
37.263302 19.790976 1.8166227
38.930599 14.978341 2.5661197
37.438656 19.763206 1.9611822
38.235596 17.519489 1.7568245
37.260738 19.917358 2.1099298
37.684807 18.988749 2.1583133
36.874855 20.988115 2.2640862
37.833275 17.965601 2.2649407
37.758884 18.794033 1.9646504
38.283035 17.237234 2.0421581
39.4804 14.266705 2.0699275
37.880108 18.492844 1.972892
39.054302 15.39664 1.9770483
39.147003 15.181926 1.9422903
38.940723 15.685142 2.0619402
36.88163 21.016937 1.8662648
36.729774 20.858864 1.987453
38.217098 17.323959 1.8057499
37.14682 20.022503 1.6613696
38.560997 16.787773 1.6488564
37.127758 20.231911 1.7731175
37.943333 18.379555 1.8703334
38.169468 17.781839 1.963712
37.93557 18.379295 1.9623458
36.894367 20.974052 2.0518563
37.162949 20.422565 1.8478434
37.612064 18.996086 1.7863491
38.484413 17.013885 1.6727992
37.990826 18.202555 1.771542
38.562672 16.553669 1.9540404
37.08493 20.503532 1.9796908
39.086327 14.46686 2.0629876
37.139629 19.879522 2.0679111
37.184269 19.993519 1.7620091
37.525555 19.266733 1.7862407
38.971977 14.90159 2.2601635
37.402103 19.705854 2.265553
37.194412 19.694736 1.7675884
37.16732 20.446745 1.7691652
37.80368 18.757221 1.7943127
37.705257 19.049719 1.6753259
38.096542 17.916708 1.8632278
39.11158 15.060455 1.9181312
37.475399 19.373075 1.8721344
37.201744 19.598989 1.903188
37.466988 19.595514 1.9580415
37.17416 20.191431 2.0804763
38.688431 15.609069 2.1484098
38.048283 18.072258 1.9604419
38.835545 15.944009 2.2647126
37.202053 20.132488 2.2490907
37.848972 18.62262 1.864181
36.899815 21.093058 1.8553412
37.172695 20.085878 1.8820562
38.596344 16.582653 1.7769799
38.177349 17.80407 1.623717
36.987999 20.104235 2.2647481
37.21619 19.460497 1.9012722
39.162354 14.990357 2.1714807
36.947044 20.891609 2.2505603
36.743164 21.491964 2.2498188
38.581131 16.505745 1.964439
37.389965 19.610308 2.0036917
38.899891 14.782472 1.65714
37.215187 20.121157 1.7359711
38.155613 16.991831 2.549953
37.721973 18.553106 1.7536985
39.113895 14.712204 1.65713
37.271481 20.059099 1.693609
37.146042 20.569431 1.6702377
39.137859 15.027643 1.7874402
39.051716 15.547697 1.7514238
37.264297 20.088455 1.9633776
38.294182 17.300404 2.0431211
38.898487 15.094548 1.9612514
37.986687 17.522514 1.9585347
38.995029 15.515902 2.0391378
38.846886 14.953705 1.7064027
37.094166 20.595409 1.7731357
38.392303 16.382471 2.0732791
38.351463 17.098251 1.8726887
37.803192 18.748329 1.6844667
37.292179 19.99044 2.0592742
37.743107 18.904282 1.9574392
38.011662 18.211645 1.6275436
37.155273 19.949303 2.0507421
36.98946 20.101807 2.3595693
37.038311 20.082687 2.0629704
37.186256 19.970196 2.1204319
38.155838 17.848562 1.7093747
39.002808 15.59005 1.7785181
37.135941 20.586199 1.857134
38.200481 17.247725 2.5196519
37.753529 18.918192 1.6723472
37.038246 20.778925 1.7339556
36.904709 21.028175 1.7989305
38.598419 15.80529 2.554352
38.750904 16.286333 1.8464028
37.925831 18.52795 1.8507283
37.140892 20.508015 1.8705866
38.646534 15.788704 1.9658577
37.140388 20.483574 2.0576203
37.33392 19.446938 1.8631992
36.943195 20.281948 2.3566124
39.113331 14.813064 2.6315696
36.440422 21.67939 2.2779598
37.159527 19.694422 2.1624651
37.315048 19.782803 1.7739673
36.835934 20.583815 2.0482657
37.177994 19.598782 2.3619256
37.264965 19.58366 1.8181877
38.996899 15.616651 1.6741128
36.602669 21.107212 2.3494067
36.668266 21.19022 2.0457518
37.726204 18.952833 2.1068158
37.50425 18.711786 2.3637388
37.556152 18.690546 1.8782225
38.365055 16.710342 1.7581022
38.890076 15.811122 1.9550397
37.069958 20.089788 1.9756464
38.097263 17.318226 1.7153155
37.133865 19.785799 2.1584857
38.136215 17.893755 1.8976768
37.306152 20.005022 1.957469
37.184647 20.338093 1.9867916
38.613853 15.812366 2.0389323
37.159115 20.409111 2.0616965
38.090992 17.201288 1.9575088
36.393219 21.699219 2.5499845
37.195881 19.608778 2.0682576
37.374283 19.696831 2.0562387
36.574593 21.195274 2.4560678
36.596813 21.107265 2.4548345
37.344238 19.18697 2.4591131
37.035618 20.075785 2.1815894
37.178886 19.98542 2.2525225
36.608707 21.693907 2.3305576
36.552521 21.297607 2.3589604
36.55135 21.381985 2.0757165
38.369953 17.181643 1.8366358
36.769985 21.155478 1.8628983
37.149521 19.68894 2.3639717
38.026085 17.830147 1.7918252
37.358753 19.266022 1.8098466
37.588421 18.638371 1.8107928
37.128094 19.895782 2.1621397
37.28463 20.094774 2.1643722
38.640514 16.505716 1.9595716
37.041916 19.987888 2.4462321
37.859383 17.913923 1.8626082
38.042805 18.098288 1.866485
37.382107 19.706997 1.7585171
38.566978 16.409897 1.8889803
37.885853 18.512972 1.8753425
37.663708 18.300365 2.5550926
37.146488 19.686287 2.559329
37.289616 19.908484 2.4649897
38.139778 17.788134 2.0636683
37.299683 19.701488 2.0274792
36.636425 21.085142 2.4692569
37.478649 18.79743 2.4585896
38.35601 16.732409 1.8836215
39.298199 14.612393 1.8431816
37.180775 19.597813 2.265785
37.186619 19.60882 1.9578614
37.723488 18.26812 1.7311091
37.753029 18.282494 1.9785473
37.277542 19.50898 1.7607565
37.24205 19.49534 2.0709279
37.287323 19.614494 1.7572303
39.037682 15.542095 1.7290876
37.244427 19.483488 2.2672889
37.324276 19.447483 1.7230669
38.053299 17.390427 1.9810872
37.245132 19.48914 2.173085
37.246323 19.485863 1.9753726
37.301273 19.516369 1.6629157
38.03854 17.491024 1.9308468
37.369781 19.618008 1.6699082
38.118938 17.919086 1.7740717
37.762077 18.115519 1.8357381
36.709106 20.804838 2.3560388
37.750221 18.091793 2.3612866
36.686577 20.897532 2.3591826
36.737511 20.854805 2.3508
37.63324 19.155956 1.8745571
36.660061 20.994339 2.4581919
37.58316 18.503229 2.458324
37.568615 18.598902 2.1681728
37.591099 18.502815 2.2677288
38.674339 16.394386 1.9778044
37.6418 18.38986 2.3643095
37.68681 18.384388 1.8641566
37.649357 18.40024 2.0815125
37.697765 18.31152 1.85356
37.774536 18.697958 1.855835
36.582535 21.201918 2.3550358
36.559937 21.295599 2.06427
37.562408 18.595394 2.2685099
37.538074 18.691544 2.2646511
37.574413 18.590452 2.0648391
37.732346 18.990662 1.766162
36.77718 20.699329 2.1678922
36.858807 20.905636 1.8521266
37.683804 18.326952 1.8032985
37.671356 18.297365 2.3664579
36.836742 20.679243 2.5559514
38.754932 15.488724 2.2559569
37.264992 19.916103 1.8549819
37.392315 19.560305 1.7490679
37.680935 18.372417 1.9755461
38.631302 16.628977 1.7522734
37.656818 18.375847 1.7868659
37.646107 18.459255 2.0702062
37.558323 18.595161 2.4546747
37.597191 18.569656 1.8796654
39.286312 14.686666 1.8624701
37.739899 18.903139 1.8666399
38.528641 16.073589 2.3543024
37.559917 18.582478 2.5569713
38.247776 16.887918 1.9839151
39.081295 15.112813 2.0630772
37.734753 18.178139 2.3598917
37.744812 18.192345 1.8654144
38.441994 16.374832 2.3720472
37.3503 19.194483 2.1685479
37.374908 19.174919 1.6455451
36.973328 20.70841 2.2680647
37.25983 19.392149 2.3583395
38.14476 17.180204 2.3603868
39.094154 14.995584 1.8510575
37.463299 19.622019 1.8668118
37.535969 18.76086 2.0614574
38.32679 16.668304 2.0654438
38.353416 16.601009 1.8566933
37.168003 20.095436 2.1006746
37.537281 18.68049 2.3502867
37.668793 18.68528 1.8007987
37.96859 17.494522 2.4523184
38.039948 17.486526 1.8831024
39.02364 15.590592 1.8658502
39.194889 15.027319 1.8631207
38.450989 16.311064 1.9379889
38.632641 16.509338 1.9056435
36.978981 20.89621 1.9739774
37.506435 18.801584 1.9550633
38.381508 17.041325 1.9465013
37.437542 18.958134 2.4545877
38.698437 15.751494 1.7940189
38.670792 15.699968 2.2728119
37.063934 20.670145 1.9669091
37.355263 19.208273 2.0516574
37.067848 19.898802 2.3595507
39.36002 14.600977 1.954608
37.58633 18.593821 1.9597616
37.680794 18.28968 2.0617032
39.545662 14.113125 2.0449483
36.897041 20.923351 2.0690038
39.374725 13.792317 2.46874
37.714699 18.124285 2.5458
37.355179 19.297596 2.0847375
38.367359 17.110294 2.0433371
38.046024 17.369255 2.6560061
38.736301 15.579425 2.3590088
37.883366 17.70085 2.6499181
37.189724 20.200115 2.1832247
38.79501 15.297379 2.6504796
38.966309 15.613045 2.0434647
38.088089 17.914646 2.054415
37.344791 19.786106 2.4862306
39.281967 14.100688 2.2698987
37.347443 19.900137 1.9530916
39.271767 14.097155 2.3621681
38.538925 16.076315 2.6659639
37.078247 20.5933 2.0530229
39.18222 15.109526 1.9350386
39.042488 15.466942 1.9219674
38.080669 17.985006 1.9602759
39.529564 14.149597 2.086338
38.348022 16.578957 2.1781178
38.34013 16.656334 2.1628392
37.372581 19.197556 1.9350216
38.691727 15.451334 1.8417385
37.262867 20.090563 2.0644464
37.744194 18.086266 2.7448435
36.633911 21.091068 2.5555282
38.435097 17.030651 2.0319624
36.975708 20.897062 2.1572173
39.297153 14.091322 2.0716696
37.942299 18.380756 2.0709422
38.867882 15.192109 1.9714755
38.850407 15.188916 2.4626853
38.823448 15.250089 2.6544497
38.849033 15.285609 2.1533892
38.801964 15.297444 2.460659
37.186504 20.298872 2.1625445
37.731831 18.16807 2.4650264
37.720428 18.267178 2.1500444
37.586571 18.501738 2.5575655
37.535454 18.784613 2.2642546
37.778137 18.681252 2.5646389
37.241188 19.483786 2.3628247
39.372044 13.794221 2.5597177
38.694843 15.60571 2.2705183
38.691437 15.599153 2.4622011
38.644218 15.704398 2.562197
38.658249 15.696248 2.4594293
38.605522 15.809196 2.4628444
38.448021 16.280516 2.5544453
38.266373 16.694084 2.5549855
37.191063 20.658489 2.0874901
38.943756 15.508762 2.5903859
37.540291 18.676971 2.4495842
37.396027 19.008627 2.5486166
37.3442 19.187714 2.2592213
37.253803 19.384726 2.5484576
39.386372 13.791083 2.3563461
37.254498 19.400198 2.7685573
37.23642 19.499454 2.7606347
37.121311 19.775324 2.8194382
37.056145 19.891882 2.819201
37.044334 19.988218 2.3556113
37.007797 20.016172 2.3698351
36.900917 20.302008 2.3569458
37.845402 18.525667 2.2720928
37.701912 18.195086 2.4609492
37.666355 18.295084 2.4618425
37.645901 18.388521 2.2613454
37.610023 18.421535 2.267386
37.53524 18.67742 2.5440845
37.477734 18.791367 2.5550911
38.585453 15.891213 2.3682175
38.497925 16.09997 2.4681177
38.470398 16.199585 2.2701979
38.457523 16.198961 2.6618185
38.384449 16.401266 2.4673808
37.606266 18.418119 2.5557814
37.558746 18.592173 2.3600492
37.50441 18.699919 2.5552168
37.471989 18.791782 2.6423457
38.89436 15.003378 2.6543226
37.34446 19.187323 2.3594887
37.35154 19.308584 2.653996
37.254822 19.396385 2.457602
37.239941 19.484604 2.4528122
37.200771 19.504778 2.4622934
37.150757 19.690096 2.4553657
37.261925 19.399782 2.2653661
37.929611 18.373531 2.1204176
38.82933 15.36908 2.1656787
38.665291 15.690839 2.3749857
38.59621 15.79217 2.761214
37.34296 19.20236 2.6502838
37.10775 19.702209 2.564167
38.461117 16.194155 2.5636296
36.974796 20.093174 2.7670381
38.585949 16.60178 2.1657059
37.511074 19.406385 2.1571145
37.4786 19.531841 2.2599764
38.938812 15.666632 2.2405171
38.494804 16.1038 2.2743578
38.461945 16.180845 2.7647679
37.148048 19.595701 2.7535944
37.107731 19.725428 2.2672336
37.004837 20.010975 2.271734
37.031563 20.004787 2.7524531
36.897072 20.156248 2.7715247
38.674011 15.702847 2.0629866
38.64156 15.78097 2.2725606
38.644661 15.783854 2.0781703
37.13625 19.791885 2.0727818
37.131359 19.778687 2.5647094
38.966946 14.894062 2.3708942
38.933079 14.974703 2.75525
38.906811 15.014875 2.3604453
38.902237 15.00832 2.7690651
38.909 15.013148 2.4733679
38.868813 15.096519 2.8364835
38.833336 15.200632 2.6314204
38.779793 15.295176 2.869241
37.845585 17.796986 2.77038
37.770641 18.004372 2.7852113
39.308487 13.92549 2.3664052
39.175674 14.28849 2.8448389
37.201218 19.506405 2.3661067
37.159306 19.60985 2.8281214
37.107506 19.687813 2.8363001
37.109501 19.71228 2.3684895
38.811512 15.213465 2.555423
38.805996 15.301805 2.3689613
37.997925 17.404474 2.4564474
37.891521 17.698124 2.4584913
37.855888 17.810938 2.6366374
36.744247 20.784893 2.2698271
36.683277 20.897806 2.5604746
36.690369 20.903454 2.2647772
36.666576 20.993896 2.5586829
36.603806 21.091158 2.5480895
36.526855 21.145147 2.797874
36.577812 21.19812 2.2705939
37.067837 20.586681 2.2512591
37.573997 19.314579 2.1600885
39.252621 14.094775 2.8328757
39.256672 14.096659 2.6476588
39.202095 14.128771 2.8313694
37.645535 18.378187 2.5495052
37.508553 18.694654 2.6412489
37.480625 18.799412 2.3609126
36.391571 21.700901 2.2591403
36.766727 21.38311 2.2792904
38.979656 15.587682 2.2473576
38.071823 17.194334 2.6576691
38.086308 17.199644 2.362143
37.166698 19.656956 2.653518
38.565281 16.580235 2.2886419
39.324085 13.970973 2.6465926
38.479244 16.102503 2.6515341
37.659122 18.292269 2.650193
36.551903 21.296995 2.4602048
36.551262 21.297562 2.2678618
36.492336 21.404633 2.474787
36.498745 21.397114 2.2667432
38.543663 15.984655 2.6300802
38.511185 16.040525 2.3465316
37.60392 18.405987 2.4643145
37.516247 18.620752 2.370157
36.508884 21.325968 2.361671
36.510006 21.409472 2.5529988
36.49823 21.406706 2.3534653
36.47089 21.495785 2.3629794
36.438633 21.4998 2.8637743
36.404099 21.595665 2.6310167
36.846497 21.188583 2.356257
38.079281 17.188429 2.5525558
37.208656 19.39547 2.2418289
37.110329 19.72267 2.466434
37.060295 19.71368 2.7928774
39.305492 13.922364 2.6592634
38.449287 16.196175 2.8763926
37.777225 17.985098 2.6429119
37.594364 18.409634 2.6432505
37.578751 18.491829 2.6498747
36.794937 20.531775 2.7911334
36.778946 20.61759 2.7508903
36.763306 20.695503 2.3552117
36.735168 20.671537 2.8135943
36.751339 20.794687 2.5459633
36.685822 20.819548 2.6641366
36.672882 20.901354 2.6542802
36.575977 20.987383 2.8621173
36.612885 21.016251 2.3584464
38.371529 16.892218 1.5625534
37.08815 20.493057 2.3460455
38.082432 17.197622 2.4568846
38.039761 17.277657 2.6636391
37.432648 18.983582 2.2670579
37.21851 19.402977 2.572135
37.673058 18.803194 2.2653627
38.567177 16.585007 2.3117259
37.648548 18.38159 2.6481435
37.609726 18.424658 2.3601766
37.402542 18.9333 2.5584087
36.509567 21.313135 2.4559238
36.495094 21.382856 2.6787603
36.469257 21.492271 2.4661233
36.392036 21.524488 2.7154024
36.475334 21.495174 2.2676599
38.835926 15.94884 2.2242739
38.833385 15.267536 2.4682052
38.830273 15.266132 2.7463479
38.797974 15.301388 2.5566895
37.206036 19.495369 2.6375952
36.892696 21.082781 1.9777015
38.655769 15.660984 2.7538915
36.988232 20.100147 2.4481237
36.958515 20.190872 2.4485142
36.963966 20.192211 2.6666665
36.562557 21.199572 2.664078
36.446289 21.590267 2.265836
36.398972 21.694553 2.4509225
39.215313 14.230303 2.066977
36.8442 21.099283 2.2680964
37.920143 18.381248 2.2188368
38.745571 16.204 2.2404788
38.864204 15.192066 2.2734444
38.841839 15.281775 2.2627244
38.093937 17.19939 2.2728074
38.057854 17.295748 2.2730637
38.038662 17.359087 2.5562277
37.115662 19.706785 2.6951716
38.638592 15.799512 2.7502103
37.135021 19.777222 2.2534764
37.006943 20.014076 2.4521923
36.944233 20.283403 2.2603388
38.326172 17.267971 2.2316949
39.299942 14.011934 2.2735081
38.681046 15.696976 2.1586862
37.750717 18.088779 2.4553025
37.039787 20.078918 2.3730102
36.99754 20.109049 2.1695557
36.874458 20.396534 2.4580319
37.204948 19.530396 2.0283701
38.22287 17.602242 2.1647973
38.99305 15.495373 2.1653774
37.601147 18.501455 1.9824927
38.948154 15.090915 2.4441578
38.3699 16.490995 2.1487727
37.640495 18.479073 2.260987
37.595524 18.493753 2.3587475
37.525021 18.791777 2.1599944
37.432045 18.968519 2.5490768
37.43906 18.985109 2.1704614
37.434856 18.981321 2.3545127
36.736366 20.892826 2.0913162
36.586342 21.193222 2.1702094
36.586533 21.187937 2.5549443
36.538029 21.371651 2.2448294
36.528908 21.377186 2.353972
36.477089 21.490639 2.1690247
36.978035 20.809772 2.0763721
38.761314 16.173119 2.0570192
36.758385 20.705549 2.5530224
36.769535 20.779545 2.6506443
38.42868 16.914335 2.2120645
37.212231 19.430828 2.4567614
36.474453 21.490973 2.5480227
36.391468 21.694944 2.3587804
36.396652 21.701529 2.1732709
38.656773 16.389694 2.1821735
38.734207 16.281464 2.172503
38.739956 15.569343 2.2765069
38.000252 17.408678 2.1691864
37.751301 18.093496 2.2683482
37.714466 18.103767 2.7168643
37.188179 19.596823 2.170397
36.893944 20.289806 2.6578031
38.334755 17.309328 2.1754417
38.802467 15.295533 2.2587767
38.108047 17.114807 2.2647512
37.887558 17.69936 2.7308834
37.006332 20.007801 2.6521058
37.652245 19.093102 2.1583121
39.136581 14.588112 2.3043203
38.70306 15.491965 2.8343537
38.698761 16.292166 2.2212915
38.522163 16.051155 2.7582572
36.901299 20.306086 2.4533455
39.05965 15.303493 2.2491851
37.712704 18.68322 2.0561707
39.304939 13.914692 2.5734916
39.252739 14.089635 2.7626574
38.652107 15.678468 2.6537747
38.005978 17.403202 2.3586845
37.388359 19.679596 2.4759467
39.044754 15.287447 2.3718009
38.733185 16.173271 2.3326309
38.013054 17.308712 2.4658024
37.019726 19.933363 2.7356365
38.260288 17.417467 2.5744395
37.730988 18.797379 2.241004
38.808624 15.219119 2.472034
38.435238 16.37542 2.2715611
37.307854 19.127352 2.6979704
37.310787 19.124313 2.326798
39.309555 13.918449 2.4853396
37.338932 19.541412 2.3990738
38.338066 16.603741 2.7331963
36.645885 21.16531 2.3545909
36.539925 21.379337 2.4607069
36.437016 21.679323 2.4606686
37.054443 20.708195 2.1495183
39.118603 14.432175 2.2939484
38.87492 15.094061 2.7672813
37.545116 18.688074 2.1566045
37.784164 18.006226 2.161191
38.917221 14.950382 2.8436186
38.805008 15.214788 2.6665578
38.006119 17.314692 2.669138
37.316925 19.126385 2.4823871
37.209438 19.40202 2.6320767
36.822975 20.558636 2.643136
36.70388 20.815609 2.4541786
38.570518 16.395025 2.5034604
38.255497 16.794508 2.1701534
38.12923 17.094967 2.7183213
39.298164 13.900461 2.7808437
36.711071 20.727732 2.3526931
37.550945 18.594685 2.6483235
37.40752 18.904781 2.6476183
36.766586 20.691799 2.4504452
36.601933 21.108603 2.2691793
36.446281 21.592073 2.5576026
37.137863 20.39912 2.2589602
38.415291 16.240082 2.5024166
37.613575 18.339668 2.4925871
37.515694 18.62113 2.4500644
37.500076 18.615501 2.5204191
37.205772 19.428366 2.3646598
37.204689 19.4284 2.732625
37.107586 19.640158 2.3760099
36.752071 21.477585 2.1596167
37.598392 18.499201 2.0605354
37.120037 19.624229 2.5606148
36.888512 20.393635 2.2655265
36.885288 20.39234 2.1651628
36.983887 20.688084 2.4586966
36.74715 20.787817 2.1661663
37.7943 18.004005 2.0680535
37.35651 19.367785 2.0827637
37.099384 19.692039 2.1000171
36.697334 20.812429 2.5570266
38.809349 15.21781 2.7505209
38.718685 15.43947 2.6916654
39.305672 13.886395 2.8292642
38.407116 16.242798 2.608326
38.010536 17.307499 2.5539112
37.408875 18.913403 2.2597349
36.917 20.216175 2.6569486
36.471748 21.300589 2.6735725
38.797253 15.242025 2.8594592
38.601322 15.741377 2.7597888
38.557636 15.791706 2.8665087
36.557423 21.286259 2.5555627
36.552879 21.286383 2.1689734
38.517578 16.745489 2.2917697
37.907009 17.541965 2.6163907
37.707283 18.107615 2.6368136
37.607536 18.338089 2.6449552
36.409782 21.542442 2.563168
37.31971 19.138653 2.2919631
36.404396 21.604477 2.1665704
38.604797 15.827143 2.2061434
37.163723 20.281652 2.2644055
38.435009 16.377182 2.1611278
36.884727 21.10359 2.1711895
36.891006 20.927605 2.167675
36.614868 21.013096 2.4458952
39.004341 14.620146 2.5767605
38.06089 17.297382 2.1757896
38.494247 16.167271 1.8806977
39.224239 14.318014 1.7671243
38.827164 15.272204 2.5797896
37.626408 18.4736 2.3498483
37.339855 19.271706 2.2539644
37.134274 19.787045 2.3615928
37.969475 18.00931 1.974129
38.003399 17.410999 2.2755334
37.758457 18.092062 2.1588907
37.352257 19.279209 2.4717638
37.324047 19.279469 2.5406704
37.140865 19.784491 2.447715
38.556969 16.629393 1.8561769
39.132195 15.210236 2.2216887
39.048439 15.37608 2.2623372
