# .PCD v0.7 - Point Cloud Data file format
VERSION 0.7
FIELDS x y z
SIZE 4 4 4
TYPE F F F
COUNT 1 1 1
WIDTH 540
HEIGHT 1
VIEWPOINT 0 0 0 1 0 0 0
POINTS 540
DATA ascii
31.189598 28.884066 -2.1702325
31.174784 28.95089 -2.1687901
31.229708 28.717428 -1.4475911
31.184509 28.742212 -2.8373179
31.124849 28.938332 -1.8366785
31.13097 28.771442 -3.2551415
31.061348 28.788555 -2.7808769
31.249928 28.658407 -2.6938806
31.171757 28.750734 -2.7246423
31.186567 28.666521 -2.902879
31.147125 28.694084 -2.4268
31.142956 28.194296 -1.8419843
30.996851 27.958971 -0.77492821
31.229815 28.218586 -1.7256806
31.237432 28.133249 -1.1243678
31.243032 28.336685 0.018607002
31.195389 28.599449 0.306757
31.162722 28.384487 0.035920765
31.092701 28.106749 -1.4351908
31.222813 28.588045 -1.0545362
31.273603 28.694487 -0.15700705
31.267139 28.37804 -0.53405184
31.252981 28.450645 -0.30363706
31.171619 28.507547 -0.23480353
31.283939 28.305815 -0.47790474
31.141758 28.793819 -0.43652233
31.162945 28.487759 -0.45047489
31.171528 28.687857 -1.2334423
31.138565 28.89819 -1.432114
31.152079 28.899336 -1.340158
31.272514 28.787224 -0.22551164
31.25597 28.468361 -0.15230699
31.232422 28.573154 -0.10306592
31.247353 28.484608 -0.94286942
31.170403 28.672302 -0.082638949
31.111036 28.795986 -0.2468815
31.149584 28.703737 -0.25009185
31.241894 28.608177 -0.42114216
31.276325 28.680826 -0.45399114
31.156723 28.683033 -0.44245607
31.268616 28.666456 -1.2363877
31.007202 28.738972 -1.2147206
31.161413 28.795883 -1.1327745
31.138062 28.885326 -1.1250118
31.000311 28.711208 -0.83553612
31.137501 28.880131 -1.6391674
31.00845 28.790571 -0.67772341
31.182524 28.904718 -2.3152466
31.144735 28.803698 -0.74368197
31.012041 28.845188 -0.52880067
31.100374 28.017839 -0.42207789
31.240211 28.833673 -2.2174571
31.183208 28.187687 -0.31425017
31.19648 28.395422 -0.039340831
31.267752 28.682346 -0.53378111
31.186161 28.986513 -2.3507485
31.152777 28.850327 -2.7996111
31.263979 28.385633 -0.35716033
31.236071 28.478586 -1.1244923
31.016998 28.047733 -0.59516531
31.254484 28.383619 -0.73260325
31.22319 28.450348 -0.27237234
31.142107 27.985329 -0.53879827
31.149561 28.595766 -1.5460585
31.162434 28.676983 -1.5291612
31.151079 28.162571 -0.64145273
31.142651 28.785368 -0.63806027
31.14596 28.692282 -0.64740348
31.292625 28.614513 -0.53602147
31.08272 28.710945 -1.5426992
31.011129 28.924339 -1.6467042
31.240931 28.72558 -0.086581916
31.019186 28.911213 -2.099602
31.087763 28.693571 -1.4367684
31.150482 28.495794 -1.4310842
31.011271 28.938148 -1.8906856
31.011522 28.932676 -1.4405111
31.187256 28.292068 -1.8680367
31.162947 28.173254 -1.0436138
31.163994 28.158297 -1.9124525
31.14064 28.564272 -1.9069593
31.101158 27.903109 -1.2329761
31.162048 28.494038 -0.93806505
31.155214 28.10668 -0.94689322
31.087866 28.695938 -1.7416072
31.063616 28.905468 -1.0345404
31.137615 28.675432 -2.2505717
31.167522 28.588442 -2.2179193
31.095066 27.995022 -1.3332467
31.086105 28.808895 -2.0542462
31.087214 28.673767 -2.038898
31.105392 28.601524 -1.1368492
31.14732 28.463776 -2.0269725
31.064034 28.9032 -1.3419044
31.131031 28.074118 -1.998566
31.098003 27.893795 -1.1381358
31.163885 28.49082 -0.74435711
31.065683 28.813238 -2.1378329
31.096336 27.996046 -1.2396772
31.159952 28.494368 -1.0484397
31.192694 28.408819 -1.9308678
31.072512 28.710194 -1.9360085
31.055676 28.825653 -2.3298054
31.066887 28.89991 -2.2611067
31.166265 28.494862 -2.2066987
31.077076 28.798029 -1.6251404
31.165495 28.4533 -2.5383501
31.138763 27.996996 -0.64794272
31.137571 28.693373 -1.8267881
31.16276 28.698244 -1.3363358
31.161919 28.587673 -0.8396309
31.073381 28.802275 -1.4322209
31.149364 28.589727 -1.8337573
31.155558 28.588795 -0.94617778
31.161392 28.407024 -2.1441917
31.100918 28.001633 -1.6355114
31.163113 28.575682 -2.0480886
31.184093 28.30332 -1.6326473
31.149887 28.653696 -2.0837176
31.207199 28.419834 -2.2400811
31.261227 28.378231 -0.64798588
31.082348 28.000278 -0.93859577
31.106184 28.48069 -2.1347504
31.068916 28.97286 -2.8420184
31.153782 28.694576 -1.9024047
31.135803 28.811541 -2.1422231
30.997425 28.958536 -2.2778878
31.142923 28.786642 -0.83877474
31.192272 28.310099 -1.0560546
31.149408 28.476362 -1.93647
31.172123 28.488583 -2.1484683
31.096209 28.691158 -1.1364169
31.087715 28.802652 -2.2371609
31.073957 28.692417 -2.204592
31.273201 28.630379 -1.1686537
31.161087 28.592424 -1.2441928
31.013172 28.903786 -1.8286315
31.151058 28.70035 -0.53858399
31.166809 28.489235 -0.53869063
31.228729 28.039494 -0.59689277
31.156673 28.599051 -1.7568469
31.163542 28.497835 -0.63636273
31.147877 28.492605 -1.7363089
31.153564 28.594229 -0.64624155
31.164982 28.47682 -1.8182436
31.164314 28.491049 -0.83465266
31.262346 28.392973 -0.93727273
30.96599 28.116777 -0.78042138
31.019995 28.899307 -0.44301271
31.187967 28.322186 -0.75123268
31.090836 28.695662 -0.64488959
31.173916 28.570574 -2.1553946
31.149773 28.599478 -1.6218529
31.155699 28.598152 -1.3536139
31.103579 28.72213 -0.13927686
31.201105 28.307566 -0.44475207
31.171398 28.5916 -1.4303772
31.14337 28.786139 -0.23425055
30.967636 28.981718 -0.91022879
31.167379 28.335655 -0.84889281
31.096195 28.63139 -0.077571988
31.102262 28.608009 -1.0324589
31.18189 28.315369 -0.94436133
31.189291 28.195395 -0.2439909
31.104235 28.604389 -1.2439489
31.150684 28.69372 -0.83226168
31.089165 28.730495 -1.833679
31.017056 28.941828 -2.3627121
31.084293 28.821646 -3.1444702
31.043282 28.887032 -2.0389054
31.039324 28.919815 -2.1162133
31.090546 28.629442 -2.5511901
31.073881 28.727568 -2.5711486
31.010492 28.910931 -1.3347266
31.049603 28.887976 -1.8308411
31.087614 28.701607 -1.3367056
31.189608 28.324665 -0.527399
31.009418 28.92918 -1.5393894
31.183578 28.33007 -0.64417511
30.979465 28.880375 -0.52318418
31.158436 28.59552 -1.134357
31.154522 28.595984 -1.0421273
31.00914 28.922997 -1.0463924
31.03578 28.821409 -2.5820458
31.099039 28.593353 -0.74258488
31.097147 28.096046 -1.5286627
30.960613 28.727726 -2.1125724
31.096664 28.105461 -2.0285702
31.01664 28.907915 -0.74796271
31.10684 28.511471 -1.8205262
31.017376 28.89489 -0.90309691
31.087069 28.58906 -1.7212905
31.138798 28.088888 -1.7379767
31.09248 28.699144 -1.2373531
31.104521 27.890709 -1.6347485
31.082445 28.691389 -1.6325022
31.099012 28.168694 -1.9248073
31.048777 28.970686 -1.9351543
31.180258 28.384216 -0.53538191
31.105774 28.60861 -0.44013315
31.115435 28.613306 0.057162505
31.149067 28.558672 -2.4298835
31.154434 28.489645 -1.3279362
31.134789 28.50486 -2.3376713
31.148361 28.494289 -1.2356535
31.086082 28.794079 -1.1408383
31.167997 28.396917 -0.94099057
31.178761 28.394615 -0.64235264
31.097898 28.095366 -1.7456304
31.113831 28.516012 -1.2505352
31.094862 28.697426 -1.0447568
31.174164 28.395548 -1.0352716
31.092909 27.998852 -1.1392349
31.089531 28.694693 -0.83470351
31.232365 28.61272 -0.81788278
31.085863 28.80867 -0.44565859
31.240374 28.335308 -1.8620322
31.111952 28.928246 -2.4903986
31.181751 28.384371 -0.44710365
31.195375 28.62406 -3.2249405
31.069307 28.900566 -0.83741826
31.072575 28.120247 -2.4537525
31.280155 28.609404 -0.36686158
31.085783 28.430414 -2.0479956
31.173676 28.324354 -1.1182855
31.117933 28.341463 -2.0581274
31.072588 28.790789 -2.6012909
31.182613 28.389286 -0.34934622
31.155563 28.093636 -1.3390967
31.169872 28.303429 -1.5566709
31.225094 28.749512 -3.1095946
31.066784 28.902618 -0.93763244
31.111523 28.510284 -1.0337672
31.160059 27.985933 -1.6277517
31.063759 28.901634 -1.1370183
31.031986 28.113089 -2.3138089
31.255272 28.621943 -0.68173331
31.169231 28.395874 -0.74343753
31.098135 28.605503 -0.83524954
31.06876 28.909208 -0.63930339
31.07321 28.677933 -2.1188602
31.097242 28.597143 -1.4359207
31.017464 28.909021 -1.106216
31.257032 28.507175 -0.46810725
31.05423 28.909286 -1.5324017
31.158752 28.400217 -1.2361772
31.034615 28.902966 -2.7587261
31.159147 27.999569 -1.5297545
31.089085 28.191608 -1.7213233
31.164587 28.71212 -1.4490415
31.078821 28.797096 -1.03563
31.073763 28.8883 -1.950808
31.165819 28.177389 -1.3314788
31.245857 28.750196 -1.2250907
31.096117 28.105261 -1.8244698
31.079863 28.795376 -1.2287582
31.172098 27.989981 -1.1377233
31.151258 28.886774 -2.7714779
31.076294 28.10957 -0.93726611
31.135851 28.692034 -1.7763764
31.146465 28.092445 -1.8302011
31.141644 28.097019 -1.4378562
31.173388 28.394739 -0.837973
31.167297 28.095306 -2.3338223
31.077511 28.786068 -1.754432
31.109243 28.697563 -0.050294757
31.07263 28.80154 -1.5396731
31.127419 28.08024 -1.9129794
31.152969 28.102703 -1.2333003
31.14917 28.92585 -2.4069273
31.074375 28.81468 -1.8406466
31.151682 28.100374 -1.52939
31.154341 28.197327 -2.1266437
31.12075 28.760141 -2.9413409
31.1465 28.768673 -3.1813266
31.155006 28.816376 -0.1635457
31.095219 28.781273 -0.12469019
31.095879 28.588688 -1.6234257
31.185045 28.394056 -0.14335349
31.254852 28.485043 0.083510078
31.064854 28.902918 -1.4371942
31.060789 28.899338 -1.2355634
31.153688 28.595673 -0.45218801
31.084953 28.794481 -0.64087069
31.169563 28.393671 -2.0251393
31.145565 28.689732 -1.0376083
31.180777 28.298803 -1.325706
31.075891 28.799866 -1.3418115
31.145947 28.823811 -2.0220301
31.227913 28.68446 -1.7419189
31.080881 28.101622 -1.0393469
31.155935 28.797512 -1.5333306
31.188335 28.711193 -2.7767487
31.070578 28.90398 -0.73803836
31.156425 28.687988 -1.6270436
31.164541 28.784195 -1.9401685
31.060671 28.907068 -1.6355175
31.102173 28.164469 -2.1307056
31.148821 28.809258 -1.7594616
31.15344 28.692934 -0.94107622
31.061577 28.895061 -2.6132777
31.167027 28.786142 -1.622695
31.090206 28.106409 -1.2392536
31.110867 28.511322 -1.9170643
31.160446 28.690191 -1.1359408
31.101046 28.598959 -1.3254348
31.131802 28.71002 -2.6032848
31.012327 28.912302 -0.64047807
31.15037 28.907602 -2.5165353
31.144203 28.783348 -0.93720829
31.181868 28.820595 -2.3604677
31.075325 28.183266 -2.2233987
31.083841 28.101437 -1.1363412
31.160166 28.907259 -2.2306609
31.174555 27.996313 -1.039193
31.075314 27.999826 -0.74249947
31.109737 28.513758 -1.7292914
30.997976 28.907372 -1.2495316
31.060894 28.977333 -1.734861
31.149944 28.89184 -1.9307162
31.142992 28.789446 -0.54737061
31.239611 28.747999 -3.3017013
31.138685 28.888578 -2.056076
31.051819 28.922033 -2.847682
31.157188 27.995148 -1.3409185
31.162617 28.078852 -2.1370511
31.169868 28.169918 -1.2360902
31.167894 27.988377 -0.94169694
31.149155 28.696306 -0.73504269
31.057766 28.523396 -2.0224109
31.104609 27.998959 -1.5301481
31.238054 28.714298 -0.65652835
31.155163 28.589712 -0.34812075
31.080862 28.799526 -0.94200522
31.175529 28.800941 -2.225235
31.087584 28.696333 -0.7383067
31.166029 27.995674 -0.84915709
31.157545 28.79594 -1.2325809
31.268532 28.738472 -0.36749369
31.134226 28.790579 -2.8190777
31.169302 28.165934 -0.73258919
31.141136 28.725788 -2.3128629
31.090355 28.719835 -2.7876825
31.129601 28.852331 -1.6994665
31.155493 28.10918 -0.84816712
31.161848 28.095734 -1.1419214
31.095346 28.700796 -0.94528061
31.171171 28.753592 -2.5087957
31.15729 28.788914 -2.4464598
31.082207 28.803396 -1.9230028
31.162121 28.671701 -2.1624856
31.012798 28.923481 -0.83393574
31.145161 28.79265 -1.3441486
31.155949 27.989075 -1.4382962
31.094484 28.574686 -2.048557
31.079655 28.796978 -0.8400265
31.162258 28.799301 -1.4543421
31.16398 27.887703 -1.4354978
31.074245 28.972898 -2.9371381
31.101164 27.832661 -1.2362843
31.107721 28.108772 -0.44099581
31.136293 28.985466 -2.4322593
31.080273 28.103073 -0.74535125
31.087097 28.111965 -0.0040582218
31.096617 28.803473 -0.33767149
31.089582 28.093689 -1.6334496
31.186325 28.39217 -0.23568939
31.064453 28.767879 -3.2262731
31.082607 28.589153 -2.1218107
31.263142 28.395462 -1.3330092
31.155651 28.112471 -0.4447695
31.077532 28.798679 -0.53986174
31.154984 28.786879 -1.0444027
31.141651 28.335749 -1.2659285
31.098362 28.199587 -0.32387164
31.075958 28.797789 -0.74022514
31.159519 27.994978 -1.2350997
31.088526 28.102877 -1.3355707
31.165644 28.113882 -0.2327383
31.064362 28.981133 -1.8184983
31.05949 28.975027 -1.6199629
31.097023 28.61231 -1.9063514
31.103931 28.692591 -0.3671214
31.103647 28.596502 -0.65281773
31.092981 28.697203 -0.45355645
31.172895 28.607965 -0.24299799
31.158415 28.500832 -1.1300362
31.254044 28.401962 -1.421116
31.259846 28.394733 -1.0399165
31.056847 28.901636 -1.7394235
31.253288 28.392052 -1.1345247
31.253637 28.38662 -1.2352618
31.027929 28.912971 -2.4725585
31.104795 28.088989 -1.9335611
31.159378 28.10235 -1.0367614
31.257999 28.389433 -0.8468135
31.159857 28.190266 -1.6387212
31.080687 28.148956 -2.4827998
31.081108 28.160358 -0.016823351
31.100782 27.915764 -1.3418719
31.094944 27.994562 -1.0408655
31.137234 28.178192 -1.6992692
31.239267 28.183195 -1.8595369
31.164772 28.39978 -1.1363449
31.113596 28.68956 -0.24809732
31.107872 28.508434 -1.1418036
31.094095 28.692011 -0.54387718
31.104603 28.111053 -0.35143179
31.109604 28.997555 -2.0475209
31.137691 29.004759 -2.5109062
31.233545 28.096209 -1.9384713
31.147459 28.093904 -0.54027462
31.107292 28.004211 -0.53008163
31.149315 28.652142 0.082239971
31.168798 28.589025 -0.15600981
31.17285 28.401896 0.13094771
31.077742 28.109049 -0.840572
31.070349 28.156132 -0.842067
31.111734 28.500738 -0.94946879
31.109446 28.506235 -1.3351372
31.119917 28.404978 -0.44758251
31.106398 28.480505 -0.46264645
31.10051 28.343327 -0.28094882
31.243134 28.46772 -0.64621896
31.076853 28.162392 -0.92812043
31.149727 28.696663 -0.3539345
31.114962 28.416372 -0.65343016
31.102322 28.493999 -0.3766928
31.103468 28.593025 -0.54897356
31.088438 27.991076 -0.63828403
31.086094 28.173475 -1.647864
31.088116 28.168879 -1.2468104
31.098076 28.571512 -1.8354037
31.084139 27.995628 -0.83995056
31.100111 27.996616 -1.4329643
31.082008 28.104618 -0.63504511
31.163687 28.170338 -1.1402894
31.090942 28.172161 -1.3400203
31.097956 28.010321 -1.7144936
31.09491 28.164961 -1.5333796
31.263992 28.170742 -0.83489525
31.235405 28.200409 -1.5460569
31.252703 28.180515 -1.0315174
31.091282 28.172773 -1.4404445
31.087416 28.175562 -1.1440375
31.259636 28.325062 -1.1178071
31.078094 28.179262 -1.8253604
31.252625 28.320807 -0.65579545
31.174828 28.309275 -1.4473242
31.147667 28.105957 -0.6416024
31.157778 28.184156 -1.4385045
31.007034 28.968966 -1.8395536
31.110712 27.843925 -1.3467524
31.144594 28.093904 -1.6395059
31.148983 28.599579 -0.73984462
31.168095 28.501682 -0.34746101
31.146849 28.108923 -0.74433863
31.094706 28.10342 -0.54320335
31.254932 28.784914 -0.15192609
31.248194 28.322412 -0.5367043
31.184763 28.191376 -1.5183111
31.164034 28.597916 -0.54192561
31.252359 28.325136 -0.76990545
31.10725 28.411674 -1.9299232
30.969145 28.964382 -1.9880723
31.013699 28.971565 -1.528864
31.101183 27.918844 -1.8040221
30.984688 28.951912 -1.7290266
30.994967 28.894569 -1.7343065
31.10829 28.420742 -0.74434203
31.260626 28.216343 -1.4402782
31.105789 28.504803 -0.84131432
31.112133 28.436539 -1.1516247
31.075232 28.165258 -0.64585018
31.080486 28.166903 -0.74331701
31.017727 28.960041 -1.1419026
31.099436 28.165812 -1.0438406
31.108799 28.50177 -0.74479985
31.11965 28.422691 -1.8621259
31.002508 28.970911 -1.6034067
31.112101 28.431923 -1.0345523
31.263338 28.480446 -0.54130512
31.111769 28.510899 -0.52988225
31.091404 28.034887 -0.24827723
31.017799 28.722174 -0.51489151
31.15626 28.680567 -0.15360028
31.054768 28.910858 -3.2366519
31.259411 28.871771 -2.2154596
31.096169 27.902905 -0.43068641
31.229988 28.106239 -1.4257591
31.139711 28.912603 -1.5261203
31.109512 28.411903 -0.54248685
31.275919 28.698761 -0.70868117
31.005697 28.766443 -2.0938451
31.17345 28.491037 -0.16410573
31.164587 28.10243 -0.34719682
31.089231 28.164986 -0.54553962
31.233513 28.057318 -1.0829608
31.2311 28.029999 -1.3598313
31.173395 28.162357 -0.93924379
31.176683 28.162561 -0.83348471
31.154684 27.999105 -0.43304008
31.243711 28.134991 -0.42324305
31.155514 28.003315 -0.35262203
31.161373 28.154182 -0.54076415
31.229549 28.231941 -1.334332
31.260334 28.166189 -0.45308337
31.233002 28.139845 -1.537083
31.259401 28.173294 -0.34089059
31.183069 28.183498 -0.43216756
31.24729 28.296413 -0.81795537
31.22727 28.120745 -0.92268747
31.272898 28.179466 -0.5543173
31.224934 28.91396 -2.7336481
31.192575 28.619726 -0.046455987
31.18726 28.493818 0.046789732
31.221476 28.116272 -0.79719067
31.238159 28.132408 -0.14855404
31.241505 28.179676 -0.14553674
31.086969 28.09915 -0.1060973
31.100601 28.403471 -0.059868906
31.25103 28.171801 -0.24460703
31.156353 28.125729 -0.13915123
31.171862 28.021753 -0.15715776
31.267265 28.133078 -0.52196842
31.274363 28.131353 -0.63628304
31.247898 28.136047 -0.36301005
31.095964 28.044916 -0.29883981
31.17923 28.483118 -0.058848068
31.113132 28.100512 -0.23696998
31.10257 28.502439 -0.63089091
31.112577 28.440002 -0.84762311
31.276421 28.142618 -0.72780693
31.00042 28.964518 -0.86097825
31.269154 28.771942 -0.34237468
31.103043 28.601294 -0.93926907
31.012375 28.974026 -1.0384386
31.053963 28.779177 -2.7896614
31.093157 28.319689 -0.81765789
31.174894 28.267546 -1.9892349
