# .PCD v0.7 - Point Cloud Data file format
VERSION 0.7
FIELDS x y z
SIZE 4 4 4
TYPE F F F
COUNT 1 1 1
WIDTH 710
HEIGHT 1
VIEWPOINT 0 0 0 1 0 0 0
POINTS 710
DATA ascii
26.802439 27.743847 1.2855271
26.918371 27.73385 0.74515623
26.845755 27.719858 1.3214613
26.738443 28.391279 -0.52181399
26.616924 28.131699 1.1640073
26.804892 27.792337 2.7706301
26.809576 27.934914 3.2017317
26.739643 27.851667 2.9654338
26.764536 27.872036 2.8475695
26.805048 27.833578 2.8534465
26.769817 27.849203 3.0575252
26.798134 27.985378 2.9311631
26.852661 27.887497 3.2303109
26.858696 27.90798 3.132628
26.73797 27.792612 3.1599715
26.780865 27.827057 2.9225502
26.798445 27.991642 2.8484347
26.846619 27.988794 2.9433436
26.83147 27.737782 1.2162215
26.759312 28.301228 0.94203269
26.930599 27.881582 3.3283691
26.874838 27.979557 3.268024
26.84219 27.97728 2.8442087
26.834188 27.97401 2.7622805
26.824463 28.078863 1.1514152
26.723026 28.383329 -0.79832959
26.702839 28.007523 1.3647248
26.735413 28.188881 0.55869055
26.657892 28.47995 -0.92726755
26.73152 28.262682 0.1564742
26.832933 28.049973 -1.4149369
26.703833 28.014099 0.65797937
26.771345 27.731094 2.3624673
26.674986 28.199574 -0.038672682
26.831263 27.970873 2.3367229
26.77581 28.308605 -1.1204809
26.772604 27.635101 1.4218279
26.708109 28.004734 -0.33598539
26.749674 28.093391 1.9732866
26.670752 28.212526 -1.6262512
26.753805 28.283684 -1.3599492
26.702629 28.007885 0.35761398
26.776791 28.103205 2.4550529
26.781467 27.880777 0.56254441
26.77898 27.737282 1.3568693
26.760445 27.786137 3.4570482
26.680132 27.884905 1.0482222
26.836042 27.877474 1.4615326
26.661617 27.805214 2.3692307
26.678715 27.892225 0.66945535
26.845249 27.970795 2.5682683
26.843958 27.819712 -1.2413296
26.664028 27.887777 0.55068433
26.677824 27.877068 1.4574164
26.781239 27.887207 -1.5322127
26.688772 27.89076 1.6599208
26.690241 27.886078 1.9716353
26.783268 28.091042 2.7527304
26.802816 28.009989 2.7666681
26.693859 27.879538 0.77447987
26.616602 28.212152 -1.018018
26.844994 27.964569 2.076823
26.783728 27.898298 -1.6218613
26.784006 27.890465 1.6622311
26.780445 27.887875 1.4614148
26.857019 27.875072 -1.1370877
26.690422 27.887814 1.7521061
26.773909 27.885235 -1.134907
26.839302 27.818167 0.55600464
26.683411 27.867741 1.1569059
26.749722 28.098528 2.0564916
26.76807 28.106125 2.361953
26.785646 27.878702 0.66167444
26.745987 28.079107 0.56263429
26.704071 27.899403 -1.1619409
26.707371 28.003204 0.77530581
26.749481 28.092539 1.8622725
26.841869 27.87472 1.6586831
26.768131 28.104715 2.2628191
26.782585 27.998386 2.3669822
26.767099 28.097736 2.558037
26.828714 27.874035 0.65596896
26.746477 28.08853 1.7534478
26.688377 27.882961 2.1509063
26.840826 27.821987 1.6649035
26.78277 27.99412 2.2501762
26.695328 27.880402 -0.62349951
26.850567 27.810045 -0.94177771
26.90378 27.904518 3.3611853
26.60096 28.221758 -1.1475644
26.840408 27.872875 -1.6527202
26.695938 28.019272 0.55618834
26.841988 27.853844 -1.8426993
26.776121 27.820745 1.9722012
26.851814 27.88184 -1.0463452
26.807877 27.807899 3.3965857
26.690269 27.876282 2.2574351
26.777262 27.875147 -1.4390938
26.84436 27.878866 -1.5423284
26.779802 27.893494 -1.0339069
26.775297 27.881435 -0.64145172
26.85746 27.898745 -1.4327669
26.779583 27.880293 -0.53651386
26.773136 27.821358 0.66222978
26.839636 27.880968 2.1476417
26.842028 27.829857 1.7657604
26.936247 27.886219 -1.9059539
26.681208 27.887218 1.8530862
26.783722 27.890251 -0.041138206
26.832563 27.824448 0.86471689
26.781128 27.889843 1.860592
26.783575 27.88423 1.3622227
26.786133 27.885855 1.1623319
26.841675 27.818768 -0.73046672
26.835495 27.824825 0.36041626
26.722237 28.18503 1.2634739
26.842888 27.815033 -0.1440018
26.844561 27.820309 -0.84433281
26.733967 28.294302 -0.817487
26.77091 27.985987 1.8613315
26.781744 27.882025 0.86508131
26.681646 27.875538 0.95963293
26.65395 27.709391 2.3518836
26.78104 28.001276 2.4632356
26.75614 27.790123 3.254205
26.776342 27.820473 1.8611231
26.742256 28.089348 1.4652951
26.784704 27.883528 0.36299697
26.706081 28.014269 -0.045652904
26.833069 27.870764 -0.03055652
26.777079 27.886087 -0.23732646
26.849096 27.821337 -0.63439655
26.840172 27.99313 -0.76379085
26.590794 27.953938 1.9431803
26.703878 28.02387 0.26012689
26.837915 27.833014 2.7651806
26.853071 27.820513 2.0515022
26.842985 27.873896 -0.3404628
26.83436 27.815256 0.16650157
26.832727 27.831755 1.1543194
26.589746 28.307894 0.9621647
26.836792 27.872196 0.5652532
26.836285 27.88385 -0.4414939
26.836708 27.870569 -0.53333747
26.834543 27.866724 -0.13356414
26.777649 27.884495 -0.33411089
26.841234 27.880796 -0.83925182
26.926744 27.722925 -1.0028533
26.831192 27.983435 -0.97645187
26.840427 27.879654 0.86116284
26.835608 27.872267 -0.62232101
26.835936 27.891672 -0.92453802
26.848679 28.086845 2.850224
26.707281 28.014982 -0.24240501
26.821131 27.967989 -1.2368667
26.868586 27.95303 1.8545315
26.599899 28.225853 -1.3287246
26.835648 27.963999 1.957154
26.78368 27.821945 1.4644367
26.836975 27.972359 2.1558521
26.739111 28.080208 1.0613005
26.737604 28.080803 1.1519506
26.837315 27.827433 1.9503225
26.656172 27.708103 2.2608368
26.697105 28.107048 -0.1315877
26.67078 28.196684 0.76556182
26.939949 27.911242 0.71368438
26.776428 27.664175 2.4611945
26.709934 27.89356 -1.3427483
26.775053 27.816721 1.6617271
26.581642 28.311602 -1.232013
26.923407 27.926149 1.2772136
26.742594 28.085857 1.3564539
26.935682 27.7738 0.64051753
26.845718 27.986843 2.6578197
26.921682 27.909927 0.71029133
26.979357 27.832018 2.5698712
26.973085 27.883322 -0.407401
26.599689 28.176815 -0.51074326
26.559322 28.141146 0.49665555
26.833424 27.82881 1.2581002
26.850283 27.803272 -1.435907
26.837261 27.822586 1.3660786
26.75038 28.410713 -1.0149407
26.842876 27.877014 1.9647096
26.86389 27.901739 2.8523865
26.846546 27.880039 1.8584582
26.775898 27.824137 0.9647243
26.834185 27.874722 0.14966193
26.831694 27.989849 1.7023941
26.857071 27.979362 -0.60931993
26.689129 27.88637 1.5788689
26.643744 28.469303 0.36179844
26.833572 27.828691 0.25948358
26.936052 27.845743 2.1733479
26.637781 28.382191 0.25909021
26.662025 27.801022 2.1592433
26.894186 27.821444 2.8696599
26.83585 27.881451 1.2651888
26.848259 27.832529 2.3547714
26.635809 28.460009 1.0592701
26.783306 27.880804 0.16049275
26.844276 27.804831 -1.3372117
26.830206 28.089859 1.2726635
26.641273 28.384172 -0.037182149
26.67131 28.199343 0.56512004
26.764786 27.994444 -1.1453109
26.844536 27.875616 -0.24063072
26.78166 27.883474 0.064472236
26.828186 27.988195 2.4696207
26.66831 27.796316 1.5652549
26.659092 27.797245 1.4719504
26.929575 27.821783 1.0638744
26.654854 28.288261 -1.2437662
26.759096 27.98785 -1.2336838
26.666609 27.799648 1.7607117
26.693989 28.103464 -0.73221856
26.835878 27.871099 -1.3436632
26.904907 27.977734 -1.6503533
26.707283 28.001919 -0.53919655
26.774961 27.889477 2.0568254
26.706366 28.010399 -0.14245626
26.832771 27.887032 1.5540586
26.69924 28.01107 -0.93285495
26.646732 28.302097 -1.0416607
26.833752 27.862453 0.36370897
26.834723 27.879993 1.1572978
26.839148 27.882788 1.0729349
26.836271 27.868477 0.25746924
26.839167 27.88146 0.96625406
26.833326 27.834084 1.5604904
26.780483 27.887627 1.5618328
26.639811 28.387999 -0.74276847
26.854963 27.888212 2.5587852
26.707712 28.008057 0.15859905
26.615168 28.130381 1.0474001
26.669163 27.805435 1.9617809
26.7386 28.265406 -0.77127212
26.662437 27.707727 2.1364305
26.685875 27.87677 1.2523201
26.670429 27.800026 1.8597404
26.721954 28.366991 -0.060627647
26.690567 27.988459 -1.6120359
26.673464 28.19088 0.85340267
26.671892 28.194126 1.1597316
26.771799 27.818068 2.1644425
26.740974 28.085455 -0.23906609
26.607508 28.195242 -1.4642344
26.666609 28.193571 1.3621656
26.838615 27.878588 0.76137358
26.78949 28.004631 2.6527765
26.832506 27.817146 0.76820093
26.835787 27.826714 0.95380884
26.671268 28.19273 -0.13697505
26.836273 27.820063 -0.036915902
26.850212 27.83581 2.6680355
26.838923 27.892605 2.6527071
26.698681 27.894602 -0.76455712
26.837833 27.995094 1.3436737
26.688648 28.20182 -1.7264657
26.704414 27.899614 -1.2430366
26.668182 27.797289 1.6631427
26.845522 27.832968 2.1396477
26.698538 28.103037 0.16245452
26.777994 27.992285 1.9659129
26.823818 27.965305 1.7466023
26.842112 27.817617 -1.0407697
26.841166 27.832373 1.8501327
26.639853 28.386648 0.46565247
26.769316 27.821161 2.0648627
26.832443 27.826771 0.66827518
26.845518 27.877869 -0.72406405
26.604191 28.191038 0.85026842
26.620073 28.205122 -0.057744756
26.612642 28.215767 0.54362762
26.676607 27.807713 2.4559412
26.846033 27.815907 2.2885873
26.85043 28.252314 -1.7133371
26.606071 28.214037 0.97229791
26.606344 28.232414 -0.37886569
26.77195 27.999554 2.156817
26.641937 28.391083 -0.33343452
26.59366 28.179565 0.66641593
26.593819 28.233587 0.49213621
26.611511 28.205517 0.72186863
26.673265 28.099977 -1.3311834
26.656992 28.302307 -0.93939972
26.82753 27.982334 -0.068208203
26.684557 28.094835 1.9569261
26.736761 28.286869 1.0802934
26.618065 28.212856 -1.2370098
26.775272 27.827791 0.86111259
26.773739 27.892635 2.366765
26.837357 27.964663 -1.9562244
26.553349 28.13666 -0.39501622
26.855848 27.824776 2.5609369
26.838732 27.823559 1.0630192
26.612057 28.209166 -0.74881935
26.608948 28.230114 1.360023
26.609562 28.225948 -0.92992783
26.779291 27.82383 1.2578434
26.612362 28.209732 -0.88858527
26.61463 28.14658 -0.18320198
26.834127 27.957106 -1.7850548
26.591946 28.302443 -0.75060225
26.771427 27.993158 2.060343
26.756346 27.812084 2.3526604
26.8267 28.011599 -0.81245893
26.696783 28.000629 1.4555119
26.587559 28.209148 0.16520533
26.606281 28.194763 0.38032144
26.669559 28.185526 -1.4164531
26.834454 27.828463 1.4623088
26.612602 28.236036 0.043179844
26.701008 28.098534 -0.040426068
26.832361 27.963017 2.2645977
26.959663 27.801109 0.096480787
26.667141 27.806845 2.2686391
26.8414 27.877808 1.7726686
26.612419 28.232183 -0.6804015
26.766695 27.896496 -1.3419231
26.644503 28.386251 1.3630766
26.69751 27.990391 1.9540399
26.703941 28.001623 -1.0132562
26.706017 28.003439 -0.64467692
26.610582 28.219666 1.1515136
26.881302 27.991188 -1.3888793
26.847107 28.128059 2.1717639
26.825073 28.001535 0.67982191
26.706284 28.019011 -0.72156596
26.599194 28.202562 1.0753052
26.832186 27.967384 1.0566342
26.935675 27.846491 2.742023
26.781879 27.707506 1.6330321
26.848438 28.12746 2.2623451
26.773582 27.738972 2.0311196
26.585205 28.30448 -1.0405085
26.588154 28.306259 -0.64678681
26.702221 28.000877 -1.1337954
26.706388 28.013395 0.067110956
26.772781 27.826935 0.76023734
26.688593 28.101624 0.36804983
26.822294 28.088848 0.44557875
26.740135 28.084095 0.66480809
26.58884 28.309278 -1.1374302
26.694431 28.096424 0.45448807
26.673098 28.200136 1.4562685
26.591896 28.308956 0.85469437
26.817186 27.743431 1.9234345
26.705242 28.022079 -0.85020065
26.692558 28.104687 0.56374753
26.692482 28.100533 0.6601854
26.843105 28.265842 -1.6377803
26.599651 28.305367 0.7631973
26.772055 27.824095 1.360432
26.669838 28.193098 0.96766829
26.863298 27.896973 3.0189834
26.70229 28.030674 2.5811186
26.688293 27.872789 1.3667583
26.593073 28.31324 0.46142966
26.672232 28.194588 1.2643962
26.856054 28.123573 2.3570635
26.597908 28.305498 0.64596206
26.650019 28.297634 0.058378447
26.639914 28.382315 -0.23934965
26.650396 28.389759 -0.83497393
26.674377 28.196796 1.0641358
26.842989 27.885271 2.0512044
26.700504 27.988861 1.2601466
26.83532 27.827896 0.057571013
26.93314 27.985029 1.2471582
26.651558 28.474253 0.15496819
26.692135 28.103493 1.0635331
26.59845 28.31159 0.56194162
26.652222 27.728184 1.8657022
26.655136 28.294703 -1.5428391
26.7803 27.894848 -1.2285323
26.743229 28.087183 -0.32903028
26.696072 28.103857 0.061376691
26.674343 28.197227 0.057349976
26.672718 28.194252 0.46020585
26.643667 28.472504 0.75212455
26.855961 27.804296 -1.550722
26.773273 27.824694 1.1614124
26.848604 27.811289 -1.1395786
26.832012 27.867392 0.069492184
26.779905 27.884438 -0.13439971
26.778593 27.884829 -0.93043202
26.853943 27.995504 -1.1182401
26.779373 27.882549 -0.43658847
26.866888 27.813223 3.2632406
26.697577 28.006754 -1.3405781
26.786745 27.882206 0.26278976
26.639698 28.470604 0.09116938
26.673975 28.194956 0.35699204
26.671116 28.195272 -0.43935251
26.741325 28.090956 0.75776124
26.735739 28.082058 0.85705554
26.731081 28.176733 -0.23443618
26.773123 27.826138 1.0631777
26.674582 28.192131 0.25662395
26.78525 27.884384 0.46312469
26.784239 27.880312 0.75897104
26.776581 27.884604 -0.83051443
26.777346 27.827143 1.5584251
26.668606 27.802855 1.3611691
26.785242 27.88382 1.0641701
26.784348 27.881334 0.96520329
26.668859 27.711342 2.4634118
26.590073 28.313414 1.1622906
26.595266 28.311499 1.0569341
26.667822 28.480879 -0.42674968
26.670902 28.196486 0.65973461
26.694307 28.109892 -1.7046045
26.647631 28.296711 -0.43436173
26.640734 28.380783 -0.43229434
26.700668 27.989969 1.8620422
26.82387 27.979507 1.4706209
26.848017 27.907705 2.766453
26.747915 28.094887 1.5720036
26.739511 28.087339 0.26924977
26.74379 28.090031 0.45957264
26.650082 28.296429 -0.34127218
26.642086 28.38821 -1.1327348
26.600283 28.205027 -1.5341526
26.676947 28.096451 -1.5416689
26.782925 27.889572 1.7611079
26.647419 28.388676 -0.93298596
26.659079 28.489235 1.1545261
26.587952 28.310949 0.26499021
26.637646 28.381731 1.0650567
26.663105 28.300787 -1.6348071
26.747147 28.209229 -1.6292006
26.649715 28.29528 -0.23762384
26.726624 28.175505 -0.44359881
26.78253 27.89332 1.9579525
26.675734 28.616425 0.3643232
26.752468 27.999218 -0.6301617
26.65251 28.549986 -0.092454165
26.762268 27.993223 -0.92578638
26.663813 28.474215 -1.226741
26.644102 28.392151 -1.0424651
26.639706 28.470383 -0.20621492
26.674604 28.485512 -1.1110389
26.850456 28.059881 0.89107174
26.704712 28.017574 -0.43453234
26.650785 28.295769 -0.53242266
26.639357 28.383997 0.16212162
26.590443 28.325933 0.16453345
26.64098 28.382479 0.96339512
26.654657 28.294952 -0.8400985
26.86643 27.916496 2.9520962
26.643242 28.382122 0.66152096
26.587044 28.315599 0.35889387
26.636486 28.389788 0.35680997
26.755724 27.991817 -0.33937317
26.75709 27.991407 -0.24106644
26.650204 28.294762 -0.643525
26.73909 28.080811 0.96650565
26.73455 28.188576 -1.4506223
26.777838 27.88047 -0.73840755
26.834435 27.967192 1.2683868
26.672131 28.192575 -0.64181393
26.638334 28.389065 0.55190736
26.6465 28.295855 -0.13580954
26.649426 28.298815 0.16274048
26.645094 28.390802 0.75974435
26.681211 28.105703 -1.2328128
26.759636 27.987793 1.3607986
26.69405 28.002836 -1.5323859
26.588293 28.317505 1.2598032
26.658499 28.494263 -0.12656523
26.786661 27.953716 -1.8439572
26.639381 28.386068 1.1539233
26.687748 28.09483 -1.1453588
26.669201 28.196125 -0.53370321
26.63212 28.384262 0.85870063
26.700838 28.09664 -1.6346101
26.757872 27.985233 -0.73603845
26.750002 28.29595 -1.61408
26.670931 28.196661 -0.2396324
26.672123 28.195604 -0.93654561
26.802423 28.156248 -1.7188359
26.668047 28.182798 -1.3350658
26.666628 28.199034 -1.2273835
26.639048 28.389063 -1.2447052
26.678707 28.100914 -1.4335643
26.670677 28.194187 -1.1358719
26.739 28.081501 -0.44314766
26.655109 28.301035 -0.74056029
26.597181 28.328726 0.053225666
26.746845 28.192728 -0.84533167
26.657555 28.303444 -1.4440879
26.648109 28.301987 -1.3230226
26.851238 27.898516 2.4634011
26.92659 27.941542 -0.22935063
26.827711 27.832664 2.4266901
26.774458 27.8911 2.2584171
26.608887 27.95565 1.5269382
26.593578 27.873241 1.8388897
26.605099 27.90029 1.6606784
26.835575 28.132505 0.13710445
26.839458 27.829168 3.1688948
26.644836 28.460186 1.2621248
26.835793 27.952187 -0.55203503
26.871052 28.143354 -0.061092548
26.767035 28.175348 2.053735
26.650681 28.293787 1.4593093
26.755589 27.991583 1.1616305
26.633801 28.462687 0.65290463
26.664293 28.195427 -1.5215216
26.744307 28.090488 -1.1367656
26.680698 28.101339 -0.93408686
26.699934 28.002766 -1.2368389
26.746574 28.085377 -1.5415282
26.845184 27.89081 2.356982
26.748131 28.100676 -1.0265851
26.845341 27.876263 2.2727103
26.681229 28.100349 -1.0398582
26.75815 28.084038 -1.6429569
26.746975 28.093828 -1.2381269
26.642748 28.382935 1.2684979
26.690245 28.099575 -0.8419258
26.83177 28.054651 -0.95006961
26.692417 28.107809 -0.63402975
26.75156 28.091452 -1.432919
26.69681 28.097761 -0.53752464
26.779499 27.899517 2.4643886
26.681967 27.875456 2.0584958
26.759506 28.091356 -1.3416722
26.637821 28.396526 -1.351931
26.680201 27.793993 2.0612738
26.638248 28.465488 0.86745286
26.772589 28.106358 2.6617191
26.775904 27.898302 2.1547735
26.704435 28.011444 0.86465633
26.670849 27.728802 1.9703478
26.753151 28.094452 -0.82908404
26.616444 28.219629 0.27377284
26.796217 28.005268 2.5574138
26.749649 28.08493 -0.92985094
26.742872 28.401199 -0.30006093
26.829819 28.026163 0.031033725
26.690622 28.105089 1.1613866
26.771276 27.821724 2.2769387
26.676855 28.202932 -0.83122104
26.927683 27.885954 0.29355237
26.842693 27.868107 -1.2338489
26.96644 27.872215 -0.97413355
26.953745 27.901863 0.15219715
26.604124 27.875301 1.7665546
26.766279 27.990517 1.7622327
26.694214 27.884739 0.86187619
26.738237 28.078249 0.36274147
26.688568 27.87233 2.3573608
26.836092 27.862026 -1.7598807
26.759897 27.992933 0.65267557
26.755919 27.991102 -0.43782625
26.754124 27.994286 1.0566666
26.75326 27.991295 -0.1342193
26.775124 28.000071 -1.6342623
26.756592 27.991619 0.75683326
26.771746 27.991182 -1.4333227
26.756886 27.988832 0.26560056
26.760826 27.990589 1.5596462
26.671574 28.19586 0.16251631
26.737162 28.079462 0.16258126
26.755999 27.995182 0.059750274
26.735773 28.187445 -1.0428731
26.736271 28.276154 -0.4212485
26.830473 27.976603 0.15723751
26.750595 28.188839 0.75990921
26.648886 28.29118 0.96653742
26.65134 28.289333 0.76461178
26.76388 27.990051 1.6553135
26.745234 28.091545 -0.63853544
26.647856 28.291639 1.1560112
26.744123 28.07691 -0.042786855
26.743828 28.09609 -1.750371
26.648481 28.302532 0.35885936
26.651505 28.291933 0.66304517
26.680634 27.886816 2.4498107
26.760063 27.984335 1.2613033
26.752377 27.987171 0.86387914
26.650814 28.299412 0.85805875
26.648506 28.288511 1.2686505
26.650614 28.29266 0.46200165
26.732002 28.193821 1.0684848
26.650488 28.296162 0.25635165
26.75576 28.002024 -1.5351748
26.696161 28.102007 -0.33586398
26.830502 27.962238 0.76066196
26.728636 28.255951 0.75601059
26.775793 28.181709 -0.94807017
26.727373 28.200272 -0.34248525
26.792948 27.899229 2.7438707
26.775267 27.89579 2.65079
26.740595 28.080736 1.2666377
26.752394 28.178528 -0.12114771
26.938877 27.872211 2.4318483
26.755957 27.990767 0.96342468
26.645876 28.294628 1.0576767
26.738377 28.158367 1.3726602
26.673429 28.196968 -0.33707827
26.756096 27.995098 -0.043626167
26.77285 27.896324 2.5661805
26.710167 27.867584 2.5671504
26.646307 28.299999 -0.039195597
26.754745 27.986055 0.56390244
26.711283 27.879658 2.6535497
26.7337 28.168734 0.97436422
26.686014 28.106691 0.86748838
26.648045 28.295847 0.56255174
26.761972 27.992147 1.4585125
26.747042 28.18273 0.86267191
26.694 28.105242 0.76617205
26.738834 28.185799 -0.047978323
26.754303 27.984671 0.15938467
26.756294 27.993877 -0.54433626
26.741879 28.088375 -0.54539889
26.732691 28.178486 0.1579486
26.737705 28.071089 -0.1452803
26.739857 28.071735 0.067849405
26.705471 27.995369 2.3550487
26.691233 28.107029 1.2566378
26.699305 28.097975 -0.23836972
26.698849 28.009226 1.0585026
26.75061 27.793694 2.4570236
26.743067 28.167341 1.4366901
26.755907 27.987328 0.36225417
26.825075 27.983734 0.94694453
26.742416 28.087646 1.6633817
26.688189 28.095005 1.8534708
26.765108 27.820248 2.6594048
26.690208 28.102396 1.3562214
26.689833 28.006153 2.059473
26.701132 28.019775 1.1602681
26.692211 28.098377 1.7595069
26.688152 28.094706 1.4602687
26.703821 28.023228 2.2568054
26.734621 28.360077 0.77063966
26.779459 28.25131 0.70894283
26.883572 28.015842 0.36444217
26.765041 28.313194 0.87117559
26.691854 28.103931 0.96097201
26.745104 28.357342 0.055841476
26.835218 28.165079 -1.6413506
26.668756 28.194679 -0.740444
26.687443 28.090448 1.564961
26.746235 28.180973 0.28590137
26.838963 27.960545 -0.44451171
26.725067 28.26133 -0.022715459
26.699665 28.009031 2.1417427
26.666405 28.195372 -1.0328341
26.740698 28.186214 0.056858107
26.704685 27.993919 2.4274821
26.75552 27.991617 0.4586769
26.686895 28.098642 1.6591282
26.717636 28.040131 2.7272301
26.682716 28.010794 -1.4202783
26.7542 28.0858 -0.74441493
26.758032 27.993973 -0.83785641
26.764608 27.990114 -1.0236969
26.736897 28.188524 -1.5461028
26.850178 27.970835 -1.3093991
26.852406 28.07172 -1.1217129
26.727869 28.299553 -0.65372252
26.745113 28.197166 -1.218977
26.748627 28.253628 -1.2474004
26.698797 28.10137 -0.43467858
26.853298 27.957138 -1.0372595
26.779726 27.807568 2.5563443
26.633644 28.469357 0.25739694
26.707544 28.026114 0.46592826
26.76421 27.912529 -1.7289631
26.720749 28.317181 -0.9741962
26.743332 28.172272 -0.54449511
26.733839 28.1693 1.5601652
26.737537 28.275557 0.035131462
26.836182 28.186207 -0.018808577
26.595581 27.892334 1.9808483
26.835423 27.987757 -0.31837717
26.69656 28.10067 0.25752437
26.725178 28.280369 -0.35059917
26.740372 28.292919 -0.22720081
26.765686 28.193785 0.33406749
26.771204 28.304907 -0.55069435
26.752604 28.157557 -1.3521664
26.657076 28.289782 -1.1393313
26.759592 27.978704 -1.3214324
26.686028 27.907343 -1.6390686
26.698376 27.877977 -1.4358997
26.787388 27.998291 -1.7517087
26.756737 28.172743 -0.76175576
26.854996 27.804485 3.0376024
26.987993 27.832922 2.7787557
26.734825 28.170595 -0.64308625
26.70286 27.885979 -1.5081148
26.727177 28.182159 1.1406782
26.733372 28.180939 0.67395383
26.758141 28.202456 -1.113135
26.72563 28.269344 -1.0856916
26.742975 28.197544 0.47348884
26.727783 28.373398 -1.356164
26.835569 28.057369 -0.3477715
26.905661 27.861425 -1.9269652
26.850668 27.971582 -0.11727801
26.823654 27.948074 -0.27601671
26.702185 28.010693 0.95275885
26.680779 27.892075 2.820776
