# .PCD v0.7 - Point Cloud Data file format
VERSION 0.7
FIELDS x y z
SIZE 4 4 4
TYPE F F F
COUNT 1 1 1
WIDTH 876
HEIGHT 1
VIEWPOINT 0 0 0 1 0 0 0
POINTS 876
DATA ascii
23.491402 7.693109 1.6765074
19.806494 6.2651539 2.1829233
19.793949 6.2532477 2.4524484
21.371399 6.8099766 2.2492051
20.670321 6.5721426 2.1729767
20.679926 6.5719695 2.7274041
20.676348 6.5784354 2.2649488
20.677608 6.5813007 2.3623309
20.516378 6.5605931 2.5050969
20.751722 6.5354538 2.496896
23.647652 7.6375718 2.6637592
19.768995 6.2054958 2.3698239
22.967957 7.4123416 2.5596387
20.242622 6.3443336 2.5532315
19.387768 6.1087432 3.0392654
18.944174 5.9873362 2.5434434
23.256985 7.5228171 2.2775333
23.562458 7.6275349 2.3665402
23.552155 7.6234393 2.2737262
23.746136 7.6892052 1.9800837
22.966391 7.406518 2.3684423
22.977013 7.457757 2.3378444
23.670931 7.6823397 2.4645803
22.377598 7.2018971 2.2624557
22.482193 7.256381 2.3526123
20.789207 6.6123848 1.9701202
19.065041 5.9237151 2.4585187
22.17395 7.1259794 2.2629509
22.46685 7.2150931 2.1732283
23.560991 7.6279125 2.4655361
23.881016 7.7659492 2.4636047
23.453264 7.6206388 1.8685272
22.958023 7.4243345 2.1745386
23.58589 7.6610799 2.4685342
22.6502 7.3200078 1.9664733
20.080259 6.369401 2.1729612
21.106186 6.7512388 1.9523478
22.497311 7.2735767 2.125181
23.610811 7.6830831 1.9483367
22.681997 7.3572526 2.2623761
22.963911 7.4186602 2.2718074
22.674109 7.3078933 2.2697031
22.487791 7.2675028 2.0887403
23.968922 7.800077 2.2763808
23.294533 7.5630131 2.2772975
22.483509 7.271245 2.2440989
22.363913 7.2185469 2.0685577
20.562199 6.5604076 2.2813792
23.670835 7.6776476 2.6663384
23.677103 7.693644 2.1803677
20.802713 6.6489463 2.0805266
20.11986 6.402132 2.3359587
19.75362 6.2062473 2.246361
23.58128 7.6753712 2.3695552
23.283209 7.5679455 2.1587944
19.36801 6.0389209 2.2497294
19.860468 6.2280121 2.3720479
21.402122 6.8626542 2.0712245
20.384323 6.4592867 2.5487735
19.767908 6.2028399 2.4654095
19.269613 6.0138469 2.1601622
21.097918 6.7628689 2.5703816
23.292397 7.5654421 2.4644444
20.589521 6.5674586 2.3632154
20.498196 6.5518975 2.3488872
20.107018 6.3865757 1.9850127
23.265829 7.5724163 2.0732744
22.991062 7.4890757 1.8740938
22.701708 7.3830419 1.9495996
20.468882 6.4861717 2.2699435
22.752893 7.3387346 2.2541564
21.097576 6.7578607 2.0722799
21.308187 6.8530002 2.340786
21.036715 6.7467093 2.2013862
20.470152 6.4814229 2.5609157
23.858133 7.7705255 2.1671059
20.976767 6.6793466 2.4688418
22.766703 7.3243489 2.3559701
20.677225 6.5633631 2.5626507
22.183273 7.178822 1.9947194
20.373108 6.4579444 2.6552491
19.266745 6.020895 2.0826752
19.111019 5.9641256 2.1737227
23.872482 7.7727795 2.3666747
23.672335 7.6875925 2.3707373
22.870522 7.3816166 2.3614428
19.97822 6.2836576 2.37819
21.185152 6.7835102 2.3584905
20.473438 6.4714303 2.4589529
20.267956 6.3931365 2.6460226
20.2743 6.4005542 2.3678401
20.177013 6.3679156 2.5649028
19.884575 6.2655401 2.4603925
21.029951 6.6348033 2.410732
20.278093 6.4575672 2.2633855
20.268547 6.3938031 2.462739
20.184893 6.3675981 2.4579411
21.096247 6.7575979 2.3551185
20.678679 6.5640273 2.4676199
20.084087 6.3638954 2.0656714
20.606026 6.5559011 2.0419147
21.369143 6.8546638 2.2782521
21.179764 6.7824006 2.4655988
20.595177 6.5713105 2.1621008
20.966698 6.6901536 2.1639132
20.468212 6.4757099 2.6443329
20.095928 6.3618908 2.4546175
19.543774 6.1266341 2.1826584
21.162857 6.7703414 2.174016
19.874613 6.2698302 2.2665269
19.850819 6.2647376 2.0671549
22.196774 7.1483388 2.66997
22.283857 7.1616168 2.4587047
21.162586 6.7499413 2.5142491
20.382635 6.4647636 2.4588423
19.880882 6.2824416 2.3561342
19.882469 6.2800155 2.1690304
20.565924 6.5117211 2.5583794
20.17811 6.375967 2.358752
20.054632 6.3254256 2.079103
21.145077 6.7366347 2.4493272
19.85467 6.2164693 2.1491642
20.975121 6.679585 2.5513349
20.769703 6.5976162 2.5561764
20.167877 6.3888588 2.171196
20.854433 6.6184683 2.4670808
22.195234 7.1609135 2.3985181
19.471006 6.087749 2.5545487
19.756594 6.2135229 2.0624547
20.128435 6.3233662 2.2700465
19.307442 6.0561585 2.879261
21.095808 6.7589726 2.2771919
21.063765 6.7119584 2.4628465
20.068108 6.3031616 2.1722999
22.967731 7.4109788 2.4666176
20.470123 6.4904089 2.1579595
20.17063 6.3708677 2.2611909
19.376587 6.075129 2.0697985
20.475498 6.4904571 2.3583369
19.964018 6.2984371 2.2678454
19.858253 6.2202387 2.2634864
21.274738 6.7897878 2.3503304
22.96921 7.414557 2.6479878
21.258018 6.7943444 2.4561296
20.258707 6.4057178 2.2577007
19.985897 6.3070478 2.0444756
20.866568 6.6225829 2.3702703
20.173319 6.386775 2.0861816
21.230425 6.7267203 2.037667
22.270361 7.1865201 2.0309248
22.775566 7.3340168 2.8578143
21.559381 6.9842358 2.0641761
19.377375 6.0719099 2.8677404
19.68152 6.1666641 2.8437862
19.15947 5.9818368 2.1646013
21.148508 6.7302365 2.2598963
21.546619 6.8436756 2.3572199
20.658142 6.5292926 2.2572134
20.972919 6.687273 2.2794957
20.959497 6.6751127 1.8595659
21.429285 6.8152981 2.221642
20.859827 6.6225142 2.1599693
20.281935 6.3980355 2.075196
20.678331 6.5734348 1.9535029
21.197205 6.7700148 1.8743235
22.374853 7.2069373 2.1794815
21.180841 6.7718253 1.9629074
20.665983 6.528265 2.1712675
20.264933 6.4140286 2.1525083
20.978672 6.6938772 2.0523219
20.869928 6.6179047 2.253108
20.66132 6.530231 2.0552759
20.490362 6.4966698 2.0629277
21.17585 6.7321348 2.3523159
23.781757 7.7616305 2.3554978
19.384911 6.0714321 2.6707344
22.492128 7.2610312 2.476584
21.193281 6.7816525 2.0617683
21.366756 6.8061495 1.871706
22.479919 7.2705774 2.924175
20.860651 6.6170249 2.0638852
20.667841 6.5819149 2.0552101
21.534964 6.840066 2.2186658
21.541132 6.9042039 2.1507983
21.44381 6.8260059 1.9623113
20.963005 6.6346102 2.1836493
20.855164 6.615859 1.9758412
22.490261 7.2596731 2.554599
19.469997 6.1064119 2.0700126
21.453987 6.8248892 2.052108
21.538092 6.8289943 2.123142
21.461641 6.8195448 2.1382399
20.97769 6.6267519 2.0899124
21.534149 6.8943558 2.2657561
20.573034 6.5595679 2.4688489
21.348598 6.810122 1.9581664
21.159807 6.7318573 1.9355528
20.987841 6.6720848 1.9812244
22.487219 7.2539992 2.6639152
19.184118 5.9439721 2.9056718
23.524073 7.6443496 2.1102016
21.365757 6.8199134 2.0552831
19.769758 6.2581315 2.0628552
19.50952 6.1608543 1.9889673
19.067188 5.9287882 2.5598428
22.503626 7.2492714 2.7510328
22.572454 7.2798877 2.3561733
22.178944 7.1545606 2.5528927
19.141066 5.9381123 2.7265046
21.978535 7.066956 2.6548133
22.674347 7.3123069 2.1767442
21.142353 6.7194448 2.0640144
20.26466 6.3976302 2.7609334
21.889336 7.0479636 2.4668446
18.915766 5.8818698 2.2130084
21.879095 7.0662885 2.7025177
19.18115 5.9756513 2.8784163
21.884945 7.0587015 2.5580924
21.16317 6.7193322 2.1847866
23.472166 7.6021338 2.4730222
23.773996 7.7582569 2.0645888
22.912426 7.4604998 2.1099536
19.575687 6.1629748 2.9626715
20.023979 6.3314924 3.0292861
19.268969 6.0151439 2.5584359
23.651211 7.7112665 1.860703
19.068092 5.9236741 2.6628788
19.160915 5.9432707 2.2427387
19.597557 6.1622033 2.6711829
23.164951 7.5019097 2.2710531
21.070162 6.7046552 2.169297
23.97002 7.7943926 2.3625977
21.170555 6.779623 2.2470188
20.053362 6.3320932 2.9678776
20.095564 6.3638186 2.2627962
23.264984 7.5171857 2.5604827
20.567558 6.5065341 2.4662466
22.607143 7.3461261 2.1687198
20.951427 6.6274986 2.5209265
19.165501 5.9792843 2.460921
23.46814 7.6028318 2.5564902
20.01202 6.3511147 2.1974103
19.252142 6.0204706 2.9581397
19.182255 5.9367328 2.4861538
20.064159 6.3650336 2.8470001
20.430634 6.4452639 2.2740202
23.780018 7.7644696 2.1613283
19.247608 6.0065155 2.8543565
23.875708 7.7864475 2.2682452
22.783403 7.3624697 2.4603951
19.573553 6.116518 2.3868828
19.962362 6.280345 2.8474712
23.792313 7.7594552 2.4672048
20.477032 6.4722371 3.1326559
20.013628 6.2713428 2.9695268
20.812338 6.6499329 2.3844914
23.780996 7.7304106 2.0654497
23.759531 7.7149415 2.1614377
21.058939 6.7057447 2.3647506
20.975475 6.6832981 2.6297634
22.27709 7.1728568 2.3729827
18.985373 5.9183879 2.6622252
23.764999 7.7153611 2.2749307
23.891998 7.8055115 1.9731996
22.243092 7.1341219 2.4714231
23.778313 7.7497387 2.2614083
23.406841 7.6468992 1.9423364
23.692705 7.7124758 1.9623587
23.71558 7.7487884 2.5426247
18.98666 5.8924599 2.2444725
21.869341 7.0503502 2.3513658
23.660543 7.6976609 2.0675907
19.353029 6.0307145 2.6759121
18.863001 5.8433251 2.4092736
23.708509 7.7236605 1.7752032
23.46991 7.592608 2.8566713
23.764811 7.710165 2.3690975
22.850866 7.3377342 2.4598088
22.669384 7.3105803 2.8371878
21.712303 6.9956088 2.4659867
20.759083 6.5855908 2.4585643
23.276772 7.5294352 2.8611557
21.81287 6.9400797 2.4103334
22.44326 7.2146516 2.2686343
23.568115 7.6727247 2.0690079
21.065714 6.7064509 2.0616281
20.721493 6.515583 2.5893929
23.005831 7.4561682 2.670141
20.895809 6.6610641 2.5566361
21.786858 6.9694085 2.3517585
20.061609 6.3229012 2.2443645
20.2313 6.3404393 2.3546162
23.962946 7.7286086 2.6306958
22.062883 7.0913286 2.0479231
19.342953 6.0264111 2.478153
20.891005 6.672101 2.1216314
19.649553 6.1377063 2.4531245
19.172745 5.9784994 2.5506256
19.166952 5.9644008 2.2556577
22.255379 7.1280899 2.6374788
23.318752 7.5881472 2.8935049
20.074589 6.3113356 2.7657824
22.670673 7.3002658 2.4699888
18.913088 5.8771157 2.4001403
23.779184 7.7621231 2.6545849
23.082832 7.4836736 2.1639423
20.865391 6.6723347 2.0654819
20.837448 6.6489077 1.8842077
19.377213 6.0334973 2.1872079
19.37862 6.0627699 2.3794758
19.673208 6.1719441 2.7552226
19.368652 6.0306587 2.3934257
23.001358 7.457088 2.5578094
21.392294 6.8525267 1.9818876
21.063251 6.7073951 2.2647643
21.234188 6.7396393 1.9257767
21.275623 6.7968397 2.1458654
19.16993 5.9823093 2.7538924
19.515434 6.1588387 2.1692817
21.491358 6.9003005 2.0744846
21.376312 6.8690767 2.1448386
19.562109 6.1203527 2.7629023
19.3801 6.0631962 2.2669275
23.484962 7.6483426 2.5594821
20.276648 6.4025421 2.5601907
22.837463 7.3329706 2.7437377
20.253126 6.4198875 3.0191491
19.939808 6.2430534 2.666183
19.563316 6.1219387 2.5613368
22.620522 7.2213488 2.3793354
22.833521 7.3453474 2.1796815
19.927456 6.2454119 2.8269517
19.173166 5.9771953 2.6604164
20.573685 6.5258899 1.9904506
19.593092 6.1723604 2.2631264
19.675735 6.1744819 2.4690721
21.05541 6.6953607 1.8747878
19.671658 6.172936 2.3718081
21.261034 6.7812662 2.0562389
20.771114 6.5907512 2.3619812
20.878378 6.6576672 2.4690518
23.277407 7.5674858 2.3642392
21.416733 6.8732548 1.8997881
22.283377 7.1697531 2.5560801
23.499353 7.6549559 2.257719
23.511269 7.6540751 2.6662407
23.172775 7.5578051 1.9844546
19.538019 6.1079636 2.9550343
22.462332 7.2154636 2.5661438
19.56411 6.1701164 2.1614079
22.281315 7.1633525 2.7589769
22.580839 7.3041039 2.0466845
20.471973 6.4760571 2.8456805
21.71353 6.959507 2.1896851
23.05522 7.4870701 1.9476656
19.659107 6.2003922 2.0638118
20.368225 6.4270997 2.5625761
22.688663 7.3686786 2.0623384
18.977343 5.9090986 2.551125
21.272106 6.7760992 1.8631263
19.350914 6.0678325 2.9731863
23.469639 7.6021185 2.3680396
21.488802 6.8955393 2.2573218
19.472004 6.0918107 2.8666422
19.676231 6.1920466 2.1605079
19.672819 6.1863031 2.2540162
19.098709 5.9681168 2.4555917
23.48497 7.6677742 2.1404238
22.705437 7.351779 2.1345387
22.78352 7.3743963 2.0714169
20.290573 6.4557161 2.0508075
20.885731 6.6635466 2.3638623
19.946556 6.244988 2.162333
19.267197 6.0124798 2.7492511
19.161011 5.9357638 2.1601107
20.753551 6.5911613 2.0721431
23.665911 7.6307144 2.5570772
19.882196 6.2622824 2.5640278
22.868734 7.3912888 2.1624079
21.064379 6.7641683 2.4352965
20.758463 6.5918903 2.1713746
23.370531 7.5814743 2.1614277
23.695068 7.7602921 2.6832435
20.936831 6.6364408 2.3552728
23.084513 7.469285 2.4682605
21.861656 7.0090647 2.274801
22.866644 7.38978 2.26529
22.56152 7.2966175 1.977101
22.386345 7.2596641 2.0258281
22.128805 7.1506634 2.2639639
23.672434 7.6825304 2.5555589
23.673471 7.6971431 2.2620509
22.779577 7.3821144 2.1705871
23.456226 7.606216 2.0558236
23.560247 7.6246099 2.5582831
21.303623 6.8655591 2.2656963
19.792433 6.2629552 2.2442811
23.373808 7.5745106 2.4639871
19.471676 6.1010714 2.2660348
19.627226 6.2089124 2.0027568
20.307768 6.4508147 2.631578
19.971231 6.280982 2.4613717
20.877014 6.6642642 1.9907784
23.161825 7.4907379 2.3661065
19.470785 6.103055 2.1738262
23.167343 7.4930563 2.5656204
19.157646 5.9889297 2.951601
23.176167 7.4947729 2.4685385
23.581976 7.668798 2.2803862
23.076677 7.4697118 2.3606269
23.177492 7.5102487 2.0591543
20.781506 6.6057234 2.2676136
20.061459 6.3128109 2.4590843
19.472475 6.0919785 2.372642
21.831434 6.9375334 2.1156709
21.813263 6.9424019 2.4416585
19.469662 6.0841746 2.4798269
20.067926 6.3116646 2.3677993
23.202095 7.553092 2.043427
20.230221 6.3381672 2.7241533
23.494114 7.644969 2.0054855
20.072536 6.3190246 2.5612082
19.88316 6.1089816 2.2572508
21.486572 6.8836484 1.9611274
23.377684 7.5821257 2.6446402
22.484745 7.2691159 1.9782187
22.875204 7.3925443 2.0590196
20.561214 6.5169635 2.074389
21.313505 6.8466444 2.1469429
21.533699 6.9641533 2.2534115
23.498259 7.6687088 2.0621805
22.19154 7.1490421 2.430815
23.193306 7.5513864 2.4586506
20.974674 6.6858239 2.3625398
19.572615 6.1263986 2.856317
21.489174 6.9020019 2.1718593
23.49189 7.6650715 2.3505054
19.382107 6.0624022 2.5538919
19.173414 5.9688396 2.3583465
21.259687 6.7811337 2.2509937
20.562885 6.5080314 2.7593601
23.071627 7.4807205 2.2636733
23.374052 7.573513 2.5508296
23.371632 7.5820279 2.2737668
22.784153 7.365077 2.5517778
20.591413 6.5626631 2.5743511
19.087219 5.9674683 2.2637107
21.059576 6.7152457 1.9409388
22.384012 7.2485213 2.1617684
19.644423 6.1450019 2.1711593
23.097569 7.4539595 2.8186359
20.367689 6.4250393 2.3741577
23.797487 7.7622805 2.5488486
21.347958 6.823154 2.1675251
19.517696 6.1482744 2.2367575
23.576103 7.6713772 2.1693273
23.823536 7.7448049 2.839077
19.064751 5.9567671 2.8695862
19.565165 6.1614714 2.7597611
21.850906 6.9426942 2.3055794
23.463417 7.6890116 1.9601095
22.100918 7.1580071 1.9864409
22.281538 7.1940222 2.1334336
23.463957 7.64568 1.9094647
22.28002 7.1676164 2.2641957
20.932892 6.6336603 2.4382358
23.708662 7.7571216 2.2625289
22.993887 7.4622521 2.0737934
23.170462 7.5093918 2.1686349
23.171509 7.5393629 1.9667926
19.563248 6.1091619 2.2485778
19.955872 6.2418551 2.449964
23.36857 7.5950313 2.0659935
23.369003 7.6032257 1.9709339
21.526014 6.9617562 2.1415951
23.582937 7.6644788 2.5582261
19.140352 5.9428234 2.5232971
18.955832 5.8826227 2.1560287
18.966856 5.8998747 2.3677523
21.866409 6.9989524 2.8361578
23.26354 7.5641308 2.0064628
23.46349 7.6106148 2.172859
23.076469 7.4896832 2.0537982
22.78162 7.3654847 2.6470942
22.667048 7.3244901 2.0581267
22.781353 7.364325 2.2662647
22.997784 7.4692302 2.7550204
22.98312 7.4640613 2.1508789
22.37355 7.1988559 2.3671553
22.789675 7.3613214 2.7663722
22.773504 7.324368 2.1839342
19.384527 6.078712 2.1603186
19.770605 6.2107344 2.1704757
23.37612 7.5835438 2.3616884
21.634342 6.9210935 2.3037646
23.250269 7.5664334 1.8569458
22.567898 7.2776365 2.2643366
19.065441 5.9307127 2.746248
22.991245 7.4675913 2.2718563
23.46314 7.5906334 2.7433419
20.472265 6.4791918 2.7498038
19.683378 6.1425233 2.8622246
22.575001 7.2855406 2.1594553
20.569025 6.5120473 2.1669948
22.979383 7.455699 2.4616654
19.975256 6.3035331 2.1567624
22.982376 7.4496126 2.8693795
20.567928 6.5012293 2.3677635
20.566866 6.5005059 2.2600644
20.574049 6.5045342 2.6482344
20.273403 6.4583964 2.4352984
20.283121 6.4554262 2.16589
20.361755 6.4293604 2.0721626
20.370155 6.4148626 2.1484761
22.850857 7.3255105 2.3516598
22.869108 7.3313837 2.5742204
20.939774 6.6789184 2.7306271
20.30547 6.47019 2.3517849
20.184696 6.3681183 2.6606407
20.270067 6.4056439 3.1119649
19.432783 6.0417824 2.6893911
22.774551 7.3258123 2.7688458
19.269583 6.0076456 2.6660967
20.364531 6.4698853 2.0572429
20.360548 6.4312449 2.2518237
22.147114 7.095871 2.0616276
22.958622 7.4160142 2.0709004
19.990299 6.347362 2.2602115
20.377331 6.4684968 2.1670268
20.391203 6.4880295 2.3572054
20.797649 6.6615753 2.481771
20.371029 6.4752998 2.272218
20.884434 6.6701183 2.276845
19.588806 6.1755481 2.0584214
22.752113 7.33042 2.6535714
19.766462 6.2090969 2.7621086
19.590519 6.161622 2.3575869
22.155186 7.0860891 2.1544721
22.782923 7.3628583 2.3622541
22.768269 7.369431 1.9527903
20.76438 6.5393705 2.3754036
23.286478 7.5627608 2.5643334
20.725904 6.5370798 2.1647668
23.471313 7.6155472 2.2605395
21.985313 7.072999 2.1620464
19.562462 6.1607904 3.0564163
21.311914 6.9069991 1.9518608
23.192419 7.5493693 2.2803774
23.204342 7.5511098 2.1436269
19.378681 6.0698109 2.7510405
19.080095 5.9582596 2.5648189
18.956144 5.8946838 2.0321848
20.787491 6.6632848 2.5444567
22.75679 7.3266611 2.5595167
23.210026 7.5577888 2.3383968
20.786184 6.6552916 2.2031398
21.8034 6.9223781 2.5785897
18.978001 5.9108996 2.4639843
19.295673 6.0591459 2.0581906
23.076105 7.4654336 2.5631371
19.350853 6.031498 2.8642921
19.787785 6.1055884 2.2569306
23.445164 7.5318241 2.5603402
23.39295 7.5735359 2.7349393
21.264578 6.7903466 1.968435
19.479717 6.0216122 2.273159
19.288033 6.0573587 2.1348307
19.65439 6.1363392 2.3836565
19.431581 6.0268655 2.4857876
23.349529 7.5958557 1.8513573
21.80669 6.9713793 2.160336
19.083958 5.9312525 2.9388208
21.978584 7.0640721 2.2763474
21.789572 6.9862633 2.5631928
22.672031 7.3025517 2.366045
19.03055 5.9126649 2.1417227
22.549543 7.2304544 2.466181
19.055531 5.9256492 2.3742495
22.643215 7.2427063 2.4484
19.420338 6.0446734 2.7896249
19.665106 6.097158 2.2805352
19.303923 6.0563107 2.2942748
22.701431 7.3599801 2.35868
19.267885 6.0077028 2.4646893
19.346241 6.0317979 2.5620825
20.724098 6.5412693 2.654665
23.379997 7.572669 2.8650713
19.767227 6.198658 2.6637769
19.574354 6.1551518 2.4573984
23.580059 7.6559687 2.74614
18.941473 5.9904056 2.4736211
23.485447 7.6500368 2.4709105
19.076765 5.9234943 2.2517936
23.323736 7.531074 2.2927265
23.257866 7.5157633 2.3714311
23.260424 7.5085874 2.7482889
19.569984 6.1201606 2.6634402
23.420649 7.5454445 2.495013
23.851217 7.730607 2.4684932
23.258747 7.5567536 2.6411469
20.853271 6.6250677 2.5495484
20.653769 6.5299301 2.641639
23.844658 7.7557454 2.8354149
19.818232 6.2467122 2.8252385
21.961981 7.0195384 2.1011243
21.978848 7.0249119 2.1717536
19.276489 6.0546885 2.4675469
22.551697 7.2148585 2.2500477
19.879059 6.2643547 2.662369
21.786552 6.9802203 2.4614148
19.632862 6.1301422 2.5293722
19.638338 6.1293306 2.675415
19.859285 6.2296953 2.5613222
19.859116 6.2263799 2.8221192
23.564009 7.630003 2.1726828
19.25423 6.0559144 2.3252184
19.87318 6.23281 2.754004
22.765188 7.3256693 2.4549918
19.754395 6.2457881 2.7745559
19.970615 6.2806826 2.6551497
19.973812 6.2864747 2.7521446
19.972898 6.2834544 2.5568049
19.386829 6.0675936 2.4609239
19.563713 6.1198516 2.475769
19.862549 6.2277408 2.4634254
19.088163 5.9626346 2.7398393
22.668446 7.3033681 2.5555022
19.773691 6.206039 2.5575566
19.799437 6.2485094 2.5811813
20.205139 6.4173231 3.0488174
22.544119 7.2238889 2.558634
19.88084 6.265511 2.7602582
22.547878 7.2315054 2.7264762
19.864143 6.2257318 2.6610057
20.786037 6.5942554 2.6508207
21.786158 6.919693 2.0714774
20.777246 6.6138825 2.7338412
19.301025 6.0647831 2.6846673
23.857382 7.7349739 2.1345046
23.856831 7.7267814 2.7537577
23.770084 7.7119031 2.7671883
19.269445 6.0056639 2.365303
21.755352 7.0542336 2.2995083
21.954912 7.0230207 2.3524601
23.766878 7.7100072 2.4683836
19.667919 6.1726274 2.6564832
19.768667 6.1926241 2.8411419
23.1849 7.4381766 2.6422474
22.57349 7.2717466 2.4725749
21.977774 7.0612426 2.4643078
22.557138 7.2405419 2.0534847
19.683594 6.1712866 2.5619576
23.1252 7.4276648 2.7989252
23.163977 7.4353104 2.5788419
22.36759 7.1881442 2.4631898
21.782925 6.9857168 2.2681744
23.34856 7.5295691 2.4892795
21.873327 7.0058532 2.3626685
19.886292 6.2667489 2.8927703
21.874195 6.9999132 2.4582002
23.185341 7.4850817 2.83675
23.851015 7.7292418 2.3804479
19.685232 6.1850352 2.9713192
22.578327 7.2744765 2.5584588
22.201323 7.1502476 2.7934771
23.881014 7.7700453 2.65434
19.289845 6.0571723 2.7206788
22.060699 7.1061997 2.9687467
22.068539 7.0745029 2.6587613
23.171606 7.4835024 2.7524302
23.805685 7.7541575 2.741302
22.071724 7.078444 2.7519042
21.964033 7.0231571 2.4567411
23.847132 7.7284145 2.6551206
23.672325 7.6802158 2.7602119
23.853527 7.7276993 2.5603025
23.852144 7.721993 2.2720537
23.880291 7.7670569 2.7516961
23.034389 7.4155488 2.8337696
22.068335 7.0627899 2.8376224
22.570343 7.2310829 2.3476675
21.682055 6.9332104 2.3762512
22.468351 7.2234402 2.4559329
23.057819 7.4142561 2.752907
22.459641 7.2139502 2.3601487
22.461658 7.2186513 2.6539979
22.528475 7.2277174 2.1220174
19.883999 6.2396717 2.9654984
22.214939 7.1470475 2.8206203
23.049753 7.428442 2.5728149
23.065451 7.4290776 2.638201
23.400932 7.6469922 2.3505445
19.600323 6.162147 2.565325
22.067963 7.0766945 2.4603114
23.052811 7.4315639 2.4567943
19.071751 5.9498954 2.3438463
23.056929 7.4237728 2.3655636
23.752764 7.7189012 1.8966101
22.074539 7.0827699 2.3624146
23.079576 7.468637 2.7484944
22.071535 7.080421 2.5649889
21.82563 6.9207816 2.3707905
23.35228 7.530611 2.3828027
21.85253 6.9414668 2.413141
22.075462 7.0902314 2.2663136
21.829542 6.9440684 2.5183194
23.073748 7.4734583 2.6652451
22.055206 7.0553489 2.1685655
19.63588 6.1281905 2.7682536
23.295448 7.5535111 2.7431507
19.263039 6.0000424 2.2682691
21.868999 6.995225 2.6558838
21.871252 6.9973912 2.5674903
22.868111 7.3838792 2.5572116
22.87055 7.3823876 2.4691129
21.985872 7.059258 2.3610413
22.467293 7.2180452 2.7552764
20.287216 6.489233 2.5963726
22.970961 7.4090109 2.7617176
19.574751 6.1583219 2.8647401
23.04505 7.4282937 2.2710342
23.137728 7.4383106 2.354764
20.281425 6.4467402 2.7879252
22.870943 7.3822308 2.7578456
19.140902 5.9368577 2.3751404
22.681337 7.3081546 2.7588871
19.494667 6.1203322 2.9696255
22.882444 7.3854585 2.6558654
20.369461 6.4302301 2.7546933
20.364838 6.4200907 2.4589782
20.061689 6.3073521 2.8472359
20.159966 6.3235302 2.1852577
20.177174 6.3735719 2.844867
21.987682 7.0579686 2.5656266
22.167973 7.1258073 2.8495474
22.368519 7.183857 2.9149876
22.416122 7.2505746 2.2535496
22.429903 7.2099586 2.9181614
22.556578 7.3052373 2.9192407
21.784084 6.9938517 2.6517947
19.473822 6.0986524 2.7529416
22.174217 7.1112657 2.3686905
22.260399 7.1227965 2.3624032
22.557039 7.2337341 2.6496034
20.060921 6.3106194 2.6584692
20.145088 6.3258338 2.9702592
20.248161 6.4066253 2.9673901
20.332478 6.4146361 2.9697709
20.354593 6.4156156 2.6459913
21.956072 7.0199943 2.6539428
22.050322 7.0224142 2.642982
22.15979 7.1051674 2.6548474
22.329411 7.1422291 2.6517575
22.378504 7.1966515 2.6490083
22.572203 7.2686481 2.6504598
21.969309 7.022059 2.7580738
22.164438 7.1165895 2.7439682
20.147446 6.3328309 2.4529195
22.165995 7.1104021 2.5641832
22.256599 7.1297059 2.5627511
21.873568 6.9944706 2.7625232
21.992191 7.0593686 2.7536275
22.170544 7.1098013 2.4635186
22.368637 7.1952138 2.7465727
22.026581 7.0323777 2.7343733
22.082233 7.021657 2.1644642
22.249956 7.1219759 2.7587461
20.386951 6.4489169 3.1227682
20.084101 6.3516021 2.6345639
22.073446 7.0147395 2.3631077
19.47382 6.090466 2.6618366
19.787628 6.2268562 2.9619436
20.0881 6.3585687 2.7578576
20.177946 6.3760877 2.7606182
19.088896 5.9576144 2.6515522
22.372173 7.1928883 2.5620749
21.966204 7.0261216 2.5663774
22.078999 7.0405436 2.2997026
19.356159 6.0263114 2.7565777
20.138071 6.3320832 2.5566602
20.269701 6.4025044 2.8377948
20.370327 6.4556699 2.8323245
19.272886 6.0592651 3.0307205
23.766151 7.7033672 2.6502726
20.445595 6.4376001 2.1809773
23.564713 7.6228127 2.6507208
20.137478 6.343277 2.8174593
23.474602 7.5999317 2.6626046
23.586344 7.6601005 2.6656559
23.573633 7.6679115 2.9211731
23.683367 7.7059293 2.924057
19.876358 6.2759142 3.0081017
20.312574 6.4690042 3.0159752
20.363356 6.4947186 3.0162804
22.332907 7.1367216 2.528146
23.768091 7.7126942 2.5572555
23.268858 7.51162 2.6562774
23.16604 7.4888854 2.6564596
23.52458 7.6426063 2.8779118
23.591461 7.66712 2.8800786
23.69376 7.6939688 2.875412
20.146296 6.3301096 2.7590218
23.26523 7.5215597 2.4596066
22.561058 7.2793446 2.8518548
20.141439 6.3277426 2.3718009
23.36241 7.53194 2.5552433
23.949574 7.7382183 2.5629661
23.360464 7.5303526 2.6391263
22.675997 7.3083 2.6554537
22.564409 7.2655849 2.7557051
23.651527 7.6292219 2.4824657
23.163187 7.4410305 2.4399025
23.645206 7.6389117 2.3950953
22.867481 7.3864355 2.8516734
19.14587 5.9398661 2.6618791
23.55077 7.6197662 2.7570374
22.47364 7.2181659 2.8356068
22.367598 7.1372504 2.4611311
22.274509 7.1489382 2.8512335
22.37122 7.17451 2.8276639
22.541346 7.2418041 2.8247616
22.159874 7.1168761 2.9366336
22.666365 7.3499579 2.9139516
22.05493 7.0257215 2.4526341
22.242126 7.1238937 2.9339261
22.277514 7.1633759 2.6588547
22.77635 7.3575425 2.926255
22.855436 7.3810005 2.9283302
23.484829 7.6159439 2.9294288
21.964731 7.0247426 2.2702808
23.473488 7.6492095 2.7254317
21.966679 7.0341797 2.8345881
22.796766 7.3873415 2.8584685
20.432499 6.4385381 2.3616924
20.441006 6.4329119 2.4687181
20.657078 6.5292406 2.3861032
20.649218 6.5310936 2.5591576
22.146152 7.0443058 2.4313855
22.265604 7.1034851 2.1527741
22.321144 7.1304879 2.2955697
23.933926 7.7370715 2.4283822
20.149635 6.328712 2.6409953
20.451069 6.4367585 2.6483414
22.121208 7.0313787 2.6101015
22.700842 7.3503714 2.5511341
20.670839 6.5338478 2.4722846
20.859051 6.6210098 2.6816185
22.849226 7.3399186 2.6429901
20.380434 6.4233332 2.8228612
20.164646 6.3826737 2.9672673
20.350178 6.4506655 2.9708683
20.378677 6.4557295 2.7545762
21.984343 7.0583644 2.8371308
20.679348 6.5665298 2.6416502
22.049 7.041307 2.6089396
23.353647 7.5098467 2.8315959
22.264532 7.1281576 2.2583501
20.107056 6.36026 2.5686862
22.334379 7.1306648 2.3884754
20.599129 6.5487828 2.6292753
21.727249 6.9385481 2.2536089
20.423431 6.4396243 2.7647662
23.326702 7.530983 2.7434831
22.265947 7.1280918 2.8413084
21.066465 6.726048 2.5671613
23.793436 7.7918935 2.9469764
22.700066 7.3598075 2.4792347
22.926931 7.4054298 2.8170552
21.782932 6.9103708 2.19977
23.962284 7.726562 2.7250142
20.429777 6.4402981 2.5393593
22.719671 7.3479156 2.624917
20.612692 6.5549583 2.7584994
19.362419 6.0372849 2.9262547
22.160654 7.0347424 2.169337
21.662394 6.9628911 1.9776124
