# .PCD v0.7 - Point Cloud Data file format
VERSION 0.7
FIELDS x y z
SIZE 4 4 4
TYPE F F F
COUNT 1 1 1
WIDTH 755
HEIGHT 1
VIEWPOINT 0 0 0 1 0 0 0
POINTS 755
DATA ascii
13.119901 13.23652 -2.5424507
13.124537 13.35424 -2.7270319
13.140615 13.388926 -3.225862
13.055834 13.567614 -2.8345945
13.053838 13.486347 -2.692486
12.985353 13.472823 -2.0998547
13.257389 13.100109 0.38487649
13.125672 13.381839 0.27064458
12.870605 13.516497 -2.8716593
13.10939 13.246347 -2.9571729
12.807754 13.451343 -2.9961243
13.134527 13.265916 -3.1544895
13.177982 13.148741 -3.186594
13.075332 13.371604 -3.1242771
13.059484 13.486065 -2.5526714
13.136 13.185884 -0.14456074
13.016096 13.344293 -0.16398089
13.141784 13.371498 -1.4286191
13.137407 13.192261 -0.75059164
13.067629 13.298757 -0.8361541
13.08497 13.200957 -1.8417701
12.89029 13.512387 -3.1940248
13.126381 13.354651 -1.5411928
13.147475 13.194867 -1.5308708
13.012525 13.315774 -0.73810315
12.979208 13.417849 -1.4436052
13.00239 13.404918 -1.1412094
13.163646 13.077789 -1.0443578
13.181421 13.094436 -1.7286563
12.911867 13.394102 -2.9415884
12.994758 13.403855 1.4611695
12.995376 13.137518 -1.4199941
12.996098 13.412997 0.95348877
12.988216 13.398674 1.2733374
13.23186 12.993034 -0.13001452
12.993657 13.417247 1.1643971
13.007725 13.421896 0.16657616
13.013938 13.278813 -2.1897182
13.246861 13.174474 -1.2309258
12.983305 13.300595 -1.6430497
13.12941 13.256025 1.2517476
13.135205 13.179828 0.25385055
13.011451 13.310563 -0.32189482
13.153844 13.08368 -0.74602956
12.990649 13.465418 -3.0937977
12.991979 13.209881 -3.9485502
12.995449 13.514503 -1.5546334
13.015805 13.340122 -1.9080946
13.187625 13.090964 -1.8343415
13.143292 13.193582 1.3655106
13.002998 13.316661 -2.1601558
13.1301 13.266568 1.3626053
13.136859 13.18226 0.36474055
13.08985 13.198529 -1.3308878
13.141955 13.183359 1.0610815
13.135845 13.178537 0.66983217
12.973945 13.246257 -2.3830204
12.958124 13.5063 -2.8240991
12.987431 13.600114 -1.8455957
13.036469 13.486541 0.063209206
13.002228 13.509588 -2.9253535
13.13343 13.179323 0.16199401
12.963694 13.304823 -2.4500382
13.031191 13.480193 0.4621928
12.982326 13.514094 -1.2436806
13.074228 13.294817 0.36169875
13.008582 13.322807 -1.2342247
12.997879 13.402322 -1.0448509
12.987465 13.513682 -1.3350735
13.135978 13.181099 0.55701286
13.222877 13.089996 1.5906757
13.031369 13.47508 0.16239655
13.001041 13.405919 -0.43693569
12.990481 13.404351 -0.94522262
13.143332 13.184073 1.1609774
13.035246 13.475709 0.5553596
13.087973 13.302815 -1.7486382
13.134803 13.183118 0.85851401
13.136627 13.184381 0.96286422
13.150496 13.194689 1.573379
13.033846 13.487158 0.86753243
13.138041 13.606449 -0.54898429
13.141211 13.186493 1.2570318
13.179085 13.094125 -1.6443093
13.046453 13.388829 0.15902518
13.091434 13.088282 -1.5072875
13.221193 13.151353 -2.058095
13.096117 13.090281 -0.93278414
13.131342 13.281842 1.7567102
12.989922 13.139817 -3.4314609
13.165374 13.085137 1.1597911
13.158683 13.085133 0.95988578
13.22588 13.062402 1.0896258
13.163402 13.083961 1.0630571
13.097157 13.311399 -1.8321755
12.981147 13.022949 -4.2793288
13.000891 13.302937 1.1666923
13.228185 13.049545 0.99181497
13.175903 13.089461 -1.5362387
13.17125 13.087919 -1.3354163
13.155453 13.093004 -1.1459967
13.165706 13.100574 -1.4334699
13.160458 13.086637 -1.2373976
13.232869 13.048346 0.42391878
13.235394 13.006313 0.17334031
13.004286 13.312038 1.3677305
13.229017 13.01162 0.88400334
13.235411 13.008052 0.041666139
12.95829 13.310026 -2.7258229
13.23685 13.055096 1.3432468
13.241092 13.016975 1.4606713
13.232707 13.023106 1.1568342
13.064652 13.489443 -1.8505063
13.005975 13.323785 -0.95504624
13.135221 13.180139 -0.23817609
13.234948 13.072783 -0.19463249
13.089695 13.202858 1.0568745
13.067805 13.079413 -2.9284725
13.232819 13.087944 -1.5396094
13.246392 13.070329 1.2547876
13.004706 13.352129 -1.8932734
12.989552 13.423497 -1.7316898
13.123903 13.589433 0.11854394
13.220683 13.400693 -2.4662735
13.149494 13.085528 -0.63798106
12.989086 13.29352 -2.0215454
13.037456 13.147047 -3.9355497
12.972727 13.259866 -2.833869
13.088726 13.085656 -1.8218194
13.075306 13.28674 -1.1322461
12.972151 13.280809 -3.0209761
13.095899 13.202957 0.75953299
13.004196 13.286832 -1.7221498
13.035491 13.486494 1.0626378
13.253357 13.07249 -1.8305459
13.140251 13.387268 -1.9549527
13.108076 12.971087 -2.6817997
13.145326 13.092679 -0.13655442
13.153856 13.087061 0.46031019
13.003905 13.311182 -0.51343298
13.149495 13.091581 0.25665551
13.011852 13.316921 -0.64771837
13.151999 13.085168 -0.034789279
13.227251 13.188706 -1.8995745
13.081168 13.196154 1.4554994
13.232842 13.08251 -1.7225531
13.149071 13.093263 0.55995661
13.049832 13.58331 -1.9322672
13.047053 13.579809 -1.8322381
13.005463 13.312487 -0.42074284
13.072211 13.39207 -1.4466223
13.14552 13.298779 -1.7392945
12.990677 13.504918 1.0624516
13.00816 13.317498 1.2618722
13.070668 13.29948 -0.24151325
13.145319 13.285303 -1.4280605
13.092587 13.307791 -1.6386377
12.984051 13.620142 -1.9278781
13.224088 13.419921 -1.9456205
13.139037 13.284011 -1.5426767
12.973232 13.60001 -1.7403041
13.159742 13.200451 -1.751726
13.144419 13.189865 1.4637291
12.989206 13.506083 0.45693931
12.976926 13.511715 1.6588047
13.018432 13.344621 -1.8001088
12.980992 13.509803 1.1624675
12.988457 13.505741 0.76173013
13.135028 13.368719 -1.7330122
13.12038 13.367259 -1.0166947
13.150211 13.289668 -1.9511298
13.041236 13.586797 -1.7302068
13.022919 13.686626 -1.9166112
13.231761 13.101757 -1.122973
13.135814 13.178506 -0.039889719
13.103009 13.030027 -3.144655
13.12021 13.373318 -1.246119
12.896889 13.222851 -3.6629095
13.236209 12.98344 0.53828067
13.190898 13.093533 -1.9311787
12.894484 13.288675 -4.1586318
13.032505 12.984037 -4.1423259
13.098588 13.29152 -1.5261447
13.014132 13.222103 -1.7336884
13.149623 13.41572 -2.4066057
13.068292 13.294694 -0.74325359
13.135277 13.269916 -0.33381104
13.148811 13.193926 -1.0327044
13.069423 13.290017 -0.53843975
12.867819 13.211664 -4.2613821
13.056002 13.499144 -1.7359796
13.047452 13.588782 -1.6293207
13.073779 13.293595 0.86136585
12.950256 13.440695 -3.2310252
13.037096 13.492003 1.6535435
13.039108 13.488032 1.5593474
13.083791 13.48684 -3.2894845
13.144393 13.18826 -1.3396416
13.138761 13.2878 -1.3355802
12.984344 13.387589 -2.9757609
13.134096 13.280549 1.8612328
13.002395 13.41058 0.76239443
12.997276 13.407125 -1.5328251
13.074942 13.108896 -3.1558855
12.995746 13.410601 1.0541464
13.033463 13.491767 1.1619675
13.011806 13.321037 -1.1302545
13.13252 13.26904 -0.93735236
13.033692 13.477236 1.2547438
13.036361 13.489568 1.356111
13.126814 13.267911 0.37132874
13.175968 13.184596 -2.0236943
13.124476 13.363698 1.6441565
12.97156 13.514108 1.5545465
13.084567 13.187712 1.3659239
12.971494 13.585234 -0.13733235
13.148791 13.086761 0.16294806
13.134517 13.179482 0.76487446
13.140458 13.179218 -0.64534581
13.142847 13.391158 -2.3558769
13.096881 13.198793 0.96455503
12.997235 13.409712 0.65253121
13.163404 13.191628 -1.6356956
13.081101 13.111016 -2.8426826
13.060416 13.395383 -1.1399772
13.150165 13.090058 0.062041305
12.972703 13.512946 1.4615147
12.984816 13.506569 0.86299747
12.990871 13.103254 -4.3029003
12.97317 13.583941 0.061376713
12.987058 13.19284 -4.1473856
12.929585 13.208122 -4.1977544
13.158544 13.290274 -2.0097451
13.058475 13.387904 1.2655315
13.147019 13.314363 -2.2420151
13.030724 13.58793 -0.23461483
13.163386 13.278613 -2.1274199
13.13694 13.181495 -0.54069495
13.14494 13.271279 -1.2370143
13.131308 13.281226 -1.0332974
13.134194 13.284103 -1.1416916
13.224966 12.99266 -0.053731441
12.98228 13.035838 -4.1687026
13.00722 13.306026 0.95701879
13.093156 13.200869 -0.043952096
13.146753 13.086248 -0.24014112
13.139532 13.260427 0.85042918
13.169168 13.012583 -0.1397524
13.087625 13.198688 -0.73750627
13.003787 13.030202 -3.611701
13.029657 13.579892 1.7639449
13.030195 13.134858 -4.1536093
13.145185 13.300314 -1.6359954
13.164347 13.007693 -0.33960184
13.056096 13.397114 -0.94379312
13.183065 13.093885 -2.2696612
13.005372 13.242192 1.2495407
13.090993 13.204298 -0.14083087
12.984615 13.206714 1.6080456
12.873089 13.39098 -3.6873236
13.046051 13.394013 0.65577769
13.080606 13.10117 -1.657805
13.013325 13.24526 -0.83996618
13.159895 13.091026 1.2610072
13.09991 13.202868 0.6587705
13.151099 13.189388 -1.1389953
13.051075 13.391155 1.1624645
13.095708 13.099656 -1.0338994
13.148754 13.087105 -0.44161215
12.985849 13.509743 -0.33957469
13.055634 13.392593 -1.0416703
13.067535 13.389886 1.560201
12.987017 13.313414 1.0588033
13.235805 13.091356 -1.4573619
13.046608 13.39312 0.46117303
12.971817 13.5825 -0.23693123
13.155482 13.084191 -0.83988255
13.030152 13.596367 0.62801951
13.170929 13.083766 1.3657594
13.228797 13.02077 1.0595177
13.072405 13.071979 -2.7062581
13.170567 13.012067 -0.24075793
13.170142 13.011869 -0.039846726
13.062789 13.701229 -0.0086668795
13.089418 13.195452 1.1618488
13.013791 13.21043 -0.32551086
13.174147 13.020733 1.0598725
13.169518 13.016253 0.26254722
13.10224 13.104948 -2.0155346
13.233093 13.018211 1.5645896
13.149061 13.291715 -1.8377495
12.867009 13.473915 -2.7588603
13.081665 13.292694 -1.2353942
13.038476 13.487156 1.4599987
12.88966 13.344197 -3.8924594
13.149965 13.082983 -0.33931592
13.233944 13.010431 1.3674151
13.035278 13.604923 0.35069975
13.066337 13.393099 -1.3418111
13.090017 13.197505 1.5594592
13.16054 13.297029 -2.5567031
13.194814 13.401855 -0.55736542
13.084969 13.197661 1.25646
13.129763 13.26782 1.4597042
13.227839 13.013272 0.76233166
13.132724 13.49913 -1.8117591
13.045092 13.391804 -0.33945757
12.940332 13.264668 -4.6069174
13.078969 13.200826 1.7600284
13.077053 13.099102 -4.54071
13.048183 13.389094 0.55810511
13.235743 13.013702 -0.23809704
13.132133 13.279564 1.5689474
13.011163 13.238077 0.93520707
13.047549 13.393302 -0.4406288
13.072734 13.396797 -1.5404935
13.152273 13.285118 -2.4221933
13.060422 13.397177 1.358568
13.054438 13.390004 1.0602244
13.233343 13.012393 0.44593495
13.197028 13.100323 -2.5124016
13.152989 13.087385 -0.54147953
13.04529 13.387641 -0.5376876
13.151752 13.078643 -4.242126
13.153512 13.091048 0.76072264
13.114156 13.018116 -3.9594133
13.152732 13.089584 0.65801585
13.094593 13.299454 1.8617324
13.045099 13.391544 -0.24328978
13.010575 13.340333 -1.0713664
13.100397 13.103078 -0.53439146
13.089206 13.033737 -4.303493
13.17131 13.082839 1.5638714
13.157712 13.090254 0.86218482
13.330606 12.901402 1.6042445
13.039095 13.483677 -0.33807978
13.091026 13.29986 1.6609019
13.011528 13.057356 -3.3447888
13.177633 13.077829 1.4610281
13.158663 13.091046 -0.93731004
13.149167 13.084036 0.36413336
13.174171 13.296046 -2.3217471
13.033046 13.470565 0.24874513
13.24442 13.051766 1.1552621
13.225818 12.989576 -0.31779492
13.138809 13.378639 -1.3028067
13.1331 13.181849 -0.34355995
13.079627 13.396069 -1.8414412
13.047667 13.384449 -0.035216451
12.961135 13.01378 -3.4987056
12.958981 13.404443 -3.6080339
12.994348 13.243904 -1.1831855
13.105659 13.12748 -1.4413384
13.132893 13.317885 -0.14501664
13.063201 13.392863 1.4620129
13.079617 13.405515 -1.7419993
13.136333 13.278827 0.065765433
13.051836 13.388049 -0.84072554
13.231824 13.072108 -1.9308841
12.978767 13.047914 -3.8342929
13.059424 13.09257 -3.8577263
13.044397 13.394272 0.36320278
13.05204 13.387562 -0.73925841
13.035334 13.310863 -4.1227131
13.046772 13.388143 0.86256331
13.052501 13.388922 -0.63954961
13.129076 13.283703 1.6601353
13.088412 13.204639 -0.53497529
13.065966 13.394007 1.6645418
13.045857 13.389574 0.063178107
13.149097 13.191628 1.6626956
13.107264 13.11104 0.86921352
13.082025 13.294428 1.3623314
13.131394 13.360865 -0.36837602
13.014366 13.295843 -0.048816144
13.089619 13.201724 -1.2294718
12.850232 13.368327 -2.749644
13.072784 13.294489 0.46475899
13.039001 13.613052 0.25704056
12.994021 13.409404 -0.7389667
13.106653 13.093719 0.25132662
13.034949 13.588189 -0.033312373
12.887182 13.448334 -3.7927258
13.098308 13.101665 -1.1292571
13.096041 13.199787 0.16626287
12.878199 13.471555 -3.7135117
13.102581 13.205417 -1.6465625
12.950425 13.209375 -4.2889724
13.100432 13.09978 -1.961185
13.034665 13.590152 0.062697545
13.099151 13.197546 0.26070186
12.880669 13.452505 -4.1026773
13.089516 13.195299 -0.83448505
13.133948 13.176178 0.45718232
13.036713 13.503107 -0.64427078
13.089938 13.201788 -0.43988976
13.09706 13.104401 -0.44737378
13.098145 13.199019 -1.4320735
13.068114 13.291986 -0.64214242
13.075623 13.296825 0.56356263
13.067454 13.297771 -0.43819419
13.135987 13.369543 1.0564052
13.036883 13.487267 -0.14432399
12.982702 13.51107 -1.1345387
13.102696 13.097817 -0.74175882
13.101963 13.109199 0.36091715
13.283642 13.09137 0.75039142
13.043221 13.601715 0.16089527
13.23205 13.003519 0.95856339
13.069875 13.385803 -1.2392167
12.989705 13.499217 0.060030114
12.959974 13.180456 -3.5178807
13.07581 13.293421 0.66640002
13.008849 13.413731 -0.047970727
13.053829 13.501535 -1.6281484
12.891221 13.427298 -3.5541484
13.08369 13.717226 0.25638705
13.085646 13.204768 -1.7489502
13.235198 13.194492 -0.82988012
13.094296 13.199494 -0.24195258
13.126116 13.289471 0.16356486
13.234658 13.012789 1.2777611
13.090073 13.205125 -0.3393673
13.096348 13.10137 -0.34029764
13.098392 13.207707 0.56908047
13.137528 13.288954 -0.85821587
13.093672 13.183672 -2.1736448
13.085913 13.296253 1.563724
13.043481 13.492375 -1.3421426
13.098748 13.200658 0.45690137
13.095402 13.200504 0.35643071
13.231071 13.006075 0.67371237
13.085391 13.191456 -0.93431503
12.982082 13.509736 1.3585894
12.977264 13.511875 -0.6384294
12.988937 13.504021 0.66481662
13.048668 13.388511 0.76009917
13.011472 13.236791 -3.9946916
12.995101 13.309519 1.4771842
13.074787 13.294921 0.056746323
13.097337 13.204789 0.060043845
12.991796 13.293545 0.047205474
13.007346 13.311727 0.7238881
13.03559 13.493112 -0.03749834
13.066834 13.295945 -0.33878052
13.096518 13.095671 0.95884949
13.005673 13.344691 1.6147892
12.98813 13.507082 0.15843107
13.03631 13.589499 -0.13974002
13.074272 13.296026 0.15955766
13.100829 13.102228 1.1567705
12.96276 13.197985 -3.3554168
13.000527 13.487306 -1.6401262
13.040057 13.595203 -0.33933571
12.958823 13.217894 -3.4503179
12.986753 13.506956 -0.24007253
12.982821 13.504133 1.2632896
12.981074 13.510199 -0.54058248
13.170298 13.014438 0.161441
12.985159 13.506179 -0.13853726
12.985797 13.505879 0.96472704
13.130986 13.35314 -0.97473872
12.989605 13.504143 0.55769402
13.034032 13.472742 0.97011262
13.133809 13.383424 -1.1492113
12.854533 13.460711 -3.4122322
13.005872 13.411592 -0.24401125
13.076152 13.2945 0.75929356
13.078708 13.297664 1.0581218
13.097008 13.203134 0.86097401
13.071853 13.295129 -1.0374749
12.889987 13.477393 -3.3354635
13.072151 13.29143 -0.039604519
12.990549 13.502149 0.26406053
13.13275 13.263585 -0.20869045
12.983016 13.509411 -0.43659779
12.902051 13.466587 -3.4935622
13.084048 13.296911 1.4567136
13.040971 13.487659 -0.44858092
13.073054 13.672483 0.066857673
13.075019 13.298273 0.25767052
13.076579 13.297834 1.1623799
13.078407 13.290795 1.2589345
13.071131 13.180285 -1.9138639
13.151706 13.19664 -1.2389735
13.064894 13.003415 -2.7961142
13.104992 13.111212 0.061042435
13.039723 13.581867 -0.5383718
13.135186 13.180696 0.058710486
13.000268 13.30595 -0.83485126
13.073055 13.297225 -0.13631214
13.131145 13.277128 -0.65431112
13.076861 13.293023 0.95686996
12.975416 13.585258 -1.3317554
13.031807 13.48275 0.75782841
13.080183 13.199452 -0.63911766
13.125924 13.274809 -0.52059174
13.039502 13.488991 -0.54649311
13.051407 13.394703 0.9576804
13.086549 13.200428 -1.0352434
13.079068 13.398235 -1.6323916
12.988974 13.502168 -0.040414922
12.9852 13.592892 -1.5384009
13.096997 13.303986 1.9636585
13.045192 13.215472 -4.119173
13.172 13.016536 0.46124524
13.081244 13.399111 -1.9347856
13.078121 13.298573 -1.3310835
13.008416 13.330965 -1.3123978
13.093693 13.300137 -1.43647
13.047566 13.389089 0.26090857
13.1284 13.264385 0.27135625
12.979774 13.594133 -1.6323638
13.136098 13.185771 -0.43270123
13.150662 13.265215 -0.4448832
13.101705 13.108544 -1.2456934
13.12833 13.285713 -0.73828351
13.089077 13.200767 -1.1378338
13.096439 13.202232 -1.5357728
13.067213 13.295419 -0.9412207
13.134317 13.260679 -0.04138127
13.100401 13.205113 1.6489091
13.086815 12.996593 -2.9611516
13.069041 13.685924 0.16569138
13.03083 13.489685 0.66598493
13.036936 13.476665 -0.23785718
13.147326 13.492042 -0.53025782
13.055699 13.199574 -4.2836299
13.101678 13.111646 0.67232829
13.102858 13.112723 -0.053654958
12.990684 13.316032 -1.4417908
13.141693 13.178701 -0.93691587
13.108041 13.107083 -4.0428028
13.126235 12.958339 -3.474941
13.046365 13.389008 -0.13850452
13.095009 13.09991 -0.63964927
13.138292 13.189363 -0.84203362
13.04391 13.486746 -1.0404536
12.976606 13.416553 -1.6548965
12.974144 13.432448 -1.8483486
13.125135 13.249281 0.68379927
12.946156 13.43779 -3.8024588
12.998907 13.400764 -1.3253241
13.036636 13.481752 -0.73767614
13.105096 13.108657 -0.24225414
13.102188 13.108587 -0.13792764
13.073523 13.028433 -3.5903535
12.991809 13.668316 -1.7442976
12.996297 13.400187 -0.83505327
13.097513 13.105254 -0.83374172
13.102139 13.061239 -4.2840261
12.992373 13.060843 -4.1316853
13.228566 13.066423 -1.3518115
12.897539 13.25439 -3.7601016
12.951879 13.37875 -3.7516491
13.155884 13.195011 -1.4517089
13.052002 13.064767 -3.97809
12.903404 13.321577 -3.6711493
13.238213 13.014893 0.27088624
12.902876 13.282807 -3.8658776
13.132773 13.384656 -1.6442534
13.013517 13.312153 0.47681123
13.059278 13.320429 -3.4966726
12.995568 13.403851 1.5666894
12.837733 13.428737 -4.2285161
13.075889 13.535891 -2.8673294
12.977304 13.217066 -3.035831
13.126281 13.293501 0.71410871
13.010528 12.978639 -3.8174472
13.146972 13.385584 -2.0354424
13.042837 13.209555 -3.3069172
12.897483 13.397685 -4.1788974
13.244449 13.144539 -2.9871147
13.154051 13.500883 -2.5016429
13.018285 13.354373 -2.5187824
13.078202 13.391321 -2.4483638
13.101725 13.387703 -2.1385982
13.080885 13.402279 -2.0650284
12.999018 13.411773 0.8608858
12.985661 13.307527 -2.6529124
12.96764 13.40617 -2.6546376
13.075447 13.386211 -2.3498044
13.144652 13.385416 -1.8466101
13.086751 13.412812 -2.2497404
13.041148 13.613004 -2.723773
13.001795 13.412709 0.25260091
12.882135 13.43184 -4.537364
13.03908 13.171329 -3.142576
13.029952 13.229906 -2.9204612
12.984622 13.413771 1.3518636
13.232687 13.046779 0.034027234
13.016281 13.3359 0.131743
13.00226 13.403181 -1.2470543
13.032658 13.077164 -3.0032382
13.086766 13.496493 -2.243892
13.004509 13.405688 -0.53782153
12.998847 13.407966 -0.13306977
13.101883 13.100773 0.46174145
13.005225 13.284588 0.57005847
13.023847 13.291308 -2.6798422
13.080634 13.369705 -2.6257319
13.125991 13.268229 0.96707779
12.978193 13.271283 0.26712427
13.000735 13.408805 0.56723613
13.004021 13.413302 0.45533526
13.105474 13.106308 0.16250426
13.044805 12.992957 -3.4632061
13.007766 13.406021 -0.33892369
13.004706 13.417527 0.050349485
13.128683 13.279379 0.55299288
12.953425 13.254993 -3.9250333
13.005897 13.407689 0.36143583
13.137697 13.246277 1.1848549
12.967471 13.48358 -2.7334311
13.061674 13.215799 -3.0360229
13.073663 13.132486 -2.5289683
13.043412 13.197472 -2.7329683
12.888202 13.574368 -2.8537199
13.091619 13.089369 -2.4293969
13.046516 13.216556 -2.6568098
12.967338 13.494799 -1.9452955
13.010243 13.275096 -3.1210942
12.944038 13.460526 -3.19327
12.98971 13.311988 -2.933147
12.918385 13.412626 -3.1754091
12.907796 13.460741 -3.1837099
12.99979 13.112249 -2.8164771
13.028201 13.130807 -2.3546915
12.991827 13.208057 -2.8578491
12.974486 13.20272 -2.374814
12.938133 13.470146 -2.6628175
13.016617 13.215166 -2.9419756
12.990833 13.396309 -2.7072053
13.058327 13.105869 -2.6445525
13.039895 13.237389 -2.3842609
12.883154 13.487181 -2.9766526
12.931112 13.429575 -3.0355616
13.004269 13.313884 0.66147679
13.102632 13.108236 0.7554853
13.090126 13.306218 -2.5600863
13.060871 13.31686 -2.8260598
13.046254 13.379776 -2.8235142
13.055189 13.390042 -2.5360012
12.955235 13.575657 -2.8380725
13.108095 13.180724 -2.2494888
13.155694 13.489622 -2.3141813
13.047295 13.279202 -2.773299
12.997648 13.301173 0.86442506
12.927432 13.394744 -3.3576696
13.120988 13.175257 -2.5744655
13.07515 13.237679 -2.8437526
13.115027 13.27986 -2.2908351
13.054681 13.269906 -2.4242764
12.944164 13.563931 -2.708822
12.911898 13.624905 -2.705404
13.007157 13.377517 -2.8303347
13.002567 13.295393 0.37778914
13.034191 13.232189 -2.4120958
13.008842 13.310042 1.5871036
13.188776 13.095968 -2.4218516
13.220118 13.144468 -2.4470518
13.177066 13.195083 -2.4390969
13.133059 13.400497 -2.2551386
13.07502 13.486405 -2.1332307
13.057953 13.537725 -2.647481
13.155579 13.015966 -2.6885667
13.071478 13.008446 -3.3150556
13.103072 13.107444 0.55229449
13.178939 13.108978 -2.0285025
13.070745 13.195588 -2.0212693
13.096107 13.302481 -2.0405753
12.974434 13.473305 -2.0385487
13.178102 13.211429 -2.2328086
12.799488 13.396824 -4.2071228
13.070543 13.496531 -1.9433539
13.092123 13.084373 -2.185812
13.000893 13.382121 -2.1250608
13.162849 13.192369 -1.8421208
13.059223 13.3136 -2.1331973
13.177157 13.194583 -2.3294156
13.169165 13.099685 -2.1373136
13.053861 13.567973 -2.1411197
13.071733 13.491935 -2.0402918
12.973751 13.291679 -3.7691548
12.994088 13.683394 -1.9150668
13.173737 13.201234 -1.9442341
13.232506 13.093656 -2.036129
13.080356 13.308206 -1.9356729
13.062258 13.596518 -2.23208
13.050303 13.591317 -2.0326803
13.072412 13.482174 -2.4395399
13.155272 13.386563 -2.095819
13.242867 13.057502 -2.1784198
13.185657 13.189966 -2.1328647
12.98696 13.656605 -1.84815
13.213703 13.103682 -3.0963101
13.097034 13.314703 -2.2478757
13.24652 13.072757 -2.3463316
13.24297 13.102554 -3.2117176
13.255369 13.20255 -2.3299978
13.093349 13.568171 -2.3045206
13.153343 13.482553 -1.9744844
13.236194 13.267239 -2.3548918
13.130778 13.570448 -2.2994108
13.25502 13.215716 -2.5541027
13.260185 13.292866 -2.520093
13.186661 13.37166 -2.5262096
13.140986 13.604916 -2.4752183
13.127138 13.458537 -2.0679054
13.120546 13.384609 1.2632657
12.929559 13.335412 -3.5940156
12.93097 13.3186 -3.7932136
12.954378 13.291123 -3.5210063
12.981509 13.339064 -4.0398288
13.156774 13.007437 -3.8493948
13.068857 13.075368 -3.4642313
13.225071 13.060364 1.4378363
13.125241 13.284945 1.0161426
13.117803 13.095239 -3.2774975
13.172325 13.015726 -3.2455816
12.897634 13.369932 -3.7538817
12.792431 13.347166 -3.8867991
12.892514 13.31721 -3.0620868
12.888954 13.19154 -3.8731499
12.888606 13.12324 -3.8777049
12.919048 13.177972 -3.0543406
12.951267 13.104029 -3.0504954
12.913811 13.199835 -4.1495376
12.987263 13.300959 -3.3328733
13.047472 13.090691 -3.3153257
12.967817 13.353747 -3.1587584
13.025658 13.272056 -3.1771257
13.134558 12.959528 -3.1329973
12.879714 13.445391 -4.3100905
12.916946 13.099257 -4.1565247
12.801848 13.446347 -3.3908999
12.905643 13.424423 -3.7940059
12.910469 13.354725 -2.0342367
12.907425 13.293199 -3.3088987
12.959991 13.204338 -3.2592196
12.874824 13.425863 -3.905704
12.757664 13.460572 -2.9159002
12.920004 13.405257 -2.8657904
12.96899 13.185847 -2.6955059
12.987885 13.036888 -3.4842632
12.945807 13.220371 -2.1919732
12.896706 13.481082 -3.04198
12.995202 13.113708 -2.4420719
12.994059 13.107388 -2.5465982
13.151391 13.128152 -2.9899487
13.027574 13.715304 -1.9950464
13.129334 13.194427 -2.7664261
13.190199 13.121805 -2.3286016
13.077339 13.495831 -2.3512602
13.091262 13.548585 -2.5009964
