# .PCD v0.7 - Point Cloud Data file format
VERSION 0.7
FIELDS x y z
SIZE 4 4 4
TYPE F F F
COUNT 1 1 1
WIDTH 1076
HEIGHT 1
VIEWPOINT 0 0 0 1 0 0 0
POINTS 1076
DATA ascii
39.854645 53.245506 -0.35532448
40.614227 53.559082 0.17143627
39.994678 53.360226 -0.2625542
39.909836 53.211868 -1.1092756
38.374969 52.789234 0.53355259
40.006176 53.30056 -1.1170018
38.66647 52.910847 0.51331341
38.881115 52.957867 0.4078235
38.373039 52.791718 0.49503705
39.966774 53.446346 0.43334883
38.458515 52.797993 0.46176723
39.966377 53.311096 -0.50515234
38.663742 52.89093 0.47826207
38.146225 52.615337 0.48465037
38.501556 52.785641 0.53752553
39.843044 53.23587 1.0020311
39.003086 52.947784 0.32860091
41.030853 53.711235 0.94543326
38.14817 52.618305 0.39115751
40.70034 53.652763 0.84902489
40.805344 53.661926 0.86761427
37.808609 52.477802 0.15187201
38.361145 52.710712 0.33217353
41.202148 53.852859 0.80625886
41.064297 53.720406 0.25892276
41.260563 53.883644 0.78775394
41.470333 53.984322 0.75996494
37.775467 52.574814 0.24380426
40.477249 53.549728 0.24166119
38.688499 52.902271 -0.81468529
38.685478 52.860378 0.12921774
38.055023 52.587418 0.25264701
41.380493 53.862621 0.16641195
39.049774 53.061039 -0.69225305
41.08157 53.719593 0.78374749
40.781357 53.645859 0.18448205
39.328941 52.93568 0.18684328
41.36301 53.959923 0.93361789
40.860252 53.659031 0.84205937
41.364876 53.883312 0.23499654
38.477249 52.741394 0.17377791
38.857128 52.859188 -0.75236195
41.635803 53.927177 0.25611538
39.958584 53.366486 0.24470222
41.379745 53.882069 0.78967929
40.89909 53.645702 0.1718898
40.61269 53.564739 0.6941781
39.067162 53.097969 0.20559061
38.455357 52.846733 0.21139152
40.748791 53.646198 0.23484473
40.479641 53.545528 0.75946468
38.846996 52.829781 0.32250834
38.205204 52.633522 0.26815683
38.495007 52.771046 0.35868526
39.825462 53.245369 0.31884608
41.144508 53.724628 0.86627513
38.483963 52.784798 0.26078117
40.504597 53.587696 0.84585941
39.205299 53.073238 0.062120292
39.564991 53.122669 -0.75116622
40.183491 53.462265 0.86119169
38.375069 52.691616 0.26385257
40.963612 53.683296 0.86176586
41.360416 53.864758 0.86516869
38.72242 52.812687 0.14550109
40.409454 53.442085 0.34334049
38.456684 52.729736 0.36442494
38.470039 52.716793 0.2771748
40.430889 53.438515 0.41781184
38.576355 52.785641 0.26881653
38.569965 52.786716 0.46176201
40.43082 53.546028 1.0324491
38.58247 52.852562 0.52335364
39.54776 53.139931 -0.44459689
38.878689 52.979267 0.473535
39.427624 52.987144 0.16359851
41.129539 53.72646 1.1270986
39.854141 53.227734 0.47658452
39.25449 52.936058 1.0618626
38.84198 52.827999 1.080846
38.775497 52.838413 -0.44644713
39.261349 52.930756 1.34846
39.236404 52.932743 1.4449568
39.86042 53.28479 -0.4444418
39.793106 53.261971 -0.43411326
39.771179 53.243286 -0.24861218
38.950287 52.893227 1.1531603
41.154453 53.725803 1.0766332
41.077168 53.782841 1.2482269
39.065224 52.973145 1.2611598
41.10714 53.750557 0.23510647
38.649891 52.801647 0.55152673
41.07922 53.766895 0.93381518
41.189651 53.780735 1.0761324
39.271877 53.060314 0.15413989
40.160328 53.451576 0.94742858
38.953773 52.926937 -0.46688733
39.053318 52.922585 1.3527541
41.084023 53.757687 0.77697217
39.205608 52.935974 1.4848204
39.25946 52.937286 0.86887193
39.177727 52.926628 1.5293794
39.058731 52.800072 1.0353836
39.25111 52.936954 0.73902071
39.185436 52.917496 0.85421503
38.834328 52.990891 0.25741816
39.172771 53.06942 0.33754572
40.866932 53.589485 0.6190502
39.930149 53.35722 1.1578659
39.763901 53.288986 0.19981959
40.502319 53.547596 0.44061765
40.283802 53.476807 0.39267072
38.680611 52.958744 -0.45128047
41.300758 53.862061 0.68841779
38.967304 52.97723 -0.34738231
38.685104 52.894104 -0.35011011
38.990616 53.020451 1.3113405
38.66811 52.793964 -0.20482939
38.744095 52.806255 -0.74465537
39.201939 52.910503 0.6733641
38.784756 52.892239 0.54047024
39.869274 53.312805 0.179841
39.172688 52.932571 -0.22366555
39.196709 52.93248 -0.75710219
38.942242 52.901203 -0.62720722
38.974091 52.971161 0.18747652
40.181061 53.499546 -0.74033064
38.547672 52.76915 0.10110468
38.668449 52.808346 0.13875265
40.876621 53.755806 0.880768
39.83873 53.230682 0.5739212
40.872795 53.704147 0.79790735
39.076435 52.924702 -0.74738926
38.78727 52.838779 -0.22883807
40.561451 53.562241 0.28623074
39.967297 53.272099 -0.26850176
41.154247 53.769085 0.24822555
40.668472 53.559433 0.26271895
38.171089 52.627941 0.14424051
40.364948 53.46859 0.43378299
41.082626 53.746193 0.38350683
38.78788 52.938122 -0.025919
39.266945 53.070713 -1.0259765
41.171383 53.781422 0.37342975
41.161133 53.779816 0.84929782
41.062431 53.760876 0.86748135
41.179188 53.765316 0.44790977
40.775272 53.656158 0.77707165
39.101768 53.004269 -0.22508879
39.936905 53.244698 -0.76240534
39.991264 53.364517 0.85631603
40.852394 53.606796 0.36182955
40.905155 53.652958 0.51280987
40.200119 53.484013 0.62954181
39.195763 53.080841 0.66941315
39.981548 53.184231 -1.0598979
39.827377 53.224129 0.035795901
40.324944 53.44101 0.73390889
38.9725 52.987686 0.53079188
38.968056 52.979866 0.45656574
39.879478 53.248817 -0.079584762
41.363945 53.827633 0.64583278
39.019253 52.952469 0.6895206
37.964291 52.507374 0.49200657
39.922062 53.289715 0.73538071
38.632339 52.778198 0.012877404
41.169891 53.790146 0.93099439
41.273201 53.809669 0.76383048
39.95179 53.280376 -0.74680364
40.759251 53.61116 0.93289614
40.48922 53.511734 0.85735404
40.064907 53.323795 -0.76289427
38.720749 52.803917 0.036692381
39.954918 53.318115 -0.83401507
40.78093 53.658871 0.94778836
39.994232 53.299179 -1.0137666
38.468193 52.737343 0.91598868
39.030396 53.05278 -0.054230604
38.841896 52.83007 -0.92081481
40.857098 53.615486 0.73562407
39.281067 53.067444 0.96054327
40.126823 53.399208 -0.76376814
38.878899 52.890591 0.53913605
39.689831 53.365749 -0.91481626
40.455761 53.500328 0.37544078
39.914528 53.273415 -0.19247371
40.561863 53.55727 0.55438161
40.443607 53.496571 0.50050306
38.656586 52.828739 0.90989023
39.781391 53.269417 0.46498713
39.196602 52.927841 -0.14417607
39.078915 52.926449 -1.0586118
40.175194 53.384773 -0.017274695
40.274906 53.452106 1.028553
41.46418 53.883385 0.76690769
38.777519 52.840271 0.83704048
39.083656 52.893036 -1.1071479
39.870293 53.222801 -0.94090784
40.354679 53.439186 -0.015722783
40.590481 53.513935 0.57195467
38.648621 52.796131 1.068454
39.265442 53.066406 -0.84280765
41.137917 53.730339 -0.0075291796
39.874111 53.290035 0.77484655
39.805523 53.272568 0.94319481
39.863667 53.278999 0.96546584
41.300251 53.867828 0.86582804
39.193523 53.069424 -0.048780039
39.803596 53.289837 0.75894761
40.156715 53.355225 -1.0636327
40.877201 53.624741 0.56634712
40.761646 53.591644 0.77218121
38.850998 52.866562 -0.20053646
38.971954 52.877678 -0.14317958
41.467033 53.858063 0.58344567
41.357346 53.812073 0.37175551
41.237946 53.787178 0.46308956
40.983925 53.662689 0.42835188
41.178452 53.767761 0.67563385
40.585526 53.520359 0.3583433
40.83754 53.698734 0.45631653
39.269337 52.933239 -0.64008862
41.180092 53.785236 0.78042758
40.962585 53.690338 0.7695393
39.964855 53.209396 -1.1129069
38.471962 52.693699 1.0164244
39.267231 53.06432 0.060864441
38.983311 52.906219 -0.85485321
38.783939 52.778759 -0.89179826
38.226543 52.624252 1.0749727
38.922218 52.905071 0.06747473
41.580673 53.908867 0.66878504
38.670372 52.785797 -0.81264579
38.970676 52.888592 -0.038111087
39.74157 53.285461 0.55553287
39.803085 53.253189 0.66992217
38.764236 52.811241 -0.04237894
41.372955 53.880089 0.56274998
38.661175 52.780815 -0.050175935
41.46896 53.87241 0.64961243
41.359592 53.830639 0.83841866
40.967918 53.655678 0.66845918
38.983589 52.986687 0.87454754
38.977749 52.977585 0.76225853
38.962025 52.926773 0.55498344
38.658302 52.834953 0.97370565
39.823788 53.220821 -0.86825961
39.893383 53.265343 0.056873851
39.879143 53.267448 -0.80655658
40.889164 53.651958 0.65775186
40.852287 53.628445 0.86398631
40.162613 53.383831 1.0600659
39.277771 53.068771 1.1638448
41.179543 53.774155 0.54577529
39.050888 52.934326 1.0367963
39.972385 53.314556 0.45331842
39.779816 53.273289 -0.51741111
38.985222 52.905468 1.2590599
39.104271 53.051662 1.409905
39.181339 53.062641 1.3784596
41.143688 53.718243 0.49604824
40.279903 53.460499 0.56935352
39.862709 53.271965 0.55559301
40.280346 53.470917 0.75846153
39.070091 52.92424 0.03912361
39.060539 52.928482 -0.12681487
38.836418 52.895512 -0.37173027
41.374264 53.872749 1.0412657
38.890369 52.898144 1.0627794
40.372314 53.48547 0.86610764
41.455502 53.876648 0.94764674
39.034668 52.929375 0.96325803
40.328571 53.405331 0.56754231
40.348694 53.41354 0.84157109
39.292118 53.092743 -0.33780986
39.856178 53.08868 -1.3460084
39.070095 52.991302 1.4767396
38.782589 52.877407 -0.43806437
38.655815 52.821918 -0.45036706
41.094563 53.728542 1.0783161
41.108711 53.769936 0.53404564
38.743973 52.825058 0.47677222
39.775082 53.282894 0.38078579
38.767735 52.825878 -0.63938725
39.989475 53.370712 -0.44026709
40.352249 53.427868 1.0792085
40.391991 53.456554 1.0697216
38.668446 52.871628 -0.52292824
38.988232 52.966427 -0.44219804
40.34692 53.433723 0.98063082
40.440384 53.484055 0.66795963
38.876259 52.957691 -0.55199426
38.625748 52.799194 -0.53071356
40.463699 53.585838 0.95709944
40.172886 53.393791 0.46276313
40.313408 53.455009 0.69775271
40.375729 53.476696 0.94379485
40.193104 53.532951 0.2880156
40.37265 53.469177 0.54369444
40.407776 53.485935 0.2272896
38.88908 52.904438 0.95440656
38.719864 52.885956 -0.59812301
39.213306 53.058117 1.0250329
40.355907 53.412365 0.67972624
40.172989 53.399689 1.1624085
39.888172 53.272812 0.63340819
39.955055 53.308609 0.87003106
40.171574 53.380585 0.54586494
38.903194 52.956734 0.95897251
40.165722 53.394745 0.95091867
38.954159 52.936756 -0.52040207
40.173786 53.395187 0.66634172
39.046402 52.928757 0.4693011
39.060886 52.965172 1.046448
38.964764 53.016888 -0.52010661
41.39241 53.875515 0.93546104
40.168594 53.397465 -0.44790152
40.14299 53.481251 -0.67085767
39.74242 53.227261 0.88939434
39.964725 53.377476 0.74543029
41.383945 53.851669 0.66434288
39.990196 53.333988 -0.67716455
39.829082 53.227009 0.13783374
39.760448 53.270119 -0.65065503
40.589622 53.565292 1.1484845
39.766186 53.263336 1.2550677
40.169693 53.399292 0.87496108
39.880169 53.276089 1.1670851
39.867847 53.285534 1.0565079
40.468586 53.512253 0.56407619
39.991573 53.412441 -0.70699966
38.864613 52.959999 0.79606831
41.151722 53.88987 0.93234223
40.590992 53.600441 1.0538433
39.994087 53.392895 0.52702618
39.563866 53.132515 -0.87180549
40.592453 53.580288 0.94903302
39.964169 53.398529 0.48683101
40.370491 53.485279 0.76511276
40.569687 53.503761 1.0601085
40.581554 53.517216 0.95108914
39.196938 52.926456 1.0781319
39.967926 53.303711 1.0509303
38.517891 52.732758 1.1577491
41.04689 53.871037 0.98403865
40.4795 53.495392 1.0625726
39.169502 52.996376 1.1640995
40.992645 53.752537 0.85895544
40.50909 53.436752 -0.031712733
39.191784 52.987118 0.6579175
41.073296 53.775188 0.66197598
41.108593 53.771637 1.0970308
40.460358 53.501522 1.184992
40.164471 53.396431 0.75819325
40.474651 53.501991 0.77274382
40.58947 53.514874 1.1652662
39.873932 53.292904 0.87587976
38.888149 52.955605 0.86891842
39.197433 52.918282 0.96029204
39.098469 53.071938 -0.64849669
39.179813 52.929272 0.57788455
39.063408 52.923981 0.54812253
39.178413 52.914555 1.3699965
38.674133 52.804523 0.4547976
39.169315 53.07766 1.1600468
38.894413 52.907654 0.85791737
39.056267 52.9244 1.2505105
39.157547 52.937378 -0.043911841
40.570679 53.5084 0.63943207
39.974117 53.317276 0.95840269
39.122295 52.943821 1.2810535
39.18243 52.993099 0.85263765
39.969421 53.387272 -0.53711712
39.954308 53.306671 0.35169974
40.158836 53.404774 -0.62923688
40.158775 53.387127 0.28889418
38.274796 52.684921 1.1350999
38.977318 52.997368 -0.71951264
38.944485 52.913464 0.18068871
38.964478 52.916809 1.0658549
38.974239 52.984413 1.0489509
39.087654 53.075367 1.0711949
39.776997 53.280033 0.86039472
38.648201 52.797791 -0.6451773
38.652309 52.804062 0.25325677
38.680573 52.799606 -0.73587716
38.972031 52.920025 0.27291092
38.635635 52.791348 0.75292993
38.662617 52.799671 -0.17998594
38.88913 52.909218 1.1701635
38.489555 52.764648 0.16957293
38.381157 52.694168 0.16560152
39.172207 52.930492 0.051754814
38.764938 52.823997 0.26984093
38.951084 52.962418 0.27385196
38.988899 52.94672 1.23998
39.184654 52.985584 -0.74443996
39.62199 53.145378 -0.69627357
39.36615 53.080105 0.35246372
39.569061 53.176266 0.76703596
39.062874 53.055435 1.3088413
39.508957 53.251141 -0.80228615
39.353146 52.929913 0.29733184
39.893024 53.204285 -1.0586098
39.355537 52.935059 0.71384495
40.759518 53.657463 0.60819155
39.380737 53.153374 -0.8563152
39.838852 53.228622 0.26811558
39.866375 53.358814 -0.48654851
39.345985 52.992828 0.26589695
39.477448 53.172482 0.76907957
39.59214 53.177303 -0.93158174
39.827492 53.355534 -0.94190425
38.881714 52.950508 -0.34668067
40.265106 53.431076 0.25512695
39.279366 53.066891 -0.92983401
39.983807 53.475765 -0.68169558
40.051643 53.334385 0.35498285
40.722523 53.652023 1.1086764
40.163219 53.392815 0.15834785
40.768478 53.606071 0.87816727
40.594837 53.56329 0.76290911
39.386158 53.091831 -0.64324707
40.041672 53.314445 0.57445866
39.203251 52.910896 0.45522055
38.451157 52.764011 1.1873732
39.358902 53.075577 -0.74170321
39.344357 52.916565 0.52708519
39.475208 53.11409 1.0603403
39.204762 52.924706 0.25422671
39.071064 52.977581 1.3629839
39.7472 53.350224 0.76420134
39.791775 53.252209 -0.02120476
39.484028 53.161591 1.1926725
39.908409 53.397419 0.46671376
39.478859 53.11277 0.55016607
40.082096 53.400318 -0.052466862
39.403252 53.186462 0.19518365
40.118313 53.45253 0.88034499
40.865986 53.59499 0.94662416
39.506783 53.01086 0.82111609
39.45718 53.173851 -1.0789483
38.788116 52.956352 0.90545863
39.49892 53.177811 -0.66589659
38.877472 52.971931 0.17250951
39.622463 53.141449 0.5111655
40.079792 53.470493 -0.85778672
39.865635 53.272572 0.4691956
38.811825 52.97403 0.47849858
39.526234 52.99601 0.46581054
39.075226 52.999241 1.5241656
39.685719 53.359627 0.72955495
39.775909 53.272366 1.0608413
39.367203 53.075478 0.56190866
39.165474 52.915268 1.1388259
39.674397 53.222668 0.8790037
38.696865 52.827114 1.1510918
38.88681 52.986809 -0.61285222
39.337284 52.940399 0.45613682
39.464947 53.104652 0.66837275
39.807823 53.28223 1.117011
39.804638 53.304417 0.082924679
40.972797 53.684792 0.52389073
39.197903 53.070477 1.6808255
39.358196 53.070656 -0.15442255
39.180058 52.966072 -1.0449451
39.955906 53.118748 -1.3459551
39.567406 53.170853 -0.061592236
38.741276 52.848541 1.0192262
39.035622 52.920826 -0.65925694
39.079231 52.992714 -0.34111676
38.779366 52.856331 -0.73965156
38.906612 52.899994 -0.8760246
39.343609 52.990559 -0.34195733
39.999611 53.27742 -0.089888334
39.280006 53.068199 -0.63515669
39.966068 53.312252 0.15743928
39.46743 53.10796 -0.75059974
38.980114 52.964218 0.96987951
39.26815 52.934246 -0.23060386
39.692574 53.181366 -0.015277546
39.548172 52.991611 0.55410939
39.373192 53.078911 -0.44102103
38.045536 52.577648 0.36720881
39.183872 52.990597 0.45743755
39.383617 53.179146 0.23764081
39.464218 53.010754 -0.056320034
39.164364 52.928635 0.15931195
39.482948 53.187202 0.5381006
39.594841 53.162399 -1.2547364
39.162983 53.064392 0.99048233
37.910419 52.574917 0.037850466
39.180927 52.990749 1.4579556
39.219467 53.068459 -0.89369887
39.479958 53.085651 -1.0196235
39.455582 53.081474 -0.94394785
39.056343 52.935772 0.85607255
39.532932 53.120186 -0.50560826
39.465309 53.101788 -0.65056908
39.560547 53.182251 -0.34323487
39.573257 53.181763 -0.44157922
39.456032 53.025558 -0.54786575
39.503689 53.19022 1.0430787
39.767506 53.208115 -0.73138231
39.75285 53.22242 -0.43155837
39.599945 53.190178 -0.28850713
39.343102 53.006546 1.4568548
38.894558 52.957371 1.0278975
38.194584 52.663574 0.16337737
38.172939 52.655392 0.22501513
39.45813 52.993587 -0.14703056
39.189785 52.987392 0.052666362
39.560673 53.121399 -0.6484369
39.458355 53.1017 -0.52011347
39.770699 53.217766 -0.64452887
40.670116 53.571865 0.95755488
39.254833 52.936848 0.26422721
39.258602 52.937721 1.1654909
39.164867 53.048557 -1.0634122
40.060608 53.355309 0.5660274
39.659897 53.189625 -0.93141103
39.632095 53.251228 0.28350872
39.356941 53.078087 0.16483678
39.866489 53.366123 -0.51644528
38.58749 52.789825 0.17508931
38.589615 52.782482 0.37541851
38.544029 52.729328 1.0730488
39.350754 52.924763 -0.11916678
38.284828 52.670822 0.35004961
39.257069 52.934982 -0.034243047
39.383354 53.164165 0.85021776
39.479404 53.178486 -0.37378001
39.608978 53.253452 1.0733238
39.992508 53.307011 -0.9199295
38.982304 52.925232 0.87477136
39.255016 52.939491 -0.14259496
38.262016 52.681862 0.46273383
39.343418 52.990208 0.76421869
39.343803 52.99622 0.455973
39.484123 52.981468 0.092323631
39.342636 52.991699 0.56054354
39.177063 52.922321 -0.35189536
38.958775 52.901917 0.3821322
39.755661 53.274937 0.23593998
40.073181 53.358826 0.46070254
39.243431 52.939167 0.055254828
39.32917 52.929234 1.2717347
39.573017 53.186687 -0.53100938
40.044327 53.337925 0.44847491
39.217377 53.071514 1.5364149
39.678421 53.195087 0.3676528
39.487068 53.174232 -0.43373463
37.961338 52.616909 0.25266954
41.076286 53.720222 0.44849372
39.205284 53.065327 -0.73688871
38.806362 52.923698 0.73591626
38.956741 52.903549 -0.71359664
39.459888 53.107529 0.25921553
37.782604 52.475075 0.44728667
39.579762 53.169258 0.46697274
39.592522 53.187321 0.55321312
39.387165 53.184017 -0.45370513
40.074738 53.323971 0.27596706
39.34462 53.007698 1.3434677
39.279285 52.988403 -0.23711021
39.683567 53.190544 -1.0472488
39.371113 53.081814 1.0456674
40.062019 53.331787 -0.51786608
39.38295 53.082413 0.25159234
38.799126 52.884033 1.2626327
40.062508 53.254906 -1.0698289
39.40414 53.148376 0.54152197
38.788139 52.997936 -0.16026106
39.183544 52.913559 -0.84680021
39.346642 52.998817 0.86504996
39.191727 52.982658 -0.037104331
39.10564 53.086426 0.7468366
39.05471 53.003605 -0.52266991
40.579163 53.568371 0.45294407
39.66946 53.190834 -0.6351983
39.269325 52.934902 0.35999972
39.350937 52.987988 -0.44830912
38.816292 52.853073 -0.1056248
39.344036 53.076248 -0.23226699
39.69038 53.304169 0.35598475
39.671494 53.200066 0.1741911
39.289982 53.075661 1.3588626
39.272198 53.074368 -0.24701214
38.78479 52.802589 0.73415393
38.756443 52.897697 -0.33485559
39.181587 53.095123 0.47624591
39.271751 52.933601 -0.42601839
38.365955 52.784649 1.0149771
39.283585 52.935993 0.14915909
39.358879 53.087982 -0.33673334
40.047058 53.318466 -0.35215366
39.884502 53.368179 0.86786157
39.324596 53.067009 -1.1900551
38.877781 52.894104 0.27268836
38.971687 52.923187 0.96735728
39.573212 53.170368 0.36789259
40.574001 53.513802 0.75869507
38.809605 52.858036 0.060461305
39.716633 53.259922 -0.44365558
41.065666 53.724407 0.88162863
39.346527 53.176388 -0.62543255
39.18605 52.992588 0.55667007
39.594215 53.284531 -0.51743174
38.163937 52.68008 0.47569409
38.265724 52.689007 0.53117257
39.872414 53.35614 1.0557473
39.673695 53.273468 0.95733285
38.795959 52.837509 0.37650451
38.870018 52.881271 0.35684928
38.855995 52.956383 -0.40347689
38.757114 52.825684 1.202333
40.041908 53.322502 0.85423064
38.965973 52.91626 0.47362009
39.008099 52.884247 -0.98704731
39.346935 52.999069 -0.63976109
39.191566 52.985352 0.76233733
39.456406 53.111492 0.95713693
39.350845 52.997643 -0.53622186
39.183678 52.999531 0.25809935
39.451199 53.091908 0.18324991
39.818562 53.359856 -0.027651373
39.657478 53.293785 0.562388
39.339714 53.055408 -1.3319447
40.672203 53.567257 1.159143
39.665863 53.283306 0.44704992
39.196499 53.097309 -0.82365572
39.471657 53.081257 -0.86917752
39.572372 53.167542 0.95801562
39.283432 52.993965 1.1605064
39.700302 53.300323 -0.3198829
39.573532 53.169724 1.0574583
40.475006 53.572357 0.55468631
40.052193 53.324036 -0.13105687
37.961437 52.487732 0.35416555
39.280521 52.991314 0.85872924
38.956532 52.92411 0.64657772
39.178688 52.994812 1.0508227
38.236687 52.621536 0.55321389
39.282089 52.99567 1.2622018
39.443504 53.077679 0.052975986
40.066177 53.221817 -1.0742387
39.565899 53.171879 0.26208344
38.88892 52.903957 0.77322417
39.32626 52.944626 0.34261185
38.784595 52.863708 0.86811984
39.329613 52.943848 -0.023850726
39.319374 53.159767 -0.88423514
39.964947 53.282898 1.1653477
39.840496 53.257294 -0.73444945
40.66259 53.572861 0.87081939
39.283337 52.94117 1.2654381
39.668133 53.213837 -0.45407385
39.502567 53.163113 0.37632746
39.469944 53.110825 0.44997671
39.557571 53.132618 0.56438249
39.567673 53.129917 0.15712795
39.676815 53.191292 -0.74003375
39.350281 53.065052 1.174669
39.421894 52.982758 -0.2225728
38.968136 52.922455 0.7784704
39.179241 52.990555 0.35779303
39.470493 53.182728 0.45969713
39.470364 52.987267 -0.36062232
39.190109 53.075733 0.27349731
40.674538 53.555229 0.46012363
39.552101 53.106907 0.35183918
39.543285 53.124313 0.23034042
38.779198 52.965981 -0.64280701
39.029816 52.942139 0.15529439
39.345695 53.080074 -1.142988
39.254944 52.933784 0.9461894
39.083572 52.990704 0.78223974
39.078529 52.986629 0.85094804
39.073051 53.062164 0.93799889
39.176949 53.081242 -0.097167879
39.672073 53.313156 0.8300935
39.340961 52.992599 -0.2351101
39.175331 52.916618 -1.0503631
39.602528 53.213661 0.080611303
39.075424 52.980145 0.18608764
39.514076 53.219059 0.10829449
39.594437 53.17384 0.65162361
39.968891 53.310982 0.65041476
39.286324 53.057751 0.27031803
39.661407 53.200382 0.65046847
39.172047 52.934227 -0.45893905
39.182884 52.92424 -0.55240494
39.673347 53.194847 1.158506
39.654301 53.162708 -0.12170908
40.085442 53.377151 0.17383347
39.063423 52.895065 -0.96770483
39.451874 53.126465 0.77104425
40.07737 53.370651 0.38090238
40.077122 53.368603 0.24648595
39.268044 52.934124 -0.33343893
39.570728 53.186989 0.87712294
39.455498 53.186062 -0.73688257
39.669609 53.188625 -0.27221197
39.406567 53.16111 0.75622815
39.339455 53.15007 1.0259243
39.580372 53.179562 -0.64459753
39.279472 52.989151 0.6668061
39.74015 53.201466 -0.92269707
39.670822 53.280014 1.0138841
38.664249 52.846169 1.0195454
39.264832 52.93243 -0.53769523
39.769146 53.22781 0.26346827
40.095165 53.380676 -0.51413465
38.284595 52.697746 0.86056131
38.773258 52.949669 -0.52873373
39.266258 52.937355 0.46100456
38.814125 52.9547 -0.91593069
40.772182 53.606438 0.65949774
39.60701 53.270115 -1.1122203
40.667667 53.564377 1.063014
39.683563 53.208549 0.78840607
39.672897 53.203693 1.0620804
37.801247 52.473869 0.24312262
38.565495 52.871098 0.057131
39.278706 52.990086 -0.038753591
39.677765 53.211319 0.56023598
39.279472 52.986874 -0.33605388
39.78281 53.302864 -0.7840361
39.358234 53.084656 0.76155114
39.941936 53.3321 -0.34030703
38.787647 52.952499 0.032470122
39.349339 53.069897 0.65502554
39.760281 53.222557 0.47191852
39.028503 52.926281 -0.43678308
38.172569 52.682201 0.86544389
39.309982 53.177986 0.4684819
39.760563 53.277569 -0.35056719
39.763016 53.37656 -0.77131331
39.55106 53.133881 -0.35372716
39.666142 53.197037 -0.52706689
39.182003 52.919418 -1.123631
39.734142 53.222694 -0.53627658
39.336357 53.0704 -0.050051253
39.05368 52.922642 1.1749122
39.369156 53.067009 0.050306216
39.800034 53.388168 -0.8551122
39.748081 53.23415 -0.78883398
39.281574 52.989315 0.56315911
38.883129 52.891121 0.16844872
39.562023 53.132336 0.45468414
39.665314 53.203663 -0.34039533
38.876976 52.881271 -0.64833981
39.281647 52.988247 0.75850153
39.375652 53.069077 1.4654241
38.569908 52.874271 0.18444312
38.791222 52.874729 0.25770089
38.742207 52.844872 0.98126358
39.869572 53.352402 0.77756029
39.183186 53.000221 1.3725657
38.836815 52.832237 1.2743211
39.65226 53.306087 -1.0154015
40.285812 53.477676 0.86866885
39.718204 53.294983 -0.80640638
38.835159 52.875069 0.6876961
39.185848 53.000862 0.95801592
39.281036 52.990479 0.061626349
38.270424 52.67799 0.96109509
38.481438 52.765862 -0.44818828
39.441982 53.022457 1.5369999
38.797607 52.867043 -0.62808102
41.033543 53.70314 0.69604707
40.98988 53.67989 0.33850643
38.577282 52.769745 0.87162548
38.584427 52.803043 1.1690381
38.785564 52.897888 -0.5121758
38.586189 52.769508 0.91418445
38.511852 52.800083 0.92027873
38.782585 52.857056 0.3457576
39.451824 53.225746 -0.84089351
38.788319 52.862274 0.14104368
38.259014 52.669838 0.18829507
39.351257 52.993557 -0.73735505
39.069679 52.989948 -0.84696209
39.277714 53.061653 1.5535171
39.611916 53.258266 0.57514864
39.893764 53.214767 0.85795695
38.605701 52.860661 0.50481379
40.080856 53.465538 0.40228403
38.370819 52.69355 0.97569329
38.576851 52.800217 1.0816638
40.679394 53.564701 0.35394031
39.929169 53.140396 -0.99197894
38.273712 52.764103 0.29698992
39.172115 53.075932 0.84215331
38.686527 52.873482 0.98345858
39.28323 52.994713 1.0631406
39.525375 53.046368 -1.0642822
37.968079 52.572437 0.48451352
39.279053 52.989452 -0.13660432
37.853943 52.469284 0.3626821
40.893208 53.675606 0.93316817
39.655296 53.196796 0.46125418
39.331375 52.864628 0.84927869
39.339397 52.994194 0.36346939
39.391075 53.076042 -0.84853774
39.556114 53.176037 -0.71704274
39.192719 52.993984 -0.5304442
39.374119 53.079601 0.8512041
39.67762 53.183945 -0.84300286
39.378288 53.083103 0.96975785
39.756432 53.217323 0.053359944
39.466679 53.226662 0.16755962
39.57645 53.180962 0.17312081
39.669167 53.208328 0.251957
39.376099 53.081718 0.45926172
39.459492 53.008324 -1.054184
39.344917 52.992355 -0.13094437
39.340763 53.004097 1.160091
39.475151 53.086468 -0.15655008
38.822659 52.840706 0.17883775
39.459309 53.098385 -0.35026678
39.441658 53.133244 -0.23290811
39.570709 53.167259 1.1843088
39.544189 53.165581 -0.13494731
38.353508 52.713284 1.1781334
39.339523 52.994823 0.062602967
40.042179 53.316261 -0.057279874
39.484833 53.187828 0.23058221
39.283241 52.990421 0.35930026
39.452599 53.101727 0.37017199
39.745335 53.210033 1.0783571
39.414295 53.17038 0.47843757
39.592735 53.314201 0.49958453
39.06398 52.968346 -0.74535525
39.585709 53.165676 -0.81809902
40.161678 53.387089 0.36583644
39.413029 53.158546 0.38264066
40.066311 53.37402 1.0405291
40.079666 53.366787 0.94988298
37.853565 52.466465 0.46184671
39.459827 53.112938 -0.441863
39.455116 53.088402 -0.049604256
39.414631 53.059605 1.5354258
39.552525 53.130363 0.65524071
39.278713 53.067204 0.55234867
38.915462 53.045826 -0.63282233
39.282784 52.989437 0.16167831
40.068249 53.320347 1.1571628
40.668873 53.575729 0.5764966
40.041531 53.33263 0.093363658
40.362045 53.430294 0.44045767
39.459209 53.113461 1.163017
40.082188 53.373249 0.87409127
40.654831 53.563835 0.056182317
40.87991 53.599384 0.4692806
40.784042 53.572708 0.14911798
40.264591 53.405651 1.0709947
39.209919 53.096878 -0.35205096
39.271667 53.067974 -0.73940217
40.037704 53.326511 1.0823927
38.404808 52.757336 1.1905844
40.149635 53.384674 0.057751138
39.325531 53.158375 -0.17320453
40.083195 53.376236 0.66870856
39.089203 52.964386 -0.63822979
39.366779 53.050869 -1.0314163
41.295624 53.891911 0.16398427
39.350368 53.149891 0.97984987
40.270901 53.422276 0.65783668
39.236958 53.081348 -1.1471269
40.264496 53.414543 1.165661
40.279846 53.422958 0.76826543
40.259403 53.426346 0.96232909
41.052158 53.715878 0.33399153
41.192123 53.772724 0.17747101
39.486919 53.192215 0.95367771
39.858459 53.252728 -0.14472252
39.866993 53.275791 0.36195099
39.830528 53.23304 -0.025887791
41.080654 53.705643 0.58699667
40.886452 53.667442 0.26667956
40.271706 53.401688 0.57051331
40.26329 53.420052 0.86010695
40.110729 53.363594 1.139089
39.322124 52.944817 -0.26808086
39.469917 53.021484 0.7781685
40.255932 53.420006 0.3583076
39.992115 53.126858 -1.3902453
39.27763 53.178257 0.6982525
40.073624 53.385307 0.7812711
38.574059 52.780704 0.0064320136
40.056763 53.332424 0.965123
38.771294 52.876629 0.93157095
40.055702 53.35146 -0.15219456
38.879677 52.900867 0.46839079
40.664032 53.565266 0.75289786
39.601646 53.13203 0.06716162
40.6716 53.567707 0.66775292
39.277168 52.991848 -0.53873366
39.572914 53.128357 -0.054509524
39.283821 52.989193 0.26237977
40.291813 53.465855 0.4794116
40.472572 53.504799 0.17284957
40.056122 53.389244 -0.62870347
39.340027 52.941429 -0.34395486
38.661274 52.808952 0.36490667
39.862652 53.275398 0.24753805
38.867493 52.874657 0.038981143
39.341618 52.994072 0.16219831
38.987202 53.0042 -0.056727372
39.042641 52.931309 0.3528865
39.342415 52.991413 -0.035513066
40.263462 53.420048 0.46024477
39.28582 53.065258 0.46858019
39.197479 53.054333 0.15052834
39.281902 52.998779 1.4585366
39.179958 52.996803 -0.4346661
39.347111 52.999691 0.94892299
40.220322 53.424892 -0.032480508
39.283829 53.068703 0.76971567
39.279343 53.070805 0.35840917
39.521118 52.988972 0.053000916
38.901142 52.968525 0.55699277
39.346375 52.998806 1.0655522
39.758717 53.231895 0.95307839
40.571102 53.518646 0.86391515
39.266155 53.068241 -0.062829286
38.858025 52.866661 1.2602354
40.266113 53.468658 0.93756145
38.975567 52.980049 -0.16738623
39.193459 52.981323 -0.23469539
39.345627 52.997932 1.5495703
40.467461 53.504623 0.96219879
39.983746 53.346684 0.10911421
39.192245 52.994808 1.2671304
41.269012 53.807076 0.85604817
40.053745 53.322975 0.7620306
40.376278 53.460503 0.67342967
39.071941 52.97192 0.27515817
39.082607 52.957218 -0.96228731
41.277641 53.80415 0.94804591
38.865799 52.908169 -0.45051616
39.06876 52.972416 0.35543469
39.832661 53.179684 -1.3258017
39.585007 53.099537 -0.14269766
40.073269 53.321724 -0.43809581
39.856857 53.285721 -0.64665341
40.132977 53.338776 1.1410264
38.297165 52.696697 0.2776064
39.850246 53.177132 -1.280092
39.254166 53.094753 -1.3241897
38.851864 52.896889 -0.057409018
41.246326 53.789539 0.24834329
39.841381 53.273552 -0.32004291
40.049786 53.254765 -1.1104153
40.765167 53.581707 0.37180176
37.845432 52.460384 0.56301087
39.340919 52.942234 -0.50716329
39.668961 53.209457 0.9579466
40.340576 53.496696 -0.10780843
40.846111 53.600811 -0.082307242
40.580635 53.589409 -0.04067694
39.291378 53.062786 0.6731236
39.956841 53.305233 -0.45411193
39.959015 53.285809 -0.028054191
40.57967 53.568233 0.86072916
40.96225 53.703526 0.94667089
40.053944 53.333248 0.65423763
39.436672 53.026806 0.96480626
39.214939 52.980095 -1.1244744
41.363422 53.8116 0.96588564
39.256897 52.940205 0.57406044
39.283325 52.994728 0.96302789
39.266037 52.93161 0.66905725
39.281391 52.988663 0.45990443
39.975773 53.38419 -0.048323702
40.159683 53.447433 -0.03324781
40.619537 53.563587 0.012024621
39.78355 53.211433 -0.046307672
39.731361 53.195839 0.14901213
39.748257 53.210438 0.55916399
40.630249 53.696213 0.40464073
40.665516 53.560528 0.16320176
40.650391 53.714344 0.25286072
39.998039 53.287643 0.049912307
39.340889 52.995842 0.65872324
40.870457 53.62262 0.24948147
39.898743 53.235012 -0.73057008
39.755623 53.195 -1.0413654
39.75259 53.215019 0.74858546
41.278954 53.850285 0.012083662
41.414742 53.881771 0.028022455
39.268929 53.069622 0.86961663
39.864513 53.275677 -0.50921392
39.273483 53.077267 1.059866
41.261593 53.795734 0.18356329
41.358902 53.808777 0.45677993
39.071617 52.994316 0.95239848
41.222763 53.7323 0.76509744
40.588963 53.530315 0.45664012
40.382336 53.470913 0.15983161
39.07399 52.978725 0.47148851
41.162693 53.728024 0.62365603
39.273899 52.99197 -0.63918096
40.355057 53.443157 0.2005007
39.274437 52.99514 -0.74067068
38.824554 52.843494 0.53709799
39.97073 53.299774 0.54735965
40.371017 53.470367 0.37303853
39.278557 52.98674 -0.44116011
39.742306 53.207031 -0.13322282
39.201164 52.997723 -1.3143539
39.77372 53.220459 0.36939114
38.602253 52.803894 0.7849319
41.281586 53.798122 0.37324047
39.061058 52.972347 0.55280578
41.254353 53.783142 0.67118341
39.538338 53.13866 0.99032199
39.760193 53.218616 1.132632
39.036591 52.919868 0.77693152
39.186523 52.972904 -1.2337266
40.283447 53.481159 0.27076727
39.553043 53.098866 -1.1031096
39.776695 53.234966 0.69169974
39.541645 53.077614 1.0545214
39.067207 52.954861 -0.028341454
39.529953 53.042885 -1.1055537
39.449364 53.19025 0.85873073
40.583565 53.523006 0.23716232
39.450924 53.12608 0.86297774
41.142746 53.713608 0.55971205
39.280262 52.995392 1.3664335
39.19796 52.989094 0.16172893
39.27998 52.99593 1.5605882
39.978626 53.305779 0.2660118
39.776264 53.257633 -0.18877307
38.878952 52.868679 -0.13339949
39.769897 53.304749 -0.9303056
39.526108 53.132359 0.87851721
38.854565 52.984867 0.021602128
39.061054 52.978439 -0.44827974
39.293098 53.055511 1.6637497
39.559254 53.138672 0.76823252
39.090008 52.922371 -0.23703794
39.191502 52.981049 -0.81588495
39.282791 52.995144 1.6614383
41.483459 53.834175 0.66426265
41.482422 53.972542 0.88689059
41.290546 53.879108 1.0717071
39.420574 52.979321 -0.46302754
39.185089 52.996407 -0.33901352
39.070076 52.982872 1.163588
39.051765 52.919788 0.24865118
39.201965 52.917259 -0.64047474
39.208305 53.067608 0.56002241
38.774376 52.87616 0.47201988
39.193119 52.981697 -0.13063361
40.771786 53.594894 0.2416887
38.790611 52.875595 -0.28782535
38.101215 52.652771 0.094921961
40.267139 53.47747 0.097317211
40.597874 53.510456 0.20119643
39.730373 53.192947 -0.34341472
40.154312 53.382874 -0.95207012
39.274704 53.064396 -0.12817402
40.473656 53.514626 0.25494647
41.282257 53.801998 0.55453253
39.095295 52.957848 -0.11608446
40.306107 53.455513 0.13157339
38.757229 52.800728 -0.14561154
39.179375 52.984238 -0.94334006
39.430176 53.006775 -0.63230783
39.192776 52.971977 -0.64353031
39.189339 53.081608 1.4553981
39.07629 52.981541 0.65076345
39.008831 53.061817 -0.84400719
