# .PCD v0.7 - Point Cloud Data file format
VERSION 0.7
FIELDS x y z
SIZE 4 4 4
TYPE F F F
COUNT 1 1 1
WIDTH 1611
HEIGHT 1
VIEWPOINT 0 0 0 1 0 0 0
POINTS 1611
DATA ascii
12.462683 5.4680429 1.8697145
12.281609 5.9001279 2.4529607
11.605772 8.3025246 2.1593735
10.736364 10.680439 2.562217
13.047281 4.5903201 2.0706472
10.430352 11.460595 2.3448036
10.930645 10.158127 2.9079709
11.807068 7.1147079 2.4584875
11.541751 7.8751001 2.5627594
12.761426 5.2046938 2.4802632
10.377333 10.728912 2.0760531
11.692904 8.0234289 2.7965064
11.937901 6.7714353 2.6758962
11.437233 8.1747379 2.4590702
11.524086 7.8615494 2.7274518
11.418177 8.809639 2.5896697
11.050259 9.8580427 2.6666346
12.133289 6.9922042 2.1338904
12.422567 5.9346333 1.6014545
11.996852 6.6218071 2.0750268
12.974083 4.1108818 2.0507603
12.12646 6.6305313 2.4186521
11.506737 8.4060745 2.538878
12.796681 5.0887284 2.0913732
12.366817 5.7038713 2.3677473
12.209202 6.1010017 2.1821582
11.948654 6.7904944 2.4625897
12.297128 5.9025922 2.0802941
12.095715 7.1156864 2.8666604
12.156463 6.9808011 2.7555993
11.428037 8.9317064 2.1434109
12.019157 7.4584422 3.2197442
12.502911 5.3877382 1.9926029
12.638769 5.0947027 2.3821177
12.140002 6.4110351 1.9798136
11.846457 7.0957651 2.0664039
11.146259 9.5859089 2.586138
12.765226 4.6925936 2.0769963
10.527268 11.173738 2.2822788
11.242377 9.3930826 2.7913373
10.84309 10.400993 2.7738464
12.763502 5.229178 2.2305331
10.799413 9.8024426 2.1661782
10.679873 10.681803 2.6590827
10.444781 10.883473 2.4578006
12.72661 4.6819668 2.7543037
12.229467 6.1801443 2.3489838
11.553854 7.7819071 2.6497872
11.72597 8.1489487 2.3728418
11.481598 8.004056 2.4547713
10.673595 10.625256 2.670089
10.32485 11.796211 2.8321977
10.355622 11.778504 2.9540665
11.548294 7.8764586 2.4704714
12.271914 5.6666489 2.0380991
11.381154 8.9998684 2.9683156
12.946206 4.8713884 2.6644127
10.480527 10.999161 2.270133
12.588403 5.7025185 2.0566244
11.262382 8.7563419 2.5864851
12.426001 6.3902674 2.9805007
12.792378 5.2135291 2.886975
10.35908 11.493324 2.0815229
11.985106 6.6991615 2.2747915
12.620481 5.6557894 2.6569114
12.173103 6.0935292 2.859066
10.36886 11.314762 2.4558992
12.605309 5.0153952 2.4493933
13.035277 3.9832027 2.4597523
11.136121 8.9874811 2.2699435
11.437246 8.4276962 1.8551958
12.134007 6.9888792 2.3833468
12.940412 4.8970852 2.4597709
10.487597 11.304147 2.4663126
10.8412 9.8619461 2.1987827
12.476466 6.0959268 1.9800718
10.281698 11.695615 2.3439851
10.465786 10.998318 2.5948408
11.706083 8.117775 3.0697606
12.527692 5.6843119 2.5538878
12.614343 5.6980271 1.9659182
11.734951 7.9926152 2.3626986
12.974154 4.7099743 2.3736439
12.779359 4.5984836 2.4555452
10.276797 11.556128 2.6299028
11.731333 8.0880194 2.3647885
10.012472 11.600083 2.7521777
12.957123 4.7858782 2.1519763
12.49247 5.407279 2.0562117
10.215971 11.110291 2.7320075
11.763182 7.3039379 2.0635703
10.343198 11.685667 2.5486476
12.794786 4.9897213 2.2820559
12.287961 6.4008303 2.5550673
11.393809 8.2779427 1.8616797
12.62045 5.0836535 2.4216986
10.351195 11.204693 2.5552733
12.257244 5.8920264 2.7550294
12.445552 5.4102516 2.7609596
11.52126 8.6512899 2.7290978
10.616721 10.101883 2.5397823
10.753284 9.9910994 2.2633088
13.228635 4.1816936 1.8909467
10.953337 10.084927 2.5509253
11.461743 8.0964727 2.2658873
10.097993 11.42009 2.5916138
10.181396 11.22209 2.5452237
12.758924 4.6915493 2.2568469
10.435521 10.872708 2.2835548
10.497156 10.602575 2.3614557
12.439509 6.220026 2.830255
11.867484 7.6838999 2.1360924
10.532909 10.581017 2.5312707
10.117425 11.395892 2.7021551
12.889959 4.295361 2.4503472
12.385764 6.2947931 2.5537925
10.97689 10.001579 2.0646732
10.33966 10.818527 1.9981002
11.582016 7.7798471 1.9768631
10.341177 11.100016 2.5576289
10.615444 10.234064 2.3004043
12.42522 6.2556171 2.5701442
10.157211 11.482183 2.5490041
11.942105 6.8813105 2.0659194
10.896665 9.4875288 2.6521511
11.113798 8.930788 2.5559952
11.289877 8.4977236 2.4593379
12.223987 5.9794197 2.7567115
12.074665 7.1139913 2.3684623
12.173913 6.6875381 2.6695905
11.652968 7.4823279 2.7625694
10.689259 10.487072 2.6534476
10.948864 10.094495 2.2692838
10.553719 11.096446 2.1510255
11.247364 9.2860422 2.2705309
11.262978 8.5986605 2.366086
10.476276 11.551982 2.0798612
10.252172 11.295204 2.2621651
10.337153 11.086895 2.2668715
11.593047 8.3935356 2.1801865
10.370415 10.992467 2.177891
11.494986 8.5919695 2.1614602
10.877527 10.206278 2.1603687
12.28814 6.4894114 2.4048193
10.995076 9.8914165 2.1589944
10.459029 10.697516 2.4658008
10.553539 10.482592 2.6429591
13.22143 4.0945301 2.293947
11.929575 6.7511392 2.7623177
10.93578 9.4828215 2.5569417
10.987308 9.3075199 2.0791357
12.129813 6.2712116 2.7701938
11.748171 7.3904314 2.0696061
10.349948 11.094532 2.065413
11.499773 8.6261568 2.075829
11.904458 6.8146935 2.6557572
11.547186 7.8854308 2.2594078
10.448909 10.803858 2.0776813
12.330883 5.8767438 2.2444675
11.583308 8.3160038 2.5591602
10.342092 11.100234 2.7452161
12.791746 5.2935767 2.7689366
10.126949 11.667279 2.2640705
10.339233 11.082851 2.1736276
11.737269 7.386148 2.36081
12.124051 6.4752336 1.9864451
12.25234 6.7517619 2.1322155
11.747361 7.3781295 2.545562
12.052189 7.1951585 2.3346946
10.530962 11.281385 2.4413819
11.505545 7.9131274 2.3582799
11.404387 8.2100496 2.3636663
11.445872 8.1714268 2.5581846
11.640676 7.6921325 2.3637393
11.636253 7.6764908 2.4437971
10.696682 10.693917 2.5655072
11.953733 6.7939525 2.1667638
11.439174 8.081255 2.6480677
11.250981 9.2891607 2.3656716
11.472946 8.6993179 2.2797341
11.745685 7.2910147 2.6632998
12.639016 5.6175399 2.3529496
11.251684 8.6002178 2.5623229
10.732544 10.698467 2.0676174
12.540477 5.2834525 2.1757441
10.705865 10.006911 2.3655782
10.101479 11.601833 2.4556873
10.249439 11.290627 2.4574966
10.352093 10.992077 2.4565573
11.735496 7.3800983 2.4384394
11.727473 7.2641416 2.8401682
11.751373 7.1968899 2.8447022
10.795072 9.8064232 2.358021
11.074822 9.6914682 2.2638769
12.000594 6.9769073 1.3635936
10.598123 10.300126 2.4560082
12.31909 6.4539266 2.1237223
11.671001 8.1938429 2.5619204
12.456734 6.2146482 1.9871473
11.103116 8.8603029 2.2317269
12.685404 5.4999113 2.071311
10.560909 11.093328 2.3651807
10.892152 10.286551 2.840246
10.254018 11.521157 2.7935297
10.959819 9.3980227 2.3655818
12.119521 6.3331985 2.0830653
12.830677 4.3739562 2.8415604
10.790275 10.311591 2.3661871
11.767066 7.2999525 2.1666231
10.947036 9.4000759 2.5529075
10.611347 10.807193 2.0518703
12.605019 5.0176778 2.3601933
12.745791 4.7878981 2.1673436
12.813801 4.4160156 2.5822699
12.940196 4.2747784 2.5719628
11.522718 8.2332993 2.000489
10.962112 9.982954 2.2596726
11.148832 9.6022177 2.1369741
10.810835 9.7217951 2.3672271
12.894157 4.3058753 2.2629764
12.08551 7.1046152 2.2421651
11.367913 8.2015247 2.8419123
10.367826 11.727327 3.1667864
10.550967 10.500984 2.2742548
12.698402 4.7962451 2.3593009
12.743764 4.7712431 2.3568332
12.236531 6.4700236 1.7764115
11.041339 9.2850618 2.0543528
12.078961 6.8195257 2.0538383
10.228708 11.36158 2.4726424
10.099556 11.597122 2.5536451
10.175614 11.405615 2.565975
10.53254 11.187987 2.1772711
12.696242 5.3376312 2.1379986
11.928894 6.98522 1.9513365
12.792103 4.5946274 2.1636853
10.505105 10.510708 2.5617387
11.375462 8.5703936 2.5476289
11.737364 7.3873982 2.2596421
10.282578 11.198642 2.1767406
10.190889 11.395322 2.4693782
11.579262 8.4009953 2.558497
12.2885 5.8979635 2.1700206
12.261237 6.4630795 1.875953
11.211483 8.7131634 2.3707221
11.886803 6.8961334 2.5518031
10.296433 11.10081 2.4737642
12.199429 6.2634282 1.8985406
10.668517 10.19612 2.265352
12.28092 6.0006819 2.0773578
11.88951 7.5107608 2.141685
10.294215 11.100703 2.5618148
11.875219 7.5019507 2.6542363
10.641067 10.982718 1.9841918
11.388654 8.2023954 2.5630894
12.97304 4.7095957 2.1742759
10.489554 10.513888 2.6590042
11.467772 8.7055607 2.1460586
11.029181 9.9897881 2.4562159
12.244894 6.5179095 1.5484176
10.385055 11.604112 1.9938678
12.095001 6.4958401 1.9657938
11.32266 9.1599646 2.2051706
10.365557 11.024901 2.6473353
10.744835 10.594663 2.3772523
12.167575 6.8974352 2.1605844
10.209195 11.731084 2.544023
10.176978 11.389641 2.674655
12.188418 6.5034032 2.6889877
12.15328 6.6511364 2.0121746
11.57297 7.7938485 2.2667463
10.896344 9.5012188 2.5654981
10.508088 10.514506 2.4793813
12.482712 5.3990521 2.2704058
12.417264 5.4446454 2.7367916
12.324354 6.5740767 1.8811994
12.558875 5.1962042 2.2746122
12.526052 5.8430223 2.3227324
10.38525 10.897824 2.4575291
10.913242 9.4217596 2.4829292
11.102723 8.9187384 2.7406466
11.789433 7.2022943 2.3626127
12.625077 5.0840316 2.1797891
11.731703 8.0850134 2.5656939
11.74638 8.06563 2.9887004
12.744266 5.4030123 2.0641041
12.554255 5.7741179 2.4205706
12.007857 6.6200404 2.2693624
10.242895 11.286262 2.6449106
10.309589 11.12503 2.1731462
10.390547 10.889776 2.3633935
13.208071 4.0973015 2.0806415
11.752337 7.2921782 2.4555311
11.833177 7.0709963 2.6423154
11.089219 9.2781782 2.9154668
11.008686 9.209897 2.3459206
11.038317 9.8863001 2.5466042
12.849918 4.3056889 2.8373451
11.595181 7.6914711 2.4638743
10.97968 9.2956276 2.5604911
10.585831 10.884653 2.6694174
12.462161 5.5846701 2.665653
11.380728 8.29811 2.1832535
11.358159 8.2961988 2.6605308
11.389749 8.1912012 2.6500747
13.037534 3.9896607 2.3485641
12.1326 6.2655392 2.6359582
11.44143 8.7786026 3.1225562
11.435952 8.8854303 2.7494693
11.757381 7.1884322 2.7633307
12.658021 5.5985098 2.6705313
11.350489 8.3886919 2.0686834
11.379219 8.3043146 2.2632434
11.439978 8.181881 2.2575035
11.028371 9.2684851 2.4317276
11.349129 8.3906145 2.2657943
11.985276 7.3924627 2.5629954
12.343593 6.4001184 2.1704359
10.747035 10.690515 2.7663765
10.190748 11.206069 2.0817449
12.185132 6.0934324 2.6484492
12.34529 5.7876062 2.170953
12.565195 5.1856852 2.1560895
12.641788 4.9914861 2.3598557
10.44381 10.762304 2.5518479
12.304649 6.5087299 2.0777762
12.21007 6.0045447 2.6661417
12.934348 4.8119516 2.2771223
11.696081 7.4915385 2.07216
11.787863 7.2004642 2.1583114
11.795782 7.2052274 2.061625
10.804698 9.6918764 2.7427189
10.692333 10.093896 2.3597307
10.772613 9.8985128 2.3573306
12.682965 4.8959823 1.9718062
13.060045 3.8969786 2.3541234
13.126736 4.2643089 2.4267006
11.35433 8.9983845 2.2589629
10.756036 9.8967867 2.5519559
12.895776 4.1966443 2.8483438
11.497046 8.5942421 2.3688064
10.849909 9.6970625 2.3538589
10.840318 9.6943636 2.5475192
10.856183 9.5866566 2.7502098
11.005176 9.209466 2.4721007
11.005597 9.1923809 2.7412207
11.698666 7.3011069 2.8508873
11.103761 9.0121431 2.2690284
12.155818 6.2928615 2.2588995
13.058435 3.8900843 2.4571624
11.74748 8.0792522 2.0500319
11.700974 7.3983812 2.3635585
11.442627 8.1830721 2.354862
10.738988 10.078056 2.2594266
10.393445 11.413239 2.4642947
10.763808 9.899107 2.4561622
12.813147 4.4187603 2.7736239
13.036085 3.8796101 2.6529193
10.62351 10.368576 2.5336289
10.942546 10.163066 2.1589932
11.444772 8.2787724 2.0558102
12.535019 5.195291 2.6553853
12.985634 3.9957912 2.6644189
13.012718 3.9022202 2.5589724
13.05188 3.894388 2.5538268
11.708201 8.1391134 3.0036211
12.650232 5.0857801 2.5484946
12.648866 4.9852924 2.259692
11.05547 9.8845539 2.2887998
10.604197 10.318192 2.2554152
10.782126 9.8898153 2.16626
10.744597 9.8855839 2.6598258
10.86583 9.6892757 2.1669536
12.405844 5.7032676 1.9968057
10.943646 9.4899788 2.1663458
12.242833 6.690804 2.2337167
12.361528 5.6947246 2.4636016
11.404894 8.111393 2.7778444
11.682996 7.500432 2.2632668
11.765767 7.2008681 2.665767
11.794336 7.1952553 2.2615912
11.350784 8.3835897 2.4498937
12.703712 4.724812 2.5569022
11.031443 9.2627287 2.6189554
12.636102 4.9482136 2.7117624
10.68659 10.714281 2.3575878
10.924074 10.274099 2.9251375
12.55138 5.1894221 2.46068
12.699963 4.6928959 2.8716893
12.789849 4.4910598 2.6589038
12.77992 4.5014958 2.8461487
10.635768 11.074782 2.70068
12.163936 6.7969379 2.2733061
10.891251 10.008176 2.5977397
10.437368 10.784019 2.3709846
10.694439 10.586603 2.260021
11.700921 7.3987174 2.4578557
11.809006 7.1121621 2.269558
11.037532 9.2865438 2.1741731
11.185225 8.7978077 2.3616817
11.294447 8.5058107 2.3627357
11.280886 8.4996443 2.5631528
11.298714 8.5022287 2.1577685
11.985868 6.5862479 2.7648926
12.744985 4.6992254 2.4613039
12.78863 4.4929042 2.7671642
12.838446 4.3896217 2.7556987
12.006018 6.6082087 2.3632145
10.361321 10.99689 2.2708671
10.34264 10.989418 2.555583
13.199875 4.0963197 2.3698759
11.673093 7.4970593 2.4522634
11.49255 8.4543457 2.9013357
10.664096 10.615136 1.9775383
12.291356 5.8966446 2.3607125
12.778243 5.3211174 2.2652893
12.644547 4.9993043 2.1667728
10.742096 10.091337 2.4600677
12.354694 5.6908612 2.5519283
12.367943 5.5925436 2.7593591
12.947348 4.1876163 2.4502554
11.003638 9.212925 2.149415
10.945056 10.086571 2.1442447
12.340927 5.791245 2.2619107
11.065661 9.8027067 2.5519521
11.982295 7.4038501 2.2760358
10.301311 10.895231 2.8490603
10.249837 11.380623 2.1662443
12.149076 7.0375028 2.2884116
10.999341 9.2989244 2.2652965
12.478456 5.3947964 2.3661139
12.454367 5.3927388 2.6406653
12.549168 5.1868658 2.5697584
10.988872 10.000409 2.8580778
10.484747 10.600634 2.5586984
11.165817 8.8884649 2.1642249
11.997743 6.5903587 2.6567302
12.6377 4.9835191 2.5622256
12.596199 5.6974168 2.3815141
12.803507 4.5112672 2.3524787
10.781553 10.500237 2.2606766
11.276901 8.4907274 2.6398935
11.380578 8.2912865 2.3632269
10.704453 10.6059 2.5547919
12.81053 4.4233088 2.6370852
11.606261 7.624392 2.5599589
12.972742 4.0171089 2.864713
10.990657 9.9006739 2.5574563
10.605402 10.312183 2.3640471
12.252195 6.1883125 2.5609162
12.442051 6.1825056 2.5875261
10.479049 11.192398 2.2590168
11.915682 7.5352483 2.4702806
10.941422 9.4012127 2.7714298
10.781445 10.501022 2.4560184
10.136083 11.678473 2.4747324
11.202338 8.7095261 2.4602389
11.257604 8.5927362 2.4633656
12.595012 5.0100837 2.6625159
12.636765 4.9813566 2.6614892
12.736519 4.7855363 2.469404
10.379837 10.991836 2.0819788
12.038465 6.5857801 2.359652
11.353784 9.0985012 2.0432382
10.442732 10.789808 2.2602963
12.331657 6.5673809 1.9793855
10.97594 9.387743 2.1664374
11.987953 7.3928142 2.462877
12.14963 6.2880569 2.1732011
10.470038 10.598478 2.6588955
12.870955 4.838244 2.1698339
10.342762 11.679283 2.7516811
10.531613 10.648619 2.2842877
10.884198 10.207771 2.4452779
11.891082 7.4832802 2.2403967
12.953613 4.6001544 2.5640092
10.969738 9.3961 2.2597542
10.98016 9.999486 2.9621024
11.678609 7.492538 2.3616326
12.993131 3.9945121 2.5672114
12.234269 6.7297974 2.4189153
12.907745 4.1259375 2.829422
10.183787 11.303178 2.671243
10.695431 10.593049 2.0719545
10.771297 9.805563 2.662024
10.918087 9.415925 2.0681541
10.640935 10.28159 2.4594719
10.2868 11.112065 2.0374479
12.501561 5.3013458 2.0846
12.078618 6.3900118 2.6566918
10.79347 9.7983818 2.4659195
13.095059 4.308949 2.4539704
12.67721 4.7930651 2.6658673
12.379606 5.9127765 1.8071097
10.412953 11.471965 2.8004165
10.38407 11.400219 2.3562105
10.652963 10.168682 2.7445955
12.873262 4.8544059 2.3467832
12.169487 6.4685297 2.5872283
10.787061 9.798646 2.5601826
13.001969 3.9295537 2.6660368
12.242405 5.8008947 3.0209439
10.57429 10.306898 2.7578886
11.739253 7.3874011 2.1588783
12.556447 5.093308 2.7558956
10.818576 9.6266775 2.7279007
11.581348 8.095418 2.7511332
10.549319 10.581872 2.2709365
12.540828 5.2918444 2.2635384
10.876352 10.321619 3.0442843
12.487169 5.3093548 2.6449056
11.35376 8.9869328 2.3549154
11.042448 9.1860266 2.4634213
11.952658 7.498023 2.0521286
12.578259 5.7891102 2.1638813
11.30583 8.3231583 2.8703055
11.897754 7.614058 2.0699103
11.838805 7.1878757 2.1550181
11.492789 7.9069648 2.7467582
12.399864 5.6085758 2.1613164
11.796669 7.0992098 2.6692073
11.953833 6.7931104 2.3564839
10.59095 10.894068 2.4670131
10.283435 11.19537 2.2685621
12.399442 5.6077237 2.3565981
10.258426 11.104596 2.7690911
12.893304 4.3044839 2.3649642
11.534735 7.9364514 1.9574057
10.536198 10.57389 2.4403601
11.18518 9.3093252 2.520381
10.573549 10.218503 2.1818819
12.278265 5.8977642 2.5471008
12.560197 5.1898637 2.3590052
10.586131 10.89706 2.2655103
11.436803 8.7962933 2.9819453
12.863953 4.3959727 2.3649616
10.842697 9.6822586 2.6505265
10.583994 10.904922 2.162554
10.368396 11.498095 2.554961
10.208658 11.379158 2.0745897
10.817879 9.6267576 2.4031751
12.059226 6.4947596 2.4687331
10.258642 11.183776 1.970643
12.400265 5.6014972 2.266834
12.300058 6.3117366 2.8575537
10.580422 10.893946 2.0730748
11.649082 7.5986948 2.0640533
10.104548 11.512059 2.5875943
12.297411 5.8151374 2.5696104
10.355912 10.990965 2.3576574
10.167704 11.391146 2.7579477
10.987505 9.939064 2.8272696
12.411772 5.6052055 2.0882168
11.190022 9.4006701 2.4636753
11.943511 7.5001249 2.1378388
12.974239 4.5704584 2.5084498
10.558382 10.386275 2.6589062
12.241855 6.0786004 2.2654319
11.151693 8.8955889 2.4585707
11.835633 7.2939091 2.0761509
12.289705 5.7920589 2.746371
11.528707 7.9792223 2.2569928
10.887995 9.6020851 2.1671638
11.674015 8.188962 2.1606834
11.935009 6.8744869 2.2659442
10.386266 11.402085 2.2550867
12.126192 7.0924873 1.9516566
11.053205 9.1898146 2.2665651
10.675828 10.804075 2.5575435
13.133297 4.3722196 2.0579157
11.326887 8.5791512 2.7408106
11.807485 7.7964349 2.2525725
12.247084 5.8870893 2.8534253
12.910435 4.1398873 2.7807906
11.832626 7.1694937 2.3646166
12.710917 4.7254639 2.4505427
10.970709 9.3918495 2.069325
11.717762 7.2269993 2.7494462
10.298667 11.614081 2.4773982
11.995547 7.3909364 2.0609505
10.263006 11.279964 2.1688328
12.686678 5.4849796 2.2796168
12.586298 5.1084857 2.2545056
10.47277 11.289531 2.361877
11.55207 7.7987537 2.5549896
12.195524 6.0993643 2.55744
11.20902 8.6182566 2.6593854
11.762139 8.072587 2.1283636
12.412807 5.5133314 2.3577635
12.511294 5.2172017 2.4669957
12.591005 5.0976062 2.3648181
11.992452 6.6020312 2.5581603
10.876359 10.301417 2.7740657
12.866313 4.3930607 2.5683041
10.40271 11.256912 2.5492043
11.040851 9.1774464 2.5616744
10.348737 11.667308 2.3476448
10.700888 9.9843998 2.6698415
10.372113 10.789701 2.7482617
10.391827 11.520526 2.6743984
11.35078 9.0872192 2.1424205
11.164399 9.4869146 2.2691984
12.155771 6.6725769 1.9848449
10.683937 10.095635 2.4641337
10.63691 10.959314 2.061986
12.103794 6.3961325 2.1579194
12.452412 5.4984698 2.5519216
10.28051 10.998685 2.7585526
12.87042 4.3016171 2.6621103
11.606486 7.5941486 2.7580471
10.758647 10.609255 2.1409822
10.431607 11.484949 2.4554453
12.564578 5.1024485 2.6557255
10.383319 11.593113 2.6663103
10.493025 11.104996 2.0698097
12.23362 6.801178 2.0372937
11.839165 7.5260067 2.0249937
11.240251 8.6849403 2.4596047
12.246605 5.9911814 2.5488374
10.649173 10.194056 2.4537077
12.845108 4.466186 2.654238
10.58747 10.923002 2.3569071
12.146989 6.2902403 2.3563666
12.389681 6.2353725 2.0361619
12.946792 4.1876292 2.5442057
11.731573 8.0771427 2.646034
11.402534 8.706296 2.2161162
12.12023 6.4576378 2.2839074
12.800859 4.5114403 2.4482017
10.205699 11.194658 2.6722882
12.481512 5.9992156 2.4533842
11.398094 8.9087763 2.0622263
10.736257 10.080216 2.1767898
11.350943 8.9848223 2.1613946
10.67412 10.08295 2.6509478
12.61892 4.9324222 2.5675411
11.463438 8.6976137 2.3725264
10.936712 9.5781717 2.1645558
12.004718 6.8465056 1.5497628
12.029414 6.6767159 2.0714664
12.312694 5.792263 2.0802853
11.973165 7.3918176 2.3654637
10.834106 9.7643766 2.2530529
12.492931 5.4465694 2.765794
12.800491 4.4999127 2.5650756
10.582895 10.400052 2.2752919
10.925486 10.306384 3.0815284
11.395482 8.2075386 2.173044
12.035146 6.5822153 2.2651622
11.871243 7.6784573 2.6626039
10.946508 9.3896236 2.6582093
11.612963 7.6217475 2.3650198
10.804051 9.7092667 2.6572983
11.253348 8.5179653 2.8673182
11.776872 7.8934374 2.3567331
11.213287 8.7038631 2.2811308
11.298847 8.4028034 2.7551317
11.34597 9.0755196 2.559129
11.608909 7.61408 2.4839911
12.84969 5.0868196 2.0706565
10.636362 10.361773 2.2512887
12.043595 7.1887283 2.2624767
12.243495 6.6937604 2.668206
12.953157 4.1962337 2.2638237
12.623728 5.1049705 2.6801529
11.905541 7.4209094 2.8171165
11.305366 8.395402 2.6634543
10.31777 10.842489 2.7766809
12.096312 6.3997879 2.2630343
11.956173 7.4020052 2.1547892
11.800882 7.1184449 2.3596945
11.734274 8.0217562 2.158052
11.564451 7.7935996 2.3603141
11.842654 7.706852 2.2633474
12.077814 6.7335491 1.6355753
11.809523 7.7796435 2.5672727
11.596641 7.7024345 2.2647433
11.587205 8.4164162 1.97498
10.393427 10.800151 2.5535395
12.864298 4.2948589 2.7709842
10.3936 10.713841 2.6707783
11.608216 7.6099396 2.6532345
12.371481 6.1904249 2.5600028
12.332443 5.9549699 2.0969305
11.192952 9.4021349 2.3635342
10.174638 11.495331 2.2609131
10.934686 9.4796686 2.451894
10.89842 10.108715 2.2548566
11.385048 8.7343245 2.3457978
11.438784 8.1691971 2.1627595
11.799656 7.7944899 2.3557453
11.379297 8.8941002 2.4764431
11.78943 7.9102612 2.1563561
12.203191 5.9228721 3.0565274
11.782614 7.1902542 2.5651994
10.462377 11.380136 2.4535277
12.393658 5.6017089 2.4614439
12.36206 6.2320352 2.3861058
11.373462 8.2941732 2.4592457
11.562958 7.7944489 2.4582574
12.532561 5.2836967 2.5593884
10.11393 11.518799 2.4770904
11.689136 7.4013228 2.6525147
12.471833 5.9812641 2.1579838
11.05491 9.1923065 2.1612206
12.912879 4.1423721 2.4548278
12.515266 5.2171202 2.7660363
11.693192 8.010148 2.3693063
13.004928 3.9252641 2.7462108
11.65597 7.5909457 2.2637765
10.457798 11.282034 2.2489474
12.211179 6.0168281 2.3539295
12.488234 5.3093896 2.5613971
12.792093 4.5996041 2.2771862
10.133328 11.600938 2.4419365
11.647002 7.5896606 2.3561335
12.249099 5.9846816 2.653748
10.004189 11.623404 2.9068472
12.946335 4.1879182 2.3583331
12.201324 6.1320572 2.0724618
12.568517 5.6047416 2.3795764
11.349352 8.6162462 2.2940199
12.908937 4.2149873 2.3607039
11.637159 7.6807227 2.2595184
10.949224 9.4921722 2.0631683
12.137289 6.3757377 2.4495087
11.335997 8.4821301 2.168962
12.184148 6.9028168 2.4371247
11.658008 7.4920321 2.6556106
12.172715 6.7005892 2.4919691
10.58342 10.290941 2.652189
12.950456 4.0938425 2.7675345
10.816786 10.147281 2.5591068
11.798097 7.8234987 2.6692514
11.578863 7.802299 2.0877075
10.45257 10.690179 2.5534413
10.409954 10.80809 2.2697058
11.64549 7.6827374 2.1456833
10.449969 11.38032 2.1703367
12.843072 4.4863553 2.3533971
11.296971 9.0942173 2.4640682
11.863211 6.9918642 2.5446281
12.976863 4.0989895 2.1622849
10.532821 10.886746 2.7815707
10.373859 10.799353 2.6597619
13.033163 4.0539346 2.2883182
12.423264 6.3106909 1.9443856
10.828871 10.494586 1.9554909
12.438168 5.4793215 2.6423545
12.840597 4.4799919 2.165472
12.697373 4.8039217 2.4505923
12.978126 4.0037332 2.7559786
11.554321 8.4982433 2.457839
11.584542 7.7008486 2.5594039
11.484448 8.5973349 2.7501364
10.88984 9.5970383 2.262928
12.007598 6.5719891 2.8603914
11.331872 9.1381798 2.7432954
10.162985 11.494954 2.4668515
11.697104 7.4031782 2.5528607
11.300471 9.0976248 2.3655608
12.067073 6.9540567 2.6419594
11.030117 9.9986067 2.6596148
10.440741 11.401704 2.3669522
12.794342 5.2088747 2.0601888
11.638646 7.5822759 2.5497
10.938403 9.4838142 2.264873
10.693223 10.822394 2.679522
11.843184 7.7723327 2.3385403
10.134244 11.5063 2.7658725
10.409248 10.818463 2.3681397
10.448966 10.782182 2.6568642
12.996718 4.0023141 2.4526815
12.2009 6.0003238 2.8428645
11.947412 7.4951916 2.3776903
11.812492 7.8000317 2.0744965
10.604912 10.211954 2.5565617
13.106375 4.3640213 2.4575067
12.580897 5.5879965 2.5554733
12.010283 6.5047865 2.1500821
12.000614 7.3346004 2.3693886
11.843208 7.7828178 2.5674009
10.677968 10.096008 2.5440989
12.091373 6.4051971 2.3604293
10.801724 9.8038177 2.2700245
13.0814 4.5050588 2.075716
12.062714 7.212759 2.0471408
10.750874 9.8836746 2.7589962
11.99242 6.6726623 1.968678
10.99132 9.3045568 2.3682907
12.585039 5.0985017 2.4482167
11.542525 8.0003462 2.1747227
10.663647 10.194038 2.1728342
10.378974 11.595922 2.554666
10.704657 10.004852 2.2686925
11.492338 8.5982151 2.2664862
10.639389 10.283524 2.2566583
12.58669 5.7163363 2.4321723
10.69544 10.101482 2.258738
10.651556 10.189541 2.5560317
12.09095 7.1195664 1.9705536
12.324539 6.5657005 2.0684919
12.715952 5.2558122 2.3032134
11.144094 8.9694805 2.4502125
12.84291 4.4881783 2.4491756
11.710902 7.9828053 2.2297633
12.103598 6.31672 2.5627198
12.753287 4.6815758 2.3579428
12.350631 5.6890254 2.6573961
12.192801 6.803679 2.3701217
10.167118 11.501299 2.3640788
10.959479 9.3840075 2.4569902
12.048498 6.4767728 2.6551471
11.036881 9.1772165 2.6415553
12.503012 5.3045478 2.2658393
12.445696 5.4869151 2.4533207
12.735291 4.7870626 2.2666249
11.125289 9.7066917 2.210494
12.623297 5.6729622 2.188874
10.284017 11.719778 2.535008
11.406196 8.9014854 2.9889274
10.604462 10.814112 2.3566654
11.775989 7.8221226 2.4683354
12.090748 6.4016275 2.4695561
11.907033 6.829761 2.3498673
12.537746 5.2855129 2.3577299
12.845018 4.3864517 2.6464858
12.391407 6.3050594 2.0410283
10.745992 10.601998 2.2701702
10.774384 10.493852 2.5521824
12.707471 4.7054157 2.6624038
10.090614 11.495511 2.7711959
12.009168 6.5292625 2.5581312
12.144062 7.000001 2.0567617
11.574802 7.7992196 2.1666908
10.878222 10.197785 2.2782843
10.310443 11.695869 2.6132329
12.999065 4.0085092 2.3568182
11.705966 7.3231978 2.6635256
10.69212 10.007574 2.553031
12.377033 5.5857334 2.6588111
11.466709 8.0959406 2.5559332
11.905037 7.5156655 2.3522937
11.729044 8.0947838 2.8554947
12.233468 6.0759387 2.3512728
11.89719 7.585155 2.1409326
10.101788 11.477097 2.0587294
12.33291 6.2121534 2.1774845
10.691677 10.804355 2.7249746
12.311032 5.7206469 2.4445343
10.746284 9.9940672 2.3538756
10.306628 10.921972 2.6669259
10.39196 10.890013 2.2638965
12.147892 6.2786551 2.5498528
11.847434 7.7888327 2.0602884
11.776495 7.84161 2.8579178
12.155806 6.1946392 2.6611052
12.282062 6.4678063 2.2730541
10.363228 11.597616 2.4588785
12.158788 6.9045997 2.8430948
11.693636 7.9896388 2.4616385
12.699883 4.8056126 2.2623367
10.744159 9.9944277 2.4590766
10.212148 11.317308 2.4575253
12.110468 6.318213 2.3699992
12.106445 6.299684 2.6515343
12.357249 6.4729748 2.0772557
12.404916 5.5032811 2.6585298
10.302527 11.700604 2.4492798
10.515985 11.049947 2.7662699
10.844898 9.6876297 2.7456808
12.857277 4.3967657 2.4577639
12.509924 5.2197928 2.5696433
12.703919 4.7012434 2.7443166
11.642149 7.5952215 2.4592073
11.335733 8.4711466 2.2541823
10.354188 11.009253 2.7707715
10.63507 10.283056 2.3591583
12.292347 5.8971286 2.267144
12.461923 5.3926725 2.5559165
12.469832 5.3977251 2.455884
10.585563 10.399526 2.173944
12.760732 4.7009077 2.1559455
11.673031 7.4912148 2.5487165
13.069704 4.5076017 2.1411202
10.638694 11.05655 3.0068939
12.212073 5.9313788 2.7060907
12.282466 6.6281261 2.2417312
11.342745 8.3881636 2.3560715
10.738087 9.9865341 2.5507631
12.112915 6.3219318 2.2730451
11.4934 8.600523 2.4538102
12.901035 4.2003965 2.6574664
11.89251 7.6009974 2.3815525
13.084676 4.4906778 2.2717276
10.149384 11.58347 2.2643652
10.693433 10.103283 2.1928792
10.578381 11.09488 2.7542903
10.300019 11.106348 2.3614738
10.267546 11.092034 2.6520531
11.868896 6.8979654 2.6677835
12.437263 5.5828209 2.1688871
12.581675 5.7117577 2.8914795
11.249278 9.3051205 2.1769807
12.695651 4.6958079 2.935863
11.888705 6.8313975 2.8542805
13.15258 4.2930932 2.2202713
12.000527 7.3071423 2.4519682
11.3101 9.2005405 2.8245029
11.273895 9.1910582 2.3620908
11.900116 6.9049358 2.3595324
11.110321 8.9184065 2.6592355
10.477418 11.203487 2.5567248
11.793543 7.8051744 2.1766236
10.416941 10.629017 2.6761942
10.964579 9.9130449 2.7640448
10.717421 9.9396791 2.5983303
10.545589 10.383406 2.7499213
11.697495 8.0779142 2.3541908
10.852289 10.439651 3.1414461
11.161699 9.4857111 2.3699956
12.486863 5.290801 2.7592623
11.148337 9.5908651 2.2755802
12.207304 6.6141844 1.8167772
11.076255 9.7009649 2.5477719
12.146183 6.9981666 2.4463382
12.993502 4.6850119 2.5326889
11.252848 8.6919069 2.1655693
11.252938 8.5827951 2.6481802
12.631668 5.6673689 2.4426467
11.778717 7.9749584 1.9960017
11.934157 6.893271 2.16188
10.264866 11.191931 2.553308
10.248771 11.267648 2.560106
11.505592 7.9044847 2.4750314
11.400107 8.1981764 2.4632726
11.41961 8.877552 3.1043251
10.611822 10.23872 2.4237766
11.894756 6.9054313 2.4567316
10.241171 11.198858 2.7828948
13.041924 4.3987684 2.1500783
13.075913 4.3095579 2.1855001
12.710146 5.3225999 2.5621076
10.662373 10.791959 2.3595788
10.586922 11.11439 1.991025
12.403811 5.5153623 2.5658274
10.353733 11.600327 2.3679612
11.04735 9.1929827 2.3557963
10.983235 9.2986164 2.4609966
10.337811 10.906209 2.7536483
11.032345 9.3631811 2.3273857
11.595046 8.4024229 2.0497909
12.889208 4.9691405 2.4198084
12.537003 5.1632304 2.7282908
12.782554 4.5932178 2.3552535
11.245786 8.6837664 2.5616975
12.61083 5.0196757 2.2702103
10.199695 11.193815 2.7690649
11.076601 9.0937281 2.1670322
11.0927 9.0047445 2.5623419
12.324335 6.0782108 2.8424191
12.872954 4.3870983 2.2577038
11.940923 6.8878284 2.3630402
11.200242 9.3337917 2.4589524
11.489095 7.9965143 2.360359
11.10288 9.0079403 2.3691177
12.361309 6.2142429 2.2761345
11.614545 7.5057836 2.7642777
11.727263 8.0650644 2.2660787
12.338509 6.4659505 2.3370719
12.859204 4.9243813 2.4411106
10.317554 10.904923 2.5003791
11.714889 7.8715062 2.1410909
12.180425 6.1937661 2.3554592
11.112639 8.9191847 2.4833102
11.804506 7.8695159 3.0394695
11.015364 9.1813965 2.0865188
11.104015 9.4919767 2.5580504
11.560544 7.8755279 2.0601103
11.133898 9.5760431 2.3616853
11.092363 9.0011282 2.4475901
11.191871 9.2777967 2.0828629
11.580853 8.4807529 3.0877414
12.882154 4.2769504 2.5667992
10.846682 9.6906967 2.448148
11.580824 8.3752451 2.2877488
12.405905 6.3180399 2.1852546
11.872164 7.6948805 2.5589437
10.568126 11.087473 2.4610553
12.24937 6.5989294 2.5653205
11.914609 6.7409935 2.475358
11.102557 8.9365969 2.3444691
13.037357 3.9868062 2.5572577
11.808024 7.0185413 2.7332215
10.227152 11.283245 2.7293057
11.029097 9.2743378 2.366663
11.05776 9.0982494 2.7390258
10.611829 10.77758 2.5324793
11.510374 7.8387852 2.6690807
12.837607 5.1750984 2.8425498
10.095358 11.51295 2.6635034
10.153321 11.386868 2.8575568
10.855787 10.505393 2.6384072
12.761801 5.3136716 2.1356385
12.901938 4.2056489 2.5636883
12.309516 5.72019 2.6662636
10.096864 11.429839 2.7659545
12.939557 4.7770948 2.4044225
12.228621 6.688571 2.9496686
10.294287 11.002094 2.6602147
11.902289 7.6184926 1.9910047
10.671564 10.788258 2.4642696
11.035598 9.8916035 2.7512786
12.308512 6.5100632 1.9466678
12.154207 6.9988012 1.9683049
12.662419 4.8798766 2.5709605
12.49961 5.9594183 2.3294618
10.308434 11.041908 2.2838893
10.549709 11.212619 2.9281514
12.640456 5.6758957 2.0679967
12.240933 6.0675993 2.4643211
12.770679 5.3210063 2.3334613
12.401842 5.5010033 2.742692
10.244579 11.294549 2.357928
11.629905 7.5685873 2.6454735
10.203302 11.396683 2.262408
11.057156 9.0976658 2.6557941
12.830454 4.5719109 2.1699185
10.994177 9.8179636 2.3441598
10.085052 11.511554 2.8545582
12.402796 6.0875525 2.1798563
12.19372 6.8999629 2.7581129
11.696162 7.8934784 2.2855005
10.207103 11.315242 2.5571678
12.822803 5.0068469 2.2713525
12.349589 5.9711423 2.503823
12.1208 6.4850659 2.1849029
11.678989 7.3869553 2.7693319
12.630086 5.0703859 2.2656469
10.467137 10.697647 2.353462
10.459297 11.398619 2.0774202
10.488678 11.306689 2.55248
10.769996 10.590248 2.8695056
11.922249 6.9847431 2.0511398
12.844701 5.1116629 2.3216875
10.593199 10.198573 2.7635899
10.577853 10.395782 2.3646758
10.686899 10.093501 2.0642996
12.24708 6.3338737 2.5160258
11.996564 6.500483 2.8254631
12.89499 4.2105374 2.7786961
12.570658 4.888526 2.0228202
11.221696 8.7885284 2.7215962
10.882422 10.201154 2.3504989
10.192241 11.398701 2.3633404
12.307841 5.8199134 2.2416809
11.084346 9.6963835 2.4551365
10.260844 11.682681 2.0766709
11.580407 8.4036722 2.4558961
11.30183 8.3398876 2.7495277
11.240154 8.6879129 2.6622112
11.606143 7.9819002 2.7453463
11.690605 8.1883793 2.8516235
12.662796 5.6609068 1.9981238
11.831502 7.7910767 2.2810323
12.290321 5.7974219 2.6632218
12.605693 4.9450793 2.7064986
12.857483 4.9901342 2.3882375
12.149566 6.3763304 2.5506904
11.222743 8.6459999 2.713028
10.784192 10.073556 2.6734781
10.863138 9.6954079 2.0723171
11.9042 7.3791485 2.4814107
12.867088 4.4049363 2.1675417
12.178267 6.7097268 2.1643686
10.953277 10.082139 2.3638854
12.743727 5.2061753 2.3867729
12.91106 4.8711977 2.1555948
12.110708 6.1903725 2.7614496
11.610216 7.5241647 2.66329
11.478512 8.7121735 2.0619416
11.566075 8.49195 2.7599881
11.590905 8.3078527 2.4693999
12.328671 5.8662896 2.4625309
12.667967 5.4989119 2.4641066
12.043581 6.6768866 2.4438562
12.09413 6.9954071 2.4651544
12.203824 6.1014447 2.2613847
11.080283 9.0986404 2.26178
11.480698 8.1160326 1.9876139
12.249543 6.6962872 2.1489856
10.494204 11.093905 2.4701705
10.659718 10.08086 2.7605815
11.420442 8.9823389 2.0097611
10.586075 10.304948 2.5633352
12.882431 5.0133333 2.0644627
12.349387 5.7841625 2.4631224
11.425272 8.855051 2.3866143
12.663015 4.7850986 2.9727464
12.237808 6.0896273 2.5615852
11.881292 7.5935807 2.2661853
11.504953 7.9170814 2.1548913
11.017339 9.72293 2.3065379
11.650778 8.1880054 2.3551164
12.384181 6.2961521 1.9595559
11.704245 7.334476 2.765414
11.406113 8.1361694 2.1838822
11.859697 7.000391 2.4557734
12.452493 5.4866281 2.3534815
11.549056 7.8012319 2.7497723
11.326447 9.0680552 2.4509358
10.634759 10.273438 2.5584078
13.033446 4.6044416 2.4377697
12.448081 5.4973936 2.2675381
12.628382 5.0823178 2.0511031
11.813384 7.0393295 2.8174498
11.174322 8.6568394 1.9905863
10.796364 10.393268 2.3605132
13.035134 4.3794065 2.2398427
12.796956 5.3278356 2.5826595
11.11944 8.9097614 2.200376
11.576169 8.5076962 2.9462347
12.482303 5.3909111 2.1686304
12.308108 5.8102274 2.367656
12.27434 6.3885584 2.0101924
12.431393 5.5642724 2.3636112
11.00705 10.000092 3.0891879
11.651575 8.2778769 2.060281
11.661693 8.1990547 2.4440675
11.088246 9.0061798 2.0748746
11.75245 7.2961688 2.5629244
11.800389 7.1059604 2.5660694
11.682323 8.1082525 2.444715
10.711014 9.9109097 2.4843013
12.307879 5.8143806 2.4605868
12.932543 4.2676115 2.2495463
11.073023 9.0924129 2.3593044
11.047222 9.7998705 2.4535882
12.899806 4.2114344 2.4521034
12.45046 6.1093578 2.1416144
12.378529 6.3960366 1.9724994
11.007051 9.0879116 2.3770096
12.660612 4.6193366 2.0248976
11.101086 9.0022268 2.1757929
11.642653 7.9018078 2.7430723
10.875952 9.5927353 2.4507966
12.217094 6.0915084 1.95969
12.514043 5.2129092 2.6666532
11.205833 9.3020325 2.2937474
11.512733 8.6590309 2.8333864
11.057027 9.7875347 2.3607609
11.448759 8.7768545 2.3547614
12.917844 4.9045639 2.0600638
12.547539 5.2655587 2.4470761
12.358878 6.3127799 2.4500866
12.126721 7.0774975 2.0598836
12.754713 4.9750037 2.4009857
10.335584 11.076527 2.3621862
10.306835 10.898442 2.7591414
12.251608 6.7718601 1.9730777
11.596229 7.7002831 2.3539689
10.392737 11.498858 2.4529271
11.638708 8.3821602 2.4470289
10.945559 10.102461 2.7308555
10.359166 11.714469 2.9768643
10.681127 10.609929 2.4708138
11.24258 8.6903534 2.3580058
11.105204 9.6189089 2.6715882
11.699701 7.4071217 2.2649281
13.041395 4.204361 2.1450784
10.710134 10.587821 2.3756659
10.683582 10.489909 2.7903676
10.301461 10.912882 2.5691426
10.183455 11.204336 2.8437102
11.140054 8.9803209 2.356966
12.576533 5.0936928 2.5669041
10.408768 10.619631 2.545388
12.840573 4.4816065 2.2738388
11.839513 7.7779412 2.1376657
10.669481 10.495036 2.5258701
10.417708 10.619817 2.7240522
12.257349 6.6944818 2.0613365
10.856278 9.5954733 2.6573608
12.839035 4.7636671 2.3363047
10.21313 11.136358 2.8618798
11.007669 9.7420235 2.543494
10.160986 11.265793 1.9703969
11.770583 7.8935041 2.2676077
11.006735 9.8842297 3.0196733
10.105643 11.409911 2.8390236
10.880618 10.298065 2.6545737
10.961227 10.107769 2.0697944
12.500328 5.2950516 2.4603491
12.429727 6.1896687 2.1344721
11.792604 7.1035056 2.7580795
10.247082 11.501571 2.6303947
12.253535 5.9853992 2.455147
11.840437 7.2881556 2.6443276
11.602493 8.4512472 2.8345191
10.256063 11.198072 2.6461966
10.884469 9.5946913 2.360642
12.77126 5.2281179 2.5902414
12.268052 6.3438005 2.090276
11.954517 6.6888494 2.7487814
12.671494 4.9016685 2.1744444
11.770095 7.6876392 2.5181434
10.358228 10.878236 2.6734254
10.959684 10.084512 2.459846
11.150493 8.8846312 2.5662229
11.320501 9.1772871 3.2385976
11.776975 7.3931737 1.9985909
11.662889 8.1811094 2.7597859
12.889324 4.8241925 2.0881946
12.581329 5.6910338 2.7417431
12.776031 5.2065444 1.9580082
12.23573 6.16433 2.0623145
10.961942 10.085628 2.6712773
11.680305 8.1960878 2.0474191
11.628176 8.3668442 2.0482018
12.803554 4.3298483 2.1423414
12.808337 4.506424 2.0825512
11.583844 8.3022251 2.7408698
12.800144 4.514677 2.1644425
12.28357 6.6724629 3.0623939
12.226615 6.1648369 2.1877682
12.583738 5.6939564 2.6271598
10.422498 10.881298 2.5537868
11.375595 9.0011959 2.6452906
12.237505 6.2007418 1.897503
12.926067 4.9232044 2.7355108
12.133486 7.0326686 1.8831093
12.813825 4.2915716 2.0073977
12.261615 6.3943915 2.684386
11.876974 6.9949126 2.2647915
12.992299 4.6953931 2.2383358
12.901148 4.0955157 2.6792679
11.835893 6.8265424 2.0997398
11.233406 9.3885012 2.2467306
10.289372 11.61095 2.0490384
11.685455 8.2087936 2.6394939
12.170394 6.8872519 2.5351312
12.810803 4.5130959 2.2700684
13.012816 4.667285 2.7001433
12.784184 5.2792625 2.9700408
12.337746 6.0945206 2.4454403
11.659671 7.7558646 2.2472875
12.593908 5.8195443 2.856045
12.036596 6.8049574 2.5496514
11.880948 7.6943192 2.042645
12.572877 5.8860183 2.939455
10.379409 11.500266 2.3534358
12.775096 4.8718324 2.3238864
10.518074 11.180412 3.0903261
10.383793 11.636462 2.9585695
10.088458 11.611769 2.650604
10.065142 11.588634 2.7661388
12.59088 5.8267136 1.8462949
12.819623 5.0037751 2.9105508
12.357732 6.5397787 1.8931588
12.885487 4.6993551 2.266582
12.821858 5.1803784 2.7388637
10.641373 10.281796 2.1710789
12.879974 5.0212269 2.763654
10.436419 11.503334 3.1785147
12.662485 5.3981891 2.2368178
12.382392 6.0669541 1.6491637
12.518587 5.1302404 2.0567925
12.741918 4.7605429 2.0487275
10.235695 11.380416 2.3290441
10.725904 10.158082 2.7482703
12.180326 6.4200287 2.6834767
11.39291 8.2924032 2.0781574
10.427959 11.565329 3.1831851
12.904198 4.9949188 2.5768971
10.127536 11.581666 2.0823123
10.832352 10.499087 2.0467474
12.245137 6.2021875 2.0079098
12.816041 4.9599881 2.0718925
11.45558 8.7752457 3.0886078
10.595647 10.144582 2.7983224
12.254647 6.7165689 1.9695175
12.173492 6.7837257 2.7023206
10.605507 11.011684 2.7811372
12.010986 6.5286202 2.4552646
10.312165 11.394194 2.0170805
12.706775 5.4350414 2.7536712
11.352381 8.3906507 2.1764083
12.904812 4.811533 2.2399912
12.345404 5.8676462 2.0672157
12.875561 4.8199182 2.53299
11.443653 8.0997686 2.467473
12.120241 6.4727964 2.0930355
12.233034 5.974288 2.8465052
10.490541 11.209565 2.7123764
12.173581 6.780498 2.5619802
10.894526 9.9959221 2.2805185
12.188956 6.8759546 2.3836684
12.683018 5.5010786 2.9438071
12.217501 6.7945318 2.8611569
12.167757 6.8138537 2.7821572
11.220338 9.4485025 2.938525
12.571662 5.3499165 2.7333713
11.098587 9.6897039 2.6354313
11.980765 6.9786301 2.4859691
12.676972 4.7953711 2.7439561
12.967393 4.7857814 2.0611138
12.403559 5.534328 2.4680302
11.933224 7.5740476 2.0439951
11.958265 6.9889636 2.7471726
11.658926 8.2501564 2.142638
11.50878 7.9217339 2.0985985
12.288113 6.602334 2.059396
11.157776 9.4797821 2.9496882
11.93026 6.9746933 2.2837434
11.943962 7.0649319 2.4503913
12.865152 5.1186161 2.7106636
11.927774 6.968719 2.1626887
12.879361 5.0747447 2.564343
10.165642 11.580252 2.1633432
11.634231 8.3110952 2.4588885
11.756716 7.7007918 2.4615848
11.552561 8.0015268 2.4468822
12.668324 5.3176827 2.4620855
11.165668 9.4993773 2.4726295
11.957445 6.694746 2.6674259
12.45203 5.7828574 1.9320217
10.919158 10.149784 2.8306661
10.660852 10.914011 3.0628934
11.646738 8.2953405 2.564122
11.979657 7.2926731 2.2789793
11.395234 8.5413637 2.7877762
11.566097 8.2476883 2.6851993
11.617014 7.6298299 2.1814992
11.634345 8.3035526 2.7810035
12.794982 5.2132521 2.7358134
11.634693 8.3077183 2.8388209
10.69021 10.609348 2.1578891
11.941462 7.5298166 3.1213765
11.629592 8.2771072 2.3513238
11.981064 7.0959768 2.0616782
12.460408 5.4915032 2.076236
13.227318 4.1527891 2.0471818
12.865668 4.6781197 1.9467462
10.559365 10.50537 2.0763881
12.290016 6.500371 2.7312276
10.559697 10.996359 2.2628927
11.116443 9.5199242 2.4528255
12.223934 6.1061358 2.6619079
11.856928 6.9698634 2.7601187
12.15042 6.4459672 2.7158966
10.558203 11.176391 2.856586
12.676882 4.8958654 2.2694638
12.735558 4.8562422 2.7147927
10.761794 10.417526 2.8695948
12.748368 4.6851673 2.6729922
12.761047 4.7879338 2.5491705
11.675284 8.096981 2.789289
11.0223 9.9608278 2.5471871
11.993201 7.2943583 2.1713943
11.478547 8.7055931 2.7447116
10.73157 10.690052 2.2721798
12.607855 5.786593 2.5229409
11.649443 8.2681589 2.2792764
10.309698 11.121715 2.2647784
12.074874 6.5028858 2.0597215
11.999806 6.6090221 2.4586647
11.529105 8.0630503 2.0071952
11.528115 8.0270205 2.6653287
12.83428 5.0598679 2.4297926
11.400483 8.8995295 3.2606053
12.073217 7.1856575 2.7661471
11.094766 9.613883 2.3733857
12.706064 4.7199507 2.1685975
11.377916 8.9964533 2.7675331
11.461055 8.0898829 2.3499267
11.034853 9.2741289 2.2572477
10.783195 10.50156 3.0311682
12.993782 4.378727 2.6633499
10.542954 11.200887 2.4491632
11.300737 8.8928986 2.6087196
11.988669 7.081265 2.2689266
10.31581 11.486625 1.9759201
11.905788 6.8132386 2.5629153
12.303198 5.7087307 2.8828139
12.311631 5.7130718 2.7521603
10.638498 10.880072 2.2694049
10.300977 11.003979 2.5869303
12.070987 7.2050395 2.8868754
10.307811 11.514904 2.0426095
12.943924 4.8724985 2.0651557
10.928204 10.163822 2.7769516
11.899704 7.612905 2.9006863
11.226435 8.7990265 2.2823331
11.973127 6.8120441 1.9736998
12.037066 7.2880831 2.3623414
11.069708 9.7912607 2.6577444
12.938602 4.2909479 2.166805
10.394635 11.300211 2.7676632
11.141452 9.19909 2.8582799
10.641131 10.389948 2.6702147
12.793159 5.2676687 2.4707987
10.098711 11.605326 2.0648808
10.314602 11.01916 2.4560249
12.794507 5.1170998 2.4901106
11.69181 8.1085835 2.6840041
12.285923 5.7984257 2.8727601
12.010614 6.6031647 2.0108941
10.272489 11.018225 2.0080507
12.251218 6.6723132 2.5932529
11.654716 8.1806183 3.0688741
12.810879 4.4412079 2.4607425
11.784281 7.8931131 2.4775321
12.664142 5.3055749 2.3520155
11.471354 8.7095718 3.0804982
12.395941 5.5009747 2.1420369
11.620962 8.3035812 3.0757444
11.713335 8.0237484 2.1127656
11.234867 9.3773708 2.5622096
12.315869 6.4809542 2.9542441
12.500259 5.3027525 2.3647721
11.774333 6.9921479 2.5963728
10.738309 10.693859 2.3587723
11.910588 7.580503 3.039161
11.054141 9.871583 2.9553983
10.050487 11.591445 2.8648288
10.845028 10.391771 2.5446117
12.208459 6.0132432 2.5631239
12.756794 4.8485403 2.0497961
12.217525 6.7731566 3.0475814
12.229826 6.7786717 2.9535844
10.436796 11.474105 2.5612745
11.505068 8.7196293 3.1583228
11.967393 6.6924529 2.5574903
11.253873 9.1671371 3.0329633
10.460635 11.477897 1.9527932
10.744681 10.061599 2.3454447
10.383606 11.098927 2.6631432
12.011051 7.0661111 3.2710743
12.749063 4.6981254 2.5543454
11.686382 8.1014557 2.2740695
12.066695 7.2057753 2.6284895
10.103098 11.623729 2.2578397
12.758858 4.8896565 2.4417253
12.752496 4.5995212 2.7625856
12.882543 4.8198414 2.7574444
11.267105 9.3035517 2.8630204
10.420598 11.614062 3.2481339
11.264221 9.280611 3.0674138
12.934958 4.8871393 2.1505668
10.636311 10.984259 2.6573133
10.668722 10.795032 2.0608518
12.713163 5.5047693 2.8561063
11.478296 8.5132456 2.0372844
10.636644 10.976659 2.4913661
11.296524 9.1937122 3.1335719
11.033725 9.9384117 2.8784556
12.659161 4.8847222 2.6634078
11.672401 8.0028563 2.6012406
11.643585 7.8023806 2.5540862
12.696639 4.8029318 2.0701826
11.862124 7.6916323 2.4544814
10.758142 10.695395 1.9938148
10.15535 11.587358 2.6589105
11.889876 6.581738 2.5340278
12.774806 4.5970659 2.5578463
12.060219 7.0617638 1.7072794
10.597838 10.963661 3.2770929
10.32604 11.192516 2.4848647
12.614285 4.9232926 2.7631204
11.808771 7.5595179 2.5889609
12.362892 6.0313177 1.7542841
11.907349 6.778399 2.7551265
11.497669 8.5949192 2.666497
11.099696 9.6121674 2.4360991
12.202209 6.0051837 2.7535205
11.462156 8.1126566 2.1707122
10.892204 10.209165 2.9499986
11.501921 8.5888948 2.5433681
11.037483 9.8690891 2.1728587
11.707531 8.1184816 2.0601912
12.71587 4.605258 2.8304901
12.371084 5.9618635 1.631371
12.051643 7.2223649 2.1471105
12.093616 7.1109066 2.6489387
11.496859 8.5150127 2.3824368
12.685155 5.3870611 2.0721571
10.969286 9.7989569 2.5517058
12.778849 5.2950206 2.8376942
11.974146 6.7023702 2.4596856
11.998245 6.6129088 2.1801193
12.371411 6.3158908 2.3963726
12.419802 5.9730453 2.7322414
12.830292 5.1856265 2.055402
12.382063 6.3303013 2.9699967
12.467179 5.5786233 1.8276994
12.390067 6.2975354 2.7931845
11.496627 7.9086614 1.9412097
10.427976 11.541492 2.8732145
11.98537 6.6942425 2.3563135
12.469031 5.684813 1.9717417
11.173285 9.105855 2.5801706
10.493668 11.112049 2.2614667
11.209045 9.237957 2.2618783
12.449678 5.5004215 2.1622901
10.145329 11.587407 2.376461
12.922433 4.9734931 2.0356503
11.439381 8.1314917 2.8565001
12.361677 6.0142365 2.1683724
10.821655 10.457863 2.3627939
11.99396 7.3164349 2.0802135
10.790003 10.667169 2.1320026
12.007029 6.5375652 2.6374457
11.425889 8.087534 2.7486348
11.617267 7.5043955 2.097918
10.280742 11.507657 2.3414118
12.008651 6.5169926 2.7708905
10.494095 11.093758 2.1880009
12.403115 6.2017345 2.6847079
12.693023 5.3067513 1.953243
11.064332 9.7734728 2.2645628
11.166413 9.5921307 2.8488326
11.149875 9.6078863 2.7610989
12.926036 4.4536967 2.004077
12.50947 5.2309713 2.3740394
11.181794 8.8897629 2.081357
12.471449 5.8936915 1.8274217
12.35392 5.8788857 2.1469338
12.676977 4.6184568 2.2980537
12.438784 5.5774713 2.2608471
10.472665 10.700047 2.2643008
10.375245 11.596294 2.0736775
12.768848 5.3041344 2.0802596
11.141891 9.6039839 2.6509728
12.67489 5.6248665 2.8870754
11.878477 7.0074153 2.0699115
11.340667 8.4466209 2.6612022
10.990458 9.7249422 2.693028
11.796551 7.9105363 2.8038085
12.065189 6.4875293 2.1695836
12.166604 6.8979168 2.0620604
12.786702 4.8783479 2.5272248
12.685205 4.8009868 2.5621746
12.631997 4.8706722 2.9709654
11.698319 8.0910473 2.8773744
10.745007 10.671683 2.472347
13.078519 4.3165188 1.901983
12.625835 5.7083745 2.7554281
10.271022 11.193553 2.4445403
11.215084 9.1159048 2.7850614
11.42587 8.9044199 3.0012205
13.091515 4.257412 1.9626491
11.84565 7.8009796 2.735786
10.766524 10.686891 3.0959198
11.370726 9.0015144 2.5556693
12.249926 6.7142801 2.8418667
10.736439 10.712666 2.8433127
10.455349 11.395067 2.8435726
12.505772 5.2988014 2.1623189
12.466756 5.859345 2.7940664
10.6439 10.886376 2.3533547
11.162832 8.8995352 2.2647192
10.274343 11.589848 1.5733956
11.465862 7.9933152 2.6561458
10.148834 11.474311 2.8626156
12.286447 6.2785525 1.7577329
12.069018 6.4892211 2.2664208
10.280476 11.19842 2.3567762
12.482974 5.9324417 2.0426798
12.345459 6.4935017 1.9761496
10.604979 11.00626 2.948194
11.383671 8.9068766 2.3619099
12.699727 4.6056595 2.4027402
11.856212 7.0788121 2.7427223
10.572647 10.99659 3.1753869
12.900199 4.7127323 2.8950181
12.8315 4.7324362 2.7608759
12.866381 4.7412796 2.4187636
12.863087 4.9166222 2.7880967
12.371477 5.9815826 2.5468745
12.460776 5.8967524 1.9475889
11.510379 7.9043512 2.2695966
11.492256 7.9025726 2.672405
12.629013 5.7618871 2.8734095
12.71638 4.9144149 1.8861505
12.665269 4.8989282 2.3608415
11.003361 9.9202356 2.6927228
12.68434 4.8843899 2.0545828
12.35116 6.3017921 2.260844
11.15863 9.06884 2.1718705
10.295487 11.595695 2.1463521
12.294359 6.6026144 3.0762427
12.444794 5.9188857 1.7620243
12.639297 5.5717888 2.1660335
10.652024 10.88878 2.5550935
11.117627 8.8952484 2.0425577
12.024994 6.6538968 2.3740749
11.483267 7.9875278 2.5523512
12.694479 5.4032764 2.1413331
11.527492 8.6712523 2.175941
12.046272 6.4951978 2.5569682
12.051576 6.5797396 2.4590981
11.456383 8.0012474 2.7479529
10.65981 10.878366 2.141655
11.605177 8.3129034 2.257621
11.578726 8.177803 2.5660851
12.047256 7.2829752 2.5423455
12.654884 4.9958706 2.0729911
11.403155 8.0469942 2.01878
11.50029 8.4242191 2.2679286
11.730043 8.084528 2.4724879
11.610376 8.3081207 2.3481343
