# .PCD v0.7 - Point Cloud Data file format
VERSION 0.7
FIELDS x y z
SIZE 4 4 4
TYPE F F F
COUNT 1 1 1
WIDTH 1542
HEIGHT 1
VIEWPOINT 0 0 0 1 0 0 0
POINTS 1542
DATA ascii
13.183835 42.574547 -1.1376561
13.071508 42.49078 -1.8363522
13.07146 42.496758 -1.135734
12.864902 42.389915 -1.8359715
15.260977 43.306252 -1.7382938
12.276139 42.186344 -1.640379
16.879459 43.891602 -2.1448958
15.361707 43.316456 -1.2405154
16.266148 43.714695 -1.0422726
12.081188 42.165424 -0.55840892
13.254697 42.521473 -1.0406417
12.089559 42.159363 -1.2460085
16.162416 43.625534 -1.0358353
15.55411 43.423622 -0.93926716
12.061049 42.106411 -1.719547
18.071934 44.405052 -1.0389658
14.895374 43.179302 -1.824846
14.759091 43.095779 -1.827988
14.368826 43.003471 -1.0395359
14.07582 42.882744 -1.432793
17.453751 44.097923 -1.842124
15.568855 43.407116 -1.4329234
14.674393 43.081436 -1.9199959
14.465703 42.999058 -1.5349369
14.053666 42.818153 -1.1474648
12.070677 42.194851 -0.14780438
19.037226 44.96096 -0.93548471
19.08852 44.993565 -0.84283435
14.664314 43.015705 -0.95948356
14.327625 43.166729 -1.0919383
14.363653 42.979374 -2.1147144
13.77947 42.717773 -1.7273537
13.471986 42.597809 -1.7348897
13.375204 42.584743 -1.7404104
13.160882 42.51165 -1.3308517
12.781829 42.376236 -1.7341218
18.750132 44.687237 -0.46654841
19.155769 44.721157 -1.6335914
18.143774 44.309174 -1.8388693
13.56711 42.674156 -1.8278785
14.964314 43.214943 -1.0422903
14.37366 42.98999 -1.432479
14.057314 42.81472 -1.0465192
14.074405 42.879036 -1.8454553
13.667736 42.700638 -1.5391649
13.558458 42.622864 -1.1297327
13.258811 42.523571 -1.1352617
13.156161 42.489491 -1.9300966
12.866677 42.393909 -1.5356486
14.265018 42.91151 -1.4320053
13.48134 42.613842 -1.8378065
13.267623 42.51268 -1.8394049
17.859756 44.233898 -1.3272691
12.37546 42.206135 -1.6294737
15.068298 43.203259 -1.6296538
14.952513 43.116276 -1.6163783
14.437426 42.943615 -2.0637431
14.264174 42.909554 -1.6328162
18.446352 44.530731 -0.6341005
13.82479 42.644768 -1.8262906
18.773888 44.878716 -0.63118607
17.833317 44.223923 -2.0028801
14.834149 43.127563 -0.43090707
18.760929 44.619263 -1.343006
14.841127 43.131561 -0.50975376
14.569541 43.006893 -1.5376618
13.010628 42.46022 -2.125164
15.489624 43.490616 -0.44266397
17.340141 44.024239 -1.4575827
17.329369 44.025326 -2.0635519
13.676102 42.697392 -1.8449152
13.767217 42.716919 -1.531985
16.160753 43.620853 -1.2478869
15.954848 43.516449 -1.2450708
14.994424 43.192379 -2.0991488
12.755363 42.317028 -1.4425392
14.375695 42.973022 -1.8316709
13.166309 42.52179 -1.039284
13.162374 42.498814 -1.8389025
14.874259 43.136375 -0.65116465
14.953977 43.187801 -2.0172555
13.052248 42.431084 -1.8344821
18.162479 44.329315 -1.9631321
18.777403 44.691143 -0.54382277
15.48096 43.454964 -1.7611141
11.884165 42.069782 -1.030265
14.676264 43.089855 -1.7347388
18.001976 44.394497 -2.1302357
17.841721 44.217533 -0.8142333
14.972057 43.20388 -1.4333107
14.871682 43.205441 -0.63937211
14.666909 43.118427 -0.64675063
14.573893 43.076439 -1.4396374
14.26829 42.905788 -1.5471009
13.863961 42.816532 -0.73717093
13.868643 42.787575 -1.5429988
16.778631 43.978374 -1.5350308
15.234123 43.20956 -0.7625559
12.621263 42.338032 -0.015271503
17.274204 44.080185 -1.5292054
18.669416 44.588074 -1.840099
16.752394 43.825836 -1.4287217
15.502028 43.453888 -1.636001
14.46799 42.996719 -1.7330791
12.071033 42.102951 -1.9414223
13.87323 42.818924 -0.54170138
17.664675 44.221889 -0.94213587
15.466506 43.408619 -1.0406861
12.769832 42.323818 -2.0067928
12.753427 42.355873 -2.0323131
19.076019 44.808418 -0.55333227
18.462336 44.507713 -1.9365816
18.174829 44.469349 -0.8362295
15.5695 43.594482 -1.1244855
13.07991 42.427959 -1.9207507
17.076498 44.173409 -0.93177938
18.664324 44.607964 -1.2428274
17.449148 44.136429 -0.86013108
17.807051 44.122822 -1.6829463
17.778006 44.212593 -2.1572101
17.547077 44.122871 -2.1509845
17.267448 44.01289 -1.7473435
14.943708 43.130608 -1.2447666
14.393967 42.91468 -2.039789
14.265288 42.915714 -1.3419116
14.268176 42.908638 -2.0419292
14.064629 42.82365 -1.3333832
13.964284 42.784649 -2.0534203
13.563921 42.616932 -2.0483334
13.448789 42.543835 -1.2949053
13.461333 42.608349 -2.0440288
13.261212 42.511932 -1.6342118
13.172865 42.502178 -1.6435059
13.74685 42.962082 -0.73938721
18.876394 44.696198 -1.4433552
17.354521 44.123825 -0.54614192
18.455414 44.481316 -2.146961
12.088316 42.172684 -1.4131556
14.770123 43.096329 -1.9319153
14.273338 42.903244 -1.9316995
14.144913 42.824142 -1.1529907
13.554926 42.612904 -1.929127
13.465961 42.60228 -1.925307
13.258924 42.514381 -1.926585
13.165104 42.508289 -1.1424237
18.670763 44.58379 -1.738501
17.452049 44.099361 -2.3290346
13.765723 42.715691 -1.3420167
16.160683 43.614555 -1.4299408
13.757254 42.711712 -1.2357017
16.149017 43.587723 -2.3096361
15.970315 43.519505 -1.4409693
16.342291 43.947048 -0.58925974
13.964461 42.811916 -2.2378116
13.768543 42.679863 -2.2418261
13.465302 42.573517 -2.2356005
17.337353 44.033501 -1.1669199
13.381899 42.657448 -1.6189463
18.827114 44.637764 -0.87033153
16.772732 43.89167 -1.7397012
17.158087 44.024696 -0.74845451
13.068642 42.494946 -1.2335819
15.687493 43.558926 -1.0513453
15.058687 43.193417 -1.7362571
15.051667 43.222294 -1.0327511
14.859022 43.116737 -1.7474101
14.857572 43.121582 -1.025732
14.467958 43.004093 -1.4363813
14.357978 42.923195 -1.0214877
13.26848 42.584713 -1.2350196
14.143166 42.830978 -1.0264208
13.766779 42.716103 -1.4411036
13.668093 42.702354 -1.4355587
13.257949 42.511742 -1.4403396
17.973843 44.386723 -0.84374094
18.670538 44.758247 -1.4007468
13.272836 42.582699 -1.3340342
16.892326 43.95845 -1.9223694
18.660946 44.532028 -1.8446569
12.083518 42.153984 -0.95214355
14.835251 43.020412 -1.156126
14.666822 43.026398 -1.1485258
14.472288 42.922226 -1.2133731
14.14102 42.804428 -1.2173744
13.951485 42.723637 -1.2259492
13.765486 42.626282 -1.2497869
13.444081 42.519104 -1.2231688
13.297086 42.442188 -1.2256955
13.167089 42.431606 -1.9364046
12.182006 42.163441 -1.6364601
19.365019 44.912418 -0.73888713
12.09177 42.161098 -0.82757574
17.368677 44.002415 -1.6640514
18.676014 44.530479 -1.7561278
17.763964 44.223736 -1.3312427
16.839785 43.842285 -1.2273628
17.355267 44.036037 -1.2427446
17.930853 44.53669 -0.61141181
13.745893 42.962856 -0.88973022
18.632051 44.542 -0.34930682
16.967831 43.903751 -1.7379458
12.973619 42.491451 -0.54609424
14.057205 42.965134 -0.42236522
12.157208 42.122692 -0.73696119
13.480824 42.931671 -1.3678741
17.155907 44.199474 -1.197166
17.643856 44.140434 -0.8121112
12.158136 42.040714 -1.5896285
15.843635 43.413525 -0.86866593
17.42679 44.134827 -0.61939996
12.15299 42.119881 -0.84809828
16.775875 43.886127 -1.5408113
18.308058 44.567715 -1.1402344
19.47999 44.972481 -1.3384236
14.752022 43.127136 -0.6464358
15.323551 43.446758 -2.1290154
17.331436 44.001331 -0.68674129
18.842754 44.627071 -1.3360331
13.273105 42.58707 -1.0339265
12.64915 42.35244 -0.1598925
17.278687 44.316113 -0.53620398
17.974045 44.389374 -0.93492407
15.568624 43.594055 -1.3338497
17.764227 44.221428 -0.93905711
14.711784 43.317001 -1.7141947
13.897725 43.010517 -1.3360819
15.350233 43.203342 -1.3356811
19.382416 44.988647 -1.8603158
13.353217 42.600727 -1.9229453
18.310404 44.669304 -1.5379755
12.66526 42.312836 -1.7368823
17.549417 44.136189 -1.1487292
18.269686 44.585865 -1.3588141
13.252875 42.522381 -2.1447241
12.931347 42.549343 -0.84402007
14.491535 43.060608 -1.532297
17.637413 44.124023 -1.3282998
17.55699 44.356445 -0.60558212
14.996678 43.281963 -0.38337705
13.591383 42.889912 -0.84910721
17.271175 44.086395 -1.6345606
14.474438 43.068344 -0.93601578
17.885555 44.362896 -0.73086041
13.341766 42.568287 -2.1471248
14.49188 43.071007 -1.6448134
17.680176 44.275497 -0.55976307
17.671013 44.272568 -0.83957613
13.656437 42.670929 -2.1306367
15.390285 43.51791 -1.6646966
14.432105 43.145985 -2.0151603
16.663071 43.825882 -0.73616815
14.626503 43.007893 -0.7468487
15.191993 43.480976 -1.0613462
14.480589 43.069065 -1.2378787
14.900783 43.268997 -1.4335279
13.554373 42.853554 -1.0689936
18.571785 44.606602 -1.0444582
13.267348 42.5993 -0.54243028
18.772039 44.680092 -1.3433769
17.466501 44.270378 -1.4301034
16.49514 43.878887 -1.439329
14.881507 43.267933 -1.3656348
17.733046 44.206142 -0.81278038
17.520189 44.138306 -0.67997438
17.566349 44.190563 -1.3409212
14.974447 43.283211 -2.0175805
14.868585 43.269939 -1.2391777
17.339701 44.303471 -0.76299196
14.480314 43.064659 -1.0374795
15.166501 43.313217 -0.64811426
16.725212 43.910049 -2.2659144
17.74979 44.216896 -1.2391074
17.334745 43.886822 -1.766019
12.303875 42.254555 -0.6200369
13.655382 42.60508 -1.9421005
15.45854 43.327923 -1.3301103
14.481861 43.06979 -1.3362663
14.479551 43.069187 -0.84132582
14.482817 43.064007 -1.1351048
15.469249 43.321762 -1.6429203
19.461407 44.954887 -1.7526188
15.455756 43.325832 -1.2211149
15.146341 43.352013 -1.5121646
17.879095 44.300369 -1.9291742
12.064407 42.102005 -1.3372716
16.386379 43.770252 -1.7045002
13.181176 42.56493 -1.5369109
15.465801 43.393635 -1.8322873
18.77854 44.657001 -1.9574978
18.885765 44.76022 -0.85106957
18.269718 44.436562 -0.64132851
17.563488 44.210308 -1.1412817
17.543388 44.159611 -2.1430173
14.381677 43.064232 -0.74160713
16.816364 43.842335 -2.205929
15.097334 43.381866 -1.3542186
14.484428 43.071102 -0.32431966
18.267513 44.502647 -0.74065107
18.569027 44.603226 -0.94226843
17.071989 43.934673 -1.8290281
12.867252 42.457401 -1.4236422
17.477486 44.184864 -1.4268162
18.348415 44.660797 -1.6291173
18.571873 44.588776 -1.3388325
17.439955 44.323139 -0.51528919
16.118786 43.856976 -0.77396309
15.266822 43.309093 -1.3401256
17.888121 44.219913 -0.90298277
14.183293 42.952477 -1.7467307
16.256605 43.803223 -1.9105235
17.139372 43.900585 -1.8727417
15.66025 43.419464 -1.6306918
17.802896 44.127262 -1.1102659
15.071835 43.216248 -1.8344282
18.057943 44.323906 -1.4351803
16.143557 43.609234 -0.75067151
17.820688 44.239182 -1.067717
16.900564 43.81332 -1.8783569
16.513618 43.734638 -2.4502196
17.97098 44.381058 -1.2336366
12.975225 42.468674 -1.7414984
15.466333 43.333191 -2.1536362
17.474998 44.170998 -1.8365506
17.50061 44.174267 -1.9504657
15.668701 43.421246 -2.0246508
17.835089 44.290688 -2.1911979
18.605703 44.570412 -1.8614522
12.002304 42.178791 -0.50657988
17.460522 44.12183 -1.3352824
18.682344 44.604645 -1.9341818
18.660343 44.617912 -1.0429115
16.765392 43.91901 -0.63946104
12.199414 42.30582 -2.044065
13.186692 42.56572 -1.4426652
15.713079 43.570984 -0.53624392
18.640839 44.573555 -2.0410829
17.594767 44.386059 -1.0335147
17.473343 44.193859 -0.63326138
17.169758 44.1763 -0.61908227
14.07794 42.870106 -1.6263789
17.062931 44.011173 -1.1420101
15.213764 43.326286 -2.4330029
14.079644 42.87532 -1.7345583
15.235462 43.291939 -2.2126172
15.656935 43.407955 -0.94874156
17.987419 44.469913 -1.2398087
18.576668 44.588127 -1.4346613
17.652817 44.231178 -0.64469486
13.952977 42.833569 -0.65221155
18.661861 44.621231 -0.94281757
17.08453 44.071198 -1.5329148
17.470156 44.076187 -0.54853261
17.068893 43.998135 -1.4349027
12.9724 42.470615 -1.5302613
16.749825 43.912895 -0.44020393
18.064884 44.410992 -0.84685296
17.872753 44.227642 -0.39250576
16.348583 43.660328 -2.3161669
13.342735 42.525589 -1.1435618
12.187078 42.170197 -1.7319181
14.888077 43.245667 -0.37648007
17.76557 44.210224 -1.7260853
17.083941 44.069256 -1.1439739
12.870563 42.406475 -1.4350963
15.658584 43.421097 -1.3408685
17.78548 44.363724 -1.3447995
18.071205 44.393887 -1.5419937
17.128881 43.855423 -1.9525344
17.447226 44.11631 -0.70884061
12.97413 42.488251 -0.64415598
16.77873 43.964901 -1.4409102
18.132767 44.327106 -1.4437873
18.864077 44.665874 -2.0453637
15.375326 43.372898 -1.5435107
16.167156 43.694855 -0.94040132
17.977625 44.377613 -1.4389269
14.352681 43.144047 -2.0916061
13.465456 42.626057 -0.84201175
17.977016 44.381474 -1.5326846
15.753192 43.525452 -0.55728543
16.970177 43.990997 -1.8302293
18.68597 44.6675 -1.2369455
17.059212 44.014774 -1.0357115
18.072025 44.417477 -0.64209592
15.374287 43.316833 -1.8401855
17.384983 44.166428 -0.55442631
15.666306 43.417461 -1.1415638
18.011288 44.475021 -1.5059314
17.371719 44.124763 -2.4854732
19.160696 44.81871 -0.84172469
18.679533 44.666729 -1.0426542
16.805779 43.980625 -0.44699591
13.265186 42.571297 -2.1403933
16.558985 43.826969 -0.54112446
13.309706 42.663303 -1.2592307
13.632345 42.645039 -0.49724209
17.572681 44.393181 -1.2593677
17.06785 44.015602 -0.93861616
15.549733 43.424908 -0.55212963
17.082336 43.989452 -1.9284426
15.973803 43.586559 -1.635579
14.167445 42.908672 -1.1371024
14.773887 43.109516 -2.029583
18.254814 44.496754 -1.6281397
18.065014 44.32373 -0.92316747
16.206169 43.640717 -0.18546562
17.582853 44.267052 -1.2375982
18.666605 44.600651 -1.5412471
18.960924 44.747993 -1.8005949
13.697126 42.72258 -0.23270486
13.369473 42.603489 -1.3319299
16.767557 43.949181 -2.4143202
18.248302 44.427563 -0.94860727
13.773295 42.791134 -0.54078859
17.175701 44.082211 -1.1387513
15.543494 43.39069 -0.38732404
17.587608 44.265022 -0.64674377
13.363577 42.616554 -0.83397144
17.267487 44.09919 -1.1389543
18.171228 44.560959 -1.7502435
14.189331 42.966816 -1.6312718
12.156404 42.164055 -1.8098266
12.383309 42.26297 -0.94282025
15.367639 43.369453 -1.9429877
14.535629 43.036873 -0.74623507
15.35089 43.373638 -2.0284696
12.363662 42.129227 -1.4334493
14.36337 43.163502 -0.90846866
18.028711 44.323051 -2.0942552
14.170677 42.902771 -1.2420987
13.666735 42.689358 -1.9348044
15.238517 43.526768 -0.85861021
14.085068 42.871021 -2.0625017
15.849018 43.454208 -2.2536454
13.978277 42.7925 -1.9554492
18.595228 44.664196 -1.2349567
15.884537 43.566628 -1.6364702
13.804488 42.877094 -0.52008158
16.858707 43.923939 -0.65060735
15.677443 43.573689 -1.3498988
18.363485 44.423794 -1.7337551
11.745183 42.157368 -1.0137064
14.771861 43.101677 -1.6358657
12.806825 42.794621 -0.47428769
14.169556 42.897221 -1.3331547
17.640944 44.407303 -0.83866179
14.184418 42.968704 -1.2413414
12.061218 42.119518 -0.84311664
17.277065 44.082432 -1.7282901
12.962708 42.479263 -0.3485654
16.764526 43.870743 -2.0346835
16.288469 43.811756 -2.1564195
14.085324 42.872532 -2.1331878
17.993292 44.406677 -2.3187237
15.427007 43.553986 -1.0788161
17.467901 44.190472 -0.55034465
13.84313 42.980106 -1.0026942
16.859491 43.919094 -1.1381028
18.971548 44.895756 -0.53960311
17.501139 44.362076 -1.023697
15.158183 43.224854 -1.6329376
14.988866 43.25845 -1.7392416
19.069418 44.887131 -0.61401397
16.470228 43.717735 -1.1378124
16.180824 43.769566 -1.1381596
14.769833 43.113052 -1.242324
13.651108 42.61462 -1.2372103
18.051388 44.211948 -1.9400264
19.48369 44.972153 -1.2354858
14.068054 42.809319 -2.0223238
17.441742 44.03598 -1.4536743
12.697349 42.362381 -1.5455474
12.465866 42.27742 -0.069786727
18.047937 44.322803 -1.0553756
16.785089 43.96003 -0.84435296
18.448357 44.428905 -1.8754561
14.886805 43.30109 -0.46576345
18.598389 44.653938 -1.5514166
12.457732 42.212963 -1.3347535
18.391283 44.566055 -0.93803179
15.3828 43.320019 -2.0243897
13.06942 42.413055 -1.5310169
15.275281 43.372795 -1.2292874
14.85509 43.12944 -1.8203114
18.866974 44.708115 -1.139183
14.586911 43.240131 -1.7805395
12.657176 42.449272 -0.79543161
18.880392 44.624054 -1.9256079
15.271367 43.427231 -2.4317253
12.294344 42.260914 -0.72802484
14.57833 43.080017 -1.2389772
16.185299 43.862144 -0.96170425
12.473276 42.285599 -0.94150895
17.437069 44.034561 -1.9010998
18.945877 44.868973 -1.2318742
12.286713 42.251003 -0.83684522
18.73885 44.80999 -1.0025697
17.965445 44.464142 -0.82925975
14.758664 43.12228 -1.0483401
15.460878 43.417652 -0.63564479
17.504576 44.249863 -1.167789
12.167356 42.116642 -1.6315188
13.894728 42.858841 -0.7400232
14.380876 43.185463 -0.62158668
17.47139 44.183228 -1.2357142
12.263018 42.229004 -0.45918921
19.366829 44.813362 -1.9948044
13.247841 42.652321 -0.4005501
13.469985 42.672474 -1.1360016
17.447989 44.12566 -0.94212353
13.458961 42.622452 -1.0427167
15.272264 43.307163 -1.237013
17.505787 44.270462 -0.93023485
18.667398 44.60535 -1.3364042
18.687092 44.791653 -0.93279505
12.065303 42.131977 -0.54430568
12.065504 42.099686 -1.137172
14.068883 42.821701 -2.1234848
19.24868 44.712898 -1.3503292
16.345556 43.632248 -1.0969325
14.461493 42.836952 -1.628934
15.166506 43.222626 -1.1285664
18.056751 44.302429 -0.59668934
12.761737 42.332695 -0.94297683
14.739612 43.12009 -0.20676339
17.47068 44.195026 -0.94076931
15.271108 43.278854 -2.0410213
12.379318 42.260132 -0.10978679
17.27298 44.007553 -0.94511056
17.562006 44.212357 -0.64091641
18.093197 44.47187 -2.333077
15.475109 43.399452 -0.33828923
16.072529 43.821304 -0.71802801
16.771389 43.961861 -1.7053616
17.965023 44.303047 -2.1336312
15.303116 43.522083 -1.024586
15.248699 43.233303 -1.2437228
17.968857 44.299141 -1.6411024
14.888743 43.04372 -1.971545
13.055831 42.419556 -1.237092
16.788603 43.955681 -0.63876075
12.588081 42.360008 -1.1356993
15.473494 43.407085 -0.45573744
13.659899 42.716457 -0.84319085
15.428825 43.334373 -0.62466788
14.861678 43.360245 -2.0087817
18.90584 44.591743 -0.57244366
13.876383 42.786137 -1.9278939
16.565201 43.78907 -1.6372072
13.072818 42.48568 -1.5254873
15.968572 43.626675 -2.4405103
15.375691 43.389164 -1.2362243
12.96625 42.333431 -1.0664042
15.873907 43.572556 -1.535249
18.117891 44.579613 -0.959557
13.869712 42.811604 -0.93800944
12.809912 42.453999 -0.68753874
18.269922 44.483849 -1.0384983
17.580973 44.261417 -1.4320774
13.741815 42.739513 -0.63118047
13.767207 42.728092 -0.86310089
19.254669 44.82399 -0.94923252
15.121723 43.234459 -0.84358895
15.150043 43.221912 -1.3329101
16.639761 43.925529 -2.2362761
17.256674 44.039989 -0.86233598
17.565609 44.212524 -0.84250849
14.046728 42.869736 -1.9176224
15.163626 43.225018 -1.5500671
14.312235 43.168118 -2.1734848
16.969475 43.99572 -0.63985687
13.554884 42.711987 -0.2854321
12.669477 42.368866 -1.8368914
17.036285 43.914604 -0.84186149
12.613033 42.347858 -1.5747516
13.977347 42.874634 -0.74491662
15.384312 43.308369 -1.9302164
17.671925 44.275555 -1.0366019
16.365837 43.58625 -1.4759049
18.064581 44.410152 -0.9399206
15.463773 43.319237 -1.5366126
17.476963 44.191776 -1.5421493
12.553801 42.233246 -0.9374873
15.868021 43.515926 -1.6277905
19.31249 44.948788 -1.1088588
12.476933 42.406349 -0.73821259
17.38439 44.292099 -0.83641958
14.634328 43.154293 -1.8478906
18.467491 44.494617 -1.7440952
15.748251 43.440575 -2.0544007
17.665157 44.12986 -1.541764
16.966305 43.933319 -2.1209438
17.293104 44.155983 -0.93158734
19.263012 44.996731 -0.53006977
12.139439 42.128693 -0.6586588
15.266998 43.376358 -0.44049564
13.978046 42.875446 -1.3401362
17.649261 44.144039 -1.1423427
16.988768 44.076435 -0.8343392
14.108815 42.963684 -1.0095583
14.743737 43.142006 -0.39015263
16.065777 43.619827 -1.0429041
14.269138 42.975735 -1.240963
17.857426 44.321026 -0.83731592
13.969134 42.877033 -1.2401098
12.674564 42.371315 -1.2351639
18.758438 44.622883 -1.1408648
13.574447 42.870071 -0.92927396
14.273751 42.977409 -1.1410402
12.669565 42.385868 -0.35442525
16.663702 43.814812 -1.4358563
14.262107 42.924736 -1.0337394
13.974644 42.87022 -1.4273274
15.177763 43.222084 -1.4371998
18.444565 44.364307 -1.9465497
18.487114 44.662189 -1.3648694
12.963591 42.40414 -1.9193847
13.993597 42.887604 -0.44274718
17.584694 44.269642 -1.701898
12.892878 42.465485 -1.1352726
19.251343 45.02623 -0.92368376
18.651833 44.53112 -1.2105145
17.572916 44.26038 -0.83879
17.490358 44.358429 -0.96273166
18.80928 44.77314 -1.5507538
15.577378 43.474598 -1.1339717
17.058229 44.023674 -0.54063845
17.576672 44.264771 -1.6250037
12.666995 42.315483 -1.2415102
18.280903 44.617352 -1.6616533
13.27402 42.585541 -1.1326621
13.971794 42.804333 -1.6349399
15.46688 43.403343 -1.1429032
16.09543 43.699001 -0.37014183
12.373738 42.274258 -0.54577899
15.775009 43.563847 -1.3348622
15.437154 43.369568 -2.3187981
14.147733 42.957272 -1.7943776
18.384497 44.560448 -0.84372872
12.672621 42.377148 -0.64754659
17.145458 44.187801 -0.44511613
18.655733 44.658703 -2.157896
18.956337 44.724369 -1.0524793
14.565328 43.086288 -0.94149345
16.557835 43.724033 -1.230202
17.670525 44.391006 -1.5164976
17.543446 44.2756 -1.9974376
16.844223 43.821289 -1.9319992
13.682372 42.765892 -1.1361444
17.587759 44.263287 -0.94220394
17.261568 44.105186 -0.94151849
15.167248 43.226002 -1.2462678
18.463959 44.436649 -0.9743939
17.967743 44.352646 -2.400568
17.252951 44.015961 -1.5389478
17.908516 44.377396 -1.7132087
17.583603 44.266068 -1.3351878
17.375549 44.164669 -0.64557397
14.989509 43.26767 -1.1438743
15.793444 43.483593 -2.0172853
18.659828 44.532944 -2.037698
12.647635 42.234669 -1.4724636
18.573742 44.67276 -1.6351018
12.121825 42.029842 -1.5669879
17.186832 44.080547 -1.9378191
18.473553 44.580284 -0.9423632
12.262621 42.205353 -0.8390305
16.77113 43.906246 -1.1373523
17.963034 44.495144 -1.0222297
18.821388 44.579445 -0.66181386
16.280722 43.765617 -1.2387786
16.955015 43.969589 -0.36610329
17.26445 44.10519 -0.74072599
16.287579 43.767986 -1.1400568
18.379538 44.416496 -1.8566164
17.052137 43.926514 -1.2353165
12.164444 42.189194 -0.63539135
13.609342 42.786663 -0.24491277
15.86583 43.499992 -2.0125539
17.845417 44.22229 -1.2377512
12.07054 42.115791 -1.0397161
16.167122 43.679523 -1.5452139
18.508804 44.570976 -2.1470129
16.960876 43.902142 -2.0175014
17.382202 44.09639 -1.9290223
16.342241 43.615353 -1.8384078
17.187344 44.231613 -0.78615844
18.661381 44.624744 -0.74546379
13.809776 42.854671 -1.1672767
18.975708 44.77317 -1.2387366
15.785342 43.562626 -1.6377468
18.560791 44.707077 -0.66055709
18.287392 44.596169 -1.5400952
15.150828 43.244495 -2.0957918
17.168644 44.082802 -1.3395584
18.965889 44.701092 -1.6401823
17.553831 44.255436 -1.5274253
16.547363 43.730465 -2.3222704
15.151199 43.228043 -1.0510187
14.065788 42.817478 -1.9339552
18.459099 44.514252 -1.2453116
17.818573 44.448692 -1.2614019
12.264238 42.215511 -0.73889297
16.269289 43.709988 -1.1435804
17.667547 44.46064 -0.87251246
13.418304 42.853355 -0.65413171
13.057981 42.418461 -1.4255025
17.058508 44.018028 -0.84156388
16.747873 43.743259 -0.98860002
17.059967 43.991611 -2.0531101
15.133899 43.163864 -0.74552709
17.482744 44.381882 -0.84194928
12.563203 42.312561 -0.94223887
15.350017 43.316898 -0.71945053
16.668552 43.821285 -2.1358898
12.763002 42.314903 -1.6280258
19.297171 44.982517 -0.61030155
16.166992 43.692398 -1.0404731
18.583441 44.659405 -1.0465424
14.142426 42.811172 -1.7402169
12.355329 42.228252 -0.6577124
15.182355 43.364296 -1.142204
15.260448 43.313187 -1.1421592
15.367568 43.402828 -0.46065977
17.280052 44.171772 -0.74770319
13.972367 43.015514 -0.84445935
16.951157 43.922909 -1.2396905
15.880287 43.523598 -0.45083511
19.060495 44.720699 -1.5337366
15.46095 43.340511 -0.95257515
14.261715 42.913197 -1.2352736
14.188259 42.882175 -2.0345531
13.630524 42.62635 -1.0508932
14.383625 43.059788 -1.3405205
14.678422 43.025009 -1.3397772
15.180404 43.361477 -1.0317394
13.352781 42.536602 -1.0417349
15.260804 43.299931 -1.5461521
15.172269 43.281288 -2.1184597
17.471455 44.19323 -0.83970088
13.469639 42.677948 -0.63934112
18.387575 44.555401 -0.54920357
16.284473 43.757282 -0.55707407
13.538507 42.852772 -1.3453293
15.358661 43.313347 -1.639258
18.875099 44.677826 -1.8329278
15.374398 43.234249 -1.065016
14.870473 43.189522 -1.1422584
14.459239 43.018646 -1.0408225
12.846986 42.330452 -1.2463348
14.299543 43.047974 -1.2532609
16.097397 43.598953 -0.17307548
12.279969 42.191891 -1.4348606
11.85383 42.178314 -1.3628939
18.874552 44.759338 -1.2378534
14.665384 43.107719 -1.0397984
14.664374 43.013268 -0.028542969
17.066574 43.93111 -2.0079799
12.165081 42.360123 -0.61511219
18.385258 44.561756 -0.64835548
19.269979 45.004154 -0.82912046
13.681863 42.763737 -1.0344858
13.46588 42.611454 -1.6375426
18.867804 44.716396 -0.83455026
17.48035 44.262451 -0.75949478
13.292351 42.679276 -1.0538613
18.986776 44.85191 -1.8052639
14.587955 43.168213 -0.76047087
12.078681 42.1609 -0.73532319
17.664768 44.238914 -0.48055193
13.675852 42.767841 -1.4488789
13.661533 42.727654 -0.74258012
12.670973 42.374184 -0.45720574
14.162513 42.905907 -2.1395082
13.463159 42.609016 -1.237952
17.374146 44.097282 -1.7428652
12.267186 42.219822 -0.55188423
11.752661 42.186272 -1.3310918
15.265779 43.219379 -1.3261278
12.385393 42.266926 -1.1397486
13.500695 42.534298 -1.9646481
18.918659 44.825554 -1.8120017
15.354041 43.322327 -1.0450705
15.780756 43.514229 -2.1274559
11.916891 42.255028 -0.9718197
12.261747 42.220097 -0.64103258
18.540176 44.535461 -0.64115572
13.666139 42.713078 -1.1394112
18.936186 44.707302 -2.2494254
14.559586 42.932884 -1.7039777
15.260593 43.321854 -1.0402738
18.866379 44.701736 -1.2384697
14.073402 42.889503 -1.0373908
16.662706 43.815525 -0.53587681
12.058103 42.12492 -0.74137658
13.418128 42.783386 -1.1037778
17.376862 44.091579 -1.6435401
18.626534 44.588764 -2.4171171
18.933619 44.900368 -0.44124609
18.782978 44.617554 -2.0306301
13.682408 42.780365 -1.6538328
17.46389 44.124008 -1.0409732
12.569011 42.364311 -0.55328643
17.560682 44.102779 -0.8615399
14.574183 43.089348 -0.45246276
18.77219 44.629593 -0.53810883
17.079165 44.070465 -1.3390309
12.573814 42.299671 -1.136229
12.886136 42.459179 -0.94261718
16.961802 43.924389 -1.3301703
12.268381 42.199295 -1.0370755
11.795226 42.075974 -1.0363818
16.175236 43.684425 -1.2348838
19.489685 44.969017 -1.6284361
12.567123 42.30875 -1.0374944
13.470423 42.676502 -0.83961993
18.640858 44.528877 -1.6531926
12.781722 42.460041 -0.73190337
17.547915 44.408638 -1.1385424
16.281382 43.763165 -1.3382692
18.272387 44.487968 -0.93723774
17.667341 44.203457 -1.4320384
16.672401 43.868679 -1.917967
17.551123 44.266346 -2.2220595
13.683274 42.636074 -0.95630741
16.072395 43.670837 -0.64152467
15.160516 43.489166 -0.91015089
17.45871 44.112934 -1.2300706
17.382895 44.092941 -2.0361886
16.201126 43.518848 -1.7157832
16.250616 43.895275 -0.62924808
17.357029 44.295799 -1.0371653
17.100046 44.063477 -0.55411792
12.577065 42.294277 -1.8327632
14.875137 43.18845 -1.2389139
17.663729 44.224312 -0.5481621
12.268112 42.195583 -1.1395838
12.559952 42.324242 -0.64826554
12.158525 42.35891 -0.8510446
17.992691 44.262589 -2.3907976
12.76915 42.372555 -1.6317071
18.861372 44.622017 -1.8284292
15.176752 43.21867 -0.95891631
18.763521 44.610203 -1.6320289
13.980308 42.868538 -1.0350461
13.688303 42.769249 -1.5298183
17.264086 43.944767 -1.8700562
16.765354 43.898014 -1.3333292
13.471451 42.675892 -0.45357901
14.5056 43.097782 -0.26622877
12.975002 42.477524 -1.0392995
18.437737 44.698326 -0.9589566
15.369061 43.39024 -0.93774843
12.762176 42.316586 -1.745272
16.85713 43.917694 -0.74258614
15.247599 43.493504 -0.93981427
12.673126 42.315197 -1.4404086
14.781959 43.317001 -0.51368314
12.256413 42.097404 -1.5531355
15.976601 43.671963 -1.3478001
12.661509 42.311428 -2.0178428
13.629514 42.629345 -1.1527804
16.024855 43.545818 -2.453789
13.646852 42.723621 -0.53392303
12.259233 42.117016 -1.4351871
12.791394 42.458736 -1.248082
15.369949 43.395275 -0.84242475
15.168682 43.29533 -1.3368031
18.679155 44.661205 -0.54256493
17.660702 44.215179 -1.1502229
18.364964 44.506752 -1.038242
12.969088 42.469978 -1.2363403
15.959157 43.773392 -0.85834128
14.138401 42.722794 -1.5917331
12.197391 42.288044 -1.1837745
18.095949 44.463604 -0.93932366
18.236004 44.560936 -1.9383104
12.573278 42.293385 -1.5455579
15.986143 43.805511 -1.3962464
12.969549 42.484863 -0.74429262
17.778917 44.216331 -1.6375207
15.144343 43.241074 -0.54826444
16.244127 43.743587 -2.3495033
14.670834 43.100227 -1.3365616
16.90044 43.954899 -2.0388787
12.271764 42.103996 -1.6341573
13.674784 42.774452 -0.4358474
13.487316 42.697495 -0.33656761
12.562806 42.235886 -1.0662892
16.497055 43.860977 -0.85207444
16.289038 43.762589 -0.63572592
17.786238 44.35598 -1.1241518
14.486733 43.067398 -0.64352107
14.369764 43.007355 -0.74109226
18.843763 44.642078 -2.124651
13.690449 42.7686 -1.3308228
16.701073 44.063843 -0.95257616
15.179895 43.356857 -1.24077
15.184023 43.359924 -0.64606363
18.372845 44.497585 -1.2371886
15.810352 43.733696 -0.68770897
14.477067 43.067776 -0.74043554
15.689704 43.553696 -0.74110997
12.520403 42.235992 -0.87880349
17.650946 44.223076 -0.83828491
17.653326 44.222435 -0.73693883
15.467974 43.418926 -0.94536376
13.381655 42.665447 -1.4347551
17.678236 44.280376 -1.1357856
14.304979 43.131248 -1.0260649
17.26754 44.102932 -0.83808559
16.067432 43.604637 -1.5377332
15.177577 43.29097 -1.7352935
15.191678 43.356537 -0.74497586
11.970783 42.095509 -0.83985573
18.335365 44.663105 -1.527983
12.547849 42.233086 -1.1298354
18.382225 44.507229 -1.5363307
19.182625 44.865868 -1.0409125
13.398014 42.824314 -0.95590413
15.703617 43.554256 -0.63374269
12.130606 42.009487 -1.4101355
18.06501 44.403229 -1.1415089
16.97057 43.992569 -1.6345868
12.56546 42.327408 -0.44087559
17.847195 44.231701 -1.4476987
15.978198 43.505684 -2.2458329
12.849103 42.437832 -0.36444822
15.161281 43.264404 -2.2134361
15.354895 43.332344 -0.84166616
16.566906 43.799919 -1.4467615
18.089159 44.461197 -0.72910517
17.667997 44.215565 -1.2408514
14.710808 43.127716 -0.3450588
16.970016 44.001732 -0.93944728
12.327097 42.137405 -1.184689
18.777838 44.769657 -0.45081979
15.261323 43.498009 -1.1457175
16.668137 43.889622 -0.54691261
15.779297 43.42189 -1.9225175
15.165691 43.305904 -0.93969649
12.343143 42.216915 -0.48106101
16.862518 43.825272 -1.5121875
15.492786 43.468388 -2.0206864
13.490496 42.670429 -1.6216701
15.208375 43.304501 -0.27639857
18.276007 44.57909 -1.7404798
12.377 42.260391 -1.031459
16.377069 43.776169 -1.4273725
15.903431 43.715637 -1.677624
11.976043 42.086411 -1.2336473
16.363485 43.713142 -1.8329176
14.073555 42.888237 -1.2363336
17.769577 44.46262 -0.54418069
12.804998 42.454395 -1.3556259
16.668486 43.899048 -0.47153306
18.425776 44.65274 -1.7553552
12.359303 42.217216 -0.83907139
17.166302 44.018543 -1.2419223
17.382477 44.164738 -0.74167508
18.86784 44.690453 -1.5345311
17.564978 44.209438 -1.0354726
17.565353 44.224792 -0.54897165
12.087212 42.160229 -1.0318488
15.173716 43.285378 -1.4305214
18.383446 44.490009 -2.4873259
14.459478 43.016109 -0.84005117
14.058786 42.820702 -1.5428143
13.816882 42.640579 -1.9637936
13.47765 42.676308 -1.333918
12.353182 42.417294 -0.60765439
19.272884 45.033821 -0.75035048
17.491095 44.384514 -0.66495931
16.486265 43.772404 -2.1555009
17.46526 44.096878 -1.7441952
18.516119 44.560257 -1.9321364
19.187288 44.862373 -1.4305831
15.266853 43.301201 -1.4364077
16.858316 43.836742 -2.0175061
19.123474 44.741268 -1.9980066
15.169133 43.28133 -1.6300792
19.272083 44.976479 -1.011205
14.494976 42.902397 -0.94337052
12.663441 42.28928 -2.1875017
18.965816 44.776886 -1.718765
12.274032 42.206787 -0.94103104
12.083993 42.162273 -1.1453435
14.007462 42.950493 -1.3344525
14.754982 43.118622 -1.1418242
12.558533 42.324104 -0.54663163
15.276604 43.371017 -1.3291512
15.981248 43.661957 -0.63731593
12.573022 42.289936 -1.6358186
16.259567 43.626255 -2.0338306
14.456409 43.19294 -0.92395437
14.574566 43.078598 -1.1371508
15.175424 43.472626 -0.75867045
13.474139 42.685661 -0.54043752
15.542845 43.3032 -1.8352742
18.082048 44.472443 -0.86464781
18.102329 44.459492 -0.56788534
17.287256 44.164894 -0.54228348
14.664186 43.109211 -0.45247203
16.257463 43.887306 -0.87883228
14.529324 43.221031 -1.8842243
14.185893 42.965145 -0.93788409
18.657324 44.619164 -0.84390426
15.163409 43.30563 -0.74463606
16.672375 43.869984 -1.6364461
12.767191 42.386833 -1.1358269
15.164919 43.266247 -1.9628963
19.168379 44.7229 -1.7331758
12.380003 42.262341 -1.3316706
16.371634 43.777348 -1.0380574
14.668196 43.108673 -0.94005895
12.882068 42.465622 -1.3216813
13.456644 42.624821 -0.55852616
13.469251 42.614956 -1.1427735
15.1673 43.310383 -0.84405434
16.654133 43.808292 -0.8346824
19.182302 44.85936 -1.2334713
18.089911 44.466991 -1.2374847
15.760013 43.429676 -2.1120703
18.259577 44.58604 -1.8378761
15.172026 43.292896 -1.2349455
13.329078 42.523209 -1.9433709
17.38345 44.169121 -0.93945318
15.165339 43.399582 -0.40362421
14.813721 43.086262 -2.2708178
18.382624 44.559223 -0.73789966
13.661205 42.715591 -1.0373228
14.458961 43.194313 -0.71283233
13.978472 42.874599 -0.83757943
13.386881 42.667759 -1.1439571
18.378338 44.496292 -2.0640256
15.178862 43.36681 -0.84230429
18.345041 44.443031 -1.0590861
18.083315 44.465717 -1.0385373
19.181973 44.870281 -1.3464881
15.574736 43.480228 -1.2379639
16.859615 43.92223 -0.94304723
14.553632 43.204842 -0.65357006
16.174461 43.770554 -1.6580088
12.762262 42.312546 -1.5303539
16.361776 43.713413 -1.243408
17.570534 44.176388 -1.8295443
17.509325 44.20237 -2.4426258
12.344386 42.133923 -1.344146
14.465326 43.004375 -1.8251876
17.7763 44.287258 -1.3283132
15.534653 43.33466 -1.3619828
14.295201 43.076759 -1.1576598
18.39394 44.569256 -1.045236
15.356682 43.320114 -2.1401901
15.168452 43.303539 -1.0340708
12.649612 42.389725 0.066641241
18.565168 44.52935 -1.2488986
12.587988 42.30497 -2.106575
14.071231 42.898338 -0.93657076
18.080589 44.456207 -0.46674615
16.126238 43.480343 -1.8130081
13.972345 42.869141 -0.93995839
17.366949 44.082581 -1.8368201
14.465033 43.03006 -0.73530376
17.0816 44.063572 -0.74223435
18.276024 44.571365 -1.4141644
14.235234 43.112247 -1.5509664
12.881907 42.461288 -0.74188101
19.165487 44.731434 -1.8313788
12.399366 42.393387 -0.80312842
16.281858 43.637817 -2.4291918
17.667742 44.197708 -1.6264086
18.359758 44.517677 -0.72744519
18.557821 44.523716 -1.4315755
12.174458 42.186302 -0.74265289
12.281528 42.293949 -0.34582931
12.884863 42.579884 -0.74778581
14.974211 43.26667 -0.63604736
17.986814 44.390591 -0.3540127
15.682331 43.572376 -1.2373912
12.886943 42.465588 -1.0350628
16.960489 44.085121 -1.6325761
12.568839 42.30246 -1.235301
15.574424 43.48534 -1.4292306
12.269895 42.127014 -1.133916
15.198471 43.294003 -2.3842266
12.144305 42.301853 -1.2909691
12.556186 42.231441 -1.245676
16.271982 43.669933 -2.153651
14.056519 42.827248 -0.76278907
16.974821 43.97134 -2.3848226
17.505316 44.347225 -0.72310698
17.54789 44.121971 -0.73428226
18.439379 44.667416 -1.239727
13.768498 42.895035 -0.9143886
17.365606 44.106972 -1.2394899
18.274353 44.492508 -0.44840431
16.256876 43.623459 -1.5382452
15.964406 43.579506 -2.1222947
18.370684 44.504814 -2.1334147
16.174847 43.698124 -0.64128184
13.4776 42.665932 -1.5426583
15.35323 43.314533 -1.5478154
18.864353 44.708115 -0.93782079
14.65129 43.101238 0.0035198843
16.967981 43.905987 -1.9313842
12.260206 42.13052 -0.9334693
19.181656 44.867897 -1.141425
15.785151 43.569149 -1.0323579
19.176859 44.864174 -0.74005133
17.065914 43.928215 -1.5241091
15.17028 43.305176 -0.45590502
18.38452 44.492832 -1.936515
19.147179 44.738113 -1.5637397
13.467795 42.610535 -1.5384164
12.861444 42.338638 -0.45825613
17.769304 44.298595 -1.1388512
14.073724 42.885525 -1.1383383
18.354176 44.513557 -0.84421968
18.366879 44.515812 -0.93880808
17.561169 44.221851 -0.74248379
13.655511 42.631138 -1.3503033
12.164474 42.112286 -1.4335893
15.898361 43.5756 -2.0241194
17.015005 43.890141 -0.67520565
18.964809 44.710052 -1.3401471
13.671519 42.708565 -1.3397055
17.86787 44.568306 -0.45245767
16.152918 43.601421 -1.9193789
18.072777 44.293255 -0.4832713
17.276499 44.258404 -0.86009884
16.315861 43.74818 -2.0024111
19.384552 44.956936 -1.1434417
17.287664 44.270237 -0.91060936
15.277486 43.371113 -1.7412111
17.3839 44.309753 -1.1475022
14.469675 43.171753 -1.126997
18.762144 44.783024 -0.9416436
16.485119 43.757378 -2.0044405
18.864672 44.715145 -0.53843069
13.099371 42.557644 -1.0413107
16.868368 43.935398 -0.44780523
16.661898 43.822681 -1.2437123
19.472633 44.958633 -1.8219275
19.392704 44.969547 -1.2247269
14.87194 43.198158 -0.94259596
19.559237 45.074047 -1.0273488
17.171946 44.001877 -1.8313359
12.905708 42.756023 -0.47046387
15.477926 43.389439 -1.634988
18.791107 44.807556 -0.66478455
16.140429 43.627811 -0.55450439
12.173737 42.114304 -1.7467973
15.312654 43.245152 -1.0786573
18.566547 44.528278 -2.1215277
18.885157 44.759724 -0.64092839
18.826035 44.629799 -2.0047204
13.659881 42.722042 -0.6372928
13.676444 42.764359 -0.73886293
13.666268 42.702457 -1.2357279
18.367002 44.521351 -0.64566541
15.068014 43.253857 -2.1317387
13.476295 42.668903 -0.23042232
16.878721 43.973305 -0.63560414
12.841146 42.332291 -1.1283569
17.614166 44.286583 -2.4443452
15.485871 43.470535 -1.8585975
15.044228 43.274525 -1.9992805
17.159407 44.21505 -0.83302838
12.564812 42.318977 -0.8413803
18.080437 44.390442 -1.6357872
14.176051 42.883327 -1.7361792
18.665787 44.615494 -1.137786
15.454226 43.425465 -0.54160649
19.069729 44.717373 -1.63695
17.928669 44.241325 -1.4187505
19.452223 44.9146 -1.1431315
12.292794 42.253716 -1.3517323
18.78303 44.796844 -0.52691704
19.381123 44.962475 -0.85133314
18.887106 44.763069 -1.1270603
14.47063 42.916283 -1.9682566
14.47102 43.005169 -1.3375479
15.945437 43.529255 -0.30718434
18.359392 44.41333 -1.948732
18.788002 44.764633 -1.4143037
16.362528 43.569649 -1.004784
14.257447 42.915882 -1.1382531
13.92563 42.644382 -1.5649692
13.558524 42.623646 -1.0477048
13.464398 42.609623 -1.4371424
16.306753 43.627201 -1.9047132
14.071812 42.900517 -0.7442857
15.373233 43.388821 -1.0380791
18.64764 44.623695 -0.54969311
15.691276 43.567303 -1.1260113
19.167336 44.799007 -1.5465263
15.9971 43.658432 -0.5433054
17.348898 44.349155 -0.54518592
18.312811 44.651966 -1.6902484
13.65112 42.732185 -0.44148132
17.54735 44.127357 -1.23757
14.98076 43.270313 -1.4230423
18.43285 44.653389 -1.1338488
18.097689 44.318726 -1.93133
16.969479 43.91943 -1.5423999
15.538041 43.321426 -1.535264
17.290833 44.164146 -1.043391
18.817785 44.783871 -1.2176538
16.160599 43.620991 -1.52757
12.178119 42.170177 -1.2366732
18.788658 44.770096 -1.3248918
13.870938 42.806942 -1.0383594
18.739559 44.771408 -1.6710105
15.09517 43.276268 -1.8429308
13.270076 42.597145 -0.73674953
17.084442 44.172398 -0.84932786
15.161365 43.220352 -2.0385087
15.256291 43.32085 -0.94430119
17.284237 44.160069 -1.2393408
13.477335 42.676052 -1.2366872
15.396185 43.477924 -1.5483874
16.261787 43.893715 -0.77021027
15.733705 43.417622 -2.2623124
18.561781 44.531483 -1.0314751
17.879053 44.368816 -1.036366
13.463715 42.613197 -1.3418697
17.881157 44.370201 -1.5366049
13.180463 42.56422 -0.93591422
17.296446 44.156708 -0.64230782
17.065605 44.023426 -0.64439952
12.272951 42.189194 -1.2291055
17.171021 44.017422 -1.9223158
15.384913 43.365898 -1.6230843
15.169564 43.296322 -1.1374203
18.676493 44.665241 -1.636147
17.274414 44.099751 -2.1239698
14.058809 42.894615 -0.33016247
12.014082 42.156132 -1.4265833
13.789968 42.898254 -0.44272378
15.375498 43.384575 -1.3324888
14.289074 43.051735 -1.3370844
12.622128 42.462574 -2.0334449
15.374812 43.384926 -1.4411159
15.241901 43.216454 -1.4181917
16.046825 43.794033 -0.82791072
15.471556 43.398521 -1.3372349
12.558879 42.321064 -0.73926967
14.437526 43.052082 -1.9657547
14.317487 43.069542 -1.428225
12.158756 42.10075 -1.3348144
19.18932 45.023891 -0.74437225
13.068031 42.502003 -1.0389394
17.887583 44.365261 -0.53631228
16.659857 43.827637 -0.63629121
16.534695 43.778603 -2.1391149
19.130823 44.977085 -1.2872165
12.819752 42.468613 -1.490786
17.065493 44.018372 -0.44588301
14.70541 42.991745 -1.8383217
16.168381 43.607849 -1.6258717
15.183506 43.227337 -2.2813158
18.662395 44.625172 -0.63617873
16.252361 43.62936 -1.8435295
12.18328 42.16449 -1.4431483
12.48665 42.101692 -1.1658412
15.476148 43.46822 -1.4242938
12.064027 42.099049 -1.2379198
17.46847 44.099083 -1.5412928
17.167164 44.004189 -1.4384961
12.945578 42.438576 -2.1344099
16.295166 43.874054 -1.1180389
16.786381 43.970257 -1.0427307
12.479354 42.270409 -1.4408424
14.874504 43.183079 -1.5339469
15.885793 43.501427 -2.556787
12.174458 42.178413 -1.3345001
17.989653 44.514565 -0.41456509
19.187836 45.012436 -0.79718816
14.298254 43.191914 -0.6247611
19.164104 44.796257 -2.0525351
17.875391 44.526531 -0.45289129
12.163595 42.327484 -0.66870159
19.158157 44.864609 -0.47641298
15.785405 43.564495 -1.5295943
12.859362 42.420719 -0.64583272
14.070004 42.903633 -0.54511219
17.468338 44.188534 -1.6360343
13.656301 42.720875 -0.94355893
16.80822 43.971634 -1.8150492
13.48069 42.674358 -1.042887
17.208651 44.102032 -2.1445472
16.672842 43.884212 -1.1357956
12.403331 42.125816 -2.0955174
19.474306 44.979401 -1.5313931
16.646881 43.962177 -0.6608327
18.789539 44.752144 -0.80002451
17.653559 44.113792 -0.69900936
14.676016 43.084805 -1.6365161
17.071133 43.998165 -1.3381814
14.060447 42.90229 -0.6415922
19.19084 44.860249 -1.6297935
15.080022 43.279522 -1.3343542
15.175015 43.30793 -0.54858035
14.363491 43.2033 -0.76343006
16.713362 43.874249 -2.3942831
12.430628 42.140297 -1.7256745
13.471258 42.672638 -0.93928331
14.177345 42.888111 -1.9282594
12.058987 42.125389 -0.64720255
16.95941 43.912693 -1.6218176
12.161792 42.190514 -0.44680619
14.655824 43.025063 -2.0075927
14.167183 42.902016 -1.4346708
16.970104 43.994514 -0.5348199
18.06916 44.399059 -1.2397375
15.469377 43.289707 -0.80338842
14.629292 43.022659 -2.1339426
17.881578 44.370968 -1.1441207
12.167403 42.115932 -1.1396089
15.545131 43.414944 -0.45746315
12.896759 42.324154 -2.0011487
16.940603 43.931892 -0.41570881
12.582627 42.323425 -0.12542202
16.784481 43.961773 -1.6170367
17.558674 44.127007 -1.944472
13.064483 42.411015 -1.7388175
19.316885 44.996559 -0.4834559
12.978474 42.476051 -1.1388558
18.173216 44.471684 -0.54137695
16.976795 43.980221 -1.54378
15.072181 43.277988 -1.2356234
12.982861 42.478355 -1.33831
16.257473 43.630917 -1.3363261
18.036465 44.339558 -0.7473501
17.068062 44.004463 -0.34789699
15.750906 43.42482 -1.1471119
12.165277 42.115318 -1.2284397
16.865925 43.910503 -1.2503638
18.262157 44.408726 -1.733507
15.168837 43.224678 -1.7163671
17.588963 44.263031 -0.73678958
14.452864 43.021126 -0.94230545
17.177244 44.147346 -1.1216978
18.631699 44.539116 -1.3348827
14.482605 43.07299 -1.4320548
16.864912 43.918423 -0.54685825
17.269333 44.093002 -1.3425043
12.669602 42.367348 -1.7176923
17.146969 43.941574 -1.2420087
18.263817 44.597065 -2.0418837
13.067225 42.517986 -0.5449338
13.569943 42.690624 -1.1378468
13.672065 42.732403 -0.34230241
15.381148 43.495018 -0.93835616
17.744616 44.225048 -1.1434846
19.070368 44.798561 -0.94144499
11.779078 42.197132 -0.72643095
15.482498 43.462715 -1.143225
15.986402 43.583641 -2.0286605
18.258057 44.426273 -1.0555211
14.101059 42.951332 -0.64469498
15.26999 43.227745 -1.7348515
15.260352 43.322697 -0.33645281
18.375612 44.494373 -1.7309856
18.255814 44.430882 -0.77372479
15.25922 43.312855 -0.46045485
13.056282 42.411507 -1.631754
16.191673 43.651703 -2.0462308
17.966898 44.498611 -0.91954398
18.380423 44.570618 -1.3370422
17.157784 44.091705 -2.3354135
14.94275 43.129818 -2.0802448
15.093708 43.284771 -2.4325757
16.076502 43.67001 -1.1365483
12.098709 42.161674 -1.6572394
14.450813 43.166119 -0.81716478
16.301495 43.768509 -1.5196458
14.410177 43.05685 -1.5016292
12.304905 42.258934 -0.53136218
18.271406 44.502769 -0.63993865
15.76062 43.431126 -1.3377918
12.751431 42.326481 -1.1445403
13.371656 42.59473 -1.4411749
15.661379 43.422806 -1.838387
12.682432 42.371414 -1.3408115
13.670158 42.626648 -1.63916
14.113857 42.956444 -0.74215007
12.798317 42.458794 -1.1409382
17.12455 44.166435 -1.403772
14.192456 42.983257 -0.40355521
18.761873 44.599766 -1.5447048
15.469307 43.384281 -1.5427291
14.46663 43.211605 -0.53125525
17.666889 44.263233 -1.9173644
16.866503 43.912315 -1.0409714
12.475611 42.299019 -0.74013203
12.350875 42.226734 -0.73334229
12.367955 42.211338 -1.1353412
18.578739 44.673786 -1.4250426
18.774475 44.612244 -1.8288534
14.672913 43.087109 -1.8267999
15.184873 43.361504 -0.93253314
15.384882 43.39048 -1.8470296
16.176203 43.687508 -1.3391445
16.172413 43.677238 -1.7317748
13.648969 42.616405 -1.7230296
17.367048 44.091106 -1.5388021
17.368647 44.09993 -1.4343605
12.811187 42.448822 -0.99223912
16.178032 43.684189 -1.4348267
14.000818 42.720795 -1.9674557
12.662664 42.327843 -0.84580904
17.189783 43.976387 -2.3460741
14.468266 43.007626 -1.2373843
14.374309 42.980404 -1.6264534
12.1052 42.254189 -0.66518003
19.071535 44.787922 -1.5324466
18.251225 44.567566 -2.3154256
14.916773 43.403412 -1.3268656
18.25963 44.613739 -2.2333355
15.043866 43.117054 -1.147666
15.37117 43.400349 -0.54396319
12.660284 42.312965 -1.3419584
14.191183 42.958927 -1.9269496
18.25861 44.406097 -0.45008272
12.08187 42.094059 -1.8090911
14.371253 42.913486 -1.4396044
16.524889 43.730652 -0.63601553
16.350103 43.571373 -1.5324336
11.999948 42.082424 -1.9390998
18.847734 44.614456 -1.2507116
18.263023 44.435677 -2.1257493
15.578942 43.305328 -1.7099812
15.277892 43.371922 -0.94222248
15.058547 43.371689 -1.4064108
12.069564 42.09742 -1.5233673
15.354481 43.318413 -1.1404803
12.480383 42.280628 -1.139961
18.294062 44.50795 -2.4570813
16.968782 43.997433 -0.8402546
16.558926 43.82003 -0.9467653
15.356664 43.331711 -0.95817584
18.419395 44.388435 -0.86190581
17.058702 43.934353 -1.1376163
17.04167 43.921421 -1.0660912
17.385466 44.173416 -1.4260064
17.760983 44.051304 -1.5863315
14.573711 43.151527 -1.2107176
15.369533 43.390896 -0.64053112
15.372768 43.396099 -0.73994142
19.464552 44.887787 -1.6332484
17.753126 44.193291 -0.37846768
17.36216 44.120075 -0.94963813
15.558454 43.416145 -1.0399902
18.749809 44.629814 -0.85782897
15.252541 43.322727 -0.84706414
13.679046 42.768131 -0.54647654
18.656782 44.810589 -0.79098934
13.67835 42.767689 -0.63694233
13.682855 42.767345 -0.84141457
13.670848 42.781055 -0.3372747
15.487085 43.465813 -0.64712954
16.335272 43.793056 -2.4407613
14.286949 42.981331 -1.9667678
18.58189 44.598324 -1.6330774
16.771688 43.908852 -1.0387135
12.673786 42.312584 -1.8324369
17.039623 43.829166 -1.4998813
18.817062 44.754074 -1.1398609
16.174759 43.69276 -0.55033654
14.614676 43.081856 -0.27272353
17.468 44.190895 -0.7356829
16.668982 43.888531 -0.7433145
18.848007 44.635986 -1.0516709
12.770399 42.484924 -0.84161311
19.441879 44.842804 -1.2579024
16.160398 43.60564 -1.7221574
13.762465 42.718807 -1.8499818
13.795614 42.726067 -2.1293528
13.749978 42.694481 -2.0134025
17.463009 44.18187 -1.7349546
16.178181 43.666039 -0.33469641
16.174551 43.679829 -1.8395978
14.258742 42.908699 -2.1328046
17.169266 44.080864 -0.64577019
16.382126 43.70134 -0.23649326
13.09697 42.566116 0.015423114
12.364908 42.210274 -1.2313557
16.266655 43.628807 -1.7402873
19.440819 44.827393 -1.6227078
13.258768 42.574039 0.051833272
13.768811 42.791061 -0.63648593
17.362362 44.378601 -0.88928795
14.969547 43.203831 -1.2363918
13.939137 42.734955 -1.3388302
16.85327 43.798759 -0.96573281
16.16927 43.657417 -1.9526033
17.070545 44.069801 -1.704735
17.882639 44.366608 -0.93216646
12.970603 42.476135 -1.8440828
13.149474 42.42218 -1.2363327
15.544585 43.426178 -0.8418237
16.851135 43.83733 -1.4169867
14.911346 43.310757 -2.1388185
17.1719 44.069172 -1.6475446
18.580536 44.588684 -1.7427726
16.348589 43.718533 -0.842466
17.357096 44.017002 -0.93704545
16.788761 43.97356 -0.5394792
19.478413 44.972122 -1.0388068
14.604183 43.171379 -0.84427559
15.374149 43.406857 -0.31660658
19.476046 44.969582 -1.4427963
13.578011 42.688644 -1.7348752
16.878162 43.972141 -0.54258281
17.268801 44.074646 -1.8494726
17.362137 44.11467 -1.0414338
15.579594 43.405243 -1.9394215
17.337158 44.015083 -1.9215393
17.66173 44.190979 -1.8191732
13.582507 42.696018 -1.9292072
15.259032 43.360325 -0.30419663
16.1789 43.673065 -1.6335477
14.274136 43.086784 -0.94249898
15.481664 43.466507 -1.0345529
16.362902 43.715096 -1.4330543
15.945517 43.530945 -0.93473291
15.395281 43.455658 -1.1382403
15.278585 43.377148 -0.83839786
15.866151 43.524929 -1.1470031
17.882572 44.365234 -0.64155972
17.672003 44.179848 -2.0471227
12.67069 42.375732 -0.83465862
15.247363 43.316509 -0.55135655
13.707583 42.762497 -1.7283409
15.94725 43.51125 -2.302434
17.667545 44.195538 -1.5341113
18.975822 44.681931 -1.8316015
17.268446 44.091564 -1.2339272
15.466613 43.418343 -0.8402375
13.692877 42.757744 -1.8405284
