# .PCD v0.7 - Point Cloud Data file format
VERSION 0.7
FIELDS x y z
SIZE 4 4 4
TYPE F F F
COUNT 1 1 1
WIDTH 1347
HEIGHT 1
VIEWPOINT 0 0 0 1 0 0 0
POINTS 1347
DATA ascii
40.741432 25.195232 -2.3349197
40.579418 25.036753 -1.8216311
39.417248 28.550573 -1.9717432
40.406181 26.081007 -2.3306816
40.79324 25.778383 -1.4947337
40.285934 26.630564 -1.3817329
41.09827 24.855186 -1.9482013
41.12994 24.906595 -1.9975178
40.073509 27.094427 -2.0401208
39.766071 27.731483 -1.9177804
39.796864 27.666601 -2.1177323
40.270184 26.727882 -2.0212874
39.874462 27.356321 -1.9104475
40.445305 26.352329 -2.0589015
40.637455 25.200266 -1.2785678
40.491035 25.506506 -1.141026
40.350525 25.865025 -1.1587074
39.441383 28.466934 -1.3551592
40.653881 25.628067 -1.3705155
40.303902 26.025379 -1.3593605
40.317654 25.910954 -1.2461734
40.307819 25.809063 -1.2177349
39.428421 28.379436 -1.3672161
40.290787 26.082018 -1.3492845
40.370354 25.906691 -1.324988
40.180695 26.026237 -1.2472659
40.23056 26.182156 -1.1815749
40.379833 25.810108 -1.1646705
39.41814 28.340187 -1.3410243
39.678528 28.0665 -1.2352715
40.243984 26.243822 -1.3454297
39.472446 28.220152 -1.2985672
40.362316 25.882166 -1.255147
40.60421 25.157885 -1.2206317
40.474117 25.486439 -1.2461344
40.47562 25.518595 -1.320636
39.597687 27.976355 -1.2655572
40.232368 26.099714 -1.1749101
39.416283 28.366653 -1.3342202
39.840305 27.21995 -1.4751697
40.557144 25.321657 -1.2227886
40.463409 25.485748 -1.0836349
40.012932 26.799479 -0.8590889
40.382011 25.816231 -1.3431542
40.259438 26.187252 -1.2660573
40.265144 26.0732 -1.2550583
40.007339 26.789417 -0.013147988
40.128189 26.394794 -1.1623118
40.383503 25.799828 -1.2322903
40.010242 26.802969 -1.3075291
39.949123 26.744246 -1.2083454
39.971088 26.738293 -0.88254458
40.117325 26.484573 -1.2250988
40.293049 26.012457 -1.2495484
40.165161 26.384058 -1.2261138
39.996704 26.77977 -0.3378453
40.003326 26.765755 -0.25904971
40.286251 25.993805 -1.1341703
40.311657 25.914253 -1.1787969
40.575256 25.298847 -1.155015
40.015724 26.801884 0.073265471
40.812805 25.271185 -1.2673819
40.416588 25.630449 -1.807467
40.34063 26.433548 -1.5672374
39.339436 28.600933 -1.3300393
39.40649 28.31805 -1.2337103
40.427414 25.727364 -1.335995
40.157475 26.417084 -1.3151035
40.533615 26.175129 -1.3775256
40.073513 27.045622 -1.708586
39.497406 28.393402 -1.4763927
40.081047 27.433418 -1.6475158
39.310158 28.66349 -1.4023727
41.100807 24.996853 -1.5021226
40.90596 25.291897 -1.4504281
40.229362 26.627762 -1.212394
39.842094 27.27035 -1.5257835
40.741226 25.36982 -1.321102
40.59581 25.312489 -1.4427937
41.034752 24.948956 -1.6337343
39.899567 27.261925 -1.6169778
39.816929 27.443941 -1.6754768
39.597866 27.978756 -1.336771
41.084839 24.887926 -1.7096355
40.638348 25.85869 -1.710758
39.36039 28.611835 -1.4586743
40.588383 25.31007 -1.312669
41.033829 24.952892 -1.4383447
40.725685 25.36356 -1.4174221
40.802059 25.270658 -1.3802634
40.823097 25.321867 -1.9076519
39.907307 27.223087 -1.6681943
39.351936 28.532839 -1.4492414
39.902843 27.214193 -1.5671841
40.70142 25.671087 -1.4851203
40.721237 25.614254 -1.7912116
40.756821 25.623974 -1.5795445
40.681976 25.777483 -1.8160931
39.730064 28.374285 -1.7596028
41.188332 24.537497 -1.6183357
41.150787 24.696224 -1.6366384
40.221432 26.845675 -1.1322922
40.944992 25.255703 -1.6788827
39.97686 27.084242 -1.673476
39.456379 28.407162 -1.5310955
41.142273 24.7815 -1.7464962
40.82666 25.394344 -1.7573657
41.031593 25.066364 -1.7306399
40.874783 25.28723 -1.6449033
39.709499 27.808743 -1.7443397
39.407623 28.586292 -1.5095876
39.954033 26.92836 -1.3017026
40.411613 25.840511 -1.5100679
41.057533 25.008102 -1.7588353
40.572132 26.070927 -1.6938652
40.662388 25.769957 -1.7163829
40.858177 25.299267 -1.7440624
40.489548 25.614374 -1.4455044
40.538563 26.07258 -1.5663148
40.741276 25.671459 -1.8535103
40.245163 26.639164 -1.1424842
40.404957 25.907974 -1.5506687
40.09267 26.60288 -0.64292002
39.919617 27.018686 -1.4296703
41.06913 24.885933 -1.6092124
40.603249 25.240973 -1.1666876
40.238873 26.713533 -0.13600461
40.40123 25.629017 -2.3865654
40.233459 26.708372 -0.24037148
40.765163 24.881229 -1.4042857
39.939362 26.832314 -2.768748
40.68338 25.20619 -1.4475012
40.940445 25.018379 -1.2832723
40.34798 26.196003 -1.6342309
40.941883 25.013266 -1.6314267
40.890511 24.910469 -1.828102
40.173302 26.086296 -2.4448004
40.760204 25.085827 -1.5362245
40.570389 25.78619 -1.4462447
40.786919 25.090221 -1.1309379
39.650742 27.99617 -1.3439656
40.759369 25.20064 -1.344666
40.377319 26.19677 -1.2385738
40.359993 26.203257 -1.9256887
39.969696 26.97278 -2.4801879
40.75473 25.080647 -1.4386752
40.071148 26.796356 -2.6103559
40.65324 25.490913 -1.4431916
40.093674 26.628288 -1.3160017
40.623531 25.483788 -2.2398427
40.263481 26.1912 -2.0279818
40.722843 25.078238 -2.5679412
40.663776 25.395098 -1.2392521
39.91058 26.992561 -2.0301476
40.410446 26.393288 -1.6638383
40.944427 25.025118 -1.4488469
39.965752 26.980597 -2.0454862
40.058491 26.878344 -2.2560766
39.988907 26.891903 -2.0512881
39.949104 26.985128 -2.2653134
39.99118 27.000824 -2.6042027
39.951988 26.91448 -2.5425034
40.061584 26.798878 -1.8365535
40.454929 25.793201 -1.7417176
40.461613 25.697172 -2.0343144
40.247623 26.655985 -2.3335176
40.46286 25.696812 -1.9434822
40.734398 24.921465 -1.8833247
39.96534 26.97385 -2.1427538
40.767597 24.999214 -1.7437761
40.278736 26.690559 -1.7990505
40.150497 26.796146 -1.8339883
39.49091 28.181547 -1.4445062
40.243172 26.715864 -0.63586396
40.308846 26.010689 -1.7310766
40.346298 26.39427 -1.7571666
40.440498 25.792671 -2.1316173
39.967144 26.902172 -2.4196715
40.488632 25.594109 -1.9526944
40.159988 26.790503 -1.637504
40.384075 25.800434 -2.3160806
40.239822 26.777273 -0.32067955
40.111053 26.321442 -2.1994426
40.247448 26.715563 -1.345077
40.673412 25.10817 -2.7640381
40.231926 26.789898 -0.13727807
40.228924 26.551352 -1.9021965
41.255154 24.592947 -1.7196634
40.305862 26.011446 -1.9344425
40.579735 25.504305 -1.3356092
40.343834 26.351984 -1.3322073
41.189495 24.721003 -1.8037616
40.449238 25.994915 -1.2562864
40.275661 26.499355 -2.0416167
40.330116 26.464458 -1.7264192
40.236187 26.712772 0.060874395
40.242489 26.704163 -0.34228477
40.734016 24.969776 -2.714819
40.772373 25.395243 -1.6510805
40.046638 26.878635 -2.5736837
40.234005 26.800655 0.066520199
40.262684 26.833687 -2.4456384
40.753956 25.07959 -2.0980341
40.328033 26.476643 -1.8012661
40.273273 26.354397 -2.4968436
39.858665 27.856482 -1.8404258
40.659294 25.399721 -1.6451919
39.471069 28.205826 -1.2439365
40.251999 26.481186 -1.8387136
40.529903 25.492456 -2.0454817
40.673553 25.090715 -1.9472066
40.242004 26.460812 -1.5471879
40.697468 24.808987 -1.5066352
40.243099 26.787464 -0.04509281
40.711456 25.093924 -1.5404981
40.660278 25.085854 -2.224149
39.551926 28.27705 -1.7323054
40.692566 25.088913 -1.8409528
40.235153 26.777744 0.17202047
40.660656 25.102486 -2.0364661
39.859489 27.594463 -1.8829057
40.056366 26.873449 -1.9387648
40.70475 24.998779 -1.1750302
40.623463 25.361223 -2.3013029
40.088482 26.50058 -2.1236436
40.66621 25.297586 -1.5265671
40.700546 25.096064 -1.6284111
40.695972 25.106735 -1.4292113
40.237881 26.715441 -0.034408025
40.667957 25.330465 -2.4614451
40.639713 25.087179 -2.5249841
40.062775 26.865055 0.16727369
40.326035 26.316063 -2.3592448
40.755199 25.39559 -1.7393402
40.350903 26.468378 -1.8963913
40.25061 26.814671 -2.3478019
40.5522 25.385828 -2.2191815
40.004131 26.83297 -1.775282
39.994434 26.794615 -2.2364228
39.970764 26.787346 -2.4311941
40.711491 25.005133 -1.438996
39.954327 26.83238 -2.5402393
40.376675 26.445803 -1.6033868
40.069405 26.597679 -2.13515
40.659008 25.089533 -2.1201854
39.493988 28.226967 -1.6441283
40.691154 25.094812 -1.7278377
40.647575 25.086498 -2.4212704
40.676205 25.110178 -2.6231208
39.527779 28.374538 -1.9159563
40.250023 26.527021 -2.2326157
40.690598 24.992947 -1.8442737
40.712051 24.99081 -1.6796306
40.254208 26.470552 -1.2543901
40.666786 24.986622 -2.1254313
39.678299 27.935465 -1.3695223
40.667885 24.982277 -1.5465519
40.694061 24.999744 -1.7377518
40.643608 25.076561 -2.3389287
39.748459 27.637171 -1.9075764
39.948429 27.334671 -1.622959
40.443565 25.705317 -2.1415207
40.202042 26.007111 -2.3112488
40.146683 27.009176 -1.4463341
40.060234 26.68623 -2.588712
40.440247 25.636087 -1.1106315
40.169685 26.79756 -2.1202402
40.323849 26.175001 -2.1113737
39.801628 27.571835 -1.759089
40.17469 26.626333 -0.13034245
39.761433 27.567751 -1.6160023
39.943497 26.914927 -1.0736734
40.164318 26.801247 -0.93557847
39.756184 27.880583 -2.1332612
40.62476 25.30014 -2.278903
40.181641 26.86178 0.066535972
40.09193 26.858717 -0.43210942
40.590591 25.391575 -1.4537781
40.453915 26.16102 -1.5443816
40.371727 25.984106 -2.0295897
39.99033 26.809288 -2.0428624
40.373768 25.995556 -1.7400626
40.014481 26.724533 -0.64288354
40.050453 27.011774 -1.9215709
40.193192 26.504774 -1.5423625
40.082096 27.076237 -1.9739327
40.238014 26.713469 0.15594894
39.98101 26.898748 -0.93639612
39.792377 28.110344 -1.7339845
39.399811 28.481232 -1.8075486
40.239143 26.778406 -0.44973624
40.002689 26.796412 0.15337214
40.436749 26.16695 -1.9578432
40.086918 26.634001 -0.7511059
40.109787 26.190342 -2.5240631
40.351746 26.341328 -1.9263235
39.369198 28.61331 -1.6406422
39.541363 28.29546 -1.6345241
40.082806 26.693794 -1.1404802
40.105545 26.415047 -2.049551
40.167686 26.790644 -2.0085816
40.509697 25.376671 -2.6488853
40.542019 25.348154 -2.3457258
40.238476 26.720144 -1.152069
40.166927 26.631769 -0.039356295
40.560371 25.588638 -1.7539304
41.140816 24.960596 -1.7184552
40.060013 26.877457 -2.0314195
41.004742 24.914207 -1.8146834
40.764874 25.004229 -1.5343659
40.771664 25.003361 -1.3442674
40.002853 26.701864 -0.93483961
40.088692 26.693333 -1.0386045
40.33876 26.404171 -1.816533
40.585842 25.393284 -1.5432787
40.550327 25.688728 -1.5333396
40.698872 25.045187 -2.6192715
40.68642 24.98243 -2.0240717
40.00872 26.8025 -1.8337177
40.183121 26.602602 -1.5435579
40.54097 25.673777 -1.6341631
39.900127 27.874502 -1.5784665
40.059093 26.5982 -2.5784125
40.16983 26.868359 -0.73995048
39.815266 27.518784 -1.6816093
39.757835 27.45056 -2.2061288
39.79023 27.507248 -1.7134616
40.158184 26.805532 -1.5382782
40.24226 26.492304 -1.4449272
40.665779 25.478559 -1.6468318
40.657944 25.305027 -1.925095
39.842972 27.576979 -2.3278952
39.824825 27.49136 -1.8585784
40.051476 26.994097 -1.8465687
40.050365 26.982876 -2.0107868
39.78907 28.064064 -1.9109607
40.046143 26.703466 -2.3604834
40.116852 26.515585 -1.356146
39.990219 26.794525 -2.1330171
40.045429 26.810581 -2.7414527
40.679958 25.285629 -1.4449421
39.94574 27.179249 -1.669773
39.960358 26.900173 -2.1424851
40.643696 25.391607 -1.7371012
39.955902 27.374733 -2.1363306
40.090488 26.698088 -1.2346621
40.545815 25.406773 -1.2398726
40.05442 26.791941 -1.93318
40.585609 25.39529 -1.7318451
40.460258 25.622824 -1.3300459
40.700005 24.904026 -1.5343229
40.669472 25.00602 -2.3514996
40.146091 26.797293 -1.7397283
39.755196 28.073334 -1.4378033
40.075764 26.639114 -0.041010607
40.087555 26.616283 -2.474088
40.238091 26.717659 -0.5349651
40.262619 26.199678 -1.9353342
39.531967 28.260582 -1.5498672
40.276741 26.184105 -1.8413218
40.651592 25.475822 -1.3481271
40.297901 26.023493 -2.0481369
40.546513 25.679392 -1.3117948
40.173946 26.704689 -0.44166481
40.688282 25.318253 -2.342669
39.831329 27.24592 -1.4599429
40.154961 26.608137 -2.0516388
40.788658 25.115894 -2.0557127
40.28841 25.977894 -2.1182075
40.58395 25.417879 -1.6470648
40.238174 26.708122 -1.2463496
40.018906 26.780724 -0.88924551
39.795135 27.443226 -1.8389928
39.997051 26.855732 0.11140326
39.966854 27.300095 -2.1384027
39.98196 27.062069 -2.2585206
40.76865 25.090042 -1.3460933
40.018959 26.527079 -2.600503
39.654411 28.099976 -1.7340809
39.897301 27.20759 -1.9581015
40.181461 26.285583 -1.1443666
39.759624 28.089951 -1.5371076
39.784008 27.523769 -1.9244567
40.583435 25.383173 -1.8339461
40.013329 26.657795 -1.8430691
40.573017 25.388844 -1.9472752
40.559978 25.601408 -1.4489918
40.465897 26.197199 -1.6126332
40.074127 27.102936 -1.7921163
40.962719 25.004486 -1.7217048
40.352623 26.216089 -2.3156416
40.668102 25.5189 -1.9275711
40.076443 27.049372 -2.2525113
40.678024 25.283897 -1.7337589
40.219807 26.275766 -1.2432398
39.653549 28.005484 -1.4326719
40.143044 27.158634 -1.6186103
39.788456 27.996107 -1.5322605
40.166618 26.803322 -0.336413
39.78643 28.102119 -1.6304666
40.638073 25.478327 -1.8271217
40.168301 26.804813 -0.63803422
40.580982 25.508802 -1.2504231
39.808205 27.646046 -1.9936284
40.64151 25.032646 -2.2477703
40.229019 26.802631 -0.23968746
39.703888 28.298721 -1.3041269
39.868774 27.285336 -1.7217767
40.357491 26.189011 -2.0160606
40.099522 26.87203 -0.63792747
40.397541 25.710033 -2.1605296
40.576534 25.500593 -1.5318028
40.459263 26.068344 -1.9126143
39.990719 26.707909 -2.1473284
40.355377 26.181768 -1.4299816
40.347874 26.182117 -1.7276191
39.969604 26.739668 0.030676261
40.458511 25.591621 -1.26683
40.686424 24.993776 -1.9325522
40.005161 26.802816 -1.5575546
40.168518 26.806519 -0.43903556
39.41856 28.53845 -1.9622377
40.093746 26.690878 -0.63852137
40.469337 25.719917 -1.2664526
40.694508 25.097147 -1.3408828
40.289764 26.00297 -2.4703035
40.167927 26.374666 -2.3222709
40.166363 26.799669 -1.0362281
40.270859 26.21999 -2.1150255
40.170166 26.803211 -1.2404197
40.054981 26.63426 -0.82536805
40.420746 26.440683 -1.6957376
40.373241 26.183334 -1.3547236
40.629128 25.85321 -1.4286088
39.808117 27.435389 -2.0822783
40.244968 26.694162 -2.3912225
40.084122 26.631662 -1.0427294
40.065407 26.718079 -2.4738774
40.168171 26.802937 -1.448892
40.095409 26.637489 0.14702247
39.748749 27.927734 -1.7163092
39.800888 27.94232 -1.455586
40.241062 26.71382 -1.6409239
40.051067 26.642874 -0.37369999
39.790516 27.430592 -1.9451567
40.174564 26.806948 -0.039843813
40.74041 25.363449 -1.8379562
40.486122 26.195055 -1.3366969
40.166382 26.801355 -0.73921144
40.459305 25.597263 -2.1524677
39.95612 26.741747 -2.7492576
40.000748 26.674255 -2.6298728
40.768787 25.086418 -1.6308211
39.936596 27.093157 -2.3676732
39.854256 27.777058 -1.9455509
40.182827 26.608772 -1.4148083
40.003498 26.46257 -2.5421863
40.176739 26.40271 -2.2542403
40.176441 26.710257 0.16287357
40.089943 26.689901 -0.43868679
39.694164 28.24164 -1.9916246
40.171654 26.804039 0.063751578
39.992844 26.708796 -2.3533731
39.987156 26.738998 -1.9219141
40.277573 26.209064 -1.7412114
40.192772 27.20846 -1.4718186
41.200943 24.605995 -1.8078891
40.169533 26.798738 -1.3352908
39.983234 26.774254 -1.4261868
39.851711 27.076576 -2.4337816
40.639473 25.015297 -2.5367498
40.07621 27.066603 -2.1693525
40.047642 26.888578 -0.82848871
40.165592 26.846228 -2.4589336
40.476906 25.610983 -2.0424929
40.487385 25.628445 -1.8417972
39.967896 26.705626 -2.2501845
39.959621 27.082493 -1.588092
40.165245 26.608591 -1.6456856
40.438339 26.16695 -1.8404918
40.167091 26.804367 -0.53617543
40.660149 25.025551 -2.4689217
40.169197 26.619347 -1.163751
40.519405 25.610615 -1.5736231
39.767998 28.088322 -1.8447605
39.663841 28.058594 -1.4339172
39.979958 27.559298 -1.7390975
40.271175 26.778038 -2.2076769
40.459305 25.786806 -1.8335491
39.483921 28.321987 -1.960609
39.835999 27.372894 -1.5687034
40.170746 26.296274 -2.0384758
39.511459 28.127197 -1.2874256
39.977135 27.075699 -1.3211136
40.655621 25.39159 -1.3381644
39.978912 27.206493 -2.0248575
40.24865 26.467505 -1.3547187
40.164639 26.596947 -1.7431384
40.009384 26.506023 -2.1334381
39.996784 26.738491 -2.4358845
40.768002 24.999624 -1.6224891
39.408779 28.224283 -2.0868843
40.211014 26.747627 -2.4777124
39.671062 28.08255 -1.3132594
39.731358 27.823002 -2.1529758
40.023083 26.95223 -2.2294157
40.091496 26.864136 -0.22055027
40.239071 26.709589 -0.43670014
40.943748 25.028215 -1.5352856
40.160587 26.694595 -1.4394068
39.848228 28.017185 -2.0437131
40.199013 26.306677 -1.8432652
40.073978 26.595545 -2.0557528
40.206467 26.316496 -1.3109782
40.162014 26.75211 -2.2386243
40.664818 25.192518 -1.9247687
40.088459 26.693237 -0.13600643
40.000134 26.591551 -2.4985061
39.685783 27.663986 -2.0585299
39.565239 28.406612 -1.477825
40.160896 26.699907 -2.1109567
40.171585 26.706209 -1.1362526
40.892319 25.200209 -1.3833814
40.171062 26.806578 0.16629645
40.018486 26.558977 -2.6119165
40.069469 26.874426 -0.91984069
40.170082 26.69907 -1.3343278
39.721622 27.804052 -2.3331668
40.8666 25.083139 -1.8315961
40.168247 26.8046 -0.13770628
39.539383 28.400032 -1.8261414
40.068924 26.808407 -2.4334576
40.045425 26.934803 -1.02746
40.062752 26.88113 -1.1452528
39.994835 27.18581 -2.1638162
40.078426 26.640989 0.072807252
40.001118 26.875628 -2.7556307
40.227619 25.881357 -2.5031281
40.077652 26.791986 -0.73662376
40.019176 26.878834 -0.78865534
39.819477 27.906761 -1.8733044
40.43396 26.399191 -1.5973909
39.990021 26.795593 -1.2470586
40.546501 25.388119 -1.3244152
40.055168 26.897099 -1.639105
40.074753 26.790644 -0.63840455
40.084003 26.705553 -1.526776
40.07629 26.793018 -0.53767437
40.488285 25.703074 -1.6350062
39.463158 28.461952 -2.0309124
39.772392 27.609909 -2.240783
39.783165 27.890902 -2.0326362
40.247044 26.72201 -1.4203537
40.087208 26.690935 -0.73607343
39.826721 28.075953 -1.5094275
40.184044 26.324177 -1.9306061
40.046513 27.329657 -1.842598
39.911915 26.840229 -2.3602395
40.162888 26.40159 -2.1215556
40.081997 26.795925 -1.1419516
40.25959 26.709803 -1.7298377
40.159691 26.700575 -1.5277267
40.077141 26.802979 -0.039993037
39.836449 27.99316 -1.4299515
40.060268 27.149937 -2.0723741
40.076988 26.594208 -2.3494737
40.00956 26.62059 -2.0758412
39.917332 26.781008 -2.4736037
40.678471 25.097382 -1.2306448
40.009487 26.709747 -2.0377626
39.969719 26.89253 -2.2383938
39.82505 28.061096 -1.6280841
39.769604 27.914452 -1.5583712
40.077259 26.794708 -0.43989035
40.175358 26.704741 -0.038116142
40.107838 26.878223 -0.71639389
40.01004 26.581284 -2.3148513
40.07209 26.789799 -1.0391892
40.092648 26.685717 -0.53575748
39.906803 26.916204 -2.725589
39.636337 28.222036 -1.9666146
40.154282 26.589668 -1.9391468
40.005878 26.803337 -1.9317038
39.675594 27.794037 -2.1328135
39.590633 28.11132 -1.6345201
39.983784 27.187941 -2.4917619
40.078705 26.79567 -0.33881006
40.072449 26.52042 -2.2537837
39.960968 27.379313 -2.2244527
39.993782 27.198624 -1.7965866
40.170742 26.805119 -0.23552118
40.07312 26.891232 -1.5378164
40.092873 26.868959 -0.33878556
40.446541 26.195126 -1.7333636
39.654282 28.070389 -1.9307921
40.044613 27.021118 -2.1195602
40.157879 26.497971 -2.115411
40.089581 26.699905 0.1590102
40.278969 25.930397 -2.1313617
39.999218 26.917673 -1.6290967
40.05312 26.852636 -2.6651099
40.16592 26.491114 -1.8395083
39.856434 28.114809 -1.2490634
40.392429 25.721079 -2.231148
39.652172 28.091509 -1.8191894
40.052246 27.40547 -1.5844172
39.840462 28.010626 -1.7504991
40.344021 26.293526 -1.8121713
40.075813 26.801861 -0.13937676
40.078499 26.795416 -0.23719998
40.29834 26.221012 -1.4636908
40.049927 26.703251 -2.1386151
40.322067 26.356964 -1.4880327
39.883957 26.894062 -2.3985586
40.279533 26.635853 -0.071898423
40.018135 26.69516 -0.0055295075
40.516273 25.390892 -2.3156319
40.101269 26.420206 -2.6060081
40.406502 25.698406 -1.9618499
40.093849 26.488495 -2.3432999
40.659794 25.297607 -1.6413158
40.179821 26.709257 -0.13430607
40.828506 25.186068 -1.534264
40.172722 26.710245 -0.73440838
40.366531 26.271072 -1.3282216
39.771393 27.418627 -2.3117096
40.220203 26.358751 -2.4694064
39.968803 26.671963 -2.5140414
40.093666 26.690359 -1.4380736
40.092999 26.31986 -2.5390167
40.075184 26.309095 -2.1218414
40.398808 25.725754 -1.8604124
40.175499 26.634184 -1.2269441
40.178677 26.707407 -0.33441919
40.091351 26.635937 -0.55705112
40.362679 25.703533 -2.4503415
40.23666 26.769634 -1.3442339
40.675243 25.670273 -1.3618097
40.439777 26.304331 -1.6304016
40.408298 25.616125 -2.2291536
39.860172 27.763998 -1.6305724
40.335316 26.261482 -1.6278269
40.6866 25.697805 -1.7412988
39.457363 28.494102 -2.0941656
40.402557 25.684917 -2.3280432
40.247158 26.799477 -1.1423591
40.564243 25.58139 -1.3462607
40.561745 25.699398 -1.4643353
40.40691 25.69491 -2.0405126
40.239292 26.770342 -0.5310716
39.478462 28.29501 -1.4316298
40.686169 25.274927 -1.3558064
40.761715 25.552065 -1.8944842
40.142448 26.732512 -2.290045
39.910217 27.863539 -1.4265862
39.821213 28.10199 -1.4386306
40.652355 25.394257 -1.4441614
40.092999 26.619167 -1.1385009
40.693508 24.997801 -1.3418827
40.630016 25.47897 -2.0411355
40.672321 25.430414 -1.8968638
40.075909 26.702358 -1.6329983
40.006592 26.831732 -1.6403372
39.738991 27.77096 -1.9502159
40.150433 26.796057 -1.9225013
40.274712 26.510986 -1.9433734
40.255119 26.497158 -1.6269641
40.169319 26.800467 -1.1331303
39.512138 28.207779 -1.5478998
39.679379 27.901041 -2.0237532
39.984737 27.090567 -1.7333634
39.986492 26.853561 -2.6171904
40.68417 25.391899 -1.8150904
40.08717 26.63402 -0.9611901
40.945267 25.169058 -1.5676833
40.342575 26.201269 -1.5738291
40.087074 26.618111 -1.858444
40.879692 25.191616 -1.7999249
40.538254 25.489122 -1.9501836
40.65984 25.498219 -1.7387727
40.556824 25.69223 -1.7171572
40.599937 25.494547 -1.453794
40.260941 26.480959 -1.7531064
40.660755 25.570717 -2.0662708
39.983997 27.003119 -1.3392514
40.064644 26.404089 -2.4755604
40.527458 25.483467 -2.1672821
40.097584 26.381304 -2.135848
40.562656 25.49333 -1.8429505
40.230423 26.637907 -1.8191149
40.158199 26.518456 -1.2570602
40.855228 25.028519 -1.3245251
40.251205 26.634037 -1.4599862
40.160179 26.492142 -2.0547502
39.847828 27.591743 -2.054023
40.089687 26.692612 -0.044295162
40.109089 26.267521 -2.4448597
40.63097 25.478596 -1.2434469
40.868275 25.078842 -1.3361961
40.174351 26.706802 -0.54220116
39.993073 26.978085 -1.4501659
40.174675 26.703552 -0.23519649
40.603851 25.013483 -2.7442782
40.089195 26.640404 -0.45066255
40.105064 26.303978 -2.3366742
40.152973 26.291498 -2.5473907
39.883846 27.525497 -2.0361941
40.926132 25.357647 -1.7250314
39.710911 28.306427 -1.407522
40.876015 25.193308 -1.6377597
40.881237 25.08309 -1.5478334
40.864441 25.185024 -1.4523916
40.731361 25.550024 -1.6285648
40.225094 26.865213 0.15526116
40.093113 26.633102 -1.6513022
40.666065 25.191767 -1.7344954
40.761848 25.192352 -1.8238075
40.708397 25.171711 -1.3327084
40.172508 26.510883 -1.4380352
40.677441 25.202559 -1.6652751
40.617645 25.048103 -2.0791814
40.551342 25.404325 -2.0236213
40.695984 25.444912 -2.0803545
40.64632 25.395412 -1.5490699
40.685493 25.205418 -1.5434972
40.059902 26.431149 -2.5404267
40.119785 26.628717 -1.7432553
40.65374 25.488113 -1.5323451
40.131138 26.452436 -2.2414048
40.663921 25.280252 -1.830709
40.078754 26.409462 -2.1957788
40.307449 26.204069 -1.5415783
40.059505 26.895344 -1.8282218
40.081314 26.619892 -1.5350382
39.571766 27.980055 -2.0598941
40.14048 26.528133 -0.55719584
39.851982 27.557135 -1.6226182
40.182987 26.496891 -1.7423739
40.445564 25.999741 -1.9187901
39.648445 27.93717 -1.4231606
40.174023 26.290407 -2.1160555
40.367554 26.20458 -1.8279765
40.180679 26.857054 -0.23218641
40.1707 26.707691 0.061203189
40.176899 26.857912 0.16792022
40.485237 25.69912 -1.5430509
40.073479 26.791584 -0.84670746
40.094707 26.692375 -0.83446091
40.171623 26.860979 -0.13775589
40.27224 26.389606 -2.139904
40.040798 26.688747 -2.235811
40.080536 26.791254 -1.5295175
40.179817 26.856409 -0.42474392
40.179188 26.856979 -0.049156118
40.471745 26.019405 -1.7395085
40.065559 26.792141 -1.7372599
40.092041 26.689028 -0.9389894
39.944283 27.088369 -2.4270339
40.078098 26.693998 -1.7335125
39.965679 26.967415 -1.9458162
40.080891 26.790359 -1.3370187
40.078979 26.805187 0.16031785
40.072929 26.786636 -0.93883914
40.073612 26.695797 -1.9374213
40.064835 26.697294 -2.0487661
40.05164 26.803926 -2.1376834
40.160236 26.621342 -0.42037275
40.163631 26.697111 -1.8392938
40.155373 26.61211 -0.33872047
40.160477 26.701283 -1.2372031
40.423832 25.817427 -2.2049768
40.082779 26.789454 -1.2379923
40.459839 25.794359 -1.9516894
39.97607 27.086512 -2.524404
39.970108 26.975601 -1.8364429
39.847233 27.596914 -1.7712862
40.075779 26.696484 -1.8478904
39.692799 27.771029 -1.9122399
39.966522 27.366085 -1.9111116
40.666908 25.606562 -1.8575289
40.106705 26.870764 -0.53538352
40.067162 26.891062 -1.4334855
39.867748 27.515842 -2.2071238
40.49847 25.707481 -1.4359193
40.724701 24.960972 -2.5342617
40.454636 25.970945 -1.8553492
39.890438 28.070353 -1.6889969
40.723209 25.154526 -2.1924009
40.740929 25.012791 -2.1760874
40.584976 25.730495 -1.8432382
40.758556 24.999363 -1.8337722
40.452156 25.688738 -2.2532179
40.44524 25.764942 -2.3295231
39.717331 27.646292 -1.5412934
40.790283 25.064329 -1.9415542
40.397114 26.282763 -1.9897412
40.089737 26.613668 -1.2436219
39.691822 28.209049 -1.6291993
40.077084 26.802101 0.064049967
40.089691 26.695721 0.064643078
39.487518 28.305819 -1.8282331
40.127052 26.681145 -1.9519351
40.546978 25.517426 -2.3790138
40.496418 26.06349 -1.7492789
39.469234 28.387369 -1.7401316
39.897865 27.426445 -2.1079953
39.907566 26.990803 -1.9571857
40.675919 25.280802 -2.0273917
40.760342 24.86216 -1.5097716
39.858276 28.028168 -1.9463578
40.172371 26.702328 -1.0369133
39.986336 27.293381 -2.0541055
40.166992 26.692257 -1.6401986
40.698997 25.308762 -1.2653828
40.721207 24.904381 -2.0545111
39.69022 28.090214 -1.9982946
40.173183 26.633974 -0.96467537
39.766083 28.19787 -1.4417624
39.887939 27.19713 -2.4207952
39.898911 26.917557 -2.350534
40.468803 25.711315 -1.7331796
39.737591 28.269604 -1.8450192
39.833084 28.072289 -1.8297011
39.779976 28.047768 -1.2523746
39.766598 28.19416 -1.8180692
40.55484 26.186798 -1.2421088
39.978561 26.900291 -1.9422976
40.576271 25.663345 -1.9277283
40.172485 26.4666 -1.3473446
39.849953 27.989342 -1.5495498
39.700756 28.307274 -1.7448039
40.781662 24.998617 -1.9510118
39.590794 28.203306 -1.9274696
40.647106 25.795019 -1.535673
40.071491 26.854757 0.077966616
40.173923 26.866209 -0.6400314
40.25211 26.642963 0.19873631
40.264545 26.628735 -0.54505974
40.39764 25.842407 -2.5205717
39.734169 28.153975 -1.974892
40.069214 26.864159 -0.13158712
40.45443 25.874733 -1.9299815
39.885059 27.394041 -1.8587519
40.324615 26.349581 -1.9905269
40.151875 26.683542 -1.7330335
40.750389 25.216194 -1.9192626
40.159836 26.865978 -0.84593153
40.744583 25.300724 -1.8533056
39.840298 28.006859 -1.6421125
39.919701 27.017069 -1.8507354
39.888084 26.955482 -2.634089
40.465641 25.911287 -2.0507135
39.892845 26.991619 -2.3689389
40.62751 25.186386 -2.1166954
39.847046 27.382269 -2.2394376
39.91148 26.96063 -2.1608429
39.735081 28.269867 -1.65904
39.759525 28.181973 -1.6498666
39.752762 28.05172 -1.3088408
39.76268 28.194069 -1.7401074
39.919765 26.937805 -2.4989977
39.886841 27.058119 -2.382848
39.859497 27.164406 -2.3655534
40.363441 26.091095 -1.9238942
39.871292 27.176598 -2.1578383
39.89465 27.011162 -2.4112175
40.553982 25.58527 -2.0150299
40.082432 26.698242 -1.3382783
40.146358 26.669901 -2.0507903
40.559605 25.594454 -2.0926201
40.186493 26.509926 -1.6421677
40.452682 25.521545 -2.5386755
39.864803 27.270645 -2.2992239
39.4147 28.344173 -1.9753103
40.17672 26.708208 -0.64271629
40.365639 26.092113 -1.7423127
40.338829 25.81567 -2.4201157
40.384308 25.794283 -2.2417595
40.345592 25.891144 -2.3138633
39.878757 27.277533 -1.8654871
39.982468 26.983551 -1.7392482
39.77647 27.994232 -1.7376068
39.947456 27.092449 -1.9327663
39.462807 28.477623 -1.444289
40.172623 26.103178 -2.1383615
39.848083 27.196295 -2.0105727
40.136814 26.76663 -2.5189831
40.265602 26.461483 -2.4313407
39.796936 27.343983 -2.2064154
40.28717 25.912567 -2.3156095
41.00703 24.800606 -1.9243393
39.89267 26.965435 -2.2689097
39.944042 27.267677 -1.8496665
39.984215 26.910557 -1.7409972
41.075996 24.788229 -1.7424197
40.181736 26.410746 -2.0374341
41.172348 24.60544 -1.639418
39.783619 28.006321 -1.6304928
39.661423 28.004511 -1.530965
39.994102 26.987391 -1.629305
40.174488 26.101999 -2.316478
40.60775 25.212574 -2.0570509
40.146141 26.501123 -2.3249724
40.470543 25.511808 -2.4206324
40.556568 25.871361 -1.4514101
40.591248 25.297356 -1.9359721
39.467728 28.554218 -2.0313604
40.598686 25.202284 -2.150892
40.763794 25.589666 -1.3260905
39.830452 28.002375 -2.1074557
40.937229 25.18119 -1.7248055
40.614544 25.231098 -1.8056064
40.472416 25.78212 -1.540598
39.834976 28.006643 -1.829766
39.762356 27.980242 -1.8464991
39.680092 28.367455 -1.5664414
39.758564 27.963717 -2.14346
40.601479 25.891296 -1.5520805
40.918297 25.190306 -1.2176974
39.497654 28.124119 -1.9594998
40.393044 26.015045 -1.3845755
39.897102 27.067587 -2.2337377
40.88509 25.396599 -1.6586432
40.194954 26.398785 -1.9135762
40.388718 25.98909 -1.5343653
40.883865 25.013094 -1.6430709
40.877682 25.021397 -1.7374297
40.570896 25.69725 -1.243934
40.764236 25.188316 -1.5483091
40.886242 25.025204 -1.5547607
40.941818 25.078203 -1.4265676
41.228729 24.588612 -1.8261508
40.523972 26.0993 -1.612175
41.167255 24.692513 -1.7431045
40.655285 25.196671 -1.8457327
40.494003 25.617844 -1.6457479
40.467278 25.705811 -1.8244939
40.478985 25.800653 -1.6436679
40.398273 25.804226 -1.8507857
40.407352 25.900053 -1.6277802
40.369175 25.974749 -1.846366
40.379539 26.010704 -1.6419079
40.397064 25.808094 -2.0471492
39.751152 27.991951 -1.2610511
40.943378 25.082649 -1.3344821
39.484428 28.301201 -1.737684
39.475971 28.484653 -1.7270764
39.581123 28.177891 -1.7408917
39.558929 28.19519 -2.0255928
40.758892 25.00457 -1.4385711
40.627537 25.830217 -1.4443071
41.088539 24.804382 -1.6230866
40.409828 25.808977 -1.7471265
40.577316 25.486309 -1.646623
40.593178 25.29697 -1.8509357
40.588593 25.309601 -2.0400002
40.501041 25.513371 -2.0259984
39.765141 27.983328 -2.0332305
40.508575 25.539942 -1.7505054
40.506359 25.502783 -1.9503258
40.488979 25.522409 -2.1547205
40.639362 25.176113 -2.0373442
39.679558 28.088249 -1.6369553
40.941208 25.07552 -1.5281973
40.156197 26.271345 -2.3410516
40.727554 24.952753 -2.24685
39.947651 26.926945 -1.2019037
40.747547 24.927721 -1.9681851
39.684559 28.404079 -1.7420472
39.485237 28.304377 -1.5197308
39.498051 28.213577 -1.9579546
39.580727 28.086876 -1.529121
40.057568 26.793015 -2.035341
40.765202 25.48642 -1.4533724
41.245335 24.614965 -1.6579859
39.567692 28.092606 -1.9211621
39.56271 28.193583 -1.5260999
40.744339 25.082827 -1.7468437
39.568489 28.250357 -2.0198636
39.453102 28.376965 -2.0229363
39.570133 28.197857 -1.8470658
39.563385 28.198696 -1.6263249
40.882229 25.077578 -1.438114
40.769432 25.087854 -1.8281162
39.481789 28.39938 -1.8648105
39.439522 28.493559 -1.5602691
39.470829 28.403137 -1.6162543
39.47905 28.286329 -2.0103471
40.87265 25.010429 -1.9683696
40.967751 25.076025 -1.2548708
39.456573 28.476851 -1.6367236
39.575485 28.29525 -1.9080299
39.546543 28.227957 -2.1014287
40.953712 25.012487 -1.8250964
39.465321 28.308407 -2.1477287
39.537437 28.273598 -1.8406165
39.493782 28.302542 -1.6334859
40.027966 26.887842 -2.130337
40.029396 27.40085 -1.7544961
40.165222 26.583639 -1.8465201
40.085548 26.621147 -1.9214483
39.679951 28.378176 -1.6458129
39.756313 28.000994 -1.349241
40.199265 26.393272 -1.664037
39.772671 28.007576 -1.4407206
40.045033 26.989292 -1.7353987
40.044498 26.992769 -1.5307634
40.285877 26.304447 -1.4459418
40.283901 26.293537 -1.5507421
40.253754 26.393644 -1.539299
40.247395 26.396711 -1.6269238
40.277557 26.293085 -1.7327653
40.051064 26.904663 -1.340785
40.170101 26.610289 -1.3461307
40.248051 26.397299 -1.7532873
40.25053 26.381813 -1.4547783
40.607456 25.212414 -1.7875416
40.057415 26.994335 -1.339453
39.967907 26.880461 -2.3356612
40.138912 26.858351 -1.847047
40.053795 26.991802 -1.6438892
40.16272 26.865868 -1.4402075
39.772923 28.362333 -1.3039937
40.001003 26.917582 -1.5431203
39.569447 28.094423 -1.4485377
40.26049 26.391058 -1.3361037
40.356174 26.107134 -1.5448098
40.130741 26.876219 -2.0506227
40.168766 26.857008 -1.339118
40.363533 26.001915 -1.9351715
40.038303 26.979151 -1.4385997
39.999874 26.979044 -1.5492975
40.26762 26.398588 -1.9504427
40.255505 26.300159 -1.8370095
40.283642 26.194893 -1.6368505
40.187229 26.398609 -1.843379
40.285255 26.1045 -1.933712
40.100048 27.228283 -1.6666863
40.55814 26.001591 -1.4405427
40.172787 26.489719 -1.9192446
40.275139 26.382349 -1.8361021
40.212307 26.426388 -1.7407737
40.456589 25.899055 -1.8328822
40.570473 25.714464 -2.0227134
40.721191 25.7288 -1.350804
39.573742 28.189196 -1.4806082
40.297432 26.296951 -1.3508713
40.366238 26.015343 -1.4211079
40.46537 25.899839 -1.4505928
40.463455 25.897924 -1.6457258
40.566811 25.497095 -1.7361015
40.556755 25.591183 -1.6287731
40.522228 26.119864 -1.3704214
40.283833 26.295172 -1.6191202
40.376217 26.085075 -1.8360901
40.370289 26.09346 -1.6381733
40.443768 25.858902 -1.7469386
40.465 25.892084 -1.538352
40.587502 25.593359 -1.938601
40.566269 25.593943 -1.5399901
40.223938 26.575214 -1.7711496
40.374645 26.097385 -1.4410534
40.582523 25.583364 -1.2727729
39.916481 27.530552 -1.6449169
40.167202 26.884775 -1.0063399
40.494431 25.779356 -1.3353376
40.165058 26.858511 -1.2543257
40.445892 26.394529 -1.3159484
39.600986 27.995131 -1.4440351
40.475609 25.797163 -1.4452224
40.402409 25.885656 -1.4454653
40.464058 26.355537 -1.3929398
40.557476 25.596766 -1.8394049
40.54401 26.105249 -1.455997
40.687286 25.697588 -1.5433896
39.962357 27.494434 -1.9334183
40.774242 25.295528 -1.5453725
40.272614 26.301098 -1.9337548
40.360268 26.096706 -2.0339513
40.386185 25.888252 -1.8170801
40.493397 25.592579 -1.7529904
40.556606 25.399145 -2.1441433
40.617081 25.219427 -1.8980243
40.583244 25.288687 -2.1327801
40.113476 26.531099 -1.6885552
40.270729 26.089907 -2.1196604
40.300346 26.114799 -1.7409135
40.080132 26.85285 -2.4314737
40.878361 25.092457 -1.6362255
40.254349 26.302378 -2.136512
40.765186 25.476429 -1.5228201
40.788067 25.081987 -1.2372853
40.841675 25.566301 -1.3350564
39.662018 28.070847 -1.5408095
39.577656 28.108387 -1.3285017
40.370953 26.122963 -1.2225387
40.469326 25.993118 -1.6396
40.468857 25.894653 -1.239638
40.760929 25.301208 -1.735427
40.08485 26.797186 -1.4392104
40.173256 26.867128 -1.1528987
40.244106 26.576477 -1.6260556
40.633888 25.603025 -1.2457925
40.753609 25.192165 -1.4495591
40.751724 25.198652 -1.6212062
40.089855 27.340336 -1.5923589
40.334343 26.30196 -1.4011918
40.767059 25.182678 -1.7380763
40.596275 25.299458 -1.7264512
39.952522 27.5147 -1.6784041
40.562119 25.783504 -1.5301594
40.825905 25.36557 -1.4021215
40.858044 25.024025 -1.4270469
40.57021 25.769459 -1.9053725
40.858727 25.085131 -1.2438629
40.844444 25.374685 -1.3238766
40.77697 25.204836 -1.25125
39.859089 27.843447 -1.5415394
40.340508 26.27865 -1.5468651
40.463623 26.008144 -1.5505795
40.370571 26.110897 -1.3647275
40.446667 25.989523 -1.4506118
40.565281 25.7885 -1.7236013
40.484478 25.882221 -1.3297358
40.669605 25.595665 -1.7400409
40.847687 25.081108 -1.1522621
40.380283 25.894537 -1.7635816
40.254532 26.315777 -2.0230091
40.8722 25.275936 -1.3103349
40.295506 26.086945 -1.537779
40.28492 26.633173 -0.25350618
40.186008 26.62829 0.16432722
40.461681 25.986155 -1.3475175
40.746685 25.3022 -1.4252532
40.225906 26.62171 -0.64169979
40.560562 25.790682 -1.6526828
40.664375 25.596523 -1.5414321
40.76664 25.14777 -1.1403704
40.52544 25.75313 -1.2948585
40.853657 25.008995 -1.8185807
41.237862 24.556938 -1.5577658
40.077488 26.878565 -1.2484066
40.170559 26.860876 -0.53030336
40.178978 26.624352 -0.56862926
40.366676 26.313494 -1.7264271
40.272846 26.435852 -1.2625078
40.305733 26.322979 -1.2838701
39.653713 28.313482 -1.2727269
40.576527 26.128597 -1.2579526
39.898399 27.695625 -1.7525671
40.370621 25.988691 -1.2419376
40.717064 25.787367 -1.2978965
40.541489 25.802959 -1.2580434
40.555077 25.802702 -1.8202037
40.637482 25.604483 -1.9154634
40.08886 26.587088 -0.24408689
39.947002 27.184559 -1.7423222
40.855198 25.026825 -1.2263006
40.703011 25.194965 -1.1059569
40.499638 25.818375 -1.226717
39.578354 28.510021 -2.0449011
39.863441 27.392935 -1.7167575
40.080856 26.794182 -1.6254054
40.43708 25.585285 -2.4235094
40.07457 26.627474 -1.4342178
39.359779 28.646318 -1.5332659
40.459972 25.745197 -2.3736012
40.186691 27.021023 -1.5569054
40.063931 26.513311 -2.5893455
40.04282 26.476068 -2.4923451
40.062542 26.894003 -1.7213901
40.437111 25.569984 -2.5512068
39.63155 27.689514 -2.2893822
41.031597 25.1966 -1.7187568
40.969334 25.203793 -1.6640863
40.87775 25.189877 -1.7458413
40.488277 25.49552 -2.2440484
40.005444 26.802319 -0.41730794
40.726559 25.00552 -2.2996695
40.161777 26.626738 0.04957303
40.388092 25.658211 -2.6135683
40.565075 25.884724 -1.6407385
40.46109 26.013266 -2.000098
40.137684 26.848843 -1.8996414
40.670052 25.695486 -1.6354704
39.692673 28.286945 -1.6441532
40.3036 25.90564 -2.2701428
40.248951 26.108276 -2.2613969
40.654255 25.58647 -1.6311142
40.086906 26.486652 -2.0486329
40.481667 26.077953 -1.3198106
40.079678 26.391842 -2.3254192
40.171253 26.229813 -2.1395361
40.190872 26.188322 -2.3234844
39.877014 27.109495 -1.7621152
40.014263 27.370344 -2.0350263
40.133663 26.860014 -1.5684344
39.604446 27.75635 -2.2050705
40.00668 26.77416 -0.53461593
40.002983 26.783947 -1.0240245
40.002678 26.800417 -1.138289
39.983559 26.70709 -1.1538945
40.524879 25.447145 -2.4560654
40.16597 26.852125 -0.92120564
40.19939 26.631504 -0.64017624
40.870476 25.090647 -1.7259549
40.270809 26.081066 -2.3404255
40.566532 25.303139 -2.2350302
40.56192 25.296389 -2.4504218
40.629864 25.199623 -2.2577124
40.576252 25.307846 -2.3330626
40.027958 27.367519 -2.0490439
40.144482 26.855358 -1.744657
40.12085 27.096346 -2.2517095
40.058842 26.807724 -2.2263796
40.245899 26.080893 -2.526226
40.252937 26.009449 -2.3607724
40.366035 25.752434 -2.6181593
40.46843 25.602503 -2.2206166
40.478027 25.498749 -2.6299644
40.502968 25.415871 -2.4466109
40.516701 25.379602 -2.2521315
40.576469 25.23966 -2.7127638
40.57943 25.218021 -2.2294838
40.60054 25.179653 -2.5042677
40.534195 25.473036 -2.2442265
40.479622 25.489382 -2.3386347
40.506123 25.427683 -2.1253438
40.555817 25.251791 -2.6353605
40.571819 25.216396 -2.4340482
40.601181 25.147139 -2.6558683
40.611324 25.104794 -2.253267
40.540165 25.894747 -2.1376204
40.598991 25.18977 -2.296113
40.459641 26.092543 -2.1513844
39.539536 28.438179 -2.0774894
40.217632 25.933542 -2.3053131
40.185768 26.63475 -1.0697837
39.735508 28.29072 -1.748755
39.977982 26.798664 -2.3533731
40.215836 26.044024 -2.1003199
40.259201 25.819876 -2.4158716
40.285843 25.831636 -2.0444727
39.877728 27.148882 -2.2285452
39.72644 28.220818 -1.5454283
39.76437 28.245718 -1.9064041
40.274311 25.904585 -2.4432166
40.242092 26.402954 -2.0429833
39.903236 26.927078 -2.1315064
40.745674 25.28233 -1.915082
40.198612 26.212069 -2.0465152
40.240009 26.189335 -2.2163651
40.7775 24.79977 -1.5238632
40.363747 25.908363 -1.9285278
40.368656 25.79043 -2.1417577
40.469364 25.564156 -2.3491111
40.506462 25.49404 -1.8592393
40.503086 25.425158 -2.0403011
40.291206 25.990877 -2.2520738
40.363369 25.895933 -2.0196352
40.39397 25.806765 -1.9448526
40.287556 26.096703 -2.0554824
40.359135 25.886116 -2.129734
40.182106 26.289404 -2.2466483
40.296864 26.105883 -1.8471018
40.347763 25.987715 -2.1218867
39.677242 28.191458 -1.7253331
40.043732 27.383661 -1.8394871
41.182758 24.575748 -1.7170019
39.687698 28.267361 -1.5342864
40.310585 26.135077 -1.6407828
40.142757 26.59366 -2.1603076
40.615929 25.083097 -2.4356496
40.473724 26.053772 -1.8560715
39.91869 26.915506 -2.2530141
40.614059 25.125526 -2.3425057
39.679489 28.190428 -1.879252
40.560307 26.023563 -1.7102771
40.952404 25.074238 -1.6240208
40.557121 25.996952 -1.8091625
39.667492 28.458601 -1.6071652
40.187721 26.213945 -2.4363532
40.542732 25.781763 -1.9892327
40.206882 26.227613 -2.2886961
40.234356 26.132135 -2.3926389
40.234428 26.179291 -2.4086301
40.627083 25.708031 -1.8546758
39.939968 26.96759 -2.3169742
39.912304 26.944088 -1.9059989
39.71706 27.566099 -2.1855817
39.784088 27.35117 -2.1907368
39.845528 27.303341 -2.0956244
40.571045 25.973837 -1.6382957
40.338585 26.104639 -2.2316818
40.032543 26.778507 -2.3006706
40.328728 26.108946 -2.1336017
39.999161 26.714422 -0.74566263
40.303864 25.802492 -2.2856975
40.118061 26.208387 -2.1174469
40.286739 25.776108 -2.2976227
39.656403 28.360826 -1.8687248
39.852646 27.261234 -2.2197149
40.118153 26.497877 -1.8975528
39.404427 28.336658 -1.832021
39.673164 28.296375 -1.8555268
39.991676 26.894701 -1.1412041
39.667389 28.306108 -2.0075548
40.769844 25.011562 -2.0276284
39.68148 27.633415 -2.2723138
40.073586 26.870386 -2.3658004
39.444092 28.399418 -1.9503629
39.672173 27.69128 -2.1310067
39.623814 28.433987 -1.8975514
40.034664 26.602228 -2.2314677
40.94389 25.094641 -1.761565
40.501846 26.068096 -1.6579143
40.962669 25.074575 -1.8568289
40.376587 25.902807 -2.230557
40.254608 26.175995 -2.3385746
40.244843 26.264698 -2.2422857
40.424477 25.753431 -2.0165105
40.750652 25.522284 -1.6925851
40.608391 25.330019 -1.6807365
40.333858 25.997179 -2.2687812
40.197044 26.392221 -1.5470808
40.576878 25.864819 -1.7151754
40.754425 25.493231 -1.6381141
40.67664 25.825949 -1.6600231
40.488365 26.103733 -1.5750744
40.400291 25.811769 -1.6332963
40.270386 26.135132 -1.4389759
40.215721 26.232582 -1.5048432
39.909737 27.208981 -1.6968194
39.975178 27.049969 -2.0313005
40.81271 25.334549 -1.590057
39.413105 28.48299 -1.5593375
39.804604 27.318029 -1.792779
40.638412 25.595041 -1.4355086
40.839592 25.286814 -1.5505615
39.760746 27.983746 -1.9325477
40.001678 26.801956 -0.14544773
40.222179 26.888365 0.074286237
39.54565 28.421982 -1.6515119
39.991402 26.898481 -1.8487082
40.619495 25.189898 -1.3010856
40.17894 26.855694 -0.34002805
39.650742 28.35511 -2.0281146
