# .PCD v0.7 - Point Cloud Data file format
VERSION 0.7
FIELDS x y z
SIZE 4 4 4
TYPE F F F
COUNT 1 1 1
WIDTH 744
HEIGHT 1
VIEWPOINT 0 0 0 1 0 0 0
POINTS 744
DATA ascii
34.863293 41.774303 0.28107408
34.788887 41.96209 -2.6905236
34.934742 41.768707 -1.5963732
34.942596 41.666145 -1.6967299
35.469635 40.147667 -0.11540814
34.949669 41.604866 -1.6445616
35.348446 41.01263 -0.18425937
34.958782 41.686428 -1.6299202
35.592381 40.530781 -0.014307422
35.347309 40.947525 -0.59561962
35.526222 40.578312 -0.62018865
35.251808 40.972218 -1.6181417
35.205257 41.036777 -0.45138642
35.110741 41.22401 -0.52679282
35.238293 41.075317 -1.4258369
35.255997 41.092056 -1.6172748
35.020676 41.546417 -0.37850937
35.369572 40.964626 -0.35602516
35.641052 40.192505 -0.45566043
35.550652 40.373497 -0.55434549
35.634132 40.284046 -0.10826715
35.64703 40.24649 0.034739476
35.729942 39.927029 -0.010302553
35.262215 40.994427 -1.4324791
35.440594 40.749386 -0.058327518
35.672611 39.820942 -0.73149025
35.398319 40.676437 -0.036183149
35.371025 40.773636 0.024467198
35.47847 40.315437 -0.12934245
35.39777 40.642605 -0.11806291
35.476109 40.307262 -0.056374948
35.760597 39.895329 -0.43899852
35.761665 39.902897 -0.53329116
35.765606 39.904484 -0.63537556
35.253326 40.988213 -1.3392606
35.752041 39.906006 -0.24413815
35.755287 39.904636 -0.33400515
35.56498 40.493359 -0.35018158
35.206417 41.01886 -0.35904905
34.51812 42.190781 -1.7276138
35.65469 39.986012 -0.42984042
35.604847 39.997211 0.095758393
34.862259 41.624977 -2.3301611
35.040691 41.580379 -1.4184926
35.189037 41.101307 -0.83654779
35.060825 41.427254 -1.6489103
35.004005 41.386726 -0.25466523
35.468479 40.403076 -0.24507946
35.539993 40.413784 -0.34409577
34.863026 41.698158 -1.1484003
35.204967 40.888615 -0.19231243
35.086712 41.455021 -1.5598583
34.96825 41.492275 -1.0404217
35.229473 41.075851 -1.1489497
35.203331 41.144009 -1.7731256
35.205696 41.005867 -0.54974401
34.958313 41.587666 -1.5544052
35.253101 40.997879 -0.8432005
35.084064 41.289108 -1.5548819
34.981091 41.390331 -0.74922866
35.094559 41.315144 -1.3550324
34.87846 41.662151 0.018343452
35.497517 40.291409 -0.33771223
34.902924 41.441078 -1.0965919
35.183353 41.101574 -1.8004097
34.892651 41.594833 -0.64666206
34.895058 41.695305 -0.046598103
35.612938 39.99828 -0.17590386
35.598839 40.078613 -0.057225164
35.032421 41.547565 -1.5374584
34.874165 41.692478 -0.5418058
34.962193 41.493523 -1.4410328
35.647137 39.98415 -0.53892255
35.182297 41.099426 -1.1323111
35.252968 40.9883 -0.9308883
35.314449 40.841381 -0.51838225
35.248119 40.988358 -1.5457801
35.276573 40.987347 -0.048147038
34.864357 41.564182 -2.4785967
34.846405 41.709957 -2.4870384
35.537128 40.287567 -0.53524357
35.047806 41.39917 -0.0067196684
35.220673 41.091648 -1.5526739
35.031204 41.502998 -0.86562669
34.873074 41.694592 -1.2395078
35.306316 40.833691 0.064044572
34.908157 41.525066 -0.82859707
35.663773 39.886581 0.064871304
35.608196 40.049427 0.035520688
34.953365 41.490685 -1.1384674
34.895527 41.620834 -0.55665392
35.160244 41.187534 -1.3335793
35.560993 40.192375 -0.4305948
35.554596 40.395531 -0.13690203
35.245541 41.07629 -0.83485216
34.967789 41.494968 -0.44347194
35.059322 41.28685 -0.33480433
34.854645 41.592239 -1.7485455
34.805214 41.737659 -0.95424294
35.174034 40.984718 -1.6162503
34.889164 41.400997 -1.6332874
35.161221 41.203411 -0.74005967
35.072628 41.310665 -0.63406891
34.675835 42.094757 -2.1960814
34.629196 42.077793 -2.3483355
34.943108 41.692078 -1.2308552
34.876698 41.693577 -1.5337987
34.691864 41.97673 -2.3998857
34.695007 41.903831 -2.2483046
34.651192 42.037327 -2.2563863
35.185123 41.104458 -0.74467725
34.86005 41.510441 -2.1191359
35.058331 41.304581 -0.93554485
35.178146 41.097996 -1.037966
34.698151 41.879429 -2.0105443
34.702194 41.88829 -2.3523388
34.699814 41.902233 -2.1478882
35.175228 41.208611 -1.6291784
34.893745 41.401691 -1.7532331
34.766045 41.892853 -1.436051
35.575577 40.0993 -0.35002252
34.711826 41.888245 -2.4751434
35.032402 41.506371 -1.7351346
35.051998 41.487358 -1.6453385
34.785259 41.969273 -1.2437636
35.057514 41.312878 -0.83620685
35.680271 39.898094 -0.037298508
34.857121 41.788715 -0.44675151
35.68042 39.912693 0.12994093
34.861038 41.910648 -2.6149011
34.839855 41.884319 -0.33517453
34.84832 41.900337 -0.64292151
35.464703 40.425339 0.067511827
34.960896 41.507183 -0.14588247
34.95892 41.490181 -0.64222252
34.974499 41.498966 -0.060439434
34.785904 41.612648 -1.8268895
35.05817 41.395103 -1.1294953
34.79129 41.615639 -1.9344467
34.788342 41.635895 -1.7517952
34.7981 41.593788 -2.1049714
35.238995 41.088467 -0.75686026
34.87632 41.754951 -2.1831656
35.590736 40.101933 0.29305622
34.800762 41.800331 -0.94725543
34.816204 41.791725 -0.18154679
35.066196 41.481186 -0.73639023
35.617218 39.858223 -0.74690866
34.785679 41.899464 -1.1376398
34.957775 41.594147 -0.83409756
34.932373 41.783821 -0.7285493
35.056019 41.373417 -0.34231031
35.463341 40.654404 0.32312396
34.894962 41.597679 -0.9417631
34.796158 41.80584 -1.132688
34.797153 41.688843 -2.5439913
35.51582 40.217979 -0.23480631
35.175732 41.097775 -1.3382425
34.706459 41.825626 -1.1773373
35.295494 40.792732 -0.17291428
35.316978 40.831551 -0.25475472
35.606178 39.914703 -0.3577151
34.894642 41.604301 -1.0408579
34.857128 41.699852 -0.94438338
34.985935 41.491112 0.26002753
34.783527 41.974758 -1.4313751
34.810101 41.867645 0.14238991
34.923794 41.762932 -1.5069554
34.96505 41.500164 -0.55259514
34.699715 42.073238 -2.0268524
34.93766 41.581623 -1.4436855
34.785564 41.802876 -1.2371073
34.920124 41.653114 -1.4593235
35.338917 41.001991 -0.43845671
35.02639 41.457802 -0.67236966
35.0765 41.479855 -1.4408925
35.056244 41.356949 -0.28546798
34.976318 41.602749 -1.843652
34.903931 41.373871 -2.3153746
34.771706 41.801411 -1.334257
34.935688 41.666065 -0.7326045
35.047817 41.388527 -0.95171863
34.839241 41.791191 -0.14762086
35.086468 41.292156 -1.607036
34.890141 41.604706 -0.73952621
35.570213 40.100216 -0.63621259
34.715088 41.875771 -1.5619473
34.895565 41.597725 -0.83441764
35.617382 39.810593 0.30960923
35.653584 40.109177 -0.34466368
35.259129 40.829731 -2.0548096
34.608261 42.184319 -2.0309629
35.677719 39.867725 0.24860178
34.875835 41.692036 -1.4398644
34.939934 41.583714 -1.2387116
34.877056 41.412258 -1.8315313
35.076473 41.288689 -0.56333649
34.783226 41.680748 -2.2105479
35.098747 41.055428 -2.0223618
34.974937 41.400627 -1.3372235
34.817055 41.489216 -1.6153879
34.961742 41.381985 -1.7365139
35.56036 40.112282 -0.53873152
35.06102 41.314148 -1.0636878
35.614811 39.943401 -0.26485288
34.896961 41.413658 -1.5385909
34.948006 41.370274 -2.2525871
34.710117 41.884766 -1.4389662
35.180515 41.094299 -1.2425081
34.956505 41.411911 -1.9351678
35.601128 40.005543 -0.43191791
35.2085 40.906235 -0.95930839
34.948303 41.584991 -0.94466203
35.607494 40.096794 0.14246993
35.095325 41.113998 -1.7413322
35.185051 40.942368 -1.327737
34.812973 41.761063 -2.4015079
35.030804 41.674084 -0.74332404
34.715279 41.877922 -1.2441506
34.919388 41.626141 -2.4922462
34.864563 41.69812 -1.0430826
35.681423 40.19416 -0.078663312
35.643501 39.997807 0.050510257
35.476871 40.394566 -0.72685254
35.0508 41.379406 -0.43770012
34.850185 41.797855 -0.55187029
34.850716 41.7971 -1.4387227
34.888939 41.428223 -2.1253757
34.862606 41.685852 -2.1245737
35.613796 39.992085 -0.25974864
35.079292 41.154446 -1.6473361
35.476849 40.395248 -0.93459541
35.040829 41.393013 -0.73252243
34.771084 41.800362 -1.9385152
34.866344 41.499733 -1.8441805
35.168068 41.203373 -0.24138655
35.176914 41.271519 -1.4306648
34.958855 41.619198 0.14644797
35.078972 41.38546 -1.4481378
34.701809 41.867504 -1.2910333
34.958584 41.669952 -0.83630157
34.866306 41.788559 0.1311301
35.543163 40.336445 0.14069073
35.046322 41.447472 -0.010545401
35.466396 40.419205 -0.033314724
34.859642 41.790207 -1.2358794
34.964817 41.497837 -0.73882204
34.791924 41.699318 -1.2344139
34.947746 41.679169 -1.5599118
35.030342 41.539513 0.092717372
34.871666 41.492912 -1.63379
34.896202 41.598656 -1.1415077
35.11639 41.026356 -1.4842105
35.034733 41.450512 -1.2122599
35.416679 40.485237 -0.15170495
35.031391 41.308128 -0.24245197
35.479637 40.46339 -0.44032043
34.915775 41.442947 -2.4452491
35.0471 41.381557 -1.5153241
34.674854 42.091553 -1.8369845
35.055183 41.126057 -1.9202452
34.849804 41.791817 -0.32642677
34.867947 41.585232 -1.6348917
34.91074 41.429638 -2.7682273
35.516785 40.20541 -0.34083241
34.947895 41.583866 -1.1482935
34.902546 41.424675 -1.2364444
35.473648 40.451355 -0.14812046
35.516144 40.241013 0.15962081
34.868286 41.473103 -2.0750127
35.212719 40.934784 0.042777222
35.493271 40.389832 -0.14579213
34.910213 41.404194 -1.447974
34.953751 41.321144 -1.6505687
34.70752 41.83744 -1.2272959
34.869644 41.697323 -1.6432289
34.800095 41.719578 -1.0476025
35.113148 41.12355 -0.8618269
35.608643 40.024864 0.24424809
34.766891 41.873932 -2.1416409
34.910851 41.360943 -1.9557474
34.945229 41.283482 -1.9211237
34.953094 41.591763 -0.10556081
35.046921 41.38776 -1.0355136
34.809502 41.689636 -2.1490176
34.960335 41.405647 -1.6339591
35.459324 40.615639 -0.13832474
34.857174 41.789272 -0.83829176
34.621693 42.153545 -2.3732986
34.946522 41.596992 -0.7343412
35.244366 41.087433 -0.94805515
34.937336 41.575073 -0.23660406
35.170586 41.192604 -1.726963
34.909935 41.307747 -2.70854
34.992653 41.399548 -0.54504585
35.069389 41.13213 -0.71791309
34.909401 41.370155 -2.0465832
34.949276 41.30547 -2.032455
34.773449 41.899841 -1.2312167
34.760849 41.877876 -1.8308474
34.982052 41.408512 -0.83801162
34.959579 41.305908 -1.7388892
34.981205 41.407913 -0.93456125
34.991711 41.401283 -0.43795314
34.900757 41.308411 -2.1142604
34.977383 41.404766 -1.0377362
34.971542 41.404736 -1.5392872
34.977196 41.411789 -1.1389112
35.567516 40.291363 -0.44272277
35.044151 41.397694 -0.6343466
34.776035 41.901604 -1.0330716
34.923264 41.766304 -0.98818922
35.045391 41.289398 -0.18664576
34.718273 41.845055 -1.3083527
35.140404 41.271366 -1.715479
34.752079 41.959835 -1.6532797
34.796215 41.804165 -1.0339092
34.853916 41.596882 -1.9367675
35.047867 41.492512 -0.35410199
35.672241 40.101482 -0.50483495
34.78746 41.712315 -1.948087
35.044117 41.392616 -0.84770459
35.028061 41.374554 -0.53245008
35.072941 41.31023 -1.1543249
34.971165 41.402569 -1.4389012
34.785507 41.962921 -1.1424384
34.761322 41.797192 -1.4271362
34.975853 41.498505 -1.8297315
35.037769 41.483917 -0.93322843
34.854828 41.791794 -0.27346066
34.860294 41.802944 -1.3420646
34.944485 41.496353 -1.9138196
35.195122 40.921917 -1.1126282
34.91563 41.441689 -1.000522
34.998566 41.696537 -0.11972795
35.059242 41.271351 -1.4464989
34.850994 41.786987 -1.0426322
35.393936 40.790581 -0.12477693
34.865162 41.754944 0.32281026
34.964855 41.48864 -0.35114244
35.052753 41.519623 -1.3781314
34.887424 41.598934 -1.4442945
34.798119 41.712585 -1.138926
34.915207 41.383301 -1.3490809
35.043758 41.310116 -0.4342151
34.867092 41.511738 -1.7302886
34.854469 41.785614 -1.1398807
34.848534 41.6185 -2.0442395
34.852989 41.785309 -0.93824357
35.106201 41.21143 -0.42759037
34.7799 41.895679 -1.5405849
34.90522 41.263981 -2.0337045
35.038353 41.197193 -0.27651477
34.757679 41.86797 -1.9555961
34.711571 41.821983 -1.5631479
35.065777 41.29837 -0.73042077
35.505962 40.306656 -0.62921953
35.053616 41.506435 -1.8231354
34.656513 42.191589 -1.9403411
35.295078 40.914276 -0.5431729
34.949169 41.316196 -1.8440526
34.970001 41.313984 -2.1234233
34.958298 41.474751 -1.7505974
34.881344 41.601486 -1.3357249
35.202911 40.908485 -1.4247868
34.902836 41.596169 0.10225696
35.538223 40.376911 -0.63179123
35.254356 40.991684 -1.0308262
34.683174 42.003361 -2.0522056
35.01012 41.33926 -0.5309341
34.758839 41.882591 -1.6222669
35.009987 41.319752 -0.43041757
34.998798 41.311977 -0.35155568
35.019928 41.321945 -0.11223962
34.951561 41.397881 -1.816885
34.988529 41.391815 -0.63920492
35.539703 40.186378 0.13808361
35.414677 40.438053 -0.20952453
35.651943 39.997982 -0.22863591
34.951824 41.590679 -1.0376683
35.469593 40.387989 0.28355342
35.637222 39.972862 -0.73967969
35.68763 40.105701 -0.66289675
34.960209 41.493961 -0.835105
35.651642 39.986515 -0.33088046
34.961479 41.373413 -2.3749547
35.343945 40.888447 -0.45454013
34.963844 41.489994 -1.6283749
34.89629 41.59787 -1.2467383
34.865879 41.490711 -1.9312453
34.95116 41.489799 -1.5274369
34.763905 41.885967 -2.0268703
35.536987 40.287811 -0.053374447
34.910679 41.525108 -0.66062164
35.551952 40.384041 -0.4503732
34.851898 41.71125 -0.22820197
34.915024 41.542404 -0.56094849
35.348621 40.979591 -0.7634697
35.34304 40.990494 -0.79141593
34.869423 41.587433 -1.5305654
35.653896 39.983158 -0.61956316
35.536991 40.418552 -0.059909165
35.008369 41.303505 0.045311157
35.008938 41.396137 -0.098150708
34.853737 41.836433 0.10223462
34.986649 41.417191 -0.058488853
34.860195 41.901012 -0.94278473
35.008995 41.373367 0.061206277
35.240509 41.190952 -0.74369127
34.875607 41.682808 -0.43767336
35.492241 40.396236 0.11297367
35.253304 41.003201 -1.2345675
35.212883 41.023983 -0.14466557
35.247131 41.081787 -0.13690874
35.269928 41.087456 -1.2501277
34.782227 41.963547 -1.0448215
35.259571 40.997643 -0.12831058
35.198486 41.104637 -0.1344962
34.859711 41.799389 -1.6538604
35.29538 40.918327 -0.34124833
34.954407 41.591877 -0.65079641
34.968685 41.587376 -1.7407135
35.027328 41.721519 -1.7369525
34.878231 41.804893 -1.8078302
34.945534 41.585655 -0.32590878
34.946175 41.603355 -0.42765817
35.238487 41.203587 -0.64710289
34.958282 41.491798 -0.94103628
34.62709 42.185402 -2.0095172
35.032578 41.227093 -0.099415161
35.240326 41.089996 -0.53077555
35.100555 41.228836 -0.35611755
35.246323 41.091717 -0.23825344
35.460361 40.69043 -0.13366593
34.620216 42.124798 -2.478739
35.260128 41.003258 -0.33878914
35.193539 41.006706 -1.461637
35.198895 41.096561 -0.43776321
35.239952 41.084164 -0.42011374
34.964661 41.312328 -1.2163631
35.200256 41.018578 -1.1414413
35.193863 41.017071 -1.0382082
34.870853 41.688641 -2.5344577
34.745655 41.784843 -1.831249
34.769352 41.708706 -1.6376208
34.800682 41.618683 -1.6421503
34.827103 41.714272 -2.6269701
34.904663 41.628944 -2.6107957
34.947174 41.259865 -2.5254574
34.901531 41.497124 -2.7611523
35.165665 41.198986 -1.2389513
34.945553 41.314289 -2.3153944
35.605129 40.010529 -0.36660668
34.775867 41.904495 -2.3310807
34.9505 41.395416 -2.1336334
35.512012 40.482708 0.094218627
34.769794 41.793762 -1.7413375
34.776138 41.773727 -2.7603855
34.880863 41.904633 -2.778914
34.929852 41.334938 -2.2186835
35.479809 40.468002 -0.54677361
34.784985 41.6791 -1.533112
34.889988 41.530594 -2.4667945
35.161705 41.190701 -1.4406019
34.766483 41.796959 -1.537645
34.772247 41.799088 -2.5893719
34.754654 41.806789 -2.3424244
34.780392 41.701603 -1.7502066
35.105927 41.104343 -1.6535817
35.464985 40.413445 -0.33958825
34.937073 41.318001 -2.6551387
34.76442 41.890568 -1.7368027
34.727314 41.860306 -2.4028337
34.967495 41.498829 -0.26082999
34.761513 41.818951 -2.0510447
34.95435 41.302551 -1.340503
35.480179 40.475361 -0.64476305
35.608261 39.991619 -0.72687554
34.962292 41.566422 -2.4310923
34.875549 41.691067 -0.64627123
34.745182 41.804459 -1.6418444
35.665436 39.904369 -0.34759772
34.878368 41.499336 -1.5383303
35.031837 41.394138 -2.2650261
34.685352 41.993706 -1.8713262
34.770107 41.894009 -1.3353778
34.877625 41.689983 -1.3396518
34.954647 41.478668 -2.4060721
35.575169 40.095623 -0.74086374
35.043545 41.387939 -1.3520324
34.979843 41.449745 -2.5527923
35.153984 41.084808 -1.889506
34.763645 41.820278 -2.2077117
34.958469 41.485477 -1.3427593
34.861217 41.597923 -0.26264611
34.788017 41.972805 -1.3383547
34.956142 41.317196 -1.4456416
35.578396 40.080811 -0.42584965
35.591713 40.09557 -0.22050907
34.907692 41.49942 -0.74503285
34.856873 41.592926 -1.8464732
34.946148 41.591549 -0.53904307
34.866993 41.696415 -0.33473074
35.167656 41.207653 -0.43708572
34.849773 41.795372 -0.64700818
35.652355 39.859993 0.32979169
35.354099 40.893993 -0.2222735
34.852615 41.802143 -1.5287038
35.00407 41.309479 -0.73731691
35.3158 40.93996 0.22623475
34.935616 41.681129 -0.94495088
35.365971 40.808456 0.12751317
35.407776 40.700439 0.08780627
35.193409 41.095879 -0.64080644
34.897926 41.502625 -1.1416773
35.293007 40.905491 -0.64769214
35.240334 41.081989 -0.63629323
35.204891 41.006477 -0.23791312
35.096226 41.225056 -0.6422857
35.188324 41.098213 -0.3250064
34.945705 41.687458 -1.040256
34.949181 41.592464 -0.039602749
35.261143 40.991615 -0.24713472
35.255142 40.998016 -0.43693075
35.238808 41.099941 -0.3528353
35.44025 40.603127 0.33205694
35.192417 41.276165 -0.74222761
35.104324 41.215897 -0.72324276
35.288662 40.890205 0.037302218
35.197056 40.897217 -0.74942249
35.483486 40.470455 -0.038774703
35.175293 41.190815 -0.13316828
35.435093 40.595097 0.21319932
35.446095 40.692158 -0.034963537
35.046879 41.405415 -1.7445152
35.04047 41.390335 -1.8295106
35.438484 40.637474 0.18405722
35.45393 40.679222 -0.24258119
35.438873 40.637703 -0.2318491
35.109867 41.18005 -1.0200847
35.600948 40.009441 -0.53197235
35.112946 41.194942 -1.2640518
34.976242 41.307953 -0.93916094
35.187901 40.98875 -1.3485903
34.971268 41.305843 -1.0520512
34.882099 41.496529 -1.4412861
34.862282 41.686951 -1.8434244
34.967548 41.320904 -1.1332638
35.1577 41.190002 -1.0383859
35.094513 41.59314 -1.6404245
34.952404 41.315777 -1.5394018
35.104847 41.108654 -1.3511802
35.175526 41.102402 -0.93729562
34.779736 41.701702 -1.8241936
34.842636 41.600941 -2.145725
35.068565 41.32518 -1.8381643
35.102234 41.601879 -1.753266
35.157829 41.195595 -0.93712515
34.660404 42.147552 -2.2710962
35.112164 41.188835 -0.9632411
35.641983 40.09581 -0.1386255
34.783985 41.68816 -1.4432359
34.894642 41.522091 -1.2556269
35.162922 41.199799 -0.63686717
34.88501 41.505337 -1.3434733
34.944851 41.479179 -2.0344756
35.661598 39.967701 -0.15728052
34.752953 41.68354 -2.3399181
34.927189 41.550728 -2.3243423
34.704174 41.868813 -1.7411656
34.910152 41.321289 -1.5409753
34.977936 41.663315 -0.6437453
34.802525 41.627472 -1.4387373
35.096016 41.212204 -1.5353861
34.709934 41.876797 -1.6371615
34.707767 41.82354 -1.9993583
34.794559 41.595669 -2.2900689
35.172798 40.998222 -1.7369149
34.762119 41.964855 -1.7240468
35.109394 41.200413 -1.3506883
34.943817 41.600559 -2.0914059
34.838295 41.788223 -1.8941902
34.779839 41.703655 -1.3441958
34.806808 41.631683 -1.332872
35.207829 41.020023 -0.83944499
34.809937 41.623459 -1.1315864
34.826019 41.679214 -1.9052318
34.771454 41.723362 -2.0323784
35.490372 40.468899 -0.35300279
35.675232 39.882065 -0.82840466
35.599564 40.003056 -0.63870853
35.672039 40.104893 0.042109691
35.688435 40.014996 -0.028470896
34.879639 41.502941 -2.3544981
34.707993 41.821728 -1.7471378
35.666389 40.086411 -0.0096261799
35.466621 40.408752 -0.43299732
35.632771 39.994705 0.12932912
35.686382 39.889484 -0.64007795
35.473846 40.418278 -0.53545958
35.657482 39.82933 -0.13203816
35.488815 40.287617 -0.42053154
35.430164 40.816143 0.23392399
35.214554 40.935863 -0.8617543
35.047451 41.280018 -0.054127131
35.681805 39.882732 -0.73851967
35.049484 41.326778 -1.220306
35.273392 41.065598 -1.7711828
35.592422 40.118801 -0.12674201
35.668182 39.901787 -0.23567618
35.021458 41.373535 -0.18450432
35.176998 41.006954 -1.2289596
35.163403 41.193794 -1.1315978
35.569218 40.107742 -0.82249969
35.672028 39.843285 0.057090502
34.898956 41.622902 -0.46336782
35.674839 39.832554 -0.21329807
35.293438 40.902596 -0.25073528
34.91032 41.302429 -1.3778062
35.059132 41.105286 -2.0906754
34.912994 41.295048 -1.9332364
35.612183 39.903347 -0.55773664
35.20208 41.016129 -0.928729
35.672413 39.89645 -0.54231513
35.615513 39.937157 -0.47129935
35.164921 41.20118 -0.53098083
35.17915 41.020298 -1.5352709
35.661449 39.84444 0.3432616
35.039711 41.371536 -2.34254
35.619823 39.835869 -0.62748921
34.977505 41.410686 -1.2383417
35.202328 41.00703 -0.6394518
34.868275 41.694012 -0.73981696
35.20536 40.925514 -1.050191
35.176468 41.273643 -1.0329194
35.184402 41.271893 -0.93487382
35.014263 41.217068 -1.0836548
35.032394 41.471905 -1.0539509
34.877174 41.601562 -0.33870983
35.18082 41.10025 -1.618746
34.932659 41.394386 -2.4382858
34.984867 41.37587 -2.7477958
35.720261 39.845512 -0.53391933
35.702595 39.816185 -0.32305747
35.492859 40.311447 -0.53686076
35.193298 41.092762 -1.4259611
35.61639 40.032455 0.15825465
35.6567 39.897045 -0.43242878
34.950527 41.345646 -2.5247264
35.443161 40.517941 0.27964246
35.039604 41.496941 -0.27640828
34.864136 41.696247 -0.83265013
35.428036 40.695427 0.093442373
35.339447 40.88517 -0.53822583
34.950619 41.677296 -1.1456831
35.34029 40.874401 -0.63529289
35.249668 41.004532 -0.64224994
34.936802 41.589565 -1.3419237
34.963955 41.491013 -1.2445714
34.96331 41.653015 -0.55259007
34.952942 41.680367 -1.3254657
35.194466 41.100288 -0.53881991
35.170624 41.206779 -0.3412092
35.348541 40.887207 -0.34402961
35.405041 40.679592 -0.1549032
35.161362 41.196087 -0.83602679
35.25111 41.075546 -1.0290282
35.247753 41.001686 -0.5373621
35.257507 41.202183 -0.23600687
35.252037 40.993813 -0.73703831
35.001186 41.321175 -0.62072015
35.509865 40.283348 0.031383581
35.254013 40.996792 -1.1386641
35.177296 41.264 -0.33576113
35.028439 41.608952 -1.3579395
35.549191 40.295094 -0.24904034
35.56015 40.238556 0.21587086
35.533592 40.386467 -0.23011984
35.563126 40.48053 -0.25820547
35.362679 40.890568 -0.13528474
35.297863 40.908783 -0.019639079
35.292156 40.913754 -0.138457
35.567184 40.223625 -0.1301534
35.542091 40.28326 -0.32818803
35.022415 41.546021 -1.2459308
35.561466 40.283211 -0.14540438
35.642941 40.158302 -0.26800314
35.587101 40.192993 -0.25224072
35.556808 40.410717 0.085923366
35.563602 40.196091 -0.3538011
35.295628 40.903271 -0.44054872
35.351261 40.877625 -0.74807
35.567173 40.178707 -0.061891999
35.663185 39.885448 -0.13810036
35.492603 40.307312 -0.24530736
34.915852 41.533463 -0.27500573
35.342098 40.90168 0.091294169
35.658218 40.170425 -0.15147009
35.567944 40.22818 0.063651368
35.387661 40.844208 -0.071108676
35.358597 40.872738 -0.058753885
35.339256 40.914062 0.17150606
35.565903 40.276848 0.030041555
35.199818 41.094559 -0.23471025
35.660759 39.840286 -0.021279933
34.794281 41.627403 -1.1957394
34.901886 41.522125 -1.0362135
35.096916 41.15575 -1.1412054
34.807999 41.625782 -1.5423713
35.115635 41.129814 -1.0699981
35.109776 41.08947 -1.4343423
35.091198 41.168739 -1.4722416
35.172928 41.021202 -1.8056905
35.164993 41.207397 -1.5343127
35.211746 41.026215 -0.73792541
35.091808 41.104065 -1.7977834
34.709099 41.797039 -1.6642991
35.113853 41.108807 -1.1350492
35.28664 40.912468 -0.74075145
34.711624 41.825932 -1.8957374
34.903198 41.32148 -1.7391535
34.704765 41.869846 -1.89652
34.716846 41.733849 -1.8583146
34.913155 41.292267 -1.6549931
35.091049 41.101227 -1.577544
35.115185 41.206635 -0.84721553
35.278027 40.904919 -1.4491782
34.707096 41.872627 -1.8473673
34.862267 41.68375 -1.7558665
34.824699 41.660069 -2.2256756
35.665031 40.094791 -0.4342328
35.654442 40.099579 -0.23119152
35.17775 41.103519 -1.5524091
34.75288 41.791798 -2.1600165
34.842354 41.815147 -1.7551519
35.600468 39.918034 -0.63266653
35.606934 39.833153 -0.14364131
34.988319 41.411522 -0.35152584
34.910889 41.520641 -0.94235295
35.677795 39.809761 -0.63445795
35.23243 41.060478 -1.3402936
35.353569 41.029617 -1.223179
34.974583 41.698822 -1.8204422
35.320614 40.990547 -1.1704717
