# .PCD v0.7 - Point Cloud Data file format
VERSION 0.7
FIELDS x y z
SIZE 4 4 4
TYPE F F F
COUNT 1 1 1
WIDTH 1608
HEIGHT 1
VIEWPOINT 0 0 0 1 0 0 0
POINTS 1608
DATA ascii
42.054058 29.990435 2.6629512
41.060989 32.491283 2.5351617
40.953621 32.777538 2.4908893
42.193676 29.503212 2.4485445
42.272274 29.394323 2.6628442
42.386517 29.092777 2.6537724
41.151962 31.51008 2.1867409
42.182495 29.599932 2.6668501
41.174854 32.086861 2.4569402
40.98439 31.905922 2.0494041
40.759506 33.157806 2.0632229
41.745495 30.698881 2.3795917
42.032211 29.95192 2.1964345
41.77372 30.689997 2.6623721
42.320499 28.564896 2.1835442
41.545433 31.182835 2.1399288
41.512581 31.36548 2.1774542
41.996601 29.949467 1.7591342
40.939148 32.105957 2.1832836
41.251228 32.096123 2.5565095
41.353291 31.802326 2.3540237
41.358501 31.790003 2.5589261
41.851772 30.480127 2.3615699
41.949272 30.26766 2.2839279
41.937202 30.282064 2.4870198
41.984936 30.095186 2.4702461
42.131489 29.773643 2.4708743
42.152542 29.683537 2.4770775
42.228992 29.547384 2.569134
42.263779 29.397768 2.5617511
42.354347 29.111769 2.2545738
40.943184 32.282616 2.5644574
42.672939 27.795086 1.8594551
43.226276 27.062643 2.880604
42.470295 27.993326 2.2600999
40.891014 32.599468 1.7008109
40.751484 32.784447 2.1585767
40.730289 32.756142 2.0243108
42.162048 29.591143 1.9578637
41.227974 31.450296 2.2701187
43.09473 27.206734 2.5695391
40.892731 32.320366 2.5758224
41.564667 30.812992 2.3604517
41.986198 29.381683 2.3594425
43.345997 25.868305 2.3519742
40.782288 32.726753 2.1344428
41.362736 30.823647 2.3598478
41.8862 29.744867 2.3425524
41.97002 29.78504 0.064706437
42.488495 27.760054 1.3632669
42.02494 29.766922 0.039584693
41.254364 31.418762 2.1555076
40.689678 32.800228 2.4674892
43.174889 26.086742 2.6350946
42.743378 27.283363 2.268805
42.241692 28.612066 2.170785
43.830154 25.402294 2.5708203
40.922691 32.197773 2.5076694
40.632042 32.878265 2.6119785
42.034992 29.871483 1.4472339
42.508419 27.934774 1.8642592
42.385677 28.57423 2.1051171
42.683445 27.870438 1.9598608
41.411076 30.899332 2.2592854
42.600452 28.608898 1.580004
42.033596 29.793545 0.14922589
42.575119 27.881042 2.4422114
42.600857 27.877007 1.7645408
42.597301 27.87451 1.8560383
42.370701 28.29306 2.1522799
42.037502 29.801065 0.96155733
42.259193 28.576653 1.9546121
42.276894 28.495153 2.4436531
43.676712 25.604654 1.8251965
42.673771 27.717386 1.7559983
41.179203 31.500515 2.6718972
41.968052 29.878809 1.7592546
41.283455 31.898075 1.8369037
41.56871 31.060055 1.9723358
41.150585 31.673569 2.153739
41.876984 29.86603 1.9647082
42.672073 27.795893 1.1588684
41.345535 31.011213 2.0473483
41.864494 29.872633 2.3591464
42.82317 27.371511 1.8224947
42.99387 26.821951 1.7905502
42.991203 27.105043 1.8570514
41.559124 31.075623 1.8670546
43.54364 26.084488 2.6612427
42.959915 27.679466 1.6014564
41.593288 30.300928 2.2580774
42.304367 28.41338 2.3469598
41.358002 30.995539 1.9529194
42.561226 28.115215 1.4510319
42.030319 29.7906 1.2546628
42.736393 27.545496 1.4826939
40.878922 32.200062 1.8008841
42.072899 29.610754 1.6960615
42.69141 27.862976 0.95532584
42.036362 29.762913 0.66795719
42.049568 29.78805 1.5741122
43.830723 25.371273 2.6800835
41.71249 29.9249 2.1900148
42.27887 28.774908 1.8957088
43.599819 25.901451 2.6435785
43.685463 25.399406 2.2557216
41.573242 30.495483 1.856124
42.656532 28.393028 2.6543419
43.124432 27.281555 3.1733372
41.981056 29.79158 0.95535117
42.640354 28.380619 2.1334994
42.670631 27.873388 1.7564583
42.75312 27.785608 1.0632232
42.754642 27.783792 1.255579
42.672527 27.707867 1.2569019
43.612915 25.82815 2.5876484
43.602997 25.922565 2.8318474
43.588814 25.895864 2.4733701
43.590881 25.906605 2.7545369
43.56226 25.989008 2.5632749
43.168655 26.094826 2.4621768
41.196571 31.814121 1.6758484
43.671089 25.674812 1.8548561
41.252876 31.816013 1.7919266
43.851501 25.351599 2.4932139
42.562176 27.975899 1.7858644
43.601776 25.502245 2.0360336
43.183189 26.093731 2.5394421
42.672077 27.799379 1.757841
42.546257 28.021532 1.6599292
42.671566 27.79669 1.0568919
43.168922 26.122528 2.188668
42.079639 29.300943 1.5713747
42.199543 28.965828 1.9330226
43.593842 25.486141 2.000834
41.879345 29.798271 1.4624085
43.05212 26.50469 2.1668673
42.167732 29.586998 2.3775597
42.67878 27.676991 2.3431282
42.033798 29.859093 -0.038789105
40.930218 32.271961 1.5053997
42.05431 29.654551 1.6665092
40.995361 31.924263 2.2231913
43.425709 25.70863 2.3406994
42.223541 28.851665 2.1855659
42.64518 28.383913 2.3738251
42.040283 29.875044 0.8647368
41.357933 31.146194 1.7751782
41.259003 31.48579 2.5733287
43.561066 25.967028 1.9641832
42.028961 29.930414 0.29161218
42.232826 29.390127 2.0549922
42.313446 28.885155 1.9626061
42.415878 28.840858 1.5923606
42.878101 27.120771 1.4682418
43.505245 26.128382 2.6481249
42.080982 29.587101 1.082962
42.026505 29.920938 0.58887708
43.501617 26.098373 2.7952645
42.259258 28.872709 1.9024493
41.614117 30.440063 1.7076991
42.883045 26.925694 2.0947039
41.416775 30.758327 2.4543421
43.445007 25.586531 2.2905211
41.549221 31.09411 2.2806451
42.247993 29.397736 1.8518229
41.808002 30.227062 2.4138703
41.57481 30.171926 2.5689766
43.494473 26.197832 2.6566284
41.345886 31.023651 2.1838143
42.659187 28.299313 2.0825894
42.415531 27.916155 2.5611904
43.289307 26.583689 2.0855277
42.034103 29.88216 0.077793628
42.415161 27.9438 2.2865932
42.408009 28.022203 2.3472946
42.436481 28.151451 2.0852277
42.764713 27.694134 2.2303181
42.458019 28.193466 2.348614
43.572601 25.320774 2.0927975
40.576286 33.10371 2.5696049
42.7453 27.868332 1.7532487
41.800278 29.649559 2.4719126
42.87727 26.91132 1.9527485
43.53558 26.176296 2.745086
43.437317 26.385969 2.7605114
41.845417 30.494089 1.6739913
41.635979 30.296377 1.9532264
43.182777 27.014212 2.7533505
41.87495 29.874319 1.7630817
41.61684 30.817192 1.6854184
42.433727 28.97739 2.4764347
42.598019 27.698454 0.85420096
42.195366 29.586592 1.6353924
40.770836 32.759815 2.6001019
43.421799 26.002262 2.0147169
43.581398 25.999865 2.7583632
43.544685 26.090818 2.9553628
41.505379 31.086985 2.3448794
43.584476 25.994942 2.8449209
41.246632 31.386347 2.1030443
43.612419 25.825573 2.8299479
42.077217 28.921635 2.3541651
43.42408 26.381989 2.9172769
43.424641 26.387079 2.3865995
42.84996 26.984774 2.1844635
41.393654 30.690796 2.4882345
43.760082 25.492094 2.6685109
42.75745 27.783421 1.3629447
42.721996 28.040007 1.3724319
41.963894 29.805923 1.6621825
42.380478 28.980495 2.0841656
42.170643 29.595963 2.4750514
40.959518 32.118862 2.3829741
41.457676 30.792061 2.1678011
43.475254 25.88525 2.2773905
43.15443 26.892042 1.7532655
40.930977 32.424332 1.6153589
42.642216 28.476576 2.5515466
40.988045 32.097401 2.4808545
42.59119 28.255312 1.8520061
41.132114 31.859959 1.9434937
41.590687 30.212271 2.158608
42.330521 29.1476 2.0743666
42.348011 29.187683 2.5625157
41.202881 31.848141 1.6913764
42.508709 27.943386 1.0770224
41.261356 31.879496 2.3642488
42.003426 29.077454 2.2503872
41.407406 30.612593 1.9504787
43.258636 26.111366 2.301007
43.554298 25.673685 1.985827
41.788528 30.12751 1.8653255
42.596413 27.950243 1.4933057
42.836472 27.286289 2.3658924
42.330009 29.200384 1.8209939
42.344128 29.193781 2.3718572
41.366425 31.784185 2.5032585
42.345089 29.190767 2.4710286
42.548225 28.590948 2.2774293
40.934868 32.086864 1.932956
43.444595 26.377138 2.6742072
42.835407 28.105034 2.8752584
43.853752 25.292738 2.7432954
42.045452 29.582781 0.64493203
40.960289 32.082783 2.0511713
41.264099 31.194794 1.8495991
42.611645 28.396358 1.9278835
42.952869 27.57107 1.8637519
42.023895 29.631414 0.72424245
43.862827 25.30069 2.8455286
42.602394 28.509552 2.6734991
40.758312 32.476772 1.946269
41.40226 31.587912 1.8191336
42.64386 28.487867 2.4879739
43.164726 26.990479 2.3752394
42.830677 27.953411 1.9805382
41.496315 31.2057 1.8736753
43.551399 26.08691 2.7429998
43.837982 25.287504 2.6615274
43.065125 26.832315 1.9721839
42.603844 27.809824 1.1654902
43.086823 26.549417 1.5811036
41.379555 31.000523 2.3671403
42.261395 28.596931 2.0599871
42.567165 28.497511 1.9691625
42.572136 27.781317 2.4635077
42.446514 28.010201 1.8591924
42.474846 28.897484 1.6757596
42.18222 29.2964 2.3338332
43.614277 25.811504 2.6809845
42.387802 28.204453 2.3580008
43.299034 25.709524 2.4512839
42.584949 28.621077 2.9912245
43.420837 25.643839 2.1163113
41.198437 31.822838 2.7453384
42.400158 28.985292 2.4606314
43.326889 25.605936 2.61344
40.764423 32.500393 2.228514
42.280556 29.383457 2.7617886
40.857422 32.730312 1.8525832
41.299797 31.598475 2.077101
42.170189 29.613415 1.844243
42.515266 27.75935 2.6257684
42.468586 27.993254 2.3644381
42.145073 28.971176 2.2573969
43.178467 26.085268 2.2826939
41.594208 31.08597 2.1409214
42.501091 28.847712 3.0237906
42.477222 27.906868 1.9656656
42.755478 27.721619 1.5587614
42.651634 28.474171 1.9298681
42.476101 28.884613 2.7533991
41.258179 31.980663 2.1450748
43.452312 25.977047 1.9990489
42.754707 27.793331 1.8602701
42.971218 26.928673 1.895542
41.359837 31.409918 2.4496269
41.538876 31.201258 1.8677236
42.280701 28.49707 2.2674036
42.50861 27.699989 2.5192592
42.186657 29.572868 1.7509973
43.522755 26.011677 2.1038063
40.77404 32.902847 2.3530283
41.680424 30.506294 2.1633606
43.576683 25.997087 2.6596463
43.26128 26.781101 1.8296036
41.707169 30.516926 1.9057446
42.312679 28.91326 2.0936112
42.576797 28.598063 2.650187
41.247379 31.892065 2.4606299
42.848942 26.898533 1.8734628
41.881287 29.878355 1.3661082
41.881012 29.875139 1.5573219
42.509758 27.835802 2.5489607
43.126522 27.398045 3.0050595
43.541985 26.080969 2.473454
43.595329 25.902431 2.5640607
42.142498 29.617222 2.1563153
42.256813 28.898869 2.4440932
43.513569 25.815521 2.2721865
42.112034 28.993711 1.6976969
42.598511 27.71656 1.0830442
42.68853 28.207211 2.4698033
42.319756 28.232368 2.4982874
41.564465 31.091545 1.7485313
41.282417 31.612934 2.5511873
42.458973 28.013199 2.4453082
42.449688 28.103594 2.0677853
41.220413 31.375713 1.9660082
42.320095 29.099329 2.7893577
42.494732 28.009401 2.0329573
40.807327 32.938766 1.9913367
41.307205 31.607111 2.2252238
41.612091 30.851076 2.3134258
43.39642 25.986872 1.7822855
41.53479 30.494385 2.1765265
42.754429 27.885567 2.04985
42.599762 27.804529 1.5644116
42.2659 29.091728 2.0150604
43.491489 26.201717 2.576103
43.1782 26.090881 2.0465326
41.874424 29.598564 2.4498963
42.299332 29.015669 2.1415315
40.989319 32.160217 2.6469734
42.065449 29.49386 2.2691214
42.486835 28.00383 2.1640892
42.75037 27.874012 1.9555839
43.60318 25.617105 2.3199272
42.668175 27.803514 0.96102929
42.150036 29.495752 2.1439807
42.820015 27.437832 2.0621901
42.163017 29.60364 1.5917903
41.603661 30.724243 2.5608697
42.753883 27.421017 1.6762402
41.562817 30.502283 1.9352328
43.496216 26.560844 2.708318
43.031593 27.54903 2.7281594
43.825211 25.26893 2.407661
42.688419 28.175283 1.8574924
42.951862 26.86998 2.1930814
43.838444 25.290947 2.5781484
40.793041 32.908539 2.5588646
42.287132 29.004553 1.9666868
42.77808 27.386002 2.1683438
41.967381 29.296495 2.3437328
42.943272 27.578388 1.9796654
42.09576 29.16287 1.8802392
43.06176 26.586483 2.2012074
43.131973 26.352373 1.9178236
41.607471 30.667368 1.672169
43.85535 25.192806 2.3710995
42.285797 28.670471 2.46802
42.690525 28.17193 2.8040061
42.122017 29.774084 1.7916356
43.248489 26.813379 1.6218246
41.593178 30.646791 1.8077781
40.95702 31.877296 1.9792004
42.136482 29.775736 2.3495359
42.496307 28.689985 1.536602
42.080837 28.996611 1.9526173
42.124588 29.763321 1.9228712
42.295979 28.491211 2.0713074
42.597939 27.795849 0.86032355
42.96846 26.59507 2.4675372
43.474113 25.922192 2.1723628
40.704384 33.189129 2.0411971
42.601273 27.798466 1.0566752
42.174328 29.414501 2.2836227
43.176655 26.089922 2.3621037
42.598965 27.802319 1.6627867
42.476486 27.92104 1.8090466
42.594425 27.811903 1.7697614
42.158543 29.77693 1.5732253
41.259632 31.967443 2.3353825
41.30225 31.528913 1.9609054
40.7766 32.904522 2.4881475
43.290115 25.774857 2.286341
43.097389 27.109575 1.6370462
40.966034 32.604767 2.3587759
41.592499 30.809141 2.2615418
42.148338 29.257023 1.5239265
42.340126 28.415291 2.1507895
42.496864 27.903486 2.2700968
42.900936 26.734488 2.2562344
42.478146 27.889917 2.3634014
42.49791 27.910208 2.4300482
42.585003 28.379644 1.7419825
42.505859 27.902597 2.1783433
42.556976 27.975239 2.3710856
41.757027 30.161224 1.9377238
43.843616 25.282038 2.4698575
41.566765 30.992105 2.2488022
43.808784 25.301929 2.8849564
42.051308 29.860785 1.2668452
43.540211 26.088692 2.5454254
42.692276 27.397076 2.2672195
42.528038 28.626198 2.0071218
42.515705 27.824457 1.9146715
42.509426 27.894901 2.0649488
40.958614 32.619194 2.2495532
40.962852 32.625107 2.1560166
41.503937 31.027493 1.8583505
42.598034 27.808132 1.3608673
41.231003 32.051453 1.8795466
40.965908 32.600414 2.4595313
42.50457 27.791019 2.3379304
40.937904 32.566673 2.5572705
43.530548 26.174042 2.5443625
43.837013 25.202223 2.2723999
40.996651 32.606556 1.9678406
41.456535 30.911339 1.8765086
42.580391 27.697918 2.065753
40.769993 32.503998 2.1793239
42.668736 27.873827 1.5581481
42.599762 27.792351 0.96510804
43.52494 26.173666 2.6403017
40.772263 32.590031 2.0341334
42.059723 29.896656 2.4651313
42.385704 28.218405 2.1655905
42.959698 27.597437 2.6585557
41.981274 29.29113 2.2413836
42.413803 27.924574 2.3809335
42.048721 29.874567 2.1516926
41.474113 30.699781 2.0589261
43.144585 26.37904 2.1795933
41.928974 29.228046 2.425668
41.978863 29.294722 1.9639404
41.360104 30.975149 2.4445479
42.354221 29.200359 2.7539585
43.552601 26.100168 2.8540912
43.427227 26.373915 2.4970682
42.95929 27.708366 3.015825
41.26976 31.491901 1.7487683
43.532486 26.081491 2.3656173
42.918125 26.699862 2.4245083
43.48378 25.899254 2.0904112
42.589104 27.802105 2.0654595
42.599426 27.803246 1.4637141
42.579819 28.4659 1.8458645
42.563721 28.407833 2.0690801
42.602196 28.51207 2.5694196
42.646488 27.611933 2.0938845
43.030449 26.407684 2.6419957
42.830357 27.784567 1.8323379
41.969479 29.307713 2.0716488
42.195831 29.465752 1.9555252
41.289436 31.604496 2.4992232
42.198544 29.503984 1.8343518
42.54998 28.611954 2.1749859
41.314102 31.621023 1.5191741
42.18996 29.661983 1.421145
41.668663 30.375305 1.7709754
42.475391 27.823437 2.0494931
42.933632 27.549471 2.0606148
42.756828 27.802063 2.4774306
42.779427 27.907686 2.8561366
42.943943 27.586447 2.3821065
41.164612 31.781919 1.9783657
43.324753 26.545763 1.8817279
43.377098 25.590679 2.2565312
43.881786 25.192133 2.8584538
42.79723 27.992733 2.557127
41.608555 31.007925 1.6420985
42.864388 27.306763 1.8116115
41.999474 29.215645 1.9665258
42.581856 27.69413 1.7420552
42.845345 27.100769 2.2719283
42.00174 29.209133 2.18259
41.997635 29.184525 2.074033
41.971916 29.178976 2.3751826
43.491344 26.199425 2.7525845
41.982151 29.305029 2.14903
42.681549 27.610861 1.2659739
42.93568 27.554766 1.5475786
41.852375 30.016764 2.5734754
40.856678 32.13073 2.6390839
42.758335 27.788103 1.5607121
42.67384 27.796511 1.5602571
42.685062 28.318069 1.7559124
43.250336 25.973593 2.4639249
43.128571 26.49844 2.3679817
41.735168 30.054714 2.0260618
41.589561 30.794479 1.8432728
42.919846 26.997784 1.7098446
42.511169 27.705975 2.2459438
43.369621 26.305649 2.1665368
42.564976 27.981653 2.0758455
42.944607 26.909859 2.0401113
42.840912 26.996832 1.8619659
41.964035 29.80476 2.3636062
42.599415 27.709373 1.4453673
42.898399 26.79842 2.3508995
42.845394 26.999626 2.3647175
42.873783 27.567471 2.2670317
42.872684 27.617126 1.9387344
41.089569 32.265991 1.9794564
42.972202 26.874743 2.3026876
42.672981 27.711607 2.0518265
40.632053 32.952808 1.9570721
43.359581 25.581259 2.5411768
42.785397 27.793833 2.6253614
43.075893 27.376301 2.94486
41.803947 29.790417 2.0587702
42.833378 27.774488 1.4630028
42.948002 27.594669 2.4910901
42.563545 28.456654 1.4994308
42.759106 27.791933 1.461211
42.599476 27.715818 1.4049704
42.666077 27.816181 2.3586311
42.757721 27.796581 2.3541512
42.757675 27.793839 1.7586279
42.65258 28.28126 1.9849792
43.464214 26.299524 2.768929
42.939411 26.778028 2.0882916
42.387779 28.196007 2.2668924
42.753647 27.779884 1.1589241
43.119831 26.202673 2.1888025
42.671124 27.795044 1.3570466
42.369095 28.29697 2.0743809
42.531136 28.765703 2.7317979
43.142937 26.966454 2.2485583
42.547604 28.743958 2.9300613
42.754852 27.868835 1.8616661
42.783161 27.892136 2.5529377
42.956573 27.587265 2.5631325
43.489395 26.301712 2.9372411
42.863773 27.05658 1.6777296
42.594852 27.800045 1.2627816
41.987663 29.483116 2.3506994
42.677391 27.713167 1.5613117
42.051453 29.727057 0.67205989
43.181805 26.290621 1.6431062
42.681152 27.872461 1.8626453
41.288383 31.88784 2.0749047
42.558449 28.574718 2.3534839
42.095848 29.481079 1.5587487
42.500111 27.724148 2.6232769
42.683949 28.19804 1.5800943
42.66724 27.79476 1.4621686
42.61253 27.863258 1.2475502
42.157917 29.478256 2.0806789
42.66811 27.79508 2.1592171
42.597488 27.804905 1.8544919
42.595291 27.804468 1.9721905
42.597221 28.386978 1.8208801
42.056122 29.805508 2.1622746
43.051979 27.015184 1.9447018
41.310341 31.888847 1.7469561
41.250282 31.862991 2.2898095
41.178974 31.246397 3.3543904
42.963062 26.907232 2.3492572
42.735668 27.861139 1.1672618
41.36174 31.292725 2.5572333
42.74173 27.864243 1.4564641
42.389458 28.914001 2.5449882
42.05061 29.798697 2.2534642
42.684883 27.484446 1.9924213
42.768524 27.707119 2.1551867
42.596283 27.709003 1.2521344
42.669876 27.803284 2.0523
42.588715 27.705927 1.9722627
41.78183 30.228214 2.0714779
42.690269 28.299023 2.6665294
41.160351 31.353409 3.367687
42.589783 27.706074 1.1643603
42.761093 27.791716 1.9626386
42.663094 27.496323 2.2628584
42.72187 27.807817 2.5618837
42.542339 28.41605 2.3796055
42.845123 27.788486 0.96478856
41.720165 30.170795 1.7319982
42.601181 28.511772 2.917505
42.672237 27.819796 2.4695668
42.572998 27.673275 2.4528298
41.688396 30.23226 1.7947806
42.754238 27.276047 2.3546791
42.573971 27.695583 2.3626466
42.588036 27.685555 2.2658608
41.284637 31.098635 1.9661298
42.664589 27.805725 2.2651367
42.743309 27.300701 2.1578748
42.756508 27.255053 2.0648475
42.588787 28.408817 2.6726356
42.866264 27.788933 2.4641607
42.5037 27.734287 2.4541836
42.588993 27.695335 1.6575379
41.294487 31.870083 1.9656414
42.753819 27.288542 2.4447236
43.079365 26.300526 2.5688803
43.380554 26.387165 1.8410013
42.669128 27.716164 1.4645993
42.59465 27.706978 0.95856935
42.497925 27.624371 2.6090946
42.483345 27.801035 2.45192
42.671947 27.706789 0.96218485
42.053204 29.802797 2.0628507
41.061043 32.30529 2.4688327
42.491234 27.805859 2.1735134
42.030029 30.123022 1.6064969
42.542515 28.702894 1.9328043
42.960461 27.374371 2.1658201
41.665565 30.096319 2.3463867
41.261372 31.988127 2.2621114
42.510796 27.768139 2.2708094
41.265453 31.881123 2.1649189
42.993259 26.513691 1.8528378
42.860332 27.693108 2.0514522
42.19154 29.425999 2.0451334
41.569633 30.090494 2.4611456
43.345921 26.31781 1.8629928
42.419273 28.8253 1.6437331
42.17437 29.356043 2.1725421
41.460289 30.822569 1.8747556
42.833004 27.262468 1.7793804
42.49136 28.701693 2.0660043
42.76688 27.788002 2.0569832
41.65118 30.394787 2.0834813
40.951725 32.254372 2.1950076
42.200478 29.234432 2.0810361
42.673149 27.797932 1.6679155
42.71476 27.976418 1.7810396
42.354298 28.897013 2.1519623
40.984604 32.405525 2.475842
42.814442 27.310213 1.5152959
42.672169 27.794315 1.2606679
43.265068 26.151583 1.6941097
42.856136 27.830256 1.5416043
40.989231 32.391289 2.3825078
42.665962 27.706612 1.0559253
43.278671 26.196512 1.9798281
41.077991 32.651505 1.908313
42.302162 29.206419 1.9752856
40.960464 32.079617 1.8767068
40.972282 32.391006 2.6201406
42.51786 27.712276 2.3564541
43.560837 25.999441 2.4679437
43.238831 26.207893 2.3709457
42.507233 28.242409 1.1780221
42.437088 28.375172 1.4400201
42.042511 29.674185 1.3350208
43.571182 25.871161 1.8467953
42.706295 27.609209 1.3702834
41.970844 29.801994 1.5609711
41.980061 29.795467 1.1579989
43.439774 26.403723 2.8655882
42.843651 27.699093 1.5532048
43.006104 26.506416 2.3523588
43.253983 26.889822 1.5798851
41.87532 29.727173 1.7574568
42.755096 27.72254 1.3634291
42.410919 28.574766 1.8063697
42.759041 27.790934 1.6637006
41.874069 29.80069 0.96162969
42.786533 27.210903 1.6365314
42.034645 29.780067 1.1601516
42.426678 28.216602 2.2477188
42.261829 29.410564 1.7539475
41.879196 29.993439 1.7640388
42.96981 26.780041 2.2730556
42.09124 29.578135 1.9621239
42.967575 27.420475 1.8235986
41.96904 29.719759 1.7689568
43.431637 26.373751 2.5710926
42.937134 26.793928 1.8844888
43.162979 26.675661 1.8650899
41.094711 31.620783 2.422724
41.072109 31.706085 1.8721867
41.975304 29.802372 1.4663308
42.897541 27.636887 2.055043
42.882774 27.795431 2.6556935
43.282883 26.684494 1.8448626
43.100983 26.766876 1.8709948
42.733505 27.866796 1.2594427
40.681767 33.00729 1.8867491
42.342373 28.377275 2.0660999
40.567032 32.989342 1.8519285
42.596325 27.714077 1.5867125
42.730652 27.25053 1.7655203
42.674618 27.71303 1.6605282
42.586014 27.715002 1.8459374
41.718624 30.591677 2.7161276
42.742672 27.203804 1.8760247
42.624252 28.558228 2.7362723
42.361217 28.293674 2.361882
42.593395 27.698339 2.1632495
42.930733 26.776278 2.1603768
42.653019 28.189253 2.1553698
43.191494 26.811588 2.4702659
41.798302 30.589376 2.7407501
42.605911 27.531406 2.5382063
43.100979 26.280897 2.185787
43.198414 26.895258 2.4783823
42.865437 26.891607 2.3594086
40.655537 32.874405 1.8392421
42.914631 27.754679 2.9430447
42.645321 28.099758 2.0743036
42.840683 27.78912 1.9692962
42.645561 28.347433 1.7606287
43.145645 26.273354 2.3510466
41.795647 29.796431 1.5533609
42.830765 27.883789 1.62976
42.57489 27.804041 2.1643753
42.673489 27.712948 1.3580595
42.750427 27.258577 1.9942391
42.68095 27.720758 1.9580171
42.870239 27.804041 2.5496223
42.054699 29.798719 1.8534627
41.237431 31.506908 2.3791606
40.998077 32.278091 1.9020839
42.547775 28.380453 2.1281762
42.039791 29.788788 1.4534664
43.206467 26.936329 2.7456112
40.752583 33.212017 2.4819641
42.144165 28.99728 2.1531572
43.432461 26.192217 2.1697106
42.135147 29.784735 1.6729435
42.241737 28.497656 1.932218
42.048958 29.798431 1.6516476
42.045998 29.800108 1.9525964
42.570122 27.790001 2.3623514
42.03743 29.783234 1.0649499
42.254566 29.457384 2.1842432
42.567883 28.481754 2.0571213
42.261703 28.920044 2.3712745
42.037254 29.802616 1.3585267
42.91254 26.813208 2.1550529
42.680126 28.112091 2.4350531
41.989433 29.975744 2.6703079
42.549244 27.89263 2.1509204
41.282707 31.110447 2.168633
41.272274 31.070763 2.3374691
43.736679 25.585257 2.7598124
40.88731 32.198505 2.0641336
42.934593 27.33182 2.4353135
43.310204 25.717724 2.2832966
42.831074 27.775341 1.7644267
42.669247 27.708479 1.1552473
42.082439 29.805326 2.3552012
41.277725 31.198885 2.0386107
42.828331 27.787014 1.3363986
42.156525 28.702316 1.899003
42.769566 27.18252 2.360867
42.831825 27.279825 2.4163668
42.183445 28.599272 1.8821447
42.663933 27.526999 2.09553
41.97192 29.877945 2.1587443
42.51614 27.708206 1.090386
43.860752 25.198599 2.5570385
41.856682 30.317913 1.9613203
41.873085 29.864487 2.0577738
43.057369 26.981722 2.1490917
42.764683 27.786047 2.1571782
41.657696 30.816643 2.2478871
43.337574 26.467752 2.1376586
42.961067 27.506706 2.373297
43.18161 26.694635 2.0671694
42.676117 27.797436 1.9623077
43.452782 26.180948 2.2330806
43.723526 25.66614 2.675231
42.070412 29.707985 2.0696232
42.668072 27.868248 2.2525535
43.505157 26.013748 1.8674252
40.944019 32.251648 1.79881
43.43742 26.275585 2.0374742
43.00174 27.406 1.995434
41.65353 30.29047 2.0472543
42.749725 27.725044 1.7659655
43.861664 25.199326 2.4672089
43.372665 26.383778 2.0547953
42.569187 27.785515 2.2604079
42.958084 27.3867 1.6623316
42.185604 29.422318 1.7938704
42.379601 28.900766 2.3392646
42.112511 28.772844 2.3562832
41.590092 30.845398 2.6147614
43.680435 25.404291 2.1692257
43.046272 26.443136 1.9710058
42.89653 27.424753 2.1558366
40.838669 32.41964 2.0558205
43.341644 25.9653 2.1745043
43.268288 26.49227 1.7334764
41.393333 31.120895 1.7185047
41.087475 32.107117 1.8549669
43.376354 25.928541 1.9967815
43.351082 26.107063 1.7890035
41.442818 30.986309 1.7442081
41.360073 31.749311 2.0470529
43.160629 26.910616 1.8751593
41.270748 31.303831 1.8777611
42.23288 29.478716 2.0433991
40.955902 32.774529 1.7460945
41.779846 29.886482 2.3605981
42.45311 28.694695 1.508983
42.560745 28.033693 2.4367614
41.744991 29.97838 2.2428696
41.701828 30.001781 2.3382111
41.37294 31.029808 1.7405481
41.690334 29.982775 2.24862
42.598137 28.320112 1.3788015
41.765148 29.993328 2.3552358
41.267052 31.80924 2.4694505
41.23122 31.908955 1.6630719
41.568726 30.770668 2.4804547
42.669079 28.004313 1.5380592
41.372414 31.443483 1.5456649
42.615158 28.155371 1.4094385
40.954666 32.80048 1.8535563
42.980843 27.595909 2.7765665
42.159088 29.086182 1.34108
42.660919 28.11516 1.9839233
42.540741 28.215696 1.4483529
43.377426 25.59108 2.1782367
42.670082 27.609297 1.4819578
41.882893 29.874666 1.4603051
42.760872 27.528469 1.5463309
41.875488 29.991987 1.5763949
42.610077 27.95421 1.9513903
42.52961 27.968941 2.139406
43.081051 26.607599 1.747131
41.772415 29.882711 2.1630785
42.531261 28.069393 1.7593098
42.67728 28.075251 1.7672896
42.264652 28.343159 2.4755702
41.78685 30.00996 1.863762
42.757965 27.725487 0.95954257
41.959515 29.880774 1.2596617
43.234428 26.150742 2.2378964
42.570011 28.381498 1.5050677
43.669121 25.474293 1.5314283
41.95113 29.721804 1.4640831
41.256668 31.791023 1.8827355
41.293282 31.80859 2.0060856
42.849674 27.789364 1.660367
41.715237 29.977745 2.0504074
43.180161 26.807858 2.1422331
41.874168 29.868286 1.2639948
43.566952 25.604027 2.0581384
41.869659 29.39308 1.8776276
42.589928 27.887634 2.3619065
43.268684 26.127552 1.8621943
41.962639 29.806721 1.8547218
42.055325 29.285976 1.9492205
40.879429 32.221657 1.9779372
42.885971 27.424751 1.7901884
42.48513 28.186495 1.3880929
43.067245 27.084162 2.1290159
42.816017 27.605013 1.4854834
42.253002 29.404932 2.4662082
42.761127 27.727114 1.0615656
41.920368 29.996546 1.3794847
42.02552 29.692488 1.5487933
40.871674 32.410233 1.5835469
41.949551 29.717299 1.6606688
42.557224 28.384338 1.7022617
42.373367 28.616877 1.9236436
41.551243 30.644938 1.8914264
42.505569 28.640779 1.4129897
41.253933 31.793491 2.0706861
41.369865 31.295364 1.5701265
42.144444 29.087904 1.5558306
41.874138 29.876728 1.6596353
40.998993 32.497353 1.9521444
40.695187 33.039906 2.2428713
42.596539 28.049274 2.130439
41.857468 29.570351 1.8326818
41.372097 30.892933 2.170069
43.354301 26.474874 1.992579
42.269928 29.299683 1.9630783
41.953831 29.721594 1.2611246
41.191368 31.583313 1.7592258
42.25042 28.677721 2.2748578
43.136871 27.096973 1.8464642
41.461159 30.812288 1.969859
42.829605 27.776442 1.2491492
41.874489 29.798624 1.1557676
43.033566 27.023325 1.6801834
42.935745 27.684898 2.5836656
40.912533 32.22266 1.8352947
43.074867 26.896454 1.8727891
41.269363 31.684542 1.9773195
42.678478 27.717081 1.8633101
42.593845 27.874689 1.9464946
42.983665 27.420109 2.3498333
42.871494 27.492018 1.643523
42.76857 27.506294 1.8204129
43.388947 26.380936 1.7606195
42.691338 27.873947 1.2583518
42.84425 26.994635 2.2552574
42.735542 27.977448 1.5214788
42.742691 27.603767 1.7607565
42.559807 28.460384 1.7384917
42.801773 27.355726 2.3015749
41.966057 29.726032 0.65681463
42.171982 29.252853 1.7721274
41.97229 29.786242 0.35898125
42.04055 29.708906 0.36430877
41.860374 29.991234 1.9460003
41.972889 29.786995 0.65757704
42.529453 28.645914 2.0633366
42.499165 28.805563 1.7632301
42.561855 28.689651 1.5491103
42.05117 29.73835 0.12745129
42.9613 27.216251 1.5000603
41.880985 29.861326 0.064188451
41.864235 29.803915 0.16567767
41.945175 29.873198 0.16415836
42.96907 27.492296 1.5667812
41.467003 31.198109 1.5853912
41.949699 30.009062 1.6655313
42.074306 29.314901 1.6363689
41.861713 29.80372 -0.041419961
43.722706 25.568041 1.693927
42.091953 29.53883 1.683059
41.961765 29.721148 0.45165429
41.963818 29.728853 0.073399015
41.962231 29.726788 0.85918975
42.045223 29.707832 -0.013948523
42.069984 29.668287 0.827178
42.192661 29.02091 1.79266
42.480083 28.77125 1.6788174
42.496895 28.231163 1.5902847
41.965233 29.783859 0.16796896
41.156906 32.069691 1.8647659
41.958366 30.106129 1.4817148
41.572254 30.378418 2.0555699
42.756416 27.724865 1.151052
43.810051 25.27219 2.3530536
42.879635 27.196419 1.4501735
41.978477 29.78549 0.76119119
41.088608 32.091003 1.9749969
40.807648 32.836884 2.4491858
41.115685 32.129417 1.6526934
41.948341 29.87532 0.45774561
41.970516 29.786768 0.56150895
40.835617 32.628262 1.6001339
42.701103 27.629759 1.6709108
42.6231 28.346867 1.567522
42.03788 29.767408 0.34898221
41.945343 29.874762 0.35887423
41.967266 29.785696 0.26422238
42.588966 28.406055 1.559988
43.578041 25.812193 2.1594565
42.747379 27.996914 1.7471133
41.332905 31.841265 1.8058317
41.949966 29.876762 0.56150275
41.954285 29.882921 1.35862
42.889442 27.629637 1.6987649
42.062084 29.742592 0.44328928
42.849892 27.739346 0.87830061
41.676731 30.595461 1.9399171
41.970562 29.787706 0.45787802
43.587376 25.387798 2.1846187
41.877148 29.800177 2.1635344
42.651924 27.575523 2.2766681
42.551373 27.879978 2.0771122
41.96944 30.002857 2.0473931
41.893707 29.868645 0.16081838
41.894135 30.105885 1.7551593
42.839771 27.883198 2.3869762
43.056599 27.105156 2.2301688
41.953377 29.882229 1.1582537
40.915749 32.436932 1.6234165
42.033672 29.777199 0.56844932
41.949615 29.872017 0.26759231
43.677517 25.50049 1.6721271
41.302502 31.453869 1.6913497
41.952538 29.882181 0.86571819
41.97578 29.786728 0.86084914
41.697525 30.543945 1.5401925
41.944317 29.864721 -0.036480013
41.890892 29.868019 -0.13023087
43.193901 26.889137 1.9736749
41.0914 31.907448 1.9513063
42.105854 28.82321 2.2098598
41.87886 29.87122 1.8579358
41.967545 29.731327 0.96870953
42.163639 29.66853 1.8679872
41.951801 29.722141 1.0592011
43.701401 25.403015 1.9801519
41.966217 29.875471 1.9555053
41.865173 30.084461 2.0574217
41.970158 29.807022 2.0580571
41.199677 32.074234 1.7313921
41.164818 32.099648 1.9558214
42.250454 28.597216 2.2654104
42.984966 26.693199 2.0781193
41.847988 30.380537 1.758433
41.162903 32.096375 2.0249605
41.045738 32.375751 1.8569423
41.640308 30.652859 1.73887
41.130287 32.280323 1.8804259
43.82547 25.359577 2.7441769
43.607395 25.902687 1.5964758
42.503433 28.716335 1.6721281
40.853306 32.554726 1.7493789
43.251186 26.43906 1.9398842
41.868683 30.195156 1.9656122
43.483551 26.088924 1.8611991
42.05394 29.669102 1.8869977
43.390976 25.991325 1.9800643
43.596306 25.464931 2.1447291
43.240685 26.727535 2.176549
41.946381 29.878111 0.76089758
41.934486 30.081247 1.3394414
42.678814 27.867964 1.4547647
43.26849 26.644382 1.6504942
42.68977 27.862514 1.1649404
42.074562 29.699335 1.7616091
42.58329 28.31522 1.7184
42.649529 27.953638 1.6892095
41.9543 30.050043 1.6977438
40.994122 32.475452 2.4693522
41.072376 32.499256 1.956398
42.198551 29.178879 1.496359
42.625767 28.362886 1.9116042
40.959301 32.146275 1.7671473
43.678452 25.414742 1.8847317
40.720036 32.771908 1.88562
42.302345 28.400604 2.2542801
42.980011 27.205811 1.9563724
42.06876 29.383297 1.5022801
40.902897 32.265194 1.6793071
42.949406 27.690413 2.854677
43.507156 26.07218 1.5547855
41.979893 29.534435 1.6378318
41.385429 30.894505 2.3504157
43.065655 26.394402 2.2744884
42.525177 28.721643 1.7883307
40.756828 32.809341 1.8417187
42.03463 29.781534 1.7703767
41.97369 29.880249 2.0599012
43.324833 26.543697 1.826681
43.329327 26.591959 1.74054
40.880539 32.451195 2.0089843
42.863655 26.996414 2.0947039
41.448158 30.895035 1.6456549
41.85791 29.866066 1.1595149
41.919968 29.611731 1.561316
43.275589 26.69799 1.5697377
40.993607 32.028034 1.6648858
40.935318 32.16629 1.6024553
41.879826 29.800905 1.6597651
43.190323 26.361158 1.6350579
41.972973 29.794971 1.0580846
43.045284 27.004213 1.7609646
41.886955 29.868336 0.27138415
43.157192 26.719088 1.9157521
41.787575 29.820984 1.9662466
43.079281 26.56476 2.0733466
42.43998 28.593248 1.940357
42.512115 28.121201 1.6369586
40.983315 32.568684 1.6351861
42.542469 28.04911 1.5528395
42.600338 27.858585 1.4756773
43.433064 26.269564 2.185756
41.72337 30.092836 1.7951661
41.461582 30.658098 1.8585917
41.576157 30.39838 1.9589288
42.286221 28.296543 2.2726283
43.356247 26.401716 1.9282418
41.881725 29.599911 1.9793462
41.152561 32.242317 2.0029097
41.967487 29.882452 1.5683513
42.059658 29.381996 1.6312821
41.342358 31.836723 1.6901098
42.875854 27.575504 1.7786611
41.183136 31.496424 1.780232
42.734146 28.020691 1.9021262
41.077518 31.692642 1.9436458
42.181168 29.395931 2.425056
42.432831 28.403061 2.100081
41.784466 29.702301 2.5157893
43.747021 25.482126 2.4471869
42.936459 27.049681 1.3871533
43.265663 26.786663 1.7395246
43.693352 25.387917 2.3318145
42.413494 28.143229 2.1435511
41.389717 30.900103 2.4175138
43.665813 25.394421 2.0685344
42.82465 27.21657 1.7456135
42.35173 28.138792 2.2942958
42.387409 28.099985 2.3540397
42.486767 28.422382 2.1293485
42.974625 27.286612 1.5780621
41.492676 30.905523 1.7160559
43.525002 25.775459 1.5356609
42.032745 29.7712 0.45795745
42.75951 27.431225 1.5775588
42.29081 28.427036 1.9668376
42.697632 27.87443 1.0626584
41.545029 30.68314 2.37146
42.756798 27.727148 1.2631693
43.039131 26.583752 2.2626841
41.77002 30.506775 1.6562835
42.633724 27.978811 1.0207639
42.007671 29.393972 1.654952
43.112095 27.188864 1.7084377
41.467182 30.855587 1.9498304
41.041641 32.19532 1.9557397
41.525551 30.611706 2.0742643
42.829212 27.788717 2.2639029
43.161446 26.279308 2.1345134
41.763821 30.495842 2.157572
41.972122 29.797146 1.3573523
43.240795 26.781824 2.0463924
42.691914 27.9827 1.9523396
41.500992 30.993601 2.0447326
42.229378 28.679956 2.0751691
43.248329 26.378412 1.7993144
41.362122 31.361881 1.7989087
43.25808 25.893238 2.5287244
43.283417 25.802267 2.3612468
42.748093 28.098446 1.8217726
41.884933 29.79554 1.8555063
43.565247 25.904083 1.7691885
41.862381 30.299114 1.8410515
41.808178 29.815018 0.76318228
41.668392 30.617527 2.1391006
43.393768 26.403206 2.4568045
43.451176 26.091822 2.1697657
40.997013 32.012821 2.3328931
43.097176 26.992189 2.3485506
42.372063 28.888321 2.0555346
42.368355 28.30291 2.257236
41.588154 30.795841 2.1582944
41.802856 29.874554 1.8554006
41.486725 30.502327 2.3657236
42.600754 27.599827 1.8620803
41.332886 31.690077 2.3007653
41.976433 29.806856 2.1633098
41.277859 31.699331 2.2711127
41.870533 29.800713 1.0641741
41.802502 29.814388 1.6612073
41.967587 29.797659 2.249701
41.968864 29.803892 1.7614337
41.003506 32.297009 2.3650076
41.756886 30.527069 2.2519016
40.97728 32.601334 1.8489251
42.898163 27.508942 2.3629727
43.496731 26.109678 2.4606037
43.47657 26.091154 2.3592043
41.884174 29.798069 2.2573934
43.568371 25.716845 2.0641789
41.877972 29.867075 2.1556487
41.194069 32.288078 2.7378325
41.274498 31.706841 2.0797784
41.556446 30.48609 2.0573592
40.890343 32.295807 2.3469086
42.396156 28.212292 2.0598898
41.873878 29.869129 0.9658224
42.998058 27.203503 2.2700787
42.073868 29.60253 2.0729632
41.86042 30.280603 2.0481045
41.080704 32.631924 2.0283687
41.867798 29.86866 1.060686
41.615482 30.91972 1.9286852
42.046925 29.727118 1.44216
41.655319 30.993567 2.3543744
41.951069 29.877748 0.96192795
42.974384 27.285418 2.2512741
42.254784 29.363123 2.1768703
41.9641 29.877249 1.4689106
43.142029 26.997236 2.060991
41.577503 30.988445 2.0427392
43.073765 26.411694 2.1764138
42.40213 28.951622 1.7541785
43.050797 26.482765 2.3531489
41.958534 29.723749 0.15729018
41.971588 29.807219 1.9584576
43.070118 27.183142 2.1526432
43.646999 25.588453 2.2629561
41.60165 31.03546 1.597461
41.922455 29.947199 1.20491
42.547314 28.69759 2.5700924
41.863743 29.804256 0.363083
42.905266 27.699574 2.562618
41.869461 29.799763 0.56629467
43.749828 25.496912 1.6458114
42.736832 27.862095 1.3687235
41.588383 30.388514 2.3823495
43.446556 26.293564 2.4618402
41.948334 29.876698 0.65860271
41.879787 29.869938 0.65773904
41.878864 29.868883 0.56513196
42.292404 29.294113 2.4670563
42.27021 29.310804 2.3626845
42.254799 29.233118 2.6486187
42.276543 29.228104 2.2596056
42.297176 29.244883 2.5049138
42.296425 29.111164 2.2917445
42.293526 29.293224 2.564373
42.287857 29.188936 2.7719917
42.313904 29.200914 2.5557091
41.247105 31.981663 1.9698149
42.251221 29.313599 2.2883945
42.672062 27.874603 1.6664158
42.240993 29.203514 2.1605556
42.283134 29.089283 2.160785
42.294147 29.018438 2.369261
42.837284 27.846228 2.132242
42.867531 27.683207 2.1740403
42.689911 27.869476 1.3646728
41.416931 30.714233 1.9983529
42.287651 29.033298 2.2818501
42.728958 27.715626 2.322016
42.284916 29.199091 2.3616116
42.285126 29.06727 2.3542113
42.683872 27.398132 2.444304
42.886787 27.709038 2.4585311
43.144539 27.004265 1.9546028
42.673214 27.392057 2.3631756
42.302132 28.989126 2.0742903
42.779633 27.711893 2.4920521
42.228825 28.949806 2.4318559
42.274746 29.201988 2.0605831
43.458549 26.201988 2.3769298
42.440975 28.864 1.8610549
42.487137 28.692579 1.8627502
42.866333 27.700436 2.274519
42.307861 28.421425 2.063355
42.752537 27.72809 2.0541263
42.696644 27.321119 2.3752573
41.862675 29.804167 0.65969986
41.946697 29.880304 1.0605145
41.859955 29.802568 0.45706919
41.861519 29.801373 0.26138088
42.030609 29.773539 0.26238692
42.743977 27.866587 1.5446726
42.648289 27.342464 2.5547328
41.862984 29.802008 0.85784465
43.620144 25.842888 1.8421236
42.723751 28.175474 2.1511679
42.70517 27.308834 2.4654806
42.930424 27.79039 2.6575751
42.694824 27.301355 2.268446
42.133102 29.702568 1.9667509
43.493481 26.088369 2.0597775
43.432823 26.284201 1.8522837
43.061314 27.206917 2.05825
42.886356 27.667536 2.3591709
42.247463 29.273577 2.1506002
43.385548 26.189688 2.1739037
43.046299 27.255119 2.1495571
42.745575 27.716921 1.6634425
41.89156 29.862495 -0.042446531
41.866615 29.797428 0.75919372
41.766308 30.49172 2.0773885
42.833572 27.795822 2.0420668
42.614506 28.159418 2.1301091
42.663834 27.712965 2.1569548
42.985554 27.411112 2.0515344
43.667763 25.297462 1.9828907
43.067715 27.19684 1.8623202
41.886353 29.86585 0.35876489
41.950912 30.202099 2.0889373
43.667698 25.596924 2.0646076
43.082146 26.977253 2.0592175
42.27343 28.442307 2.2042761
42.438297 28.908211 1.9453282
42.495735 28.719767 1.9868164
42.196831 29.285576 1.8939892
42.976326 27.489197 1.9946467
43.594391 25.792736 1.963953
42.352337 28.378353 2.3472025
43.467133 26.291107 2.6477361
41.948959 29.730665 1.1456907
42.852654 27.596243 2.1624963
43.469688 26.010834 2.1650901
41.539639 30.983074 1.8257983
42.299866 28.513561 2.1692991
42.346169 29.110249 1.9537703
43.062119 27.197737 1.9731408
43.671211 25.615612 1.9782968
42.981838 26.510307 1.9361953
42.888432 27.687361 1.9790093
41.966557 29.723085 0.25791451
43.001266 26.539391 2.0844905
42.831043 27.688297 1.847934
42.472633 28.817135 1.8744689
43.659626 25.662754 1.9506949
42.734924 28.00915 2.0591459
43.56052 25.899347 2.0506372
41.040768 32.674026 2.0325801
41.906624 30.015923 2.3447928
41.903873 30.013952 2.0654104
43.496605 26.070488 1.7907958
43.330574 26.464178 2.0794051
43.252583 26.603558 2.1600163
42.800018 27.014044 2.3839002
41.139389 32.19138 2.0673914
42.575951 28.302776 2.1591773
43.157143 26.790607 2.2440345
43.670151 25.494627 2.2734618
43.371834 26.30118 2.2741618
43.734821 25.309258 2.0944018
41.185966 32.009781 2.0214379
43.169388 26.920908 2.0628941
43.705055 25.523605 2.0814383
42.472473 28.795948 2.0678735
43.045822 27.278339 2.0672774
43.577553 25.808079 2.0574872
43.623791 25.795027 2.0027685
43.634499 25.713739 2.0614629
41.558178 31.011116 2.1608613
41.061745 32.39011 2.1590235
43.13628 26.966221 2.1528413
43.657185 25.480783 2.1920552
42.673435 28.112658 2.2733583
43.283268 26.494324 2.2738981
41.46796 31.209106 2.2456584
41.474419 31.283077 2.1640821
42.812725 27.631544 2.1776638
41.750771 30.591063 2.1666095
42.973557 27.227558 2.1784313
42.883148 26.892683 2.1760757
41.268044 31.784969 2.2486973
41.349144 31.6793 2.0706987
41.368881 31.495646 2.1657102
43.278595 26.484728 2.1652842
41.876629 29.866188 0.76753205
43.388229 26.20937 2.0875833
41.572929 30.319281 1.9537518
41.882347 29.721149 -0.036451668
41.872349 29.871384 0.8606869
40.963448 32.732574 2.0434546
41.666531 30.691084 2.0604596
41.883129 29.721773 0.46206748
41.562569 30.983776 2.3397608
41.880219 29.802788 1.9604179
41.878002 29.796923 1.2613248
41.880913 29.806463 1.761277
43.346085 25.672171 2.1729548
41.96917 30.021839 2.3386259
41.872978 30.272747 2.1612067
41.165142 32.023361 2.3489139
41.892231 30.196712 2.3252833
41.803139 29.847553 1.7473685
41.974346 29.88378 2.2582133
42.472328 27.978313 1.9785553
41.882381 29.808268 1.5617912
41.593781 30.921926 2.4575627
43.285271 26.703215 2.4650416
41.945724 29.867172 -0.13744532
41.898277 29.73073 1.3604302
41.370514 31.488108 2.4480302
42.580788 28.491579 2.35901
43.598743 25.787888 2.3591199
41.885963 29.728285 1.1522015
41.889732 29.7334 1.6586105
41.778484 30.405922 2.362606
41.881512 29.720966 0.36115211
40.953613 32.914394 2.2347603
41.383331 31.235514 2.1784308
42.097305 29.596577 2.1430683
42.707481 28.002792 2.1746597
40.962639 32.663681 2.1445515
41.080101 32.169624 2.1517887
41.785805 30.395508 2.1758697
42.456093 28.866423 2.1432509
43.550209 25.89464 2.1828873
41.683601 30.807821 2.3724372
42.845924 27.899132 1.5959992
41.274727 31.789652 2.3694689
41.079765 32.089134 2.3593075
42.475357 28.790302 2.3693771
41.050758 32.095768 2.4540489
41.771954 30.496038 2.4621532
42.483719 28.804893 2.460299
41.089378 32.171627 2.4526141
42.738983 27.720894 1.8583525
41.947208 29.867828 0.064105533
41.897327 29.727669 1.5598242
42.700329 28.008825 2.4515481
42.681595 27.708202 2.2535851
41.470135 31.187843 2.3516884
42.70953 28.026999 2.3155861
42.762409 27.788183 2.2612667
41.580864 30.903347 2.1618679
42.879482 27.499586 2.1632106
41.681923 30.697561 2.1630025
42.757114 27.723997 1.4588199
41.519718 30.330051 1.9387745
42.654613 28.195885 2.0590577
43.237923 26.600071 1.9601986
40.915234 32.861351 1.5342678
41.809269 29.876766 0.86704189
42.59177 27.855263 0.95178938
41.37669 31.388256 2.1599135
42.203007 29.213829 2.1798825
41.88364 29.717995 0.66140807
40.766102 33.096874 2.358521
41.675209 30.732821 2.3724623
42.491131 28.694777 2.3731337
43.28714 26.485424 2.3684478
42.446739 28.423248 1.6734742
41.808151 29.87616 1.1289889
42.596611 27.860786 1.0637579
42.290482 28.350212 2.5507624
42.083214 29.609472 2.4515445
41.79739 30.498259 2.5362053
42.499592 28.709324 2.467011
42.967392 27.283455 2.3407197
42.185013 29.222565 2.3323972
41.944782 29.717182 1.3514454
41.297298 31.691757 2.36481
42.098248 29.617348 2.2603662
41.967033 29.880186 1.6578434
41.129704 32.193001 2.2833087
41.872177 30.197855 2.2491055
42.589386 28.293919 2.2625787
42.077618 29.849499 1.5695559
41.682461 30.613245 2.2419472
42.463623 28.799383 2.2682118
41.878292 29.79895 2.0601723
43.209087 26.600977 2.0842257
41.851627 29.948946 1.2529974
41.869556 30.001228 2.2670839
42.649635 28.19385 2.2655628
42.555084 27.88026 2.2611485
41.188091 31.385666 2.2396567
41.176018 31.489752 2.0521359
40.896896 32.797535 2.4585221
41.873035 29.808191 2.4534845
41.80069 29.892609 1.3826531
41.87516 29.805536 2.3607867
42.930084 27.666054 2.4713721
41.80262 29.987995 1.0016516
41.786774 29.880428 1.9579124
41.216927 31.863644 2.5533385
41.828842 29.959049 2.4692605
42.617184 27.425489 2.4818568
41.793922 30.274611 2.5588574
41.778008 30.401997 2.4577198
41.958668 29.722601 0.75841069
41.876846 29.696413 2.2349145
40.854141 32.599602 2.4439473
42.394619 28.824219 2.3361521
41.945503 29.947556 0.037951026
40.753773 33.118008 2.2656078
42.688271 27.87586 2.1639645
42.727318 27.637207 2.0394621
43.14864 27.088282 2.3965297
40.988228 32.680229 2.5362906
41.545044 30.919777 2.5246859
41.890915 29.683969 2.4565024
41.393524 31.320644 2.4679546
40.895584 32.572262 2.5332415
41.56794 30.808411 2.5236905
42.64473 27.58988 2.1569073
42.081348 29.706486 2.4346616
41.163437 31.404711 2.1733015
43.087151 27.115946 2.0370908
40.915951 32.095787 2.3792503
42.035919 29.713697 0.25717402
41.883125 29.726215 0.76135999
40.870815 32.186298 2.5679519
41.966274 29.727705 1.8415416
41.754951 30.408255 2.5395179
43.464962 26.149025 1.5058335
41.890102 29.719053 1.4606973
41.883511 29.706808 1.9792269
41.857616 29.766731 2.5719409
41.180977 31.804476 2.5530035
41.882507 29.714401 0.1647706
41.490067 30.898329 2.5623484
41.945236 29.705997 2.2562373
40.780571 33.005051 2.631247
41.882622 29.719967 2.0540938
41.886688 29.717493 0.55955523
41.272945 31.542645 2.4657674
42.797279 27.539972 1.9418416
40.983246 32.310753 2.4756007
40.819862 32.745888 2.3898966
40.884064 32.509575 2.3843164
42.617615 28.550766 3.2668545
43.129631 27.223621 2.3895102
40.769867 33.001415 2.5584688
42.661327 27.628002 1.7345855
41.320774 31.762804 1.9983661
41.287319 31.276669 2.6449902
40.781071 32.710922 2.5841274
41.881824 30.215902 2.4433537
41.803165 29.814695 2.3492751
41.885979 29.867018 0.46420231
41.983517 29.787975 2.5402417
41.075447 32.025414 2.4679785
42.363914 28.172817 2.4496522
41.207531 31.939402 2.4169936
41.383282 31.399645 2.3770559
42.183395 29.382906 2.4020071
42.686161 27.869701 2.0553234
40.772739 32.68581 2.4783807
41.644402 30.706625 2.4550533
42.510422 28.478292 2.4677525
41.347 31.262722 2.663307
40.887775 32.470692 2.6387048
41.966568 29.726395 0.56017065
43.147141 27.09194 2.4836245
41.303864 31.392822 2.6678116
41.094921 32.046234 2.6033547
41.173367 31.764936 2.4248838
41.961185 29.951221 1.2472417
41.065685 32.139061 2.6575658
43.135712 27.073011 2.0304337
41.892094 29.725389 1.8662493
42.814507 27.614912 1.9960407
40.861542 32.446812 2.4958749
40.773174 32.995079 2.3565965
42.77285 27.993416 2.1401677
41.962734 29.723869 0.36186203
41.950661 29.725374 1.5401331
41.089954 32.207062 2.3606496
41.883175 29.720177 0.85783654
41.42004 31.126266 2.2954156
41.952465 29.729803 1.9613044
42.461895 28.634804 2.4319069
43.090542 26.294418 2.3608253
43.102562 26.198994 2.2865932
43.295887 26.60482 2.4758873
41.891739 29.727856 1.0610651
43.436646 26.285814 2.3670521
43.726391 25.675999 2.7337205
41.89241 30.051004 2.4157975
42.774132 27.198444 2.2701859
41.881596 29.861975 2.2554564
42.74432 28.07605 1.7515597
42.670959 27.508627 2.1788898
42.588055 27.605759 2.4409382
41.687893 29.923512 2.2779684
42.084206 28.805235 2.5168056
41.332832 31.817572 1.8910698
42.944355 26.793058 2.3692126
42.878017 26.891626 2.2572472
42.64024 28.485611 2.7570207
42.180901 29.486382 1.7675545
42.594318 28.272713 2.0959775
42.622204 28.556095 2.8430619
42.065792 29.464582 1.1386216
41.252319 31.290133 2.2356372
42.817829 26.910654 2.3322597
42.883305 26.798307 2.455796
41.699051 29.908112 2.5383425
42.492805 28.797556 2.6739626
43.097664 26.19631 2.4564905
42.90226 26.807957 2.2674017
42.023026 30.004997 1.8767649
42.271225 29.378906 2.3645685
42.654427 28.469009 2.8734488
43.136898 27.298513 2.7983475
41.457561 31.499134 1.6720623
42.012478 29.738142 2.6826308
43.192879 26.715988 2.2591991
41.866264 29.886658 2.5512438
43.731808 25.487833 1.8399436
42.505234 28.691227 2.7560253
42.382294 28.619625 2.5344954
41.669334 30.997597 2.7558093
41.370117 31.518988 1.8708944
42.901318 26.799976 1.9620397
41.2924 31.705746 2.1653419
41.66906 30.998428 2.8470287
43.10722 26.277281 2.0038357
41.893215 29.726437 0.9597863
42.925941 27.654493 2.1458616
43.114578 26.232265 2.3401289
42.91227 26.830879 2.109097
42.85508 27.800413 2.3544574
41.419331 31.432093 1.7050769
42.574162 28.691233 1.5015265
42.587959 27.623436 1.4542842
40.64994 32.781063 2.159327
43.092777 26.188705 2.5538173
42.597443 27.619709 2.0603199
43.095352 26.29043 2.455353
42.185627 29.683725 1.7385451
42.635841 27.630863 1.6034278
41.448605 31.480072 1.8125441
43.751179 25.720753 2.2268949
42.81385 27.004305 2.1173184
41.104752 31.607924 2.5117896
43.159218 26.31459 2.4486008
42.634972 28.24575 1.8512943
42.492973 28.802189 2.5660858
42.750515 27.86381 1.6614113
41.572201 30.418526 1.7697588
42.625504 28.571819 2.5641646
42.148941 29.677301 2.3608968
