# .PCD v0.7 - Point Cloud Data file format
VERSION 0.7
FIELDS x y z
SIZE 4 4 4
TYPE F F F
COUNT 1 1 1
WIDTH 626
HEIGHT 1
VIEWPOINT 0 0 0 1 0 0 0
POINTS 626
DATA ascii
51.571522 38.002354 -0.14914282
51.296692 37.858292 -0.70760232
51.496899 37.95713 0.63709992
51.533112 38.047382 0.7948634
51.352318 37.967491 0.78065443
51.478565 38.00901 0.72547245
51.585133 38.020771 0.66755623
51.513771 37.954838 -1.4473605
51.614277 37.951675 -0.8042978
51.304966 37.8806 -1.4728464
51.534981 37.841759 -1.5498335
51.293976 37.848621 -1.6758289
51.834732 37.824364 1.3877302
51.49696 37.97863 -1.7518755
51.545654 37.816544 0.69075143
51.656132 37.808418 1.4345683
51.526047 37.824677 1.6595601
51.581039 37.961632 -0.94572598
51.586094 37.956093 -1.6144599
51.309361 37.846684 -1.7006292
51.573444 37.929638 -1.7563579
51.305702 37.852394 -0.43127072
51.612469 37.953629 -1.0467911
51.478889 37.790348 2.160552
51.551552 37.89716 -1.6345232
51.378502 37.882137 -1.993906
51.536774 37.943104 -2.0385838
51.474804 37.924309 -1.9791129
51.557522 37.948345 -1.9995596
51.381096 37.867649 -1.8462296
51.477337 37.906265 -1.8805274
51.552017 37.934929 -1.9011878
51.386215 37.876862 -1.7089851
51.595692 37.957748 -1.4293032
51.309185 37.852116 -1.541714
51.344791 37.861164 -1.5552924
51.45826 37.89024 -1.6266699
51.351173 37.855515 -1.6315818
51.659424 37.792583 1.3853264
51.677284 37.965958 -1.5048068
51.368877 37.864212 -1.3344624
51.57291 37.947205 -1.9765967
51.533653 37.84132 0.49840388
51.77076 37.920174 1.1609777
51.765694 37.913849 1.3658109
51.549816 37.828503 1.168846
51.482983 37.89909 -1.7303994
51.681366 37.837753 1.5861368
51.465199 37.890739 -1.5608197
51.550808 37.828941 1.0737269
51.561398 37.822315 1.5610702
51.45031 37.805374 2.5967762
51.553856 37.833462 1.2739116
51.450443 37.963928 -0.22034653
51.5093 37.963211 -0.54770631
51.73214 37.816193 0.26517168
51.517895 37.947659 1.3525125
51.579323 37.96735 0.92153955
51.836258 38.00235 2.4037738
51.537369 37.81456 0.88540542
51.731121 37.826405 -0.43113419
51.562187 37.975121 0.79483271
51.364075 37.87743 -0.54405665
51.37891 37.87339 -1.4363745
51.398487 37.865101 -1.2394558
51.379887 37.859879 -0.64722854
51.382538 37.857014 -0.81788701
51.37048 37.867126 0.35124266
51.479904 37.874798 -1.0537578
51.465832 37.8899 -1.3504546
51.479843 37.803585 1.8661215
51.589802 37.902428 -1.4349432
51.728539 37.905994 -1.5037942
51.781494 37.929317 -1.4397826
51.396015 37.855007 -0.43685481
51.816616 37.943447 -1.2156347
51.534828 37.833714 -1.0504538
51.539574 37.829285 -1.1119823
51.777653 37.921951 -1.1369864
51.573792 37.840881 -0.92470169
51.663357 37.975533 -1.6287186
51.67244 37.968807 -1.3441224
51.678642 37.982563 -0.84741879
51.709045 38.057247 2.266856
51.761913 37.924713 1.9408113
51.481987 37.949669 -0.79662138
51.604301 37.985306 -0.4323028
51.788639 37.920147 1.8315794
51.515869 37.972256 -1.0245391
51.678234 37.978455 -1.0148922
51.702217 38.048794 -1.027154
51.606541 37.979347 -0.52400261
51.46191 37.812477 1.5560246
51.468243 37.811497 2.0590379
51.470798 37.827721 1.7777896
51.540115 37.92712 2.6782875
51.324558 37.836895 2.5677545
51.613384 37.958374 0.49880055
51.640362 37.784622 0.27872148
51.48682 37.993626 2.0664675
51.483288 37.991676 2.6669669
51.747929 37.918583 -0.94193375
51.34967 37.736595 2.3537014
51.704479 37.961216 1.1505673
51.471283 38.001385 2.7523417
51.297173 37.853798 2.6748054
51.563175 37.835178 -0.012757573
51.559174 37.834145 0.2615383
51.759682 37.925419 1.2608587
51.382359 37.863728 2.1725771
51.560753 37.82259 -0.23764792
51.537682 37.974411 2.3574066
51.723751 38.002621 2.3430219
51.691288 37.95142 1.3547633
51.382286 37.86533 2.3582222
51.734909 38.005562 2.5635965
51.549927 37.957157 2.1535029
51.566742 37.919495 2.442306
51.371094 37.892002 2.8541102
51.270424 37.856674 2.8550363
51.719883 38.050247 2.5872107
51.195335 37.869545 2.9748449
51.587715 37.967064 2.791126
51.654671 37.977783 2.3779886
51.484818 37.903179 2.069387
51.469959 37.909069 2.5516269
51.539845 37.922813 2.3587377
51.750244 37.824829 -0.68245214
51.474342 37.812584 1.3597428
51.554184 37.809986 -0.62233186
51.558746 37.818069 -0.15989755
51.670456 37.973755 2.1573517
51.471241 37.899174 2.3604505
51.373993 37.877991 2.5704052
51.548691 37.83601 0.36099008
51.46011 37.829308 1.0630472
51.557072 37.827042 -0.4537887
51.557465 37.821354 -0.55130172
51.454075 37.820995 0.251724
51.758327 37.930103 0.06687279
51.545364 37.827789 0.071918532
51.437813 37.902912 2.7446005
51.380795 37.871014 2.4432523
51.674622 37.958042 1.6633779
51.690487 37.981071 2.2625012
51.364822 37.826897 2.3524699
51.554653 37.916885 2.1517015
51.746727 37.932274 0.85837388
51.368698 37.812157 1.7596402
51.568783 37.920677 2.0530515
51.463554 37.866684 1.1645325
51.587833 37.931606 2.7268574
51.556316 37.902443 1.8699071
51.469273 37.813713 1.1597904
51.760754 37.927132 0.96215206
51.478584 37.893578 2.2544272
51.379868 37.863819 2.2582371
51.467869 37.863117 1.4653337
51.68816 37.956779 1.2709767
51.771839 37.987919 1.6681887
51.368454 37.881756 2.7476525
51.554077 37.982315 2.55726
51.60424 37.962326 1.7092488
51.550762 37.835907 -0.73086524
51.459187 37.822521 -0.23643218
51.73959 37.922626 -0.73081303
51.396973 37.896763 2.6734109
51.554245 37.919136 2.5581491
51.661106 37.904999 1.4569051
51.369522 37.821438 2.0749691
51.665924 37.916565 0.95859271
51.478859 37.872139 1.6676543
51.637936 37.929638 2.2625754
51.47538 37.803947 1.6627171
51.666306 37.934456 2.1889467
51.757156 37.993496 1.9584944
51.177883 37.671562 2.2644639
51.770363 37.928341 -1.0338959
51.460087 37.812813 1.4567088
51.554596 37.831543 -0.32958364
51.667171 37.90675 1.2562323
51.750256 37.934063 0.7608428
51.74617 37.925587 0.16407475
51.780293 37.924187 1.5422065
51.480293 37.863075 1.0578066
51.563755 37.888206 1.3605193
51.666473 37.915817 0.168366
51.762321 37.932457 0.36407885
51.759418 37.923412 -0.63691419
51.666077 37.914383 0.65010786
51.686111 37.957825 -0.44726259
51.563713 37.901257 -1.0398196
51.661297 37.9151 -0.036979534
51.767017 37.930405 -0.8381418
51.362453 37.824024 2.1648626
51.454651 37.831085 0.45802587
51.47897 37.864178 0.46614268
51.456608 37.879791 -1.4368112
51.575768 37.8834 0.86069918
51.473637 37.869175 -0.33824497
51.392445 37.852409 -0.25167981
51.358994 37.86652 0.68044931
51.70084 37.959946 0.5720095
51.544838 37.954803 0.30002752
51.407257 37.872852 -1.0278263
51.479919 37.867088 -0.24241383
51.608658 37.94931 0.32999116
51.690121 37.970634 -0.73913759
51.689842 37.967716 0.15861137
51.464806 37.82922 0.56597424
51.573997 37.884373 0.56031996
51.747402 37.926682 -0.32910496
51.476154 37.867676 -0.63039172
51.662132 37.918064 1.3619559
51.669704 37.915245 0.26182175
51.442566 37.87318 -1.2331562
51.481678 37.865204 0.25797102
51.579578 37.901222 -1.2481638
51.47076 37.873268 -0.8285327
51.574696 37.893738 -0.83469027
51.483944 37.868176 -0.44315588
51.390366 37.856293 -0.02900726
51.398388 37.859993 0.56572211
51.58968 37.962013 -0.056703445
51.48484 37.885719 -1.1301588
51.575333 37.917645 -1.3349429
51.684059 37.965996 0.27158201
51.388008 37.867867 -1.1494654
51.474693 37.868107 -0.14565018
51.387543 37.868 -0.92859447
51.487034 37.861588 0.55466563
51.562344 37.897228 -0.94114375
51.574085 37.8862 0.76621693
51.69519 37.963631 -0.32985991
51.674717 37.964771 -0.94257629
51.564491 37.887108 -0.039201137
51.489487 37.868656 0.076136544
51.672348 37.914616 -0.14004248
51.57299 37.908016 -1.1384629
51.74271 37.912083 -1.3615565
51.752045 37.932068 0.26190177
51.571964 37.880154 0.060436178
51.573734 37.895908 -0.6371876
51.401844 37.859756 0.053819656
51.474831 37.870724 -0.7373203
51.565712 37.883499 -0.33897954
51.671001 37.965687 -0.22651251
51.569077 37.832859 0.15899548
51.563049 37.824234 -0.8306343
51.47887 37.867298 -0.52829999
51.480663 37.867912 0.16801584
51.544838 37.825821 0.98203391
51.575153 37.889114 -0.14258739
51.398979 37.856533 0.12689938
51.378792 37.867596 0.84816802
51.385765 37.870945 0.27252153
51.605167 37.947166 -1.2705619
51.694908 37.966709 -0.13732289
51.482689 37.877728 -0.93102646
51.472939 37.868656 -0.044388436
51.6777 37.958054 0.36140996
51.687756 37.956585 0.051603183
51.362572 37.812378 -1.1406983
51.787193 37.983696 0.65569186
51.787819 37.990246 0.15814982
51.379028 37.8568 0.46346477
51.267445 37.852188 0.56759369
51.289036 37.855679 -1.0704147
51.696102 37.99279 -1.4386396
51.200226 37.714306 1.9520916
51.363167 37.805519 1.8694284
51.58865 37.843029 2.0906017
51.2911 37.888031 0.94877791
51.525398 37.825176 1.9642789
51.482132 37.860287 0.9649834
51.2742 37.877392 0.17914212
51.873352 37.993526 1.0669599
51.361771 37.82325 2.6350729
51.479622 37.866196 0.76104385
51.361187 37.805225 -0.82766032
51.938866 37.887787 1.2794442
51.195019 37.93882 0.69465244
51.82296 37.922829 0.70357096
51.205257 37.92429 -0.75300032
51.853035 37.924843 -0.13310198
51.208187 37.792751 2.0607469
51.092113 37.908386 2.096812
51.263203 37.782337 1.9546868
51.18642 37.922897 1.9527553
51.781563 38.026398 -1.7384102
51.199867 37.868954 1.3267899
51.179749 37.784382 2.8421965
51.267246 37.791309 2.0645182
51.184525 37.901917 -0.57867092
51.202072 37.897038 2.1453362
51.885742 37.93066 2.0708873
51.210064 37.815304 1.7404772
51.480331 37.886833 2.1667178
51.840477 37.993259 -0.13675468
51.823689 37.940578 0.50327563
51.852463 37.942009 0.28579673
51.362915 37.800243 -0.94081658
51.190208 37.857693 1.5952965
51.171757 37.885284 1.9015652
51.363228 37.805595 -0.63821745
51.360493 37.827656 2.2510216
51.827297 37.942474 0.16731746
51.453773 37.823032 -1.4544003
51.466625 37.82016 -0.94179541
51.365368 37.805367 -0.44149411
51.1973 37.862415 2.5008955
51.727158 37.90395 2.0916765
51.777393 37.984043 -0.73335642
51.383846 37.863697 1.9706521
51.392773 37.862926 1.4580684
51.197441 37.772655 2.3630927
51.205399 37.800034 2.1702955
51.360683 37.801239 -0.13307013
51.195854 37.770142 2.5716751
51.756344 37.928959 0.65357977
51.268867 37.788891 2.1710343
51.361065 37.798531 -0.74394596
51.875576 38.005508 1.9500488
51.662907 37.915985 -0.24114971
51.782425 37.982868 0.45697582
51.665604 37.918671 1.0546123
51.755245 37.925323 1.0702952
51.759647 37.996555 -1.3386005
51.241417 37.704536 2.4559813
51.261009 37.79604 2.5628002
51.257015 37.71196 2.3593769
51.77211 37.977299 1.3585613
51.768501 37.97831 1.57005
51.202969 37.916199 -1.2029941
51.771683 37.986671 1.8523307
51.782387 37.974876 0.86583489
51.899841 37.934441 1.8581035
51.266659 37.787189 1.858351
51.223152 37.864071 2.9158185
51.784714 37.984718 0.064612053
51.791893 37.990105 0.36113441
51.244614 37.899712 2.2524714
51.784164 37.987267 -0.43943402
51.784103 37.981796 -0.54100621
51.588448 37.964954 1.254624
51.789204 37.988735 -0.038387816
51.835442 38.016663 -1.5384309
51.785187 37.988094 -0.63918644
51.793652 37.992058 -0.1354063
51.378365 37.866474 1.0819587
51.455585 37.818184 0.35974139
51.207108 37.784374 2.4338212
51.35704 37.805721 -1.0331908
51.466125 37.905258 2.6642382
51.264183 37.803864 2.2571039
51.768452 37.974602 1.1510196
51.766186 37.984131 -0.95095825
51.770512 37.997204 -1.0344169
51.780731 37.991642 -1.1423323
51.766178 37.923504 -0.43882617
51.781651 37.983059 -0.33938804
51.758636 37.917538 -0.53262693
51.359066 37.800194 -0.32884949
51.83989 37.922413 1.364023
51.259708 37.814056 2.7500477
51.421799 37.939404 2.828599
51.853645 37.927135 1.0767782
51.875122 37.897247 1.5452762
51.860664 37.937386 1.437952
51.949432 37.977699 -0.31182718
51.852818 37.991497 0.86654764
51.259163 37.796616 2.3596914
51.866844 38.003109 1.4568763
51.78006 37.979706 0.95527428
51.384968 37.948917 0.87715757
51.283169 37.880775 -0.95384628
51.385578 37.859035 1.5496644
51.792789 37.987068 0.2616336
51.275917 37.868332 -0.54158974
51.778244 37.98259 -0.2396041
51.754028 37.997627 2.2626281
51.369083 37.837494 2.9207559
51.195042 37.80299 2.265537
51.277863 37.892448 1.1688415
51.264656 37.8615 1.9290299
51.277927 37.863121 1.7355891
51.250359 37.869637 1.5699024
51.866371 37.924988 0.87333471
51.411079 37.85437 1.3766677
51.332565 37.843124 -1.7076464
51.272717 37.864929 2.7847319
51.396088 37.86245 1.8669126
51.769024 37.975346 1.468048
51.29026 37.859818 2.5582423
51.655678 37.916737 2.0584126
51.684948 37.963371 1.8552392
51.6768 37.965973 1.7623065
51.68018 37.974316 2.0455754
51.68055 37.964859 1.4614283
51.279961 37.862484 1.0557739
51.703278 38.014477 2.4683394
51.185902 37.794846 2.9529545
51.577808 37.981434 2.8226428
51.779324 37.984615 -0.81988323
51.197266 37.803654 1.864164
51.771172 38.002117 -1.4295881
51.961472 37.999992 1.941739
51.767574 37.989964 1.756086
51.269318 37.861835 2.0518014
51.78038 37.985695 1.0545945
51.672852 37.967545 1.955669
51.387192 37.86842 2.0679736
51.21204 37.792171 1.9571816
51.570721 37.958897 -0.60084742
51.665443 37.922276 1.8562117
51.641022 37.927723 2.3501706
51.265129 37.867752 1.6798463
51.829475 37.928501 0.040160846
51.763367 37.927929 -0.23585838
51.252419 37.872818 1.848407
51.632473 38.100338 2.7157617
51.384827 37.849991 1.6558603
51.839169 38.004288 -0.2397899
51.666206 37.914944 -0.53653234
51.666096 37.914108 -0.43667904
51.661015 37.908421 -0.64331454
51.653732 37.912071 1.6668631
51.845364 37.995594 -0.3401857
51.655632 37.915028 -1.1350554
51.868427 38.006317 1.8695686
51.309677 37.870167 -0.21765792
51.352764 37.823685 -1.2385441
51.829018 37.925224 0.35520482
51.357681 37.788063 1.4560403
51.361755 37.797771 1.3537408
51.363209 37.832726 -1.6403658
51.3666 37.800392 -0.24076915
51.374268 37.906612 0.93459743
51.599632 37.95961 -1.8546814
51.566277 37.888191 0.16950291
51.233952 37.862926 1.4841422
51.848587 38.002792 -0.63600188
51.266075 37.851242 -1.1844631
51.24308 37.868622 1.2575452
51.866714 37.938198 -0.83707041
51.478397 37.87532 1.2613764
51.356865 37.866356 0.77547842
51.837814 37.937775 -0.35619193
51.189899 37.672573 2.1696928
51.219437 37.852821 -0.60557353
51.667675 37.91663 -0.33646199
51.867836 38.006992 1.5536822
51.957897 37.994801 1.8586477
51.882168 37.996384 1.7583601
51.835907 37.927803 1.9595181
51.299824 37.862904 2.369364
51.255257 37.863361 2.1710253
51.930557 37.945343 1.4205868
51.866016 37.991825 1.650965
51.570965 37.898392 1.5559686
51.185501 37.76997 2.6790168
51.65456 37.928944 1.7700567
51.76202 37.924328 -0.13524133
51.86594 37.995998 0.96123636
51.873043 37.930058 1.1696137
51.943996 37.919388 1.1346843
51.856586 37.92429 1.2695494
51.186691 37.784477 2.7513304
51.970745 38.016113 1.7375408
51.467529 37.74358 1.4542826
51.852196 37.884647 -1.4240994
51.789879 38.013153 -1.5307602
51.669506 37.903015 1.5670937
51.684937 37.903141 -1.0372943
51.843884 37.998329 -0.53532714
51.444702 37.842785 2.3821158
51.38176 37.885513 1.729612
51.849617 37.929092 -0.53353095
51.289898 37.869331 2.4612992
51.852787 37.923531 -0.63641047
51.520832 37.815708 1.8556445
51.832848 37.928883 -0.72700012
51.745316 37.929501 0.46387765
51.686211 37.887726 -1.2484565
51.768532 37.994831 -1.2537904
51.465847 37.82111 -0.73530012
51.646915 37.8358 -0.20612095
51.451241 37.821266 -0.34654811
51.664875 37.912876 -0.8379823
51.663017 37.89566 -1.531502
51.493687 37.98634 0.60485297
51.668236 37.821171 -0.44591394
51.873596 37.982895 2.5243726
51.170277 37.857655 1.7777697
51.664688 37.910599 -0.72738874
51.665939 37.892422 -1.4478124
51.659412 37.91013 -1.3183922
51.68243 37.973797 -1.1294461
51.645477 37.837395 -0.6120404
51.454132 37.824314 -0.64495492
51.428955 37.801895 -1.1482099
51.377083 37.880299 -0.731803
51.696201 37.843208 -0.30367512
51.347874 37.834087 2.4727376
51.682053 37.962303 -0.64167422
51.256966 37.871204 -0.15957838
51.889462 37.925621 -1.2310209
51.469368 37.831219 -0.44310629
51.463196 37.829613 -1.2650794
51.187614 37.69688 2.6684239
51.685028 37.977543 -1.2373776
51.257858 37.800907 2.6526008
51.247272 37.862885 -0.039689939
51.271046 37.84774 0.23614955
51.249825 37.851624 0.35475361
51.265751 37.860714 -0.65757
51.461464 37.815399 -0.044183154
51.840004 37.927761 -0.43550172
51.217106 37.869675 2.6093035
51.285992 37.85424 -0.30160964
51.2108 37.864532 2.2164621
51.677914 37.963131 -0.039490134
51.280987 37.82373 2.4547539
51.882751 37.943436 -0.22789152
51.555832 37.993202 2.4452899
51.605576 38.000992 0.83174706
51.764389 37.923031 -0.047498148
51.695087 37.843941 1.0086613
51.678665 37.828037 0.33740056
51.758667 37.908546 1.461452
51.565281 37.815472 1.3688128
51.686703 37.958157 0.66392708
51.474186 37.866329 0.65714341
51.459366 37.827316 0.65572017
51.745266 37.930183 1.7679752
51.359341 37.800762 1.6601684
51.552536 37.906494 2.2459447
51.557091 37.896194 1.6633894
51.663818 37.910828 0.562805
51.755299 37.92197 1.6548295
51.75676 37.930119 0.56421691
51.360294 37.790367 1.5571688
51.213829 37.8638 2.7908792
51.474983 37.87476 1.7669747
51.62513 38.011841 2.865098
51.181419 37.728432 2.9485846
51.351883 37.81673 1.9545774
51.570847 37.882278 0.95633453
51.555145 37.903812 1.960049
51.754822 37.990974 2.0492992
51.259258 37.81229 2.8913312
51.468281 37.87611 1.8680468
51.487206 37.865345 0.86691767
51.684235 37.966602 0.8705253
51.578289 37.882988 1.162043
51.737812 37.963131 2.6234353
51.603878 37.953609 1.0333878
51.586452 37.963814 2.0552499
51.469921 37.886906 1.9621618
51.450424 37.814751 0.95675963
51.691059 37.959126 0.98855281
51.454338 37.829346 0.76459807
51.667419 37.917683 0.75666654
51.677959 38.006161 2.5603662
51.54018 37.823307 0.57420945
51.481133 37.871902 1.5582858
51.476986 37.991341 2.5550609
51.699787 37.964085 1.5542922
51.478111 37.866783 1.3589664
51.573322 37.887718 0.36285123
51.444096 37.8284 0.85353357
51.668911 37.912842 0.86175591
51.686981 37.966423 0.75146556
51.575062 37.888977 1.057337
51.669933 37.90871 0.06110163
51.464119 37.822521 0.061520051
51.46526 37.895985 2.4609358
51.568378 37.89801 1.4694082
51.355068 37.878201 1.2305263
51.364746 37.808186 -0.5373705
51.56258 37.886406 0.46243155
51.572788 37.887844 -0.53106368
51.691521 37.962345 0.46470016
51.464581 37.826408 0.16641146
51.588951 37.972382 1.3586903
51.667259 37.917171 0.45867196
51.492111 37.862083 0.35744867
51.570072 37.883335 0.25981003
51.55101 37.819893 1.4695649
51.375084 37.834385 -1.5396187
51.460236 37.802032 -1.0182787
51.671295 37.91325 0.35705537
51.573116 37.895027 -0.4405838
51.36388 37.871147 1.1704807
51.576633 37.889225 -0.73240656
51.566727 37.887356 -0.23772901
51.570801 37.891991 0.66133857
51.364437 37.801674 0.25812018
51.676121 37.959225 1.0667425
51.448601 37.822197 1.2544097
51.46204 37.812157 -0.83672792
51.462925 37.823372 -1.4888326
51.572842 37.895653 -1.5391835
51.640976 37.941895 -1.7822968
51.671265 37.909817 1.1579354
51.683285 37.969109 -0.5196169
51.669502 37.930733 -1.6454279
51.571766 37.889187 1.2619259
51.845631 37.936195 -0.050279465
51.857708 37.937618 -1.0436715
51.658092 37.910759 -0.93324006
51.650249 37.918663 1.9778426
51.384434 37.875816 -0.13427798
51.530788 37.960114 2.2520258
51.638012 37.823822 -0.5633797
51.632252 37.839603 -0.065882161
51.46703 37.825352 -0.52886993
51.424107 37.786522 2.2371421
51.184055 37.716469 2.7624874
51.456161 37.82235 -0.13816097
51.177856 37.706768 2.836262
51.183445 37.680016 2.0494502
51.450432 37.814568 2.4540093
51.362354 37.876118 -0.3450149
51.574608 37.911396 1.77075
51.445644 37.808239 1.9580666
