# .PCD v0.7 - Point Cloud Data file format
VERSION 0.7
FIELDS x y z
SIZE 4 4 4
TYPE F F F
COUNT 1 1 1
WIDTH 503
HEIGHT 1
VIEWPOINT 0 0 0 1 0 0 0
POINTS 503
DATA ascii
9.6369419 40.75806 2.9399631
9.5758352 40.870686 2.8540325
9.4578199 40.721123 2.3577678
10.698773 41.341183 1.7182968
9.8963985 41.062695 2.1250691
9.972333 41.07682 2.3659267
11.048037 41.455009 2.7339764
10.672421 41.366249 2.1590643
10.008913 41.053246 2.6553125
10.665167 41.314102 2.1633191
9.9874277 41.071613 2.4562383
9.7748709 40.987896 2.1675746
10.191373 41.170731 2.0602713
9.9671698 40.969425 2.8719611
10.186153 41.169483 1.9866298
10.665441 41.326061 2.0581725
10.679032 41.362427 2.2624905
10.63434 41.320637 1.8760599
10.276245 41.178867 2.543139
10.667856 41.373566 1.9587331
9.3680201 40.825642 2.0711
9.3518867 40.730068 2.6820683
9.7758665 40.986046 2.3501842
10.65341 41.331867 1.9618516
10.3306 41.196106 1.8956909
10.077508 41.168995 1.9709922
9.2735872 40.713562 2.6544964
10.275572 41.19389 2.1707256
10.265347 41.185814 2.0700247
10.249933 41.092552 2.7684436
10.77616 41.390903 2.5544472
10.775918 41.381989 2.0687296
9.5679045 40.827076 2.9456997
10.970253 41.369881 2.7545321
10.779274 41.380936 2.6559339
11.05819 41.37701 2.8588982
10.069918 41.023632 2.5514815
10.060942 41.019573 2.4727206
11.067551 41.485195 2.2622693
10.171076 41.025337 2.6483889
9.4694109 40.796894 2.7685065
10.386385 41.247181 2.6194465
9.9692726 41.019737 2.2760468
10.654577 41.234825 2.6553302
9.891799 41.059517 2.3647361
10.648229 41.237801 2.3833656
10.845304 41.330002 2.3656998
9.9586535 41.026894 2.1689608
9.8971729 41.056412 2.4490392
9.9145451 41.047443 2.5369549
10.969286 41.381664 2.6526923
9.2658587 40.805382 1.8784138
9.9682055 40.992382 2.6504912
9.2775106 40.810593 2.055764
9.2441235 40.824081 1.5959265
9.9749126 41.067192 2.54495
9.6064978 40.952873 2.3646429
10.646937 41.234619 2.5611811
9.6381407 40.824627 2.5676436
9.258853 40.804298 1.7727859
10.456894 41.238552 1.85305
9.6657085 40.840973 2.8269653
9.5889082 40.823002 2.8303814
10.09402 41.154884 2.3513987
9.4758692 40.884411 2.0716047
9.8738594 41.005424 2.166676
10.123482 41.033432 2.3568425
10.071535 41.097118 2.1632104
10.268687 41.186832 2.2617264
9.7616558 40.917328 2.2672701
9.7444439 40.898468 2.7521403
10.862058 41.326855 2.4709072
10.366994 41.262344 2.0000379
9.9459343 41.026783 1.9721205
10.470062 41.196358 2.5577557
9.8818922 41.019733 1.8854185
10.687687 41.368988 2.0565178
10.68747 41.373722 2.6495564
10.462133 41.176891 2.6461701
10.684498 41.280811 2.7627189
9.8635798 41.019592 1.9802389
9.6548462 40.836781 2.4498432
10.846995 41.337536 2.2750511
9.7321501 40.923077 1.8734643
9.9653463 41.003674 2.5537202
10.754919 41.338306 1.9988291
9.5554237 40.829338 2.3534689
9.9371662 41.032829 1.8109535
9.5212393 40.832226 2.0053265
10.526531 41.240135 2.100841
10.273674 41.185009 2.4518993
9.5761299 40.956467 2.4671907
9.75982 40.92646 2.1823709
11.07548 41.491699 2.3680046
9.8729439 41.017464 2.0588443
10.361475 41.204319 1.9365224
10.960914 41.422516 2.0741916
9.2241583 40.744759 1.9805328
9.2789984 40.785343 2.5525913
9.9705067 41.064873 2.1645722
9.9782658 41.093563 1.8918803
9.1691494 40.704472 2.259752
10.767455 41.382072 2.3594761
9.5626841 40.833191 2.4678655
9.1659117 40.692726 2.7495172
10.468829 41.274139 1.9523014
10.567543 41.304367 1.9780865
9.7587185 40.9893 1.9780183
10.869406 41.313663 2.8510482
10.900996 41.461075 1.9725553
9.3166475 40.844971 1.4373761
10.86102 41.405476 2.0653465
10.862797 41.417179 1.8650765
9.105545 40.759109 2.4480586
9.961359 40.999519 2.4660678
10.856345 41.325909 2.5492668
10.420385 41.144581 2.6739776
10.341278 41.133018 2.2682164
10.387104 41.264267 2.3613098
10.355984 41.118069 2.7670786
10.771182 41.391773 2.1541061
10.34213 41.13245 2.4813373
9.2808437 40.858627 1.96671
10.86864 41.326069 2.646497
10.461498 41.213993 2.2629116
9.1602507 40.731197 2.0946977
9.2635412 40.812965 1.6715382
10.870317 41.419518 1.9542805
9.1031704 40.756836 2.3662317
9.7676134 40.98484 2.2663739
9.4721069 40.880157 1.971781
10.064905 41.101662 2.0627043
9.8181982 41.04755 2.0586147
9.9673662 40.993671 2.7695031
9.1678247 40.697666 2.4604201
9.1710815 40.68988 2.5512254
9.8227453 40.900646 1.9688466
9.8837957 41.069424 1.9448975
10.385015 41.262363 2.2645464
9.3115292 40.854862 1.6238924
10.761326 41.309162 2.459954
10.882095 41.460796 2.1628032
10.772355 41.29763 2.6616297
10.36625 41.116039 2.8491378
10.977608 41.37347 2.8760326
10.864943 41.404449 2.3575888
9.6019726 40.954189 2.2934256
10.556523 41.190456 2.8550787
9.9465399 40.923908 2.8256509
9.1663904 40.717918 2.1806397
11.064382 41.48748 2.6552329
9.1791039 40.77404 2.0597513
10.370688 41.199509 2.3630478
10.366803 41.209934 2.1583648
10.597306 41.356022 2.3336077
10.368346 41.192318 2.7331774
9.9650478 40.914658 2.6871238
9.1772642 40.68425 2.6557441
9.3884563 40.861332 2.5896678
9.3637152 40.825195 1.8665075
9.5959949 40.970009 2.0570219
9.3007545 40.850712 1.8927388
9.1823254 40.772591 2.5581887
10.670842 41.368526 2.5710988
10.383747 41.176086 2.6539891
10.944676 41.339645 2.5299845
10.371372 41.180565 2.5485518
9.278389 40.796623 2.1606886
10.478484 41.277149 2.0666115
9.162365 40.778614 1.6754056
10.333413 41.134712 2.3550162
9.2636108 40.79871 1.9549769
9.9709234 41.065865 2.75214
10.77481 41.379578 2.4571748
9.3876781 40.859661 2.6280818
9.8797512 40.988571 2.5525174
9.7736082 40.933071 2.3653376
10.774626 41.306263 2.5410895
9.3542461 40.829338 1.9670089
9.7768841 40.996021 2.6261442
9.9774685 41.078499 2.0709703
10.664368 41.304897 2.366195
10.670184 41.282402 2.5564282
9.1896381 40.787533 1.5964758
9.7020264 40.966465 1.7086468
9.327076 40.789024 1.6675509
9.6171103 40.983105 1.9624748
10.990225 41.488007 2.0582304
9.7672291 40.908661 2.5595191
9.9853945 41.094955 1.9826624
10.15983 41.18438 1.88647
9.6172915 40.953976 2.5163276
11.038615 41.433102 2.1345816
9.7683783 40.919514 2.4710691
9.3942375 40.869995 2.2656465
10.176912 41.163582 2.7493339
10.969321 41.405094 2.4494843
9.2688742 40.793732 2.2691505
10.360341 41.198227 2.26877
10.230342 41.125511 2.1763604
9.4748077 40.880001 2.2638135
9.1728506 40.770889 2.2679474
9.7794142 40.98196 2.4439197
9.5092115 40.733192 2.6073825
9.9717932 41.073135 2.2793472
9.1801147 40.771362 2.3534975
10.685069 41.250412 2.8575292
10.982173 41.472977 2.2600369
9.3944016 40.863693 2.1544526
10.759496 41.310535 2.3669279
9.4515181 40.897911 1.7814554
10.100224 41.153687 2.2707095
9.4701319 40.812141 2.3667378
9.6670341 40.905952 2.3597832
10.35326 41.125458 2.6461341
10.567068 41.298016 2.5583844
9.4805126 40.870693 2.5684476
9.9336014 40.943813 2.4955118
9.1737785 40.777573 2.1627166
11.063346 41.416031 2.5386493
10.965658 41.388897 2.5540502
10.970228 41.464718 2.6449339
9.7734938 40.936581 1.5509328
9.838851 40.936558 2.4810717
10.186421 41.176403 2.1631653
10.260789 41.120731 2.3581059
9.4678535 40.872948 2.3595026
10.070692 41.080448 2.4588566
10.194328 41.065224 2.8374348
10.562739 41.286366 2.2658799
10.275186 41.186153 2.361125
10.881735 41.454865 2.5388603
10.153691 41.018604 2.2129142
9.1783619 40.770645 2.4582801
9.8600349 40.931866 2.6549091
9.3816795 40.861412 2.4705846
10.35033 41.135391 2.5572779
9.8724432 40.984154 2.4707677
10.374755 41.189823 2.4524889
10.552805 41.297707 2.7632039
10.282187 41.278683 2.0343034
9.8692293 40.990936 2.3585386
10.46584 41.206966 2.3734562
10.42755 41.143089 2.5210173
10.429767 41.113152 2.8476846
10.963442 41.417133 2.2710958
10.279528 41.158871 2.7881155
10.170616 41.103115 2.3578982
10.467773 41.20435 2.4591553
10.456583 41.188896 2.7683318
10.960978 41.409439 2.3682251
10.170259 41.16798 2.5442691
10.071401 41.094772 2.2647133
10.856266 41.311268 2.7639377
9.3890915 40.776859 2.6526682
9.2611179 40.716122 2.5482063
9.3790417 40.861771 2.3592792
10.281225 41.182762 1.9727046
9.2741661 40.776157 2.4490399
9.843174 40.936478 2.2747812
9.8520355 40.934338 2.5577767
10.45755 41.223091 2.1594505
9.5776997 40.948563 1.8956685
9.5765724 40.968067 2.1425612
10.073494 41.093689 2.3658009
9.2579546 40.721245 2.4695237
9.2682505 40.73185 1.8628442
9.7012711 40.984039 2.7657146
10.482275 41.194206 2.8270206
10.269701 41.106098 2.6576176
9.506916 40.87151 2.6342099
10.369674 41.219276 2.069603
9.4837637 40.877789 2.4564557
10.261058 41.115067 2.462518
10.133606 41.037769 2.739239
10.264854 41.110031 2.5623763
10.102118 41.090305 2.7489529
10.969663 41.339569 2.7771444
9.3645363 40.855938 2.7304971
10.09686 41.157833 2.1293726
9.2456427 40.742931 2.1593537
10.394289 41.255653 2.4695828
9.8566999 40.928356 2.3737645
10.051159 41.011326 2.6397603
9.4667168 40.895107 2.7465191
9.9698095 41.005169 2.3548975
9.6766777 40.956345 2.5241401
10.670741 41.274181 2.6549444
10.165242 41.095558 2.4591298
9.4924393 40.795609 2.8390174
10.159462 41.021645 2.4664621
10.169947 41.076885 2.6427677
10.07438 41.006355 2.2441278
10.25808 41.164646 2.6455591
10.198393 41.173126 2.2597129
10.180574 41.169502 2.4554715
10.962457 41.418758 2.1663363
9.7712345 40.981827 2.069222
9.1710672 40.772022 1.96393
10.079663 41.057964 2.8418837
9.4575663 40.810017 2.4629142
9.6733513 40.878052 2.6454999
9.4825201 40.876045 2.1606109
10.082114 41.080368 2.6475649
9.95508 40.941132 2.594384
9.4757233 40.794746 2.6504705
9.4628515 40.823677 2.2692251
10.769474 41.287071 2.8595192
10.093711 41.158772 2.5420613
10.16881 41.088207 2.5508194
10.260974 41.11816 2.2761409
9.4688511 40.798225 2.550997
10.181034 41.030888 2.1402118
10.160807 41.105721 2.2663805
10.16046 41.030872 2.5469549
9.2791176 40.779728 2.6600232
10.95966 41.468323 2.5586858
9.2670317 40.722183 2.3547719
9.870265 40.999229 2.2644281
9.378787 40.771069 2.5563221
9.8550358 40.934021 2.7567341
10.065929 41.016212 2.1700959
9.4627962 40.834671 2.1609895
9.4905386 40.843716 2.0864239
10.162199 41.11768 2.1776147
9.9862556 41.027336 1.8793237
10.587489 41.282864 2.6653442
10.252833 41.074432 2.8454683
10.155029 41.008247 2.8242445
10.080751 41.013241 2.747468
9.3586864 40.808804 2.2638295
10.88642 41.46244 2.3623466
10.107269 41.155502 2.4560602
9.8796663 40.96381 2.7649107
10.559061 41.231548 2.3799179
10.798841 41.299442 2.7507911
10.573918 41.288116 2.4537206
10.461332 41.237682 2.0672345
10.311736 41.147209 2.8185122
10.273277 41.073372 2.9399741
9.176795 40.786633 1.7409104
10.575974 41.289936 2.3641222
9.3887472 40.770111 2.8421428
9.9414616 41.026115 2.054703
9.8725414 40.95079 2.8331616
9.5610619 40.899784 2.0707536
9.9727087 40.934853 2.378408
10.06484 41.029232 2.375159
10.15827 41.131351 2.0699053
9.2743206 40.754105 2.7530899
10.568422 41.210808 2.6551867
11.065991 41.419102 2.4639947
10.966713 41.479019 1.9636832
10.193819 41.067547 2.7777007
10.07345 41.084145 2.5500534
10.592514 41.255661 2.832794
10.469729 41.275951 2.2585473
10.065331 41.000923 2.8403714
10.568887 41.297169 2.1621447
9.7787066 40.896313 2.9199433
10.475309 41.276638 2.3656285
9.1448298 40.728962 1.7891028
9.3630753 40.785748 2.462615
9.3495121 40.729317 2.5714035
9.5645037 40.826942 2.5572512
9.8723011 40.978466 2.6440198
10.285933 41.258629 2.5633059
11.072066 41.412575 2.7426639
9.7605438 41.005989 1.7552649
11.063116 41.490795 2.1504319
9.5514708 40.818947 2.7466938
10.295846 41.245571 1.9972492
9.765955 40.910561 2.6523685
10.154203 41.128555 1.8850646
10.979586 41.473522 2.4536512
10.963532 41.481201 1.7606421
10.154088 41.112293 1.9741682
10.91076 41.519447 2.6524873
11.064645 41.407318 2.6492262
10.885291 41.387531 2.7156682
9.1116714 40.76149 1.5992835
9.1990852 40.759495 2.647459
9.2746105 40.790546 2.3614619
9.4680929 40.896675 1.8700086
9.6745129 40.889854 2.5557163
9.3652515 40.809593 2.167819
10.470288 41.212563 1.9787734
10.97386 41.472855 2.3577816
10.20207 41.160019 2.6589046
9.8475981 41.049294 2.7398965
9.8757505 40.936073 2.8462658
9.5702305 40.875282 2.7322018
9.1621599 40.704487 2.3603921
9.5614452 40.823261 2.6602652
10.884771 41.386406 2.5537193
10.846772 41.47599 1.846153
10.971901 41.470448 2.1561556
9.330759 40.741779 2.2903688
10.867851 41.401279 2.2711692
9.6744432 40.883636 2.7527599
10.983892 41.466316 2.8139646
10.368761 41.264687 2.1336553
10.905426 41.492039 2.0309584
10.472157 41.270065 2.1616225
9.5390825 40.82317 2.2423069
10.800921 41.455097 2.2132666
9.9033346 40.984497 1.5571584
10.051487 41.096378 1.8662817
10.738241 41.319008 2.1548734
10.025376 41.035275 2.0689359
10.76222 41.32473 2.274667
9.3895903 40.869461 1.9510332
10.479271 41.274849 2.4583962
10.748086 41.349285 2.7480142
10.892749 41.469238 2.2571704
9.7608871 40.89196 2.8373601
10.870569 41.392757 2.4557445
10.932615 41.33736 2.6352682
10.575084 41.306355 2.0777833
9.5720015 40.900242 2.3625813
11.065835 41.423859 2.2869756
11.074561 41.492916 2.5488682
11.059331 41.417789 2.3814137
10.068213 41.105625 1.9843737
9.7269459 40.927757 2.0581379
10.60066 41.35075 2.0325308
10.74926 41.341236 2.0332446
10.628312 41.235035 2.4881392
10.861592 41.412605 2.1584461
10.893885 41.415607 1.7705458
10.774518 41.386387 2.263952
10.68504 41.365211 2.3679538
11.074396 41.482761 2.4572575
10.879323 41.465275 2.4602597
10.690901 41.367256 2.4531729
10.46501 41.266499 2.649447
10.663826 41.310207 2.2643962
10.87635 41.400188 2.6455581
10.363013 41.25864 2.5630136
10.375426 41.269924 2.0533652
10.665166 41.294167 2.4551139
10.641148 41.228714 2.7506535
10.473634 41.278091 2.5653729
10.179129 41.166283 2.3597193
10.578867 41.364349 2.5703197
10.799365 41.448372 2.3423691
9.6573963 40.925076 2.0717862
10.567235 41.299866 1.9079201
9.7551279 40.987106 1.8644466
10.54578 41.229256 2.2631924
10.561266 41.219231 2.5529108
10.565337 41.224003 2.4657729
9.6838884 40.975731 2.1509964
9.572525 40.905209 1.9650986
9.8837404 41.058281 2.271559
9.6670637 40.963009 2.0459871
9.5802069 40.918705 1.8629345
9.5611963 40.896851 2.1704659
9.6660576 40.917168 2.1746902
9.6779299 40.968876 1.9612372
9.886508 41.062725 2.0570955
9.5708208 40.898785 2.2753413
9.6700602 40.921391 2.263994
9.6699924 40.891685 2.4537122
9.6741343 40.97427 2.4586673
9.5739603 40.875641 2.5559742
10.678082 41.233372 2.8476372
9.7754517 40.97538 2.5403855
9.749649 40.975002 2.7640224
9.3695297 40.79715 2.3637745
9.5280304 40.743675 2.2006736
9.3921785 40.77158 2.7599773
9.3396511 40.728432 2.4554663
9.2795391 40.721935 2.2614379
9.5776882 40.884754 2.4595168
9.5809231 40.889305 2.6336255
10.205286 41.052402 2.9238913
9.3499622 40.731991 2.7427349
10.567463 41.208237 2.7655842
9.644659 40.834908 2.6732352
9.2606983 40.708298 2.7506077
9.690486 40.862926 2.8466196
9.3443756 40.731682 2.8293781
9.2619438 40.667927 2.9433215
9.2735662 40.714825 2.8458428
9.6834068 40.962833 2.2649369
9.6841679 40.9702 2.3627026
9.6957092 40.970871 2.6393151
9.8160276 41.048344 2.440887
9.3719215 40.880169 1.7579387
9.3880653 40.856529 1.6843548
9.7293224 40.820141 2.8930805
9.2526941 40.630875 2.6008201
9.347826 40.817436 1.7766271
9.6685095 40.887138 1.6371362
9.8687153 41.019459 1.7638845
10.052316 41.041824 1.6507471
9.6544218 40.936123 1.974921
9.354784 40.871311 1.8741353
9.6781731 40.9645 1.767689
9.6598473 40.937038 1.8288978
9.6663418 40.986866 1.891001
9.6444807 40.899326 1.7527496
