# .PCD v0.7 - Point Cloud Data file format
VERSION 0.7
FIELDS x y z
SIZE 4 4 4
TYPE F F F
COUNT 1 1 1
WIDTH 674
HEIGHT 1
VIEWPOINT 0 0 0 1 0 0 0
POINTS 674
DATA ascii
-13.348116 32.945393 1.2981981
-9.6043873 34.605663 1.4346437
-11.681623 33.603336 1.30957
-10.018929 34.678112 1.2655163
-10.310277 34.557186 1.2432883
-12.110221 33.675404 1.2621863
-12.585623 33.762341 1.221945
-9.8412533 34.694748 1.3626893
-12.11584 34.061935 1.3958158
-9.6214619 34.608364 1.3487517
-13.412079 32.948444 1.4170707
-9.7113218 34.612728 1.46794
-13.615514 32.866272 1.4463265
-9.1698589 34.533112 1.3894582
-9.4781027 34.555428 1.5037251
-10.034846 34.354309 1.3504829
-10.922355 33.865353 1.463235
-13.616219 33.017319 1.4512737
-11.957749 34.132679 1.3653102
-13.179092 33.294495 1.2080179
-12.928167 33.118771 1.3623587
-9.8156395 34.572239 1.2871979
-10.697369 34.053246 1.3575368
-12.137242 33.576935 1.3848479
-12.139169 33.624695 1.4809012
-9.7426519 34.413342 1.2812084
-9.7175999 34.605759 1.2402372
-13.364703 32.934105 1.3513056
-11.548058 34.034302 1.4520326
-12.339484 33.783012 1.2813982
-11.639627 34.022404 1.3028016
-11.624041 33.586815 1.2816589
-11.801237 33.584408 1.2859836
-11.850422 33.582508 1.3495346
-11.324606 33.98872 1.353559
-9.5573282 34.83313 1.2861227
-9.9772968 34.694019 1.3594104
-14.239845 32.898045 1.2692764
-10.898814 34.012413 1.2983284
-11.256039 34.070599 1.2483987
-9.9643002 34.661991 1.1478388
-11.209748 34.027477 1.2812095
-9.2946854 34.702202 1.2033226
-12.04927 33.695694 1.3058684
-11.661402 33.500412 1.4738269
-11.259295 33.971661 1.3595327
-12.925396 33.281944 1.4506023
-10.872688 34.352325 1.4190556
-12.095745 33.37336 1.5205653
-14.333615 33.078812 1.2588865
-11.040937 33.810394 1.4664625
-11.932307 33.989735 1.4318789
-10.840448 33.917793 1.3720248
-9.4293633 34.482803 1.320883
-13.00533 33.572369 1.3006895
-13.757756 32.795826 1.5597007
-12.925435 33.318153 1.3736103
-11.524613 33.668999 1.4200237
-13.138027 33.224422 1.355352
-12.929655 33.500252 1.4615552
-11.992935 33.956268 1.3386395
-13.046271 33.488373 1.4401101
-12.912021 33.377548 1.47609
-9.8142662 34.561626 1.3407869
-13.342973 33.121449 1.4455295
-12.02262 33.891315 1.380527
-12.939901 33.156734 1.3397781
-11.243728 33.894234 1.3773677
-13.321586 32.957962 1.449393
-10.905457 33.858879 1.5205038
-9.3477955 34.904877 1.2285385
-9.1566124 34.699162 1.199414
-9.8051128 34.536633 1.3948154
-10.228018 34.557358 1.2735376
-10.317049 34.115974 1.266556
-10.336347 34.744827 1.3092313
-10.727554 34.594944 1.3530633
-11.313348 34.263767 1.3321751
-10.050325 34.79187 1.2550647
-11.034839 34.095066 1.2479467
-11.645941 34.065765 1.3217573
-11.42784 33.960735 1.3244843
-11.712633 34.02705 1.2964038
-11.930656 34.086411 1.2786926
-10.648272 34.414028 1.3471729
-11.620739 33.868786 1.2945952
-11.762212 33.817184 1.2998011
-11.80361 34.164505 1.2909912
-11.126774 34.267216 1.3299255
-10.43622 34.31337 1.3575557
-12.108456 34.008804 1.2689571
-11.868175 33.803116 1.3056129
-12.303948 33.847794 1.2813373
-11.837841 33.909458 1.2874916
-11.99882 33.984924 1.2989852
-12.21489 33.879288 1.2813195
-11.651351 34.088055 1.2730644
-11.510165 33.912178 1.2800472
-12.221283 33.807858 1.2913527
-12.025754 33.899982 1.2931668
-12.407989 33.89872 1.2644775
-10.8424 34.126823 1.3984567
-11.71052 34.225777 1.3084866
-11.129729 34.415131 1.2936172
-11.63328 33.596458 1.3645388
-11.314949 34.215202 1.4205061
-11.443961 34.112396 1.3450766
-13.197118 33.442226 1.3088742
-13.454092 33.324852 1.3403352
-14.212297 33.103069 1.3210042
-12.517753 33.764381 1.3820174
-11.551863 33.847717 1.4046283
-11.4628 34.07856 1.4181166
-11.528515 34.098866 1.3406317
-13.932675 32.81044 1.2566867
-12.267448 33.328583 1.3742726
-12.311575 33.314438 1.3627919
-11.549776 33.623322 1.3751475
-13.275714 33.575619 1.3319695
-12.154827 33.896217 1.3478355
-12.211032 33.884155 1.3606141
-11.638387 34.029308 1.3688881
-13.916767 33.125149 1.2881047
-14.116684 33.093178 1.3004615
-11.749025 33.538418 1.3774737
-13.127183 33.558044 1.3553979
-12.331352 33.788063 1.3692602
-10.824105 33.921108 1.4419013
-11.50766 34.18528 1.3463579
-13.146202 33.687595 1.3553867
-13.200573 33.238903 1.2743943
-13.418896 33.499115 1.3372211
-12.438795 33.77462 1.3671118
-10.642054 33.985203 1.459348
-13.127304 33.484127 1.2944549
-13.149749 33.353401 1.3915532
-13.219167 33.267132 1.3373511
-13.519093 33.127396 1.305058
-12.232243 33.584827 1.371299
-14.092348 33.206501 1.3222556
-12.427628 33.715546 1.3425678
-12.525944 33.709267 1.3456862
-12.353266 33.472046 1.3773804
-12.604687 33.481537 1.3723823
-12.014916 33.696205 1.3759969
-11.821744 33.907909 1.3737991
-11.937845 33.913467 1.3959924
-9.5503044 34.572498 1.4489719
-12.999741 33.403549 1.3678393
-11.72436 34.007214 1.3756135
-11.756625 34.048534 1.4163373
-9.2243195 34.695591 1.1952212
-12.918378 33.379131 1.3663595
-13.928226 33.110325 1.3480527
-11.741629 33.819077 1.3861188
-14.051188 32.973095 1.272332
-13.839929 33.013916 1.3047262
-11.135016 33.898094 1.3675834
-9.2515945 34.687759 1.4715161
-12.37299 33.875034 1.3525968
-11.938414 33.489304 1.4424779
-9.9225025 34.508404 1.3216752
-9.2123795 34.722847 1.2442107
-13.340212 33.417233 1.3564481
-13.3286 33.265652 1.2574787
-11.803986 34.065521 1.3211101
-11.041295 33.832996 1.3830032
-9.4081011 34.587173 1.335354
-11.021374 33.880539 1.3464879
-10.912058 33.974579 1.3642797
-11.676033 33.827297 1.278464
-13.033896 33.500198 1.3893219
-13.340425 33.187126 1.3547063
-9.4359379 34.477055 1.2663984
-14.020048 32.954319 1.4510009
-13.011133 33.362301 1.2856914
-10.960258 33.691444 1.4022464
-14.040269 33.097435 1.2913656
-12.026567 33.855377 1.4884229
-9.4775114 34.857162 1.4311316
-13.035536 33.121078 1.2908485
-13.33137 33.224789 1.2993777
-10.738489 34.194466 1.4758756
-11.050654 34.092583 1.4317243
-11.644217 33.837593 1.3610439
-11.84533 33.725399 1.3831133
-11.81307 33.797718 1.4501363
-9.7602272 34.473526 1.266643
-11.124246 34.043339 1.2289567
-11.93618 33.474167 1.3813095
-11.85236 33.777122 1.3717897
-10.938294 33.712475 1.5318928
-11.008844 34.317215 1.3414538
-13.623856 33.187248 1.2641457
-9.4254379 35.090004 1.3391978
-13.528488 33.083447 1.4409262
-13.239869 33.493263 1.2664797
-10.919918 34.428665 1.3867832
-11.63255 33.584305 1.4480945
-12.418278 33.572285 1.368367
-11.534337 34.112015 1.2887284
-10.98605 34.154156 1.2640601
-13.134364 33.485466 1.3507206
-11.948528 33.524742 1.2675008
-12.270884 33.762486 1.4816684
-10.626436 34.012836 1.360574
-13.00946 33.280918 1.4404008
-9.2492094 34.92804 1.1975002
-9.478879 34.868687 1.3662893
-12.022039 33.417809 1.5193855
-12.646496 33.405727 1.3672868
-13.820651 33.050282 1.3096209
-11.739068 33.57901 1.443539
-13.856879 33.382866 1.3575876
-12.243198 33.760456 1.385272
-10.54349 34.110153 1.5363131
-9.3043385 34.752792 1.1490901
-10.934505 34.317696 1.3815159
-9.556572 34.853691 1.3018548
-10.935678 34.31702 1.2563335
-10.534927 34.030411 1.3504037
-9.243433 34.782036 1.2732993
-9.4232206 34.677101 1.2869972
-11.019317 34.009418 1.4453827
-9.4480791 34.616814 1.3012896
-10.704973 34.458157 1.2976257
-10.896648 34.378857 1.2218283
-13.696939 32.732414 1.4474194
-11.963613 33.424156 1.4021939
-11.010004 34.298759 1.250972
-13.345331 33.392754 1.4280425
-9.6125574 34.847397 1.2557473
-10.920859 34.31007 1.4459025
-9.5121841 34.642876 1.1389188
-11.531919 34.095268 1.4311932
-13.522763 33.185123 1.2790565
-9.6266985 34.799671 1.3629951
-11.824163 33.992054 1.2884952
-13.616635 33.383457 1.3541044
-9.249877 34.522152 1.3576297
-13.851121 33.205017 1.362177
-10.145114 34.425247 1.2739439
-13.600098 33.262405 1.4349017
-11.726331 34.076435 1.3280566
-13.00187 33.332138 1.2435386
-11.165457 34.077583 1.2675025
-12.245247 33.650074 1.213434
-13.723441 33.108376 1.2711504
-10.919907 34.011917 1.4508113
-13.181237 33.306179 1.2038814
-13.628986 33.082539 1.3511058
-10.850488 34.002129 1.4378363
-12.954235 33.03093 1.4790131
-9.5337992 34.693787 1.2815008
-13.409883 33.169529 1.4438781
-13.427451 32.971161 1.3666766
-13.640618 33.01075 1.3568606
-11.406825 34.174366 1.271922
-10.539865 34.23584 1.5615342
-10.847368 34.195412 1.5006444
-13.523852 33.106117 1.3665533
-10.732708 33.909065 1.4497732
-10.749814 34.101486 1.4820013
-10.93256 34.175636 1.2713394
-9.9368324 34.589222 1.3635722
-11.342474 34.200882 1.354529
-12.260102 33.646591 1.2018888
-13.233891 33.203854 1.3560182
-10.851061 34.113991 1.5252934
-13.836882 32.903553 1.3419724
-14.123383 32.756916 1.3081548
-12.217716 33.669014 1.3662423
-13.332499 33.118526 1.3638574
-13.337425 33.179653 1.4491196
-10.229902 34.400528 1.3220561
-9.7341547 34.79406 1.3687441
-10.911718 34.19759 1.4634075
-13.321163 33.275555 1.3296995
-13.522105 32.960121 1.3834772
-10.404168 34.037338 1.4857541
-12.473475 33.524712 1.5217942
-14.265176 32.805431 1.3407762
-12.434433 33.578617 1.2544138
-11.768557 33.741142 1.4330649
-12.253022 33.515633 1.4741501
-11.420292 34.099831 1.2950859
-10.91375 34.525761 1.3486726
-10.346306 34.21542 1.3208679
-13.532858 33.01321 1.4584517
-10.232718 34.413002 1.2776169
-11.645187 34.025597 1.4637618
-12.353204 33.322105 1.4299229
-13.435232 32.900768 1.449176
-9.1889086 34.562183 1.4350731
-13.65816 33.147305 1.4083616
-12.435841 33.678535 1.4743984
-14.19476 32.686398 1.1935617
-12.555299 33.529129 1.2749515
-13.519762 32.970642 1.2781528
-11.922553 33.875755 1.4791626
-13.030118 33.304497 1.3634892
-9.2908907 34.641537 1.2103215
-12.919036 33.171276 1.4384947
-12.014982 33.7854 1.3629344
-12.831644 33.36554 1.4609847
-12.662796 33.75708 1.4132215
-12.429245 33.512421 1.2610279
-13.791632 33.239887 1.428458
-13.432267 32.983475 1.2936972
-11.048399 33.948441 1.3378506
-10.432357 34.153942 1.2366685
-10.832137 34.072144 1.4511225
-11.470646 33.627659 1.4073427
-10.350654 34.032757 1.5019511
-11.71434 34.072445 1.2916567
-10.475626 34.274097 1.5206437
-10.795677 34.202599 1.1818651
-10.041107 34.284435 1.3403728
-9.3568611 34.753693 1.3202417
-13.521915 32.888245 1.4517995
-10.518286 34.13168 1.4478421
-9.3294325 34.496155 1.3548641
-12.371346 33.69149 1.4663994
-11.126514 34.097836 1.3377707
-9.3260679 34.463066 1.4699111
-11.815984 33.491642 1.4380323
-11.923375 33.77351 1.3711871
-12.127997 33.456532 1.3679503
-12.13568 33.887398 1.4709203
-13.060529 33.42437 1.457014
-12.429335 33.697899 1.3094635
-11.739064 33.494053 1.4754354
-11.521673 33.897964 1.4348036
-10.67447 34.117794 1.4593954
-13.945393 33.227814 1.3080273
-10.526458 34.203743 1.3310611
-10.825351 34.383545 1.2699043
-13.636073 33.111443 1.2866185
-14.047152 33.014088 1.3705395
-10.508768 34.211334 1.2768517
-13.137712 33.286392 1.268037
-14.128589 32.896664 1.38157
-9.3201227 34.591179 1.2842063
-13.524688 32.890526 1.3631045
-11.086788 34.0191 1.3285935
-11.528976 33.675957 1.3592448
-11.928492 33.903351 1.2756931
-14.320076 32.921761 1.2571814
-9.7816296 34.755581 1.2556249
-11.037411 33.97242 1.2875142
-13.638215 32.882504 1.3617872
-13.639791 33.077072 1.4343466
-10.848028 34.164436 1.3364331
-9.3403721 34.699642 1.2792835
-10.93754 34.130768 1.272897
-12.034641 33.391071 1.4762911
-11.66914 33.768341 1.4816891
-13.020412 33.567184 1.3642191
-12.13947 33.888901 1.275941
-11.94313 33.779655 1.2677667
-9.4311361 34.882236 1.2756865
-12.136852 33.833179 1.3428274
-11.995332 33.475529 1.4500744
-11.026668 34.11639 1.343128
-12.034675 33.487865 1.2572162
-12.771792 33.603027 1.46188
-11.358808 34.107079 1.3497413
-9.5252991 34.674351 1.1526266
-13.723269 32.8727 1.3531262
-12.020863 33.472427 1.3741635
-10.357408 34.481503 1.3343204
-13.625906 32.796944 1.4458368
-10.73581 34.192726 1.3501557
-13.71159 33.111805 1.4426219
-12.04167 33.41917 1.3811153
-13.989249 32.765015 1.2654022
-11.821172 33.990383 1.4245551
-12.015932 33.689442 1.4578639
-9.5264206 34.678223 1.3357093
-10.776227 33.935436 1.2721643
-13.433073 33.120216 1.4503183
-9.3545666 34.724075 1.3451986
-12.428582 33.564316 1.4207426
-13.265272 33.272346 1.2823814
-10.938181 34.19273 1.5483956
-9.2365122 34.752556 1.1651775
-11.117344 34.207947 1.3412567
-10.982155 33.929768 1.5354689
-10.317588 34.293365 1.2643929
-11.083751 34.097542 1.4278586
-11.009995 33.898525 1.2805899
-9.2219381 34.574074 1.3412666
-12.215433 33.582561 1.46806
-13.113722 33.473206 1.4580204
-13.825146 33.279778 1.3396692
-9.9417124 34.493336 1.2731823
-12.436547 33.802578 1.276134
-10.560318 34.464111 1.2705359
-11.03147 34.352245 1.3740745
-9.3358994 34.612915 1.3286119
-11.265643 34.205765 1.3591638
-10.789716 34.147339 1.5249068
-10.165902 34.437099 1.3214216
-10.832764 34.184097 1.2712327
-10.917536 33.826126 1.4546216
-13.448241 32.913105 1.349167
-10.426796 34.581039 1.2756586
-9.4034739 34.720383 1.1381717
-9.4228678 34.675842 1.3276243
-10.215508 34.282078 1.3244107
-10.900377 34.11195 1.4552494
-9.298687 34.757278 1.4181348
-13.80348 32.91132 1.4434142
-11.208696 34.200577 1.2958183
-10.330774 34.500694 1.2733986
-10.703741 34.460648 1.1922112
-10.733853 34.204906 1.2630229
-10.698695 34.317905 1.2624747
-10.73829 34.390186 1.3414018
-14.09215 33.099594 1.391973
-10.721969 34.001743 1.266618
-10.930852 34.132153 1.3527819
-10.729077 34.4781 1.3436339
-9.9820127 34.513474 1.3165462
-12.32331 33.712883 1.3608146
-11.762805 33.727043 1.3958532
-10.837695 33.915131 1.27493
-12.134224 33.370476 1.4801309
-10.83917 33.989742 1.2774401
-13.536695 32.803474 1.4481688
-11.748555 34.001186 1.4516176
-12.942056 33.492462 1.3834863
-9.6203423 34.465508 1.3168775
-11.930035 33.704029 1.4460741
-12.161743 33.80899 1.4863985
-13.134357 33.208809 1.4671454
-10.754979 34.397434 1.2562654
-10.1139 34.280823 1.3354731
-13.54952 33.164917 1.357805
-10.461694 34.469128 1.335806
-10.841599 33.975559 1.2063533
-12.334862 33.604851 1.2555071
-11.631167 33.871105 1.3506389
-11.015232 33.863533 1.4485973
-13.931571 32.923679 1.4265729
-10.738777 34.407841 1.207436
-13.626412 33.295525 1.3380229
-11.423897 34.215645 1.1721239
-10.478148 34.149113 1.4831434
-9.1589689 34.707832 1.275938
-13.024837 33.193031 1.4556671
-10.638344 34.20554 1.5212883
-13.21811 33.428658 1.3445022
-11.77591 33.812069 1.4189274
-13.530159 33.32127 1.3414156
-13.639666 32.733105 1.4646647
-10.510307 34.095745 1.2744873
-9.5001001 34.757671 1.333738
-12.804207 33.671692 1.3636928
-10.208145 34.284882 1.2917016
-10.515355 34.371887 1.285507
-12.233047 33.403915 1.4256434
-10.332772 34.118107 1.364217
-9.0359974 34.692719 1.276875
-14.275662 33.101936 1.2838109
-11.590792 33.896633 1.4236556
-9.6124601 34.505093 1.2511772
-9.5812082 34.78244 1.4160154
-12.112213 33.473812 1.2738721
-13.781507 33.069321 1.4433378
-10.542345 34.429794 1.3393972
-13.81568 32.980766 1.4479082
-9.9524527 34.606331 1.2716044
-9.5185318 34.477551 1.2652659
-11.835726 33.712231 1.4416993
-12.743296 33.48148 1.3797625
-13.813767 33.071598 1.3457768
-12.159291 33.445263 1.2644216
-10.121351 34.603767 1.288344
-10.225515 34.598282 1.3570464
-9.1366692 34.590504 1.2745886
-11.806224 33.563526 1.4176556
-13.443749 33.292397 1.4704411
-11.836068 33.51405 1.385803
-12.23941 33.396652 1.3575798
-10.641682 34.518997 1.281914
-10.638092 34.221184 1.2774527
-11.329246 34.200085 1.2828438
-10.353129 34.326958 1.3491206
-10.238537 34.466488 1.2707611
-12.509786 33.466862 1.4862499
-10.53287 34.473606 1.362198
-9.64153 34.386723 1.3605177
-10.12521 34.301559 1.2926265
-10.721026 34.296707 1.3776245
-12.571958 33.541306 1.184401
-10.626702 34.083416 1.3467757
-10.615934 34.080276 1.2637136
-10.311648 34.19698 1.2789552
-10.230854 34.191223 1.2736202
-9.5183191 34.461987 1.3436377
-13.206699 33.111858 1.4675069
-10.639762 34.421288 1.2855477
-9.5274076 34.413654 1.3571597
-10.43538 34.105495 1.2586315
-9.6147823 34.617847 1.2995111
-10.728544 33.988651 1.3580993
-9.1386375 34.588562 1.3639249
-10.542569 34.304668 1.3426948
-10.211837 34.186039 1.3529006
-12.009038 33.758305 1.2864488
-11.775472 33.862473 1.2433225
-10.530115 34.074982 1.3532376
-14.215124 32.956463 1.2636092
-11.723398 33.870373 1.3190446
-11.225513 34.092743 1.3478633
-10.830829 33.961014 1.3527862
-10.431882 34.291912 1.2927998
-10.424501 34.099899 1.3531417
-12.845913 33.187801 1.3779944
-13.800565 32.790234 1.361002
-13.405124 33.212402 1.2704103
-11.11405 34.279976 1.2612118
-9.4731951 34.412781 1.3800299
-13.939063 32.736874 1.2886581
-12.246437 33.40699 1.2681582
-10.541316 34.319851 1.2685492
-9.9429436 34.720207 1.2611648
-14.128729 32.719326 1.2600554
-11.533285 34.164288 1.2328341
-13.254572 33.074669 1.2877986
-12.538433 33.581585 1.2607331
-10.625908 34.261341 1.3325105
-10.325949 34.359531 1.330405
-13.916759 32.76582 1.3727193
-13.710632 33.339504 1.2888724
-10.613663 34.474689 1.3540554
-13.330665 32.981899 1.3596473
-12.338985 33.413376 1.4696767
-11.597982 33.745358 1.4782034
-13.94302 32.787788 1.4460647
-12.51164 33.578346 1.3777758
-11.267341 34.229076 1.4139652
-9.531414 34.620918 1.341988
-13.121026 33.565022 1.2571518
-12.314436 33.384693 1.3693928
-13.220369 33.471455 1.3400778
-12.354174 33.35498 1.247949
-10.676745 34.391823 1.4448602
-14.261665 32.902122 1.162456
-14.166415 32.698765 1.1747724
-13.521582 33.378166 1.3428355
-13.460245 33.363205 1.3068324
-14.229027 32.8871 1.3337835
-12.957264 33.38588 1.310235
-12.118097 33.66428 1.4642895
-10.421121 34.091908 1.4515247
-13.424424 33.17659 1.3545597
-13.816411 32.779633 1.4376078
-13.825642 32.994762 1.3630745
-12.11856 33.673214 1.3823924
-13.859257 32.728546 1.3730202
-14.048857 33.083405 1.3933941
-13.733024 33.015015 1.3646483
-13.544299 33.14922 1.4502907
-13.240515 33.165024 1.4425223
-13.802536 33.246449 1.4440556
-13.125009 33.261276 1.4519355
-13.733329 33.002094 1.4529945
-12.853118 33.338875 1.3756464
-13.23148 33.41703 1.466701
-13.036945 33.235893 1.3683608
-12.833293 33.486237 1.3972136
-12.589419 33.445267 1.4170111
-13.564574 33.266048 1.4293031
-12.846391 33.307674 1.4615003
-12.513309 33.697662 1.4878831
-12.331246 33.50486 1.4706184
-12.33312 33.552151 1.4598627
-12.13975 33.325466 1.4749097
-13.128938 33.281021 1.3574976
-11.936646 33.416336 1.4735447
-10.823897 33.878578 1.5313319
-12.746688 33.374229 1.4405313
-13.434985 32.837048 1.4757756
-12.588113 33.673698 1.5142422
-12.554249 33.702911 1.5141402
-11.684714 33.999317 1.523905
-13.929463 33.096989 1.4297529
-11.725328 33.922321 1.4805064
-12.764093 33.595005 1.3757049
-9.6111908 34.805058 1.282912
-12.840581 33.605743 1.364424
-11.848243 33.436398 1.4763372
-11.71804 33.60004 1.3699416
-12.045691 33.630955 1.4763956
-12.795513 33.482132 1.4382684
-12.752768 33.402363 1.3669597
-13.936532 33.301029 1.3386658
-12.742055 33.518162 1.4668353
-12.281693 33.769806 1.4860209
-12.034513 33.821644 1.4758437
-11.782132 33.920353 1.4861673
-11.322325 33.908924 1.3562491
-12.74938 33.583984 1.2859584
-11.41962 34.314316 1.3437791
-10.328315 34.074039 1.46968
-12.53931 33.417973 1.3734629
-10.339545 34.382225 1.2697095
-11.612464 34.061878 1.4650543
-13.436324 33.389072 1.3437254
-13.311957 33.474998 1.3692702
-12.929564 33.598869 1.3691844
-13.432335 33.117825 1.3575373
-10.594637 34.223839 1.4835801
-11.418839 34.1964 1.349564
-11.999093 33.986259 1.413305
-11.828365 33.979012 1.3659744
-10.722078 33.981106 1.4514298
-12.334173 33.576767 1.3650968
-12.436688 33.500603 1.3722682
-12.421905 33.479061 1.472753
-13.728144 33.089584 1.348222
-11.938704 33.730019 1.2879171
-9.2258482 34.51252 1.4605916
-10.815412 34.308231 1.3030655
-9.5257702 34.391075 1.4496723
-11.294358 34.064838 1.2671719
-10.018814 34.603973 1.356493
-11.641665 34.186325 1.3603599
-12.120977 33.4151 1.3655409
-9.8531322 34.498199 1.2758646
-12.450843 33.444324 1.359992
-12.834805 33.391846 1.3686756
-12.628506 33.710487 1.292963
-14.31525 32.876125 1.1901364
-9.6069794 34.387577 1.2762947
-12.461066 33.367744 1.4301686
-9.6563473 34.680267 1.3031766
-10.42071 34.171249 1.3382427
-11.923242 33.982166 1.3528916
-13.895348 33.179935 1.3390085
-9.6341114 34.708134 1.3253213
-10.853947 34.37883 1.3333638
-10.162576 34.499271 1.2802079
-9.4291897 34.757477 1.3455424
-10.816395 34.3871 1.1911725
-10.14949 34.47662 1.3186197
-11.932723 33.720852 1.3847674
-10.60284 34.268471 1.2767692
-10.010506 34.588856 1.3102674
-13.734191 33.300739 1.3347694
-13.72413 33.275101 1.4643676
-11.928163 33.968834 1.2775046
-9.3560572 34.775894 1.2834567
-13.907496 33.007366 1.3407979
-9.4524136 34.756626 1.4771473
-9.4104538 34.756901 1.2969544
-12.622276 33.695625 1.3679129
-10.464803 34.384148 1.3232017
-9.5806255 34.666882 1.20737
-12.582565 33.553349 1.2454649
-12.672263 33.574116 1.444869
-12.620886 33.602203 1.3935597
-10.602647 34.220486 1.3377427
-10.8093 34.30891 1.3381404
-10.465922 34.042099 1.3916799
-13.982862 32.930038 1.3993224
-13.983651 32.89122 1.4355836
-13.883308 33.214397 1.4266411
-13.925369 33.007809 1.2860695
-12.557405 33.765774 1.2553312
-12.547311 33.501858 1.373992
-10.520982 34.020573 1.4585619
