# .PCD v0.7 - Point Cloud Data file format
VERSION 0.7
FIELDS x y z
SIZE 4 4 4
TYPE F F F
COUNT 1 1 1
WIDTH 1093
HEIGHT 1
VIEWPOINT 0 0 0 1 0 0 0
POINTS 1093
DATA ascii
22.153631 26.345638 1.9685063
23.350578 26.587896 1.8217946
21.244545 25.822256 1.7505068
21.257866 25.811213 1.6634166
21.24044 25.842373 1.87604
22.18796 26.543093 2.0053265
23.134144 26.922338 1.797951
21.875576 26.134228 1.6666445
23.244818 26.928957 1.894031
23.272266 26.578468 1.785131
21.341156 25.939585 1.8118867
22.67215 26.423859 1.758297
23.58285 27.148857 2.2688339
21.739424 26.021376 1.5811108
21.386494 25.904053 1.6551496
21.264067 25.892694 1.7546962
21.423481 25.934736 1.7432203
23.289999 26.59894 1.8691645
22.437662 26.636147 2.0444047
21.373577 25.903128 1.714708
21.778383 26.029438 1.8683667
21.39311 25.998962 1.7535203
22.706583 26.558832 1.9109782
21.965593 26.081928 1.7490889
23.357494 26.635807 2.1229515
22.659193 26.726187 2.7807224
22.232496 26.504896 3.171334
21.74198 26.037708 1.7139868
21.651085 26.165854 1.689945
21.836432 26.436359 1.9242771
22.806255 26.86731 1.9581392
21.663145 26.031801 2.2552211
21.471233 25.992477 1.8087734
22.183561 26.674366 2.8479698
22.427336 26.636852 2.227175
22.320814 26.236662 2.9076619
21.482357 26.011255 1.8779564
21.687992 26.06333 2.4597576
21.979973 26.554758 1.7913479
21.96253 26.136251 2.0821261
21.684875 26.421181 1.9535687
21.656603 26.015965 2.4395013
22.988468 26.960642 2.6570513
22.964718 26.997488 3.2815068
21.701906 26.030811 2.5463781
21.389492 26.308718 1.9571249
22.563347 26.723152 2.6614738
22.570925 26.722282 2.4505458
22.568916 26.717361 2.2659223
23.258699 26.670567 2.6267574
22.780912 26.478462 2.3516109
22.774965 26.470217 2.2488937
22.554243 26.723495 2.5445161
22.665813 26.731728 2.1555288
21.982975 26.549896 1.8985456
21.65424 26.071636 1.8728336
23.303522 27.058668 2.237735
23.058214 26.97105 1.7872891
21.470238 25.975433 2.1653407
22.776476 26.472891 2.163157
21.471481 26.369505 2.6604552
21.860603 26.424049 2.2494469
23.30442 27.075012 2.3815262
21.979475 26.190502 1.7701243
23.221434 26.586802 2.28931
22.173851 26.599857 1.9634941
21.873978 26.478872 1.8757979
21.381937 26.283228 2.0651927
23.222223 26.534496 1.8210006
21.560644 26.321289 1.8483866
23.142668 26.453337 1.8124896
22.092981 26.558781 2.0815861
22.377699 26.383644 1.9720153
21.968023 26.610867 3.1373196
21.97105 26.497454 2.1599026
21.972441 26.512964 1.9420841
22.322762 26.611176 2.0079298
22.370281 26.304228 2.2575307
22.065475 26.13452 2.0947897
22.369631 26.318111 1.9708567
21.479511 25.985306 2.4391704
23.191669 26.555981 1.7940688
21.896235 26.177176 1.9393753
21.927059 26.136665 1.9658656
21.950409 26.133127 2.3543186
22.552191 26.733419 1.7647383
22.862694 26.819057 2.2697129
21.962362 26.123163 2.5434453
22.032532 26.136728 2.2875021
22.675034 26.785423 1.9753381
22.855122 26.559219 1.9465415
21.464458 25.977005 2.3590069
22.344904 26.630102 2.5413535
21.166124 26.205713 2.3632748
21.173964 26.186796 1.9698855
21.165556 25.876501 1.956488
21.192944 25.908726 1.7803233
21.799095 26.469475 1.9301801
22.574131 26.391392 2.0550947
21.569334 26.168594 1.881094
23.253738 26.626389 2.0733013
22.969828 26.523932 2.0687001
22.457214 26.308102 2.4558842
21.967522 26.502131 1.8602694
22.361174 26.632061 2.4446492
22.348663 26.624258 2.3656523
22.382462 26.375343 2.1754105
21.262724 25.908522 2.7157562
22.476826 26.759651 2.5711997
21.966406 26.584278 2.4942584
22.368465 26.632957 2.6446221
21.48407 26.368912 2.4573944
22.463194 26.697512 2.6553791
21.94614 26.127773 2.1579332
21.978107 26.551231 1.9646391
21.625277 25.98069 2.7210391
21.444525 25.93008 2.3324561
21.345821 25.958345 2.7225103
22.068821 26.195347 2.1636336
21.456299 25.932434 2.6675901
21.48024 26.286875 1.8770161
22.510103 26.853258 3.1540561
22.741028 26.427904 2.561645
22.37291 26.612293 2.0550585
21.945107 26.128708 2.2612002
22.077471 26.209772 2.5433097
21.162388 25.956749 2.026675
21.386389 26.363659 2.4236717
22.455938 26.315668 1.7838616
21.388092 25.964148 2.1727722
21.394161 25.963814 2.2672219
21.379946 26.278021 2.2687476
21.409193 25.967035 2.4596276
21.372257 26.277046 2.3628042
21.369944 25.968107 2.5640588
22.752993 26.431419 2.433099
21.263439 25.891371 2.4530702
21.665352 26.4189 2.7401662
22.455317 26.328178 2.1734889
22.455137 26.331539 2.5547986
22.754322 26.43067 2.2627254
22.663054 26.41609 2.4386265
22.255413 26.588326 2.0615017
21.26012 25.829655 2.1368432
21.941769 26.55224 2.3923328
21.284361 25.924646 1.8506817
21.680902 26.547192 2.7818992
22.383537 26.314152 1.863003
21.259907 25.895977 2.5500937
22.869102 26.496145 2.0816588
22.386238 26.672779 2.1722741
23.160263 26.931017 2.5648806
22.366859 26.643629 2.715795
21.650087 25.923553 2.7165039
22.978767 26.968044 2.772826
22.968752 26.97287 2.3901789
21.874577 26.182499 1.8775843
23.157494 26.623146 2.6178904
21.886143 26.160536 2.1638138
21.876135 26.173706 1.7575916
21.868937 26.190248 2.0757763
21.995605 26.573605 2.555788
21.468136 26.319332 2.644027
23.046375 26.527277 1.9420111
21.134945 26.308527 2.005374
21.173449 26.26873 2.020648
21.758657 26.465519 2.0439138
21.364986 25.92256 2.0736043
22.448477 26.329777 2.0727296
21.35153 25.926636 2.5712411
22.360081 26.356823 2.4622979
21.46563 26.310326 1.9651486
22.165972 26.695696 2.9853473
22.663218 26.761738 2.1626868
22.76627 26.789236 2.1636631
22.673132 26.767385 2.2700751
21.578676 26.433565 2.8223343
23.184155 27.111101 3.2456365
22.276875 26.677404 2.5550699
22.364199 26.6898 1.8819257
21.510345 26.413214 1.6341535
22.963297 26.825016 1.7298656
22.214636 26.646975 2.2809768
22.069315 26.19623 2.4611266
21.382704 26.291977 1.8576326
22.06146 26.199415 2.354779
22.071358 26.198734 2.2646606
22.379372 26.679319 1.9397002
21.090797 25.89909 1.7729375
21.145676 25.821152 1.8371058
22.356907 26.672798 2.0818381
22.483557 26.370359 2.0572443
22.185757 26.675255 2.447963
21.342325 25.909834 2.4675932
21.081711 26.172613 2.2633955
21.670975 26.383417 2.1736658
21.75843 26.405008 2.7716165
22.055214 26.144072 2.4847066
21.463062 26.314377 2.5607214
21.964649 26.177273 1.8921341
21.367521 25.927835 2.2583988
21.86392 26.120399 2.4516826
22.948845 26.920452 1.6065938
22.806604 26.42828 1.8229802
23.134682 27.052839 2.7897372
21.841219 26.412655 2.1716275
21.35713 25.927574 2.1568248
21.574131 26.352711 2.0665858
21.480732 25.937458 2.4682636
23.049198 26.535374 2.2387977
22.960442 26.810623 2.0716977
21.984013 26.716219 2.7319973
21.195997 25.825188 1.6582966
22.489794 26.363153 2.3483701
22.985495 26.558878 2.1612542
22.479925 26.391548 1.7596128
22.776178 26.808981 1.9598635
22.472107 26.365843 1.9669708
21.469667 26.316362 2.4562981
22.977217 26.975611 2.1959202
22.370005 26.308531 2.0607972
21.358389 25.826815 1.9319371
21.391907 25.971882 1.968544
21.27177 25.896046 2.1675699
21.683537 26.068321 1.9803228
22.539423 26.38909 1.6687865
23.269491 26.99745 1.9505798
21.670263 26.437305 2.8617084
22.084763 26.503456 1.9984783
22.368048 26.304958 2.1688132
21.687418 26.077623 2.0678544
23.255779 26.97093 1.7789223
22.863262 26.492544 2.2480633
21.469143 25.940514 2.2751756
22.933468 26.514528 2.3753934
22.158445 26.610836 3.1218805
21.235638 25.838844 2.3928118
22.377562 26.665981 2.2670324
21.212837 26.257488 2.2234628
21.672649 26.064192 2.3542066
22.473694 26.693256 2.3629897
22.005886 26.657566 3.3710022
22.587051 26.803671 2.7508125
22.065672 26.283661 1.7476796
22.766731 26.806986 2.4610226
22.746956 26.42432 2.3552372
21.562876 26.326042 2.2696402
22.475651 26.795948 2.9484081
21.681715 26.064798 2.161361
22.095394 26.566965 1.9518385
21.871078 26.174984 2.2560892
21.648495 26.02726 2.3578889
21.528879 26.351938 1.7367796
21.564304 26.321487 1.9810357
21.412157 26.471928 3.3134155
22.961967 26.836172 1.9705215
22.965864 26.884687 2.4576643
21.652887 26.031488 2.1576927
22.969349 26.881996 2.0790546
21.671637 26.382372 2.2641582
22.406843 26.682798 1.8079985
23.184258 27.049446 2.6665206
22.488018 26.365387 2.2606294
21.468657 26.305763 2.2717195
22.060183 26.518915 2.0647638
22.685867 26.866272 2.7518816
22.766357 26.799084 2.3559024
21.203716 26.248075 2.4482589
21.655895 26.027786 1.9571886
23.043446 26.527325 2.1497669
21.666611 26.036098 2.0635321
21.691565 26.074106 2.5579796
21.679636 26.065462 2.2527957
21.577023 26.363321 2.175251
21.76733 26.492847 3.2199433
21.868063 26.114635 2.3483405
21.458189 26.301125 2.1707835
22.138771 26.535767 2.1696393
21.87499 26.566973 2.7630405
22.072906 26.577717 1.8783404
21.475157 26.294859 2.0682859
21.871513 26.114859 1.9651161
21.709652 26.447914 2.1128099
21.882191 26.167955 2.4586525
21.687176 26.553814 3.1079712
21.654144 26.376434 1.8662957
21.367861 25.923592 2.3498673
21.366661 26.450754 3.3059082
22.050299 26.269539 2.1812525
22.767769 26.796633 2.2678292
23.180691 27.072725 2.8855319
22.467754 26.698959 2.5562212
21.863832 26.115646 2.1572711
21.373571 25.928148 1.9730986
21.668182 26.37212 2.0558078
21.677031 26.159466 1.8104923
22.756811 26.423313 2.074815
21.975328 26.584263 2.6724415
21.947748 26.071518 2.6296766
23.064835 26.540634 2.0740862
21.567801 26.378929 1.9559674
21.86068 26.115894 2.072576
23.278824 26.930862 1.9642996
21.649851 26.153902 2.1109483
21.370415 25.98333 1.8882192
21.581749 26.364628 2.2634637
22.974302 26.872742 1.8731081
23.263451 26.938862 2.4627256
21.367695 26.271614 2.1629252
21.960009 26.433712 1.8721665
22.765051 26.439905 1.7619019
21.279341 25.901209 2.0671432
21.675533 26.034534 1.8972771
21.706663 26.491446 1.8975993
21.684464 26.171352 1.8753835
23.065489 26.908941 2.3623042
22.277988 26.352531 1.9833767
21.575954 26.419218 1.8980823
22.086357 26.559374 2.2704623
21.870371 26.114964 2.2533445
23.08061 26.908361 1.8652805
21.375158 26.292637 2.4584436
22.762339 26.785389 2.0592816
23.073706 26.533077 1.8039187
22.885489 26.860403 2.2669551
22.035395 26.127968 2.1811035
22.673193 26.418343 2.1628706
22.678341 26.420712 1.9546411
21.983734 26.554718 2.206434
22.877481 26.819735 1.6542542
22.746677 26.436401 2.166748
22.097624 26.562468 2.1699715
21.343662 26.233145 2.1547348
21.96027 26.109526 2.7760701
21.872269 26.111925 2.5480075
21.565441 26.004972 1.7034144
22.003147 26.55302 2.2443595
22.170637 26.602486 2.6494236
23.455687 27.034231 2.3639481
21.971878 26.661789 2.9568703
22.160753 26.667614 2.5679076
21.588015 26.043217 1.7713187
22.03483 26.143499 2.6705444
21.957874 26.599133 3.0311499
22.738609 26.803001 1.6868373
22.865124 26.883547 2.5640502
21.757248 26.026861 2.0508652
21.354271 26.229704 2.4458599
21.670511 26.456656 1.7844193
22.374491 26.692816 2.5591938
21.973274 26.127077 2.4600401
23.431927 27.160402 3.1553941
22.869694 26.495178 2.1583872
21.89613 26.530199 3.267276
22.267 26.274519 2.4531841
22.364708 26.682167 2.6604152
21.671701 26.392984 2.4520869
21.668318 26.39089 2.3585541
23.36968 27.013273 2.2612355
21.704525 26.56893 2.8414054
22.876373 26.481665 2.4760582
22.868042 26.518757 1.9530374
21.665545 26.579954 3.3814936
22.077358 26.563446 2.4609237
21.663464 26.414185 2.6431775
23.385075 27.072214 2.450645
21.260227 26.248081 1.9640377
22.07699 26.576458 2.5534692
21.476185 26.300707 2.7296195
22.466038 26.685135 2.2663963
22.473896 26.386942 1.6628152
21.255228 26.320797 1.705267
21.310682 26.268614 1.8829075
21.268484 26.210888 2.0581017
21.228045 25.837727 2.5112016
22.463352 26.293514 2.86274
22.222528 26.638401 2.714282
21.337315 26.233042 2.260072
21.483727 25.984245 2.5420113
21.286339 26.257084 2.2662144
23.431288 26.648016 1.7245787
21.176094 25.965242 2.1717637
22.133537 26.674646 3.1622071
21.280903 26.264542 2.4596467
22.768145 26.808851 2.5483968
21.26844 25.905018 1.9692339
22.468033 26.685123 2.1633732
23.214394 26.625858 2.5515497
21.471233 25.977606 2.2656777
22.520796 26.368811 2.6227829
21.270792 26.219328 1.9694791
22.475031 26.357643 1.8513483
21.57238 26.008005 2.1588795
21.376532 26.384424 2.7401457
21.386232 26.373867 2.5972667
22.381039 26.666988 2.3609715
22.847101 26.503822 1.8805274
21.771275 26.043331 2.553539
22.474821 26.700508 1.9629904
23.216969 26.585302 2.3712995
21.601528 26.078793 2.2559388
21.900948 26.251842 2.0565379
22.273027 26.604923 2.1593323
22.447996 26.318769 1.9815376
23.162886 26.932138 2.3508992
22.464167 26.326283 2.2666626
23.368176 27.005201 1.8653027
21.979074 26.171843 2.2703161
23.180958 26.9692 2.2575123
22.574194 26.381359 2.3518603
22.360283 26.298594 2.361464
22.279989 26.659578 2.3651915
21.751379 26.038918 2.3839412
23.373722 27.01362 2.1698601
21.721319 26.034706 2.2680073
21.374828 26.291704 2.5535884
22.238293 26.272123 2.5659549
21.387417 26.391022 2.9689193
22.64349 26.381907 2.6566362
21.755178 26.024227 2.4600952
23.351818 27.011715 2.0645823
21.484241 26.365664 2.5598307
21.364758 25.901112 2.8949728
22.484392 26.71472 2.8194497
22.373995 26.676945 2.4557948
22.467525 26.760838 2.6803913
21.558849 26.070829 2.355098
23.268042 26.978014 2.1692541
22.456739 26.77039 2.7607455
22.800032 26.961021 2.8885753
21.262741 26.215345 2.5564642
23.189537 26.969578 2.1668034
23.272835 26.993238 2.0706248
23.157915 26.924181 2.2609372
22.265713 26.620523 2.5496807
21.228584 26.351732 1.7909448
21.285929 26.26717 2.1454761
21.570898 26.063084 2.4321778
23.157635 26.603271 2.4569097
22.959715 26.836382 2.1788876
23.164961 26.601179 2.0589743
21.272854 26.394211 3.3435221
23.170212 27.018728 2.7676694
21.316074 26.347311 2.6844294
22.972191 26.966627 2.8654742
21.591778 26.397793 3.0440307
21.673361 26.396803 2.5616558
21.2659 25.90004 2.2572625
21.612844 26.466253 1.826004
21.26939 25.895557 2.3611832
21.474295 25.98601 2.0760362
23.241524 26.619854 2.1561987
22.966103 26.900507 2.5605218
23.076292 26.579044 2.1564579
21.586845 26.071808 2.1596813
21.79253 26.326769 1.9126601
21.26725 26.351988 2.600904
22.982397 26.563612 2.0662446
21.2714 26.354378 2.9780378
21.27066 25.874969 2.6416152
23.087721 26.971678 2.4563315
23.161802 26.971796 1.8893715
23.166847 26.982738 2.5558951
23.189844 26.990219 1.9761907
23.263926 27.062237 2.5647848
23.179363 26.597137 1.8536425
23.181688 26.602129 2.7534566
22.196077 26.752176 3.3057797
21.169186 26.191406 2.1731508
23.106146 26.946529 1.8143333
23.176804 26.972454 2.4588814
23.266476 26.992626 2.451474
22.978855 26.997324 3.3230746
22.380131 26.450251 1.6487978
22.196671 26.759228 3.5563586
22.468935 26.695126 2.4522688
22.943295 26.836624 2.2632723
22.975594 26.890368 1.9584832
23.063999 26.898195 1.9396945
23.076431 26.888756 1.6455073
21.282442 26.392628 3.2976782
23.165539 26.95978 2.0735204
23.266588 26.990282 1.8476361
22.692875 26.758892 1.6248167
22.752752 26.784662 1.8611431
22.86396 26.82144 2.1762455
23.067205 26.906115 2.1676221
23.168909 26.930906 2.1664979
22.900742 26.951916 3.0705776
22.072737 26.207747 1.674571
22.668125 26.720194 1.9690951
22.751106 26.729919 1.7640221
23.048553 26.887459 1.7602656
23.150314 26.910961 1.9653926
23.145813 26.928385 2.0737517
23.180874 26.969036 2.3655453
23.196121 26.98811 1.7979861
22.504566 26.751431 2.3457744
21.176943 26.184677 2.0628529
21.461613 25.981815 1.9771451
22.971109 26.879412 2.3644021
23.067318 26.911104 2.0722599
22.06151 26.193886 1.758458
23.016912 26.88743 1.7672228
22.974981 26.879646 2.2650437
23.087795 26.970398 2.0425968
23.272293 26.988153 2.2679384
21.767115 26.081228 1.7719693
21.350428 26.306219 2.7596371
21.306152 26.380407 2.7416739
21.186941 26.264797 2.5676801
21.147627 26.213297 2.648891
21.548231 26.430994 2.9763091
22.280382 26.279449 2.0701199
23.270164 27.00102 2.5549066
23.067915 26.913496 2.5603538
22.859997 26.820719 1.9692858
22.967102 26.829533 2.3661051
22.855066 26.805679 2.0887427
23.087807 26.584461 1.8228136
23.069399 26.912373 2.4530799
22.863815 26.858631 1.8715391
23.001299 26.526226 1.8347169
21.884312 26.563541 3.3944829
22.572718 26.705465 2.0698016
22.473244 26.68338 2.0687704
21.575298 26.451578 2.3243713
21.590546 26.073544 2.0896072
22.584709 26.384678 1.7439321
21.170301 26.270535 2.6732094
22.963673 26.878075 2.181318
23.468256 27.079914 2.1724041
23.27553 26.987965 2.3571777
23.259155 26.938705 2.348578
23.15045 26.929123 1.883033
22.185577 26.664145 2.7636919
22.272211 26.615 2.4528737
22.296717 26.666359 2.4653118
22.267027 26.770073 2.7371438
22.3186 26.653156 2.2012792
22.295761 26.683386 1.8729473
21.355614 25.891953 2.8069713
21.612185 26.049215 1.9787371
22.234982 26.641207 2.6482444
22.165823 26.589025 2.4533021
22.149025 26.647598 2.6556835
22.123919 26.543112 2.7615464
21.265293 26.385868 3.0667324
22.266968 26.607763 2.36254
22.169693 26.615517 2.7548287
22.17473 26.599781 2.5474546
22.411961 26.760458 2.5089378
22.267023 26.216547 2.6818318
22.289404 26.289768 2.6472015
22.203079 26.631376 2.8557673
23.269583 27.059784 2.4468346
21.449409 25.93898 2.0634427
22.184362 26.686651 3.068193
22.689127 26.406818 2.5844197
21.981325 26.115574 2.8561871
22.362303 26.382137 1.6470776
22.964333 27.008421 3.0848718
21.449327 25.93165 2.5586574
21.558165 26.323799 2.457432
22.290661 26.22699 2.7283936
22.155153 26.643682 3.0174637
22.984819 26.953617 2.4881136
22.881523 26.871796 2.0696146
22.670553 26.4175 2.346065
22.562096 26.722195 2.3587663
21.973072 26.57469 2.7834344
22.089203 26.158573 2.9809041
23.170925 26.994324 2.654634
22.505661 26.845129 3.4175193
23.088274 26.982309 2.9421449
22.982861 26.891897 2.636543
22.900082 26.909756 3.1793966
21.441141 25.903036 2.8073285
21.385609 26.465149 3.0633903
22.634254 26.34272 2.7587218
22.741655 26.841692 2.9514809
22.650885 26.793459 3.2045326
22.674316 26.826645 2.9347477
22.474503 26.728836 3.1422462
22.56428 26.808302 2.8505261
22.670544 26.801123 2.6530714
21.569513 26.332355 2.0631781
22.353699 26.729418 2.9379306
22.26602 26.639544 3.1583185
22.276005 26.696774 2.848994
22.358585 26.71656 2.8683777
22.085876 26.616623 3.0524089
22.158743 26.637138 3.2247143
21.975428 26.581713 2.8735826
22.06657 26.617428 2.8693199
22.083658 26.623682 2.9795661
21.752207 26.523342 2.9644287
21.76548 26.491978 2.6724288
21.866777 26.501431 2.6633489
21.879309 26.572769 2.6809018
21.695051 26.464645 3.193332
22.171921 26.575201 2.271641
21.559935 26.403006 2.6586373
21.661167 26.465763 3.2510052
21.663383 26.488169 3.0685992
21.771969 26.519833 3.0591304
21.520557 26.404636 3.2387316
21.596979 26.451218 2.9893403
21.652174 26.479687 2.7565622
21.791183 26.609577 3.3653846
21.86347 26.542957 3.1046269
21.662624 26.496086 3.3584325
21.780365 26.510799 2.7651918
21.903727 26.572245 2.8517749
21.960934 26.626207 3.4711599
23.269384 27.123392 3.381834
23.34877 27.120184 3.3909934
21.574472 26.489681 3.3473053
21.674225 26.493551 2.8665919
21.559555 26.476624 2.7872534
22.378643 26.351723 1.8753501
22.666109 26.414095 2.2559764
22.680382 26.903557 3.1458371
22.687046 26.881586 2.8652871
22.451204 26.823044 3.3648281
22.465853 26.800653 3.0911984
22.562393 26.834778 3.4239113
21.17174 26.349274 3.2042558
21.936337 26.51329 2.9480655
21.959047 26.609268 2.9325588
22.053719 26.633259 3.2547135
21.878216 26.58666 3.4624445
22.094578 26.701994 3.5418484
22.084095 26.62071 3.6235058
21.954433 26.603367 3.2832959
22.029823 26.629612 3.3600197
22.474102 26.705238 2.7742896
21.919199 26.101006 2.6864135
22.256046 26.726089 3.1492932
22.339186 26.741587 3.195761
22.4055 26.782457 3.2614584
22.416508 26.792372 3.5165007
22.951012 27.000315 2.9713764
22.251986 26.715782 3.060219
22.285061 26.726122 3.3999741
22.050182 26.660183 3.358614
21.446808 26.395233 3.1577656
21.465452 26.408403 2.9567738
21.488646 26.43008 3.2732494
21.585808 26.496979 3.1838622
23.050495 27.011822 3.039762
23.071198 26.986021 2.7609844
23.094355 27.073397 3.3606822
21.37817 26.374691 2.8476439
21.379295 26.41091 3.0436883
21.363815 26.307043 2.6393216
21.171331 26.3036 2.96632
21.556871 25.992353 2.5457215
21.556786 26.47081 3.282702
22.882198 26.974512 2.9727523
21.156206 26.376936 3.267395
22.089111 26.688446 3.2555003
22.078011 26.67038 2.9687877
22.069988 26.650875 3.1345737
22.166195 26.700962 3.462378
21.281578 26.376934 3.1637368
22.54204 26.828335 3.243094
22.583841 26.822645 2.9716685
22.566999 26.793165 2.6833706
22.673429 26.890209 3.2660553
22.772594 26.902964 3.0692575
21.186192 26.280872 2.7665744
21.363766 26.396269 3.185225
22.747728 26.919998 3.1255565
22.766891 26.890928 2.848768
22.767504 26.961447 3.426954
22.777222 26.958126 3.1609201
22.86709 26.987549 3.1684763
22.236366 26.753942 3.0039904
22.286905 26.770704 3.0483658
22.269455 26.786947 3.5838244
22.374691 26.805775 3.3590221
22.372972 26.781004 3.0697346
22.587214 26.869473 3.164376
22.653877 26.908415 3.4738548
22.173508 26.579088 2.3575125
21.900784 26.650097 3.4796689
21.957037 26.660023 3.5001767
22.008133 26.673628 3.5187314
22.141905 26.745058 3.5665829
21.469952 26.401142 2.8813112
21.458347 26.438395 3.3460619
21.499743 26.456627 3.1342256
21.571695 26.474859 2.8717945
21.547955 26.48889 3.4215181
23.367893 27.10321 2.8592947
23.368816 27.185909 3.4318919
22.570011 26.875904 3.3645172
22.576218 26.858133 3.0552981
22.651518 26.915394 3.3779101
22.681255 26.874172 3.0925217
22.791639 26.962172 3.3996165
21.480612 26.385981 2.7687254
21.463434 26.493429 3.352843
21.485353 26.469427 3.0759232
21.564587 26.479406 3.0744836
21.743361 26.495102 2.8661122
21.742865 26.550047 3.4172835
21.764008 26.568846 3.1380546
21.161293 26.300261 3.0313921
21.166573 26.273273 2.8780606
22.454407 26.323965 1.6527185
22.56604 26.82482 3.06668
22.666222 26.870378 2.9733462
22.869146 26.951654 2.849823
21.412691 26.377518 2.6226079
22.266977 26.685131 2.6466408
22.386215 26.765095 2.9192991
22.473709 26.806911 3.1908445
21.346619 26.339426 2.8499742
21.564737 26.010876 2.4523845
21.566891 26.004541 2.3541784
22.608181 26.862326 2.9318593
22.55703 26.735249 2.7537313
22.595522 26.857309 3.2515159
22.786924 26.884789 2.7623904
22.744896 26.912697 3.2503645
22.846071 26.946276 3.3112693
21.190546 26.334763 3.270896
21.48777 26.456753 3.2956047
21.558456 26.386284 2.7737808
21.570633 26.006483 2.2524796
22.2661 26.6077 2.2696373
23.148905 27.102463 3.3771961
23.19516 27.09856 2.9914262
23.313116 27.118557 3.0777638
23.377563 27.180504 3.3455234
23.38455 27.184261 3.1610026
23.423643 27.225895 3.3907182
23.105137 27.070871 2.8525934
23.144064 27.08551 3.1549885
23.267017 27.10507 3.1423047
23.291502 27.138048 3.42138
22.60006 26.855188 2.8669574
22.871265 27.021358 3.43962
22.999735 27.046839 3.2726696
23.083431 27.0786 3.198756
23.261913 27.083414 2.9373908
23.273909 27.164145 3.2287242
21.483633 26.441708 3.0606656
21.766891 26.575453 3.0605514
21.859486 26.596663 3.1471877
22.067671 26.651114 2.8487689
22.138094 26.709492 3.3072188
22.38121 26.807093 3.1559
22.502558 26.845726 3.1100752
21.169058 26.204287 2.5620604
22.267498 26.657818 2.2879744
22.366493 26.633904 2.154103
22.266129 26.671844 2.7509365
23.271713 27.156176 3.4185503
23.470198 27.086351 2.2666759
22.096937 26.675772 3.1002841
22.15642 26.72114 3.357883
22.277376 26.76041 3.1229892
22.312099 26.800797 3.3767123
22.377474 26.752565 2.8394055
22.469702 26.787909 2.8515804
22.768164 26.930149 2.9511769
23.091621 27.056236 3.2754872
23.178026 27.067951 3.0705395
23.25032 27.132273 3.2935536
23.337559 27.11146 2.9428861
23.368563 27.180613 3.308202
22.076887 26.587843 2.6733515
22.564878 26.830997 3.1926947
23.369652 27.109266 3.0594261
22.375431 26.719093 2.7484391
22.509449 26.759823 2.4752157
22.770636 26.868668 2.5749011
22.878504 26.8909 2.7814677
23.083288 26.976135 2.5700607
22.259596 26.613356 1.9615631
22.064749 26.603539 2.7626667
22.66773 26.798105 2.5573237
22.70196 26.85528 2.6527793
22.7766 26.87867 2.6516638
22.868645 26.927111 2.8709605
23.082272 26.985033 2.649749
23.038691 27.002651 3.1219938
23.070251 26.999622 2.8693576
22.840559 26.944269 3.0924816
22.570835 26.778494 2.5700769
22.945137 26.935524 2.8781838
23.124893 27.025454 3.1381681
23.166372 27.013876 2.8730819
21.491467 26.453106 2.8822544
22.355698 26.736933 3.0718262
22.656507 26.834511 2.8474131
22.830341 26.906216 2.9491456
21.070196 26.274824 2.7303119
21.240395 26.322517 2.9618425
21.679689 26.494423 2.9676898
21.763615 26.418119 2.4549272
21.548771 26.329712 2.1740232
21.689444 26.47402 2.5505393
21.86084 26.505096 2.7501247
22.877052 26.885078 2.6666675
22.491051 26.367743 2.4356256
21.258776 26.313869 2.7554734
21.277824 26.291658 2.6597631
21.664984 26.462803 2.6789012
21.785931 26.469542 2.4591134
21.826237 26.494732 2.9197655
22.273811 26.686993 2.9559288
22.448732 26.740841 2.9732933
22.669701 26.821171 2.7545247
22.71669 26.854912 2.5357933
22.26429 26.663799 1.9676621
22.882328 26.87583 2.4666102
22.429296 26.311934 1.576587
22.578321 26.764677 2.4706523
23.082308 26.95425 2.2763624
22.969231 26.84004 2.4460824
21.77079 26.088911 2.2588174
21.772249 26.414717 2.2698586
22.983179 26.95422 2.577405
23.085554 26.964811 2.3580027
23.384111 27.062641 2.3355339
22.176805 26.260763 2.3560302
22.16958 26.57756 2.1554565
23.06967 26.586475 2.264214
22.782356 26.86211 2.4541535
22.566305 26.714092 2.1678276
22.565466 26.703897 1.9509586
22.664196 26.416697 2.074517
21.256741 26.233223 2.6627617
21.271128 26.274437 2.5717063
23.393036 27.060535 2.2732036
22.733868 26.428493 1.979912
21.24802 26.307623 2.8761678
21.284571 26.339882 3.1122859
22.886997 26.862305 2.366004
22.911554 26.94977 2.5317194
22.787773 26.865051 2.3564522
23.223927 26.943062 2.1007719
21.687914 26.453966 2.4450161
21.95015 26.501482 2.648664
21.786085 26.466824 2.361933
21.876402 26.471169 2.2678573
21.872448 26.474977 2.4541905
21.969704 26.504604 2.4552581
21.967943 26.510586 2.5547385
22.597757 26.761559 2.3591313
22.677423 26.773146 2.3652329
22.767357 26.811089 2.768743
22.855507 26.8307 2.7476735
21.879013 26.495152 2.5505347
22.670898 26.775915 2.4516864
23.034328 26.828611 2.3427255
21.966427 26.16979 2.3494275
21.09359 26.26218 2.7009921
23.290787 26.944914 2.1988733
21.664551 26.467628 2.3601317
21.784439 26.468758 2.5699427
21.377254 25.967604 2.3776093
21.775063 26.092226 2.3532679
21.076971 26.178667 2.3395255
21.5788 26.36656 2.3583279
21.875313 26.471132 2.3597958
21.946798 26.523357 2.7798865
21.071777 26.184305 2.4521956
21.579025 26.368576 2.4519227
21.788685 26.460302 2.2609656
21.964436 26.497072 2.3616242
22.59211 26.754908 2.253808
23.067156 26.908985 2.2633083
21.494204 26.349026 2.3548954
21.583841 26.378321 2.5637021
21.773829 26.424286 2.5520294
22.774778 26.79734 2.664583
21.976479 26.502886 2.2692204
22.85704 26.826891 2.3578126
21.729641 26.334564 2.1750116
21.764011 26.410852 2.1663697
21.811621 26.165831 2.2107708
21.691826 26.446753 2.283113
21.291756 26.261339 2.3679199
21.500578 26.364895 2.2691269
22.086121 26.558748 2.3622034
23.112576 26.968742 2.1754568
23.316969 27.050348 2.1779306
23.451471 27.036335 2.1786327
21.072083 26.162294 2.1728334
21.26026 26.221432 2.1748865
21.841639 26.46418 2.0480659
21.857199 26.430973 2.4567292
22.351233 26.633011 2.2662511
21.879753 26.470005 2.1651237
22.672291 26.730654 2.0580759
22.673021 26.763313 2.0776651
21.557636 26.007391 2.0666935
21.762589 26.085888 2.0807133
21.764391 26.417368 2.3568456
21.978167 26.173611 2.07337
21.976168 26.481186 2.0790179
22.07317 26.195951 2.0671856
22.157461 26.219852 2.0697198
22.860285 26.821327 2.4603815
21.510956 26.348413 2.151022
21.799442 26.460896 2.1321242
22.901386 26.857824 2.1632681
21.267635 26.223848 2.45292
21.768862 26.423094 2.6335275
22.038759 26.519852 2.6556222
21.771051 26.402832 2.0883543
21.257805 26.223385 2.2678077
21.841141 26.436134 2.3556328
22.07653 26.518677 2.1565192
22.652643 26.730461 2.2755826
23.40921 27.051521 2.1358891
21.446337 25.933722 2.1734576
22.066507 26.531706 2.5501723
21.852455 26.416279 2.0751743
22.855043 26.824135 2.5376348
22.651184 26.730989 2.3565328
22.4454 26.634319 2.4801674
21.873981 26.463501 1.9508865
21.543125 26.337097 2.6541846
21.575523 26.323038 2.536952
21.852095 26.425865 2.5466039
22.639091 26.730953 2.5495937
22.951706 26.83474 2.5656109
22.256947 26.235481 2.0562801
22.65176 26.724083 2.446027
21.981642 26.173988 2.1569309
21.756973 26.033731 2.1519098
22.958761 26.523937 2.1618893
22.16717 26.223625 2.1636081
22.543343 26.341202 2.3758535
22.537136 26.333769 2.1608956
22.635372 26.719517 2.6347911
22.533009 26.314535 2.0722771
22.57247 26.387486 2.1609375
22.909369 26.834808 2.6905308
21.768545 26.084747 2.1653078
22.234142 26.237055 2.2637599
22.81468 26.8603 2.2501006
22.405382 26.293407 1.7535005
22.275112 26.278193 2.1607068
22.772194 26.468229 2.0639219
22.205896 26.227446 1.6766435
21.733732 26.557371 2.6897805
22.113989 26.759617 2.7568996
22.193506 26.267799 2.2528429
23.268425 26.634466 2.6495512
21.400291 26.390018 1.9662578
21.460516 26.389141 1.9032676
23.159889 26.597445 1.95711
21.799591 26.5578 2.4803689
21.942915 26.192425 1.6772698
22.018671 26.668911 2.6294777
22.195055 26.271944 2.0779223
22.369793 26.30007 2.5736988
22.687248 26.477858 1.9467809
22.685406 26.464117 2.0831373
21.759701 26.57135 2.5156028
22.45689 26.594536 2.149461
22.162476 26.270805 1.9528275
22.366013 26.300003 2.4523506
22.815748 26.856766 2.1020412
22.414143 26.27124 2.6914368
22.573704 26.364353 2.5643315
22.181908 26.308514 1.6004032
21.565998 26.010815 1.9731044
23.05829 26.572687 2.4510059
22.083008 26.152962 2.8814251
23.376877 26.638674 2.7394652
22.008221 26.175373 2.683064
22.559128 26.37298 2.4583628
22.361464 26.310246 2.7436228
22.184738 26.197981 2.7676492
21.963554 26.273005 2.1487472
21.76479 26.088146 2.6599383
22.177559 26.228024 2.6680942
22.457676 26.313967 2.6478109
22.271027 26.281569 2.359189
22.1555 26.221313 2.4966133
22.18935 26.255304 2.1842685
23.063717 26.601332 1.9710674
22.466026 26.683849 1.8854263
22.682013 26.791798 1.7581278
22.771231 26.483854 1.9583855
22.694225 26.461853 2.1677608
22.59557 26.467157 1.8856616
22.267982 26.286537 1.9782598
22.064474 26.19548 1.9489392
21.97307 26.171379 2.4365571
23.01124 26.532583 2.5442913
22.97826 26.561962 1.9635135
22.483797 26.369125 2.1732662
22.557976 26.40065 1.9578738
22.858265 26.875904 1.9523827
21.75429 26.192272 1.7463498
21.493614 26.382332 1.7207329
21.798698 26.17557 1.649493
21.866817 26.247458 1.947535
22.159737 26.298901 1.655093
22.589756 26.467047 1.9466012
21.977528 26.186329 1.9807876
21.866415 26.18442 1.6587601
22.835812 26.891411 1.5601225
22.551571 26.404997 1.8691798
21.773804 26.190195 2.0516551
22.168995 26.27557 1.8634443
21.99206 26.280909 2.0662925
21.754187 26.096117 1.5644352
22.177404 26.23068 1.8631901
22.780132 26.912113 1.5006068
21.758976 26.133976 1.6177263
22.2722 26.279474 2.2556272
21.752239 26.15959 1.8594453
21.784431 26.182844 1.5725191
21.760117 26.165018 1.9924809
22.179075 26.262663 2.4744487
22.247173 26.27952 1.8672408
21.570679 26.062613 1.8482158
21.119354 26.256876 1.8337113
21.833874 26.418739 1.8750551
22.490826 26.305595 2.7475891
22.218546 26.750999 2.7276223
21.301153 25.968836 2.3893938
21.470825 26.356615 1.9465091
21.769428 26.47266 1.8913722
21.776207 26.08453 2.4544239
21.976673 26.174063 2.5431437
22.161873 26.228661 2.2568147
21.785982 26.079302 2.5527692
21.381001 25.966351 2.0603392
21.28709 25.971069 2.0570366
21.464731 26.47381 2.7773399
22.075802 26.185993 1.8686253
22.159008 26.220655 2.3640335
22.074812 26.18255 2.6651111
22.526619 26.293304 1.9359027
22.573761 26.385361 2.2517121
21.832037 26.103045 1.8887998
21.760099 26.110147 1.8665117
21.574911 26.00839 1.886
22.261209 26.234043 2.5423422
22.247189 26.234951 2.3401959
22.181934 26.191261 2.5413518
21.752787 26.080233 1.967388
23.092598 26.960575 1.9518802
22.444368 26.326054 2.3473647
22.959892 26.51894 2.243602
22.17004 26.233299 1.972873
22.595064 26.757433 1.884024
22.245701 26.238028 2.1766746
22.221035 26.238274 2.4683022
23.300131 27.046188 1.9699144
21.965542 26.136242 1.8507851
22.586731 26.763582 1.9506943
21.0881 26.21526 1.8787937
22.94766 26.530487 1.9704549
22.538715 26.721558 1.8725446
22.554932 26.342491 2.2627146
22.749302 26.854647 1.9038526
21.149946 26.226692 1.9034376
23.267521 26.622765 1.9581504
22.168535 26.225882 1.8061019
22.366796 26.262091 1.6925217
22.455629 26.753197 1.8802282
21.833254 26.570425 2.4314187
21.783031 26.574108 2.9246087
21.896988 26.612265 2.6087868
22.093355 26.6917 2.7049172
22.074495 26.662409 2.5235817
21.834391 26.549753 2.379364
21.835281 26.564739 2.9411926
21.574844 26.483047 2.4806297
21.972349 26.749683 3.2829616
22.061581 26.772079 3.3007228
22.062096 26.742502 2.7468898
22.170645 26.805012 3.0415676
21.574993 26.456953 2.6409431
21.90134 26.589993 3.2122931
21.109274 26.301884 3.0268881
22.550549 26.328245 2.4138489
21.901047 26.032045 1.7874167
22.583885 26.332977 2.6411438
22.385286 26.270893 2.8872151
21.565334 26.174389 2.0745025
