# .PCD v0.7 - Point Cloud Data file format
VERSION 0.7
FIELDS x y z
SIZE 4 4 4
TYPE F F F
COUNT 1 1 1
WIDTH 502
HEIGHT 1
VIEWPOINT 0 0 0 1 0 0 0
POINTS 502
DATA ascii
-2.3174007 25.32918 2.422936
-3.1928272 25.411808 2.5367999
-2.7564137 25.260412 2.2467818
-2.7247257 25.58145 2.4482584
-2.8085132 25.560066 2.4810274
-2.2557721 25.439743 2.3778183
-2.8191686 25.21459 2.3552523
-3.5914924 25.252682 2.4750061
-3.6384835 25.23361 2.4634361
-3.8260372 25.165321 2.4655221
-2.816823 25.238312 2.2442839
-3.6035604 24.929878 2.0973372
-2.5280082 25.378361 2.2695997
-2.9598851 25.239746 2.2134213
-2.7959788 25.273512 2.1827033
-2.3035762 25.43239 2.0052686
-3.0494552 25.134399 1.9988244
-1.9312544 25.599625 2.2378819
-2.7149005 25.310883 2.1733139
-2.7096388 25.213366 2.2489724
-3.2218001 25.099245 2.2444141
-3.2042086 25.10779 2.0060709
-3.9167094 24.97617 1.5018852
-3.6219378 25.010998 1.6550069
-3.9206691 24.887329 1.5618583
-3.8160369 24.919981 2.0497003
-3.7190363 24.980288 2.0514469
-3.7277131 24.919781 1.955588
-3.8399899 24.967884 1.972863
-2.0073121 25.613745 2.0949585
-3.4416752 25.095373 1.6199064
-2.5340765 25.403145 2.166513
-3.7168717 24.977209 1.7943499
-3.7363148 24.974636 1.885165
-3.3648269 25.077301 2.2163823
-3.6118984 25.16975 2.0111728
-2.3242867 25.494165 2.8393495
-3.3285837 25.334162 2.3617358
-3.4450459 25.228052 1.6779037
-3.3566766 25.117775 1.8661351
-3.4001234 25.125502 1.8795063
-3.4281857 25.06072 1.9755656
-2.3316302 25.496723 2.6586626
-3.3424478 25.095509 1.778666
-3.5235994 24.995974 1.9697435
-3.6859314 25.069609 1.780412
-2.0298541 25.581202 2.1694267
-2.1319091 25.53046 2.2321868
-2.1250167 25.556805 2.1634216
-3.6801205 25.174587 2.0450568
-3.62554 24.993677 1.7773745
-3.7450161 24.907562 2.1674209
-3.5372663 25.018747 1.5608242
-3.5439889 25.229767 1.963604
-3.5748632 25.193419 1.8539985
-2.4835098 25.405025 3.0993128
-3.3351777 25.328072 2.4355483
-2.0101721 25.661688 2.7729366
-2.0364766 25.599323 2.7536659
-2.3472066 25.604769 2.238668
-2.5263839 25.464464 2.1923506
-2.337991 25.431086 2.1535811
-2.0257785 25.596079 2.8481736
-3.0191987 25.468203 2.3675644
-3.8294744 24.909452 1.555392
-3.4525814 24.993929 2.0554898
-2.3450518 25.576986 2.5303566
-2.3129435 25.538651 2.0515916
-3.1202335 25.427767 2.4778626
-2.2323179 25.571512 2.1499813
-3.7195277 25.214025 1.9289758
-3.6455812 24.992491 1.9744496
-2.8299384 25.302412 2.7601302
-2.7314634 25.31233 2.9444687
-3.7458692 24.907497 2.2257199
-3.2266266 25.351028 2.6919639
-3.1207168 25.284185 2.5759056
-2.5285392 25.325096 2.2272267
-2.5151129 25.460434 2.5410421
-2.6450262 25.59058 2.5436921
-2.6221848 25.377588 2.8459373
-2.5311735 25.39374 2.8603642
-2.9369898 25.23559 2.7808609
-2.8311961 25.299803 2.6573679
-2.8318176 25.267548 3.0578256
-2.8290842 25.313305 2.5643139
-2.9455521 25.228205 2.8608472
-2.9310403 25.218624 3.0526841
-3.6986713 24.860209 2.3198824
-3.2462895 25.130009 2.5583272
-2.6353462 25.382641 2.4631739
-2.5306513 25.410046 2.6619325
-2.4822497 25.459209 2.9321921
-2.5222344 25.46237 2.4526896
-3.121114 25.200666 2.4589915
-2.4461188 25.424458 2.7481353
-1.9966811 25.655266 2.4738228
-3.7426388 24.905342 2.4845552
-3.4394114 25.008871 2.4604352
-2.9221511 25.491608 2.5429015
-2.7369952 25.325434 2.4623928
-3.304224 25.168503 2.3737562
-3.6116319 25.061417 1.5078361
-2.9465022 25.295595 2.3075149
-3.6063643 25.064589 2.462805
-3.6070688 25.048779 2.0985613
-2.5200939 25.425514 2.9604907
-3.1116936 25.19854 2.3673151
-2.9005611 25.254988 3.0807409
-3.1884155 25.149181 2.1846602
-3.4751384 25.245323 2.2697284
-2.5358109 25.417122 2.4737883
-2.3425219 25.653309 2.2434773
-2.23418 25.791529 2.3482008
-2.2447093 25.795925 2.279341
-3.120986 25.468473 2.3667233
-3.7704706 25.107037 2.5764441
-2.0373099 25.609079 2.6593013
-2.2808533 25.377934 2.3260689
-3.1312428 25.260796 2.4739289
-2.0376821 25.619358 2.4656091
-2.8341126 25.283718 2.9401374
-2.9322429 25.428055 2.399446
-2.5362065 25.405653 2.7482426
-2.1112554 25.513287 2.3633044
-2.376307 25.42952 2.8714414
-3.0238597 25.227669 2.4440966
-2.6463826 25.329189 2.459049
-2.9471192 25.420082 2.4451959
-2.7380016 25.326618 2.6576149
-2.3399816 25.430819 2.5504177
-3.4265327 25.165749 2.4670355
-3.6296306 24.925217 2.1831703
-3.7935214 24.968491 2.395777
-2.4265647 25.482689 2.3064151
-2.4684229 25.693832 2.1441369
-2.6406045 25.466656 2.4913583
-3.0866048 25.373363 2.686039
-3.0521424 25.440022 2.3583338
-2.6277847 25.29808 2.2372656
-2.3720329 25.442501 2.6563945
-2.9472194 25.218077 3.1758456
-2.5531998 25.340853 2.6844816
-2.9316063 25.49761 2.4583073
-2.5184293 25.459974 2.7561188
-2.2194042 25.566353 2.7425547
-2.316015 25.486332 2.9366491
-3.0446315 25.441311 2.4401712
-2.929471 25.278254 2.6661165
-2.4493937 25.455488 2.3797791
-3.6028278 25.047836 2.3403621
-3.4209352 25.086979 2.733161
-2.3714831 25.654835 2.2054689
-2.0034556 25.682507 2.4087331
-2.5251369 25.344637 2.1623802
-2.3963625 25.627953 2.2821214
-2.5764599 25.332924 2.3478861
-2.1274321 25.499378 3.0680513
-2.3392854 25.43626 2.7206221
-2.2407153 25.857948 2.2467353
-2.4389932 25.429996 2.6528678
-2.4550748 25.425787 2.3880115
-2.9254987 25.27689 2.5765481
-3.6397238 25.190582 2.2684507
-3.6059356 25.054909 1.7370703
-3.6233964 25.000145 2.6505501
-2.8916931 25.262724 2.9253991
-3.1224012 25.340595 2.823663
-2.1251552 25.586718 2.7572927
-2.7406313 25.324596 2.3887775
-3.0224838 25.208906 2.8659961
-2.6276455 25.371237 2.9343934
-2.4213967 25.401384 2.2652178
-2.6276183 25.390753 2.5755696
-2.4223473 25.478348 2.5608394
-3.2449079 25.150553 1.5150822
-3.1189475 25.278461 2.7471776
-2.7316687 25.316875 2.8517866
-2.7502458 25.270966 3.164968
-3.1032243 25.18499 3.1038122
-3.7243202 25.195837 2.454555
-2.2421727 25.519594 2.4787033
-3.4258993 25.09222 2.1726952
-2.8892298 25.227116 2.96983
-3.0160918 25.270245 2.4650972
-2.7430522 25.300581 3.0498209
-3.5362966 25.239758 2.3075655
-2.7189994 25.534636 2.444108
-3.1288466 25.177973 2.8570001
-2.7366858 25.32106 2.5715995
-2.636066 25.608463 2.4433997
-2.2171993 25.55983 2.8516257
-3.6373317 25.084169 1.6167277
-2.736511 25.52874 2.4044213
-3.8085063 24.92614 1.7685261
-3.0015273 25.266617 2.3031204
-2.9233065 25.272989 2.7454243
-3.8268912 25.012829 1.505883
-2.5398915 25.624441 2.3852324
-2.2170739 25.561935 2.4829893
-2.2345057 25.559689 2.5633204
-2.3332634 25.791592 2.3395596
-2.1404936 25.532597 2.8519833
-2.0321481 25.563889 2.2786517
-3.3329949 25.160473 2.2708075
-2.630491 25.385803 2.7526546
-2.71826 25.361738 2.662967
-2.2010896 25.523399 2.9361789
-3.0232613 25.227703 2.5658586
-2.9175742 25.285553 2.3826182
-3.4324174 25.034069 2.7484593
-2.5893538 25.362013 2.2428617
-3.4581041 25.042889 2.5795033
-3.6455805 24.980947 2.2269142
-2.4467778 25.402468 3.1422153
-2.0325768 25.597677 2.9432609
-2.1147585 25.573618 2.8504264
-2.2376275 25.51549 2.856627
-3.6981039 25.272781 2.2586989
-3.7833507 25.186478 2.542351
-3.0422919 25.207434 2.3792057
-3.6654072 24.931835 2.2133131
-3.1308682 25.44595 2.4531817
-2.4579554 25.634256 2.4087718
-3.4480278 25.006956 2.3500116
-3.1168931 25.160563 2.2297122
-3.4922757 25.081625 1.7738739
-3.5494285 25.087324 1.5196701
-2.451592 25.583199 2.4425132
-3.0268085 25.217669 2.6625535
-3.5259213 25.065577 1.8496944
-3.4347498 25.083317 1.7850237
-3.7370157 24.986506 2.3057609
-2.6432078 25.331055 2.858175
-3.3554211 25.085831 2.3654609
-3.3278906 25.069067 2.1674933
-2.6419082 25.319569 2.9503276
-2.2113428 25.506798 3.0422592
-3.711586 25.111364 2.6873529
-2.5165126 25.384331 2.0988331
-3.796201 24.801641 1.9059799
-3.469826 25.246981 2.6421196
-2.6365159 25.342382 2.5895813
-2.1151059 25.8946 2.3481512
-3.1335106 25.198414 2.5532928
-2.34903 25.718679 2.347409
-2.5205045 25.684769 2.2903419
-2.6342711 25.30901 2.3555593
-2.6150892 25.406866 2.3746412
-2.3084567 25.505142 2.2761383
-3.0256264 25.187159 3.0705128
-3.5054045 25.289337 2.5739746
-2.14762 25.718195 2.1150761
-3.1453929 25.400009 2.5453024
-2.4869742 25.595339 2.179364
-2.5227633 25.656715 2.3494344
-2.6355271 25.324705 2.6676233
-2.6317093 25.303928 3.1433513
-2.3283238 25.443275 3.0916345
-2.3343322 25.504269 2.5665932
-2.4439678 25.417608 2.8544998
-3.533119 25.066055 2.3715696
-2.3695424 25.416292 3.13622
-2.5361011 25.412197 2.5711181
-3.0012388 25.40906 2.5146973
-2.7294006 25.584518 2.5427394
-3.5054879 25.214518 2.6996918
-2.1555014 25.523462 2.7374878
-2.1631818 25.542843 2.9234757
-3.1229014 25.318771 2.6523123
-2.8595159 25.233746 3.0279527
-2.1284819 25.586075 2.65521
-2.1539094 25.531071 2.5721607
-2.3256023 25.446812 3.1340365
-2.5347571 25.395134 3.1479902
-2.8518908 25.240414 2.9313388
-2.9449668 25.232296 2.659024
-3.60342 25.053848 1.9539826
-2.4335339 25.434046 3.1008387
-2.4195695 25.478399 2.6485045
-2.8334894 25.293936 2.8577051
-2.9175246 25.278341 2.866843
-2.4018741 25.473738 2.9332712
-3.5268049 25.239128 2.5919886
-2.3320186 25.491371 2.7533884
-2.0324759 25.610575 2.5663993
-2.2389674 25.547485 3.0713618
-2.4196441 25.473722 2.8518236
-2.6731639 25.379969 3.070019
-2.7079794 25.357191 3.0720193
-2.7112234 25.360876 2.7534561
-2.7332869 25.321199 2.7544315
-3.0258374 25.249016 2.9765756
-2.5175085 25.458126 2.6336904
-3.0438802 25.214153 2.9366632
-3.2223504 25.141855 2.8377316
-2.5038762 25.45454 2.8352976
-2.1178439 25.582773 2.5611529
-2.868556 25.23671 2.5949154
-3.4363072 25.104263 2.6390188
-2.1096897 25.562712 3.0914147
-2.3028433 25.487253 3.0649202
-3.0330436 25.210978 2.7419443
-3.0276494 25.17758 2.160296
-2.2370868 25.518427 2.6494226
-3.6346133 25.025066 1.5312531
-3.7862065 24.961445 2.4804316
-2.4250479 25.46851 2.7515974
-2.6343849 25.382669 2.6702604
-2.1374073 25.582964 2.4680758
-2.4520357 25.429127 2.4636405
-2.8241971 25.307695 2.4618289
-3.2175968 25.181953 2.4737852
-3.0107815 25.278879 2.8298659
-2.1209192 25.563536 2.9482765
-2.2198753 25.563192 2.6742258
-3.2363279 25.389111 2.4321921
-2.4373925 25.424751 2.5462995
-3.2399211 25.135056 2.7821219
-2.4080019 25.436901 2.9178019
-2.6493809 25.340368 2.7516799
-2.3247771 25.50532 2.4614041
-2.291887 25.554201 2.4794469
-2.9516227 25.229647 2.4537709
-3.5362985 24.929592 2.3886609
-2.1378214 25.591072 2.3752947
-2.7169106 25.369015 2.4666603
-3.0195096 25.200077 2.2521296
-3.3340566 25.120852 2.5631919
-3.3328478 25.115543 2.4560728
-3.3219454 25.121206 2.6519048
-3.525516 24.992161 2.2337637
-3.3491852 25.099957 2.7302601
-3.421083 25.098042 2.5517409
-3.435967 25.080557 2.3600004
-3.7481666 24.940611 2.5251138
-3.0279486 25.268211 2.6655164
-2.3302624 25.513351 2.3727016
-2.7253332 25.370062 2.5667565
-3.0225389 25.273226 2.7598815
-3.9142728 24.909929 1.6559145
-3.4286156 25.011919 2.2650862
-2.8391087 25.517641 2.3895545
-3.2151303 25.169386 2.6568763
-3.8128209 24.928724 2.4846992
-2.8175864 25.283491 2.3453531
-3.3508093 25.101646 1.9885918
-3.4666562 25.007126 1.9718344
-2.030221 25.656618 2.8487759
-2.1703827 25.525414 2.4833832
-2.9440918 25.227301 2.5606794
-2.7252796 25.373005 2.9531987
-2.0770972 25.520393 2.7272365
-2.5378106 25.396976 2.3617511
-3.4207788 25.034567 2.6581142
-3.529232 25.020561 2.3828669
-3.6497207 25.087814 2.7015188
-2.923768 25.281746 2.4599535
-2.4175975 25.479059 2.4598904
-2.8210196 25.279579 2.2849462
-3.717694 24.980343 2.1677284
-3.7248449 24.992046 2.6344819
-3.6283126 24.995874 2.3762128
-3.2374449 25.189646 2.3879633
-2.7244573 25.379467 2.8761463
-3.32776 25.164967 2.6652694
-3.2961814 25.373117 2.374294
-3.2072968 25.17013 2.8268099
-3.628855 25.017025 2.5538151
-3.7390792 24.986544 2.5441074
-3.0180647 25.478724 2.4541011
-3.3266728 25.164164 2.5775459
-3.6157644 25.058773 2.5754628
-3.3345919 25.154484 2.749033
-3.5354047 25.346737 2.3936803
-2.8100035 25.354012 2.648926
-3.5619416 25.041267 2.458786
-2.8140454 25.360985 2.8768713
-2.9490557 25.563242 2.3720584
-2.7967896 25.357159 2.5451727
-3.6317916 25.018261 2.4668872
-2.0138767 25.656719 2.6598585
-2.8361857 25.349712 2.7519438
-3.2261579 25.181644 2.7407954
-3.4346638 25.30064 2.3461285
-3.7296968 24.976677 2.3694105
-3.7252855 24.994791 2.4622407
-2.4836893 25.457977 2.4037244
-3.8237429 24.895243 2.1936188
-2.7254183 25.372349 2.3630521
-3.0415423 25.271761 2.3686469
-3.4156177 25.165432 2.3753867
-3.6348865 25.01709 2.0680246
-3.8426988 24.951374 2.1469226
-3.4165721 25.146637 2.5465293
-3.7502818 25.197632 2.2856898
-2.8034887 25.349186 2.4241097
-3.8292167 24.92679 2.3660181
-3.0118446 25.266966 2.5661368
-2.9540231 25.203297 2.3561835
-2.2146828 25.497702 2.2762091
-3.3958344 25.150097 2.6781301
-3.5362544 25.015064 2.1713104
-3.8017302 24.916271 2.2649198
-2.2314756 25.474466 2.1308327
-3.4339244 25.021584 2.1427102
-3.42484 25.092581 2.2303419
-3.5321231 25.292233 2.2958565
-2.236691 25.522137 2.5708437
-3.4171267 25.092628 2.0421565
-2.0427074 25.60677 2.3764329
-3.5155337 25.030663 2.553684
-3.0481889 25.139656 3.1248665
-2.0014732 25.660551 2.5778015
-3.3594255 25.122271 1.619113
-3.4255321 25.099455 2.4714406
-3.2461088 25.110165 2.3580647
-3.2318277 25.131264 2.4669704
-3.5056047 25.281794 2.3709254
-3.244477 25.12641 2.6716139
-2.2768731 25.481934 2.3410053
-2.2366757 25.565826 2.3389263
-3.8335571 25.200197 2.3618255
-3.876106 25.144487 2.3081322
-3.8152359 24.953333 2.5200686
-3.8478684 25.101255 2.3471618
-2.2889848 25.557495 2.6478064
-3.2508762 25.199276 1.7515495
-2.2370613 25.512997 2.7481365
-2.2989502 25.590237 2.0471878
-3.6315901 24.994631 2.1585
-3.5448341 25.018576 2.0646842
-2.0561709 25.71133 2.200572
-3.8046141 24.962482 1.7334054
-3.6184776 25.007795 1.8860861
-3.8378868 24.92531 1.8570809
-3.9073684 24.9076 2.1126485
-3.8109851 24.913689 1.9816768
-3.7923417 24.976902 1.884389
-3.8396397 24.946312 1.6642352
-3.8159709 24.958275 2.0562603
-3.277873 25.159494 2.0352056
-3.5718739 25.035759 1.6159775
-3.882988 24.918989 1.8304936
-3.2679579 25.039967 2.1292958
-3.7437751 24.964123 1.6249852
-3.5299866 25.035093 1.758619
-3.7271414 24.987911 1.962478
-3.7035878 24.998421 1.5309479
-3.2917953 25.091228 2.0421982
-3.7310166 24.906864 2.089397
-3.5354159 25.277353 2.4675632
-3.0663731 25.376865 2.7013643
-3.2411432 25.108299 1.8282895
-3.5404978 25.311108 1.8319662
-2.2459087 25.501333 2.0372264
-2.4279613 25.380444 2.0863931
-3.616966 25.153505 1.8465048
-3.549881 25.327555 2.0187414
-3.0550549 25.430555 2.2852876
-3.259213 25.120764 1.7565787
-2.4430108 25.410345 2.1813083
-2.3044181 25.454601 2.129473
-3.6758068 24.931524 1.9914893
-2.5927415 25.484554 2.0618088
-3.3391879 25.168581 2.063786
-2.1451666 25.539707 2.651706
-2.4083569 25.604483 2.9815502
-2.5168905 25.568489 2.9231656
-2.9733264 25.55443 2.5481191
-3.0455906 25.103559 2.7487733
-3.2301493 25.178022 2.5664628
-3.3425145 25.041014 2.4441388
-3.3332732 25.025259 2.3865373
-3.3094809 25.036535 2.0079672
-3.2855659 25.147659 2.8344846
-3.5209994 25.073725 1.9824054
-2.1691556 25.781914 2.2000561
-3.1393771 25.190166 2.741154
-3.5158229 25.07658 2.4614997
-3.1511827 25.133106 2.8383389
-3.1290567 25.194157 2.6571717
-3.1236596 25.139017 2.2340121
-3.0899289 25.221842 2.0419991
-3.5121274 25.07375 1.6518257
-3.5446117 25.079975 2.7510228
-3.1698272 25.129532 2.7435296
-3.344903 25.363077 2.4474874
-3.3183515 25.163296 2.4645977
-3.3423648 25.158752 1.8253932
-3.5137558 25.095219 2.2763219
-3.158721 25.136572 2.6728013
-3.1179745 25.202843 2.9752328
-3.2342575 25.11363 2.1765625
-3.5245197 25.077059 2.5589194
-3.0830064 25.12767 1.9465688
-3.5320539 25.056973 2.1642451
-3.5325093 25.073729 2.6383212
-3.5172682 25.061401 2.0683408
-3.1716032 25.126558 2.3592508
-3.2261291 25.292744 2.4489532
-3.1701133 25.115532 2.5031157
