# .PCD v0.7 - Point Cloud Data file format
VERSION 0.7
FIELDS x y z
SIZE 4 4 4
TYPE F F F
COUNT 1 1 1
WIDTH 1612
HEIGHT 1
VIEWPOINT 0 0 0 1 0 0 0
POINTS 1612
DATA ascii
16.467163 17.495031 1.6530827
15.387185 17.075336 1.9630954
15.084322 16.971924 2.0583622
12.876282 16.105513 1.867624
12.771551 16.070251 2.0528903
18.089464 18.355228 1.7644804
16.969114 17.684534 1.7754562
14.806863 16.84956 2.0678272
12.874804 16.091692 2.165818
16.67881 17.560709 2.2403529
14.575315 16.772978 1.9710053
17.98679 18.061569 1.8602488
16.481667 17.496645 1.7710588
15.099437 16.962517 1.9665418
15.07371 16.957716 2.2548311
14.536232 16.740376 1.738487
13.172745 16.259554 2.1825907
18.572084 18.275379 1.9658557
18.48632 18.256878 1.9498262
16.683861 17.565926 1.7693986
16.394686 17.463104 1.8784477
15.270668 17.050589 2.0626006
13.483216 16.367508 2.1670136
13.277153 16.287697 1.7500166
13.08467 16.18956 1.8727123
19.309971 18.550831 1.8031038
17.378527 17.799366 2.4562266
18.790426 18.365211 1.9332632
17.175262 17.766787 2.0614314
18.836632 18.329489 2.4659009
18.582516 18.266245 2.4389777
14.169948 16.580048 2.4627559
12.96383 16.120541 2.1721215
12.95822 16.1129 2.457298
13.382577 16.305216 1.7664118
19.470911 18.596972 2.3722949
13.584514 16.365913 2.2617393
13.07894 16.166832 2.3510842
14.352675 16.628969 1.8657049
13.283058 16.268505 2.170676
15.58322 17.290539 2.2688494
15.093337 16.958632 2.4595134
13.173646 16.196657 2.346276
13.078425 16.178652 1.9612696
19.651506 18.662466 2.4527798
17.784521 17.963448 2.2622902
18.080908 18.348019 1.8931545
16.685896 17.562824 2.1743574
13.366562 16.285923 2.0687737
17.992352 18.055126 2.1572998
17.958523 18.052536 2.3568971
17.869179 17.992443 2.0711904
17.775536 17.966122 2.0719097
14.88751 16.865961 2.2546132
14.682476 16.801464 1.8952395
14.377116 16.682018 2.0655389
13.27787 16.268064 2.2611077
13.281235 16.274975 1.8635633
18.077778 18.087685 1.8718842
17.970549 18.056719 2.0895803
14.879232 16.8634 2.3589656
13.276743 16.273664 2.0703437
13.273959 16.270218 1.9664664
17.696373 18.188442 1.8665397
14.954529 16.871599 2.4484534
18.005816 18.066586 1.9510314
19.391142 18.565376 2.1608593
18.493942 18.476856 2.6641502
18.076349 18.080229 1.7723389
17.777674 17.959526 1.9689311
17.582914 17.905346 1.867131
15.388956 17.061546 2.0657532
15.391441 17.058954 2.2586765
18.059753 18.037636 1.887002
17.788279 17.960129 2.1492438
14.599026 16.754845 2.4635127
17.991133 18.087545 1.7578688
16.666754 17.5674 2.4317775
17.572254 17.867302 2.3566897
16.012825 17.278433 2.6416929
16.069319 17.28009 2.4380319
15.082186 16.965687 1.885715
17.578705 17.875088 2.2564163
18.831837 18.287357 2.6435955
12.927898 16.041571 2.2390537
17.485987 18.001297 2.0438313
19.275112 18.574116 2.3828237
18.121552 18.030251 2.6252367
17.871048 17.982166 2.3629675
17.568834 17.879742 2.0710175
15.523995 17.04521 2.523186
14.17502 16.5818 2.2597525
19.376547 18.572481 1.9508555
15.18053 16.971375 2.2605941
17.270782 17.996933 2.365752
18.180389 18.119551 1.9516139
18.719856 18.489958 1.9548903
14.335339 16.62829 1.9567189
18.966696 18.397919 2.2616894
19.179817 18.50115 1.6710716
18.966814 18.397814 2.1636882
13.089781 16.461588 1.9828541
13.482217 16.374311 1.8759801
14.760573 16.74234 2.4835708
14.643652 16.704601 2.637866
14.665862 16.894417 2.0858159
19.262407 18.738466 2.5734253
19.269686 18.511505 2.1563311
17.867664 17.984341 2.1591589
17.877237 17.977877 2.6651645
16.068438 17.277264 2.5655317
12.983601 16.043915 2.1316929
18.469442 18.202318 2.45485
15.060723 17.128141 2.1343305
15.365637 17.017796 2.55987
15.244288 16.94405 2.3449149
19.665636 18.667349 2.059834
15.084784 16.876278 2.6546459
14.752289 16.744762 2.5653512
12.997694 16.156328 2.4481325
14.952265 16.833658 2.564302
14.674022 16.773619 2.3469017
17.569679 17.883865 1.9721628
17.454819 17.820951 2.4639866
17.728477 17.909395 2.651809
18.184076 18.070415 2.6539583
16.267344 17.376955 2.4498875
19.18417 18.685623 2.0416553
19.270924 18.507586 2.3581426
18.175531 18.100286 2.1558902
15.964817 17.233538 2.5529134
12.937938 16.330519 2.1487734
14.574163 16.730343 1.9491092
17.753078 18.192381 2.0570936
17.711369 18.048548 1.8897166
17.97731 18.010826 2.3690794
16.269365 17.377722 2.3566074
13.204758 16.264252 2.0561128
15.552024 17.043777 2.2234898
15.436386 17.025158 2.544255
19.568409 18.616974 2.2616067
16.056683 17.56395 1.8691599
15.461343 17.026539 2.0710464
16.172247 17.310789 2.5716481
16.171116 17.311888 2.4602916
18.876905 18.607172 1.9594103
18.876286 18.371233 2.2558897
18.847935 18.336258 2.164047
15.391225 17.056814 2.3418412
18.037586 18.025743 2.0622077
16.579336 17.432775 2.5955281
15.368993 17.064117 1.8800427
18.493958 18.181763 2.5559013
16.674366 17.499109 2.5720191
18.4725 18.380199 1.8774346
14.389927 16.761959 1.8398755
16.669161 17.516554 2.3561873
16.163065 17.325827 2.3533056
18.205338 18.150322 1.8734647
19.170095 18.486628 1.9593785
16.658968 17.5198 2.1640105
17.770197 17.930634 2.0619814
17.666605 17.90382 2.2595804
19.463676 18.878531 2.8433449
17.554647 17.827538 2.0889733
18.270699 18.169252 1.9647253
18.184086 18.368309 1.9030317
18.177704 18.096029 2.437989
17.981655 18.057325 2.2822139
19.569513 18.623106 2.0678315
17.969353 18.051279 1.6712532
19.433779 18.538246 2.0030508
17.571709 17.874166 2.1537335
19.272871 18.511492 1.9696624
19.350403 18.51795 2.258667
19.086445 18.463972 2.2427487
18.974438 18.411926 1.9707096
18.971182 18.39381 2.4612076
18.962799 18.396254 2.3694615
18.886314 18.372379 2.3477097
17.861727 18.220005 2.3558075
17.962267 18.017263 2.1552238
18.182178 18.097094 2.5585182
18.068884 18.068724 2.4677036
18.081564 18.083496 1.9637625
16.653603 17.529039 1.9750324
14.175896 16.581539 2.5361395
13.975707 16.505396 2.4650793
13.265583 16.221125 2.0683284
13.268123 16.2218 2.2647347
19.562851 18.618856 2.170996
14.380918 16.660849 2.3529649
17.079042 17.959599 1.9828398
19.096146 18.754581 2.3499827
15.065526 16.898003 2.446274
16.409067 17.7038 1.7539117
18.022671 18.279785 1.7750907
17.87549 17.937458 2.5977225
16.604336 17.789276 2.5087919
18.279648 18.165302 2.0676219
19.214222 18.735882 2.6570239
17.707027 18.202658 2.7892892
18.179693 18.105974 2.0654287
12.468102 15.950272 2.4954908
15.119081 16.956791 2.5616407
15.683379 17.156868 2.3613079
15.683837 17.164948 2.2601926
16.775106 17.578081 2.4505579
16.671026 17.51861 2.264008
16.563087 17.706009 2.5596318
17.072842 18.003969 2.179184
18.166904 18.126226 1.8849057
16.563604 17.48208 2.25495
18.859089 18.592945 2.6434245
16.373175 17.414152 2.2626164
16.382509 17.424549 1.8435583
18.149639 18.334797 2.4663229
18.762678 18.565224 2.2618208
18.969692 18.420311 1.7655705
15.968166 17.284344 2.059829
16.870703 17.831364 2.2541409
19.287849 18.594107 1.6901046
16.934368 17.857391 1.8536053
17.368677 17.79714 2.1632874
15.366327 17.027079 2.1567762
12.483622 15.960538 2.2561154
19.147223 18.587584 2.1395793
16.367907 17.407475 2.3569214
13.78345 16.670446 2.476536
16.968111 17.896767 2.0728765
17.202639 17.847973 1.7329127
14.678558 16.778343 2.1587899
17.875181 17.984364 2.2602031
17.866234 17.998755 1.857862
17.667463 17.892929 2.3549981
16.362766 17.41716 2.0562637
16.372011 17.404072 2.4612494
18.144449 18.315189 2.258544
15.063951 16.908289 2.3633029
14.567699 16.725121 2.0563161
14.564569 16.715225 2.3492718
19.553801 18.608156 1.8666629
15.458678 17.035635 2.358681
18.20573 18.154352 2.1616199
14.732494 16.736359 2.3748226
12.508788 15.988085 1.8764713
19.35585 18.529411 2.1460812
19.373394 18.811253 1.8963697
15.77207 17.454306 1.8414489
19.416388 18.690964 2.0872028
14.56298 16.724873 2.1699388
18.435469 18.384073 1.7399018
19.052158 18.426939 1.8789572
18.840109 18.318325 1.8268594
18.848888 18.326481 2.3573201
17.695175 17.95647 2.0766001
17.658644 17.900803 2.0748475
18.126747 18.027531 2.0543156
16.484375 17.749557 2.2135839
14.76808 16.801041 2.2723505
14.168165 16.580856 2.1675239
19.286533 18.71859 1.7652524
17.3256 17.723391 1.949397
18.462206 18.487453 1.7522137
14.363394 16.630411 2.252964
14.141026 16.521595 2.045486
19.365179 18.679489 1.7626588
14.298899 16.660425 2.1833088
14.767304 16.801271 2.3542974
19.637787 18.626343 1.9646102
15.163399 16.935587 2.0672355
14.675017 16.773613 2.2722852
15.771349 17.142006 2.4811056
19.647871 18.626198 2.2739551
19.342804 18.52862 2.4374578
15.458941 17.033419 2.1656334
15.450006 17.02482 2.4722619
18.090439 18.31221 1.8702209
17.106621 17.980709 2.0216727
13.267171 16.442705 2.7439086
14.172613 16.529762 2.4406843
15.061767 16.908634 2.2690032
18.152483 18.279491 2.1478086
18.165833 18.167307 1.9516575
14.364965 16.619017 2.445883
19.390388 18.54117 1.786186
18.057894 18.033262 2.3498991
12.694764 16.232672 2.4289873
18.077713 18.228479 1.7869862
12.883821 16.302794 1.9365247
13.961054 16.700678 1.8577182
17.52672 17.796413 1.7818598
18.229803 18.029188 1.8805987
12.58007 16.191246 2.1742897
12.477889 15.974085 1.9691273
18.56888 18.511753 2.3792996
13.4759 16.354982 2.3535283
14.050611 16.51532 1.8934106
19.272572 18.601557 2.0559378
18.478516 18.489353 1.67891
15.282474 16.935982 2.0200441
17.670218 17.946518 1.8342406
14.750757 16.731974 2.252588
18.585682 18.529217 2.2755947
18.568668 18.474499 2.0623412
15.530176 17.044239 2.1376398
15.514406 17.045197 1.7699735
16.3321 17.615284 1.781466
19.07198 18.42944 1.6502557
16.365957 17.413187 2.1682892
17.977905 18.012789 2.4705734
17.865112 17.982073 2.4567134
17.861567 17.994278 1.9550772
13.091715 16.373051 2.167186
19.477579 18.597425 1.9774635
16.681347 17.570662 1.9783132
17.058107 17.933941 1.9578336
17.025419 17.84012 1.9143053
18.211365 18.145781 2.3648536
18.173962 18.296637 1.8910228
18.148699 18.326132 2.3563969
14.486029 16.768343 2.0680285
12.661594 16.224054 2.0636778
18.264437 18.128647 1.9619248
12.872767 16.375784 1.9915519
15.447931 17.026794 1.9510747
17.495564 17.833929 1.8666893
13.501067 16.362177 1.9622824
16.568096 17.507427 1.8741646
16.665075 17.715511 1.8385285
18.285612 18.165123 2.1632862
12.990873 16.340502 1.9733233
17.750954 17.958632 1.8649825
14.947251 16.768282 2.7410171
12.626209 15.933661 2.0646541
15.068249 16.911892 2.0640819
17.576439 18.202442 2.3019223
17.058199 17.640156 2.5558858
18.26556 18.344017 2.6384585
12.769695 16.283718 1.9774976
17.372343 17.809528 1.8673013
16.412411 17.691702 2.0581005
19.063772 18.431505 2.0680532
19.272202 18.759155 1.9712141
17.287262 18.009581 2.6994824
12.555324 15.93012 2.0692332
17.368889 17.810991 1.9694984
16.543829 17.435446 2.1919956
16.549397 17.393021 2.3423491
18.203323 18.18082 2.0532782
18.143486 18.330351 2.5644209
18.788979 18.583858 2.4697146
12.353704 15.845078 1.9792932
12.591246 15.944385 1.8930929
17.941174 18.23385 2.4456353
13.366364 16.279442 2.4665561
18.015316 18.171896 1.7412986
17.566891 18.029263 2.0595479
16.766781 17.725546 1.8330181
19.270336 18.575985 2.1294644
17.074232 17.63916 2.041831
18.779043 18.57806 2.3850987
15.474579 17.091059 1.8612111
18.850855 18.598185 2.1921644
18.44783 18.440056 2.137538
14.271151 16.611891 2.2687082
16.54068 17.773052 2.0927732
12.967865 16.11775 1.9770318
14.589984 16.773195 2.0700331
16.905613 17.970062 1.9975531
19.288618 18.788221 1.8828399
16.610462 17.769768 1.9565713
14.859478 16.816156 1.8754001
15.083897 17.17318 2.5566154
19.663317 18.905218 2.4562113
12.673694 16.205269 2.3188276
16.84584 17.830849 2.130096
14.971292 17.103384 1.9868815
15.744721 17.134171 2.3633964
12.552636 15.933835 1.978898
14.175079 16.594091 1.9632874
18.260319 18.125051 2.0556958
14.434221 16.59057 1.8897731
14.664805 16.734205 2.5707884
13.785854 16.467344 2.4829009
16.67845 17.739086 1.9521704
15.813034 17.133478 2.1384678
17.082073 17.911148 1.846488
16.449808 17.660172 1.7953302
13.00876 16.419067 2.6523077
12.882524 16.145599 2.3521447
12.795451 16.229143 2.3358595
14.267446 16.646849 1.9411834
14.304813 16.666946 2.4698749
14.268727 16.605385 2.3631563
12.467498 16.168304 2.0309813
16.494665 17.673565 2.2512281
15.739396 17.142017 2.2457051
13.10854 16.438833 2.5392892
12.985076 16.378456 1.9438189
17.270149 18.002005 2.4655585
15.44709 17.034052 2.2793252
18.110491 18.313704 1.9593533
19.625175 18.770233 1.8536779
18.15806 18.306355 2.0631771
18.068802 18.303507 2.5670912
17.547546 18.094547 2.2643366
14.356807 16.625647 2.3539288
17.979652 18.051884 2.448139
17.176144 17.976568 1.9605718
16.974167 17.902407 1.9562119
16.828867 17.820032 2.3516684
17.593142 17.898874 2.5580401
14.559675 16.938131 1.9836996
14.585423 16.934399 2.3586469
13.539888 16.533516 2.0447431
13.070122 16.394836 2.0487432
13.584116 16.498198 1.9498901
13.525032 16.531149 2.2541225
13.175627 16.198584 1.9586946
15.659221 17.12344 2.3592987
17.062757 17.910788 2.2818134
18.889887 18.519064 1.7801683
16.12409 17.504372 1.9446102
14.26887 16.613415 2.158159
13.966137 16.500908 2.1606777
19.147526 18.731991 1.8749547
13.044882 16.342266 2.3114281
13.760573 16.417017 2.3563194
15.535883 17.382046 2.6127911
13.573792 16.369343 2.1640043
13.252218 16.434557 2.1799247
13.2668 16.43697 2.0311387
13.165424 16.40708 2.1865792
13.483657 16.350916 2.0728648
18.783165 18.310749 2.4474006
14.386868 16.66637 2.4549086
15.774971 17.414049 1.873204
13.864534 16.684971 2.3544712
13.486389 16.582865 1.9734684
14.125542 16.538544 2.3779078
18.079338 18.071629 2.3544395
13.033158 16.366758 2.4186735
14.954761 17.115055 2.4749024
12.642758 16.201632 1.9480654
13.616817 16.292259 2.6762493
15.658889 17.128363 2.256067
16.175375 17.585587 2.2646801
17.924604 18.191448 1.8900706
13.242948 16.226587 1.8692149
16.567453 17.51853 1.7702034
18.125986 18.044476 2.1149213
19.466204 18.583765 2.0666342
15.4739 17.092747 1.9681637
15.65675 17.125977 2.4374716
15.661866 17.100639 2.5644705
18.068352 18.30727 2.4684474
18.102625 18.242338 2.4778874
15.673717 17.099667 2.6697693
14.271335 16.614336 1.857955
13.357239 16.225649 1.8668391
12.678104 16.014803 2.4560382
17.076075 17.691301 1.8768419
16.958084 17.895891 2.1831746
13.524346 16.544344 1.9011413
13.968726 16.496231 2.2580009
15.383414 17.058475 2.1682997
13.785993 16.47508 2.5316777
14.568636 16.713779 2.4526424
14.06943 16.524664 1.9519523
17.169472 17.984337 2.1624231
16.274748 17.382381 2.2575073
13.781729 16.665041 1.9653113
16.469763 17.474548 2.0614421
19.108671 18.422485 1.793494
17.328686 17.735863 2.5273833
16.483145 17.691137 1.63585
13.093286 16.144091 2.549329
15.99284 17.581745 2.327213
17.136484 17.919054 2.2945633
15.763435 17.404957 2.1434894
19.617352 18.487127 2.4783244
15.477201 17.083942 2.0680466
15.751748 17.419556 2.0719509
13.784156 16.661762 2.0658567
18.463404 18.206533 2.254082
12.97105 16.116314 2.2584696
18.205492 18.152319 2.4528031
18.825506 18.469336 1.9060497
15.076674 17.17469 2.251904
12.584148 16.248976 2.0240939
18.628197 18.242458 2.2284238
18.251465 18.121738 2.4463465
13.647168 16.34004 1.8838927
12.67162 16.006996 1.8627133
14.962491 16.837589 2.4523065
13.220316 16.437063 1.980794
18.794514 18.336216 2.5152962
13.044972 16.368649 2.3517213
15.872296 17.47883 1.9662342
18.262159 18.118296 2.3635197
13.338147 16.22781 2.163415
13.575727 16.373968 1.9756238
16.774862 17.585518 2.0721498
16.653259 17.81529 2.0729268
16.693209 17.521507 1.8302232
18.393761 18.453117 2.4422243
18.079737 18.074221 2.166815
17.281225 17.78134 2.6831846
15.887753 17.483019 1.8595085
13.974778 16.717314 1.9647352
16.767859 17.588345 1.9632297
16.673649 17.770199 1.9738958
16.182981 17.59857 2.4439149
16.154697 17.563532 2.1715105
14.339157 16.619015 2.0691726
19.454559 18.420025 2.47644
16.190283 17.593294 2.3715866
16.551277 17.442244 1.9702824
17.874119 18.221958 2.5757763
14.929428 16.843601 2.2556493
13.971404 16.739735 2.5108151
13.470319 16.579611 2.0725172
13.406083 16.54763 2.4454465
14.278027 16.852453 2.1695638
13.874181 16.685759 2.1439376
15.885996 17.482641 2.2408767
15.09964 17.163925 2.1769912
12.765068 16.077656 1.9648535
14.778432 16.86046 2.2583516
13.859286 16.684988 2.0538676
13.155025 16.423346 1.9646521
16.836498 17.813377 2.0371385
19.553669 18.877686 1.8790288
19.467752 18.587852 2.15663
19.285353 18.55855 1.8656294
18.841373 18.611828 1.8302222
13.852377 16.404482 1.87401
13.488456 16.574736 2.4632521
16.163464 17.328331 2.2501585
13.973701 16.508419 2.0657041
12.374042 15.905373 2.068712
15.978489 17.265337 2.3528295
14.267701 16.816881 2.3548627
13.170151 16.196144 2.2635128
14.371462 16.887245 2.2663867
15.671702 17.172388 1.8516781
17.185858 17.983101 2.5545828
14.788876 16.796289 2.4477732
19.073393 18.467606 1.7593052
18.378111 18.412138 2.7773938
17.434366 18.027925 1.9464108
16.473282 17.681084 2.3594086
16.46019 17.685667 1.885954
16.075087 17.300339 2.1663208
19.083963 18.427155 2.5502
14.153625 16.788242 1.8655796
14.168131 16.790722 2.2304301
12.280634 15.879771 2.0577991
16.877361 17.885729 2.5732312
12.567748 15.986961 1.970814
16.945551 17.621061 1.9672017
14.681094 16.790766 1.964628
16.160856 17.581949 2.6449721
13.863014 16.422327 1.9851999
17.959871 18.222187 2.3259566
14.259468 16.827856 2.2704196
18.072191 18.061592 2.2651815
18.259029 18.001335 2.3492265
14.290368 16.862093 2.2767117
14.170403 16.805162 2.5613716
14.08132 16.769688 2.0590451
13.97576 16.706934 2.0639729
13.508671 16.553089 2.3192053
15.470644 17.094818 1.7862506
17.269323 18.012314 1.8679247
16.280447 17.600655 1.8658793
16.163952 17.532309 2.3808694
18.366749 18.176777 2.3660662
13.047319 16.129684 2.4912031
13.165504 16.20422 1.856042
17.342207 17.743097 2.1649337
16.138809 17.503632 2.0638268
12.672466 16.064972 2.1589646
14.181934 16.807625 2.0604603
14.371973 16.878214 2.1471388
18.580698 18.268267 2.1624177
16.190096 17.598097 2.5705655
18.378164 18.183327 1.7869142
14.810764 16.864536 2.5518179
13.065159 16.3909 1.9605836
12.864553 16.095331 1.9759274
12.894584 16.159695 1.9641969
18.169649 18.320595 1.9920464
18.084433 18.30274 2.6656601
17.969149 18.240564 2.6394529
13.661102 16.653393 2.2451448
13.011042 16.372013 2.5548232
14.403163 16.632187 2.6181369
15.733824 17.372929 2.3643858
15.894919 17.410336 2.151942
15.472818 17.078659 2.1595461
17.775864 18.188843 1.8444201
19.535645 18.875496 1.9545584
14.158251 16.72064 2.3800364
17.069185 17.686916 2.0603027
13.593227 16.378386 2.5457647
13.322781 16.244509 2.0525475
13.966395 16.491201 1.8637075
13.55578 16.377861 1.8599334
13.491714 16.362871 2.2491288
17.565346 18.09807 2.0724928
14.809683 16.860104 2.350951
17.203278 17.95643 2.7243347
17.082226 17.889618 2.0623181
16.976582 17.893696 2.6708193
16.573624 17.434685 2.4463327
18.43169 18.526834 2.848017
15.879755 17.465038 2.0722175
16.159365 17.322025 2.0680189
12.895256 16.151516 2.1466246
19.393314 18.854309 2.6421609
18.07588 18.071383 2.0665154
15.864888 17.199791 2.4746201
18.858585 18.487486 1.9584354
18.864653 18.383316 1.9657943
18.977608 18.417665 1.8696345
18.707253 18.568228 2.3449008
18.46933 18.217178 2.1631315
19.13694 18.440132 2.1071875
12.610624 16.05167 1.8689212
18.874231 18.613049 2.551981
15.759325 17.461887 2.052983
15.171429 17.190136 2.0647697
16.481012 17.470648 2.1617663
13.382623 16.411863 1.9009265
12.520608 16.112162 2.1151221
19.081402 18.460573 2.0756903
15.210629 17.293489 1.8887177
15.469373 17.211617 2.1825783
19.478029 18.596087 1.8669173
13.690084 16.318947 2.1954746
12.663289 16.008612 1.9670742
18.25869 18.119112 2.165683
15.866158 17.199953 1.875857
12.756506 16.028215 2.3450711
14.459806 16.642471 2.3736162
12.557143 15.926244 2.6265526
19.676304 18.670975 2.1621847
15.365498 17.028971 1.8700551
13.78333 16.458681 2.0356736
19.290392 18.77832 2.7365727
14.303554 16.852144 2.4437861
15.956454 17.283901 1.9686971
17.608212 17.990654 2.7364554
16.809353 17.544294 1.9553801
16.698416 17.912355 1.9269583
15.270535 16.99259 2.3596261
16.275232 17.392973 2.0686433
15.860259 17.217043 2.1621966
14.262473 16.61323 1.9648621
16.582003 17.761147 1.8723394
17.420757 18.038452 1.8794975
13.6677 16.398233 1.9636524
12.875944 16.150122 2.0381804
14.572292 16.728662 1.8840123
14.885363 16.866072 2.1615417
14.943398 16.816952 2.6255243
16.566219 17.400618 2.2381709
13.450368 16.230366 2.2050266
15.977439 17.271948 2.2631307
16.867798 17.976246 2.6704657
17.064121 17.971777 2.8276825
13.185474 16.257576 2.2362461
16.688959 17.563618 2.3323045
18.893072 18.596849 2.2804763
13.062057 16.124176 1.9703414
19.098181 18.481159 1.8710124
13.703442 16.652687 2.0453787
17.783792 17.969343 2.4336462
12.68373 16.053038 1.8626683
13.770667 16.66996 2.1510847
15.844872 17.220873 1.9600488
15.188721 17.258492 2.0584686
16.875021 17.807758 1.9732491
18.370123 18.442644 2.0211568
19.260141 18.779718 2.0703852
16.370346 17.655092 1.8582385
15.969508 17.276905 2.4573264
14.975512 17.113834 2.35431
16.153 17.323759 1.9560659
16.283081 17.670444 1.7153162
16.664425 17.519274 2.4489672
12.900139 16.401264 2.5157332
12.554389 15.927951 2.2653201
19.029978 18.676432 2.7290134
18.070662 18.031897 2.1508241
17.761059 17.921673 2.2539759
14.067851 16.777161 2.2599473
16.53805 17.706984 2.2798378
16.522331 17.700306 1.6981766
12.531202 15.92544 2.3338022
18.094051 18.070105 2.55635
13.651327 16.328491 2.220808
14.75566 16.828123 1.8695709
12.278525 15.876113 2.3565941
17.565514 18.104134 1.8764387
12.675858 15.94396 2.0005934
17.190323 17.855249 1.9488393
15.16929 17.185928 2.2620988
13.772235 16.487488 1.8803499
13.366458 16.284191 2.1607823
15.186891 17.2589 1.790794
16.071856 17.591703 2.5672209
15.182331 16.96843 2.4573758
19.172375 18.474007 2.3527279
18.040306 18.229721 2.1256566
15.063766 16.919003 1.9733126
17.25687 17.723576 2.0562081
18.370718 18.202061 1.8617061
17.688711 18.010384 1.9483323
15.063893 16.919758 1.8719252
15.063855 16.914886 2.1605594
15.764509 17.177687 2.5601864
18.768 18.579079 2.5539243
17.417345 18.069895 2.6287005
19.384613 18.56222 1.7865446
19.381985 18.565117 2.2633812
18.850828 18.332396 2.2570081
19.273535 18.767097 2.4598463
18.050917 18.030794 2.4616966
19.279327 18.762638 2.3721001
14.177746 16.577295 2.3518608
13.679565 16.695082 2.1325963
13.075645 16.290367 2.1678915
19.122467 18.422188 2.3777461
17.750719 17.9312 1.8531394
17.163237 17.700228 2.6604056
16.649813 17.7444 1.6965426
18.766199 18.313768 2.355072
17.125891 17.945276 2.6320639
18.675484 18.220284 1.9505235
14.281374 16.67688 2.3581977
16.090878 17.56916 2.4535096
15.359543 17.016117 2.4604206
16.262388 17.601429 2.4314404
14.438626 16.623476 2.2564032
15.366933 17.027399 2.0678055
16.675497 17.562719 1.8754284
16.069254 17.56822 2.3449583
18.373915 18.202074 1.9416869
15.367438 17.027128 1.9675015
15.365067 17.0177 2.3527644
13.873374 16.692581 1.9631414
15.087996 17.135677 2.5858741
13.455266 16.322132 1.8672243
13.876193 16.696592 2.2645538
17.164646 17.71595 2.4585624
17.868793 17.935129 2.4738631
18.07468 18.306465 2.1928012
17.780588 17.924694 1.9674697
12.683535 16.195438 2.1876035
18.769459 18.32033 2.1596034
13.471348 16.308294 2.0672174
14.864135 16.820574 1.9644419
17.890324 18.265656 2.3709376
15.678862 17.266657 2.1434388
17.154385 17.72249 1.8501546
13.466806 16.314608 1.9682525
19.392603 18.783121 1.7747688
12.699082 16.281872 2.4126954
13.961069 16.639843 2.4274549
17.172867 17.718334 2.0723171
18.773157 18.544998 2.2627308
17.665495 18.163509 2.6682501
17.151747 17.715979 1.9629434
17.072674 17.6747 2.4646535
18.275789 18.18256 1.7782145
13.183908 16.40062 2.3304706
14.864605 16.795631 2.5625434
17.386482 18.070127 2.7575626
17.575443 17.886293 2.4574986
19.386738 18.812923 1.9758562
17.342724 17.739464 2.4503162
15.669113 17.171785 2.063323
18.012226 18.27561 2.265955
17.967793 18.272226 2.3547721
17.072971 17.696108 2.1620405
15.679129 17.338863 2.3606017
14.983823 17.113333 2.1549053
15.951941 17.483393 2.3799105
17.375401 18.024853 2.7809772
17.619036 18.146847 2.671562
17.638029 18.122091 2.5783877
13.988042 16.756634 2.7645221
17.558119 17.836596 2.2476516
17.54126 17.824306 2.1480231
13.463517 16.243774 1.9820963
12.474249 15.920736 1.9641596
16.475874 17.48535 1.9498715
16.947691 17.628967 1.8602797
16.521341 17.430254 2.0320835
16.326941 17.647963 2.9344144
14.453165 16.754576 1.8585186
17.305746 18.030899 2.9936924
14.501914 16.749474 1.9773358
17.501232 17.861504 2.1526265
16.48245 17.486101 1.8655778
17.463287 17.823624 2.0805223
14.982355 17.00083 2.4473829
16.381317 17.478394 1.6722832
17.053385 17.896927 2.5418258
15.679582 17.170965 2.1541309
13.817528 16.758787 2.7112565
18.447227 18.441704 2.7457037
16.97855 17.662428 2.3609293
15.480533 17.044773 1.8263774
12.993084 16.374281 2.4284437
16.171833 17.579411 1.9566848
17.173546 17.701462 1.7843175
14.464151 16.69895 2.0641632
15.977741 17.488974 1.8463874
14.50182 16.755999 2.2551882
18.758766 18.604546 2.8516884
16.596571 17.714308 2.1441045
13.998826 16.76149 2.37819
17.77655 18.134094 1.9556885
13.243286 16.462971 2.0561066
19.37236 18.799612 2.3703558
16.531796 17.69923 2.4656496
15.574684 17.102596 2.3553541
15.972356 17.518257 2.2515268
14.952213 17.102745 2.0456879
18.176922 18.374239 2.4808724
17.603056 18.106367 1.9808121
17.904646 18.265751 2.5464025
17.345362 17.734968 2.0886991
12.679502 16.064007 2.2779233
19.059111 18.423836 2.3606112
17.500233 17.870865 1.8641763
14.504475 16.752775 2.4759965
13.642078 16.387205 1.8022854
12.687429 16.067408 1.9440063
13.176235 16.420019 2.5188892
15.961054 17.505302 2.4622238
16.982109 17.664522 2.0604076
15.573644 17.338295 2.5928047
14.975132 16.879309 2.3502049
13.257696 16.496584 2.3536391
16.666267 17.729757 2.3610232
12.971058 16.165808 1.9654695
14.258966 16.607349 2.0668645
16.565695 17.492367 2.3556387
13.666765 16.391436 2.1590459
17.863207 18.216413 2.7314103
14.37248 16.832024 2.1509862
14.763062 16.811523 1.9658436
14.563652 16.713316 2.2596436
14.788396 16.852932 1.971048
15.179299 16.967884 2.362489
14.846216 17.018984 2.338882
14.770285 16.804676 2.16383
14.492887 16.755198 2.1507716
16.992243 17.625273 1.7642184
17.680094 17.909605 2.1643891
17.179821 17.762836 1.7783812
16.274982 17.592003 2.1488914
17.389355 18.021107 1.8634106
12.562044 15.992846 1.8792417
13.373621 16.28738 2.355731
14.146897 16.651798 1.9567903
14.969834 16.882765 2.2587507
18.349611 18.301819 1.9490324
18.54999 18.484957 2.6428657
18.943241 18.590954 2.6273298
16.559357 17.499081 2.0575294
12.703498 16.137308 2.5941465
17.05669 17.6998 1.763146
17.266802 17.896374 1.7629895
15.261168 17.283527 2.2751408
19.36615 18.798006 2.4697628
16.991238 17.68421 2.4574645
19.283735 18.772413 2.5627141
18.265831 18.1248 2.263654
13.582973 16.366879 2.3593199
13.979076 16.551893 2.3359594
18.588627 18.263832 2.2557094
17.768726 18.20245 2.3658304
19.175529 18.657595 1.9636568
16.767841 17.572451 2.1624701
16.669403 17.788883 2.1656249
15.055968 17.102146 2.2607083
15.579236 17.097973 2.5585818
17.49526 17.859791 2.2651403
18.96069 18.626129 2.3718219
13.467589 16.308552 2.3595138
19.576933 18.666883 2.0559924
18.956169 18.622223 2.2668118
13.965204 16.725462 2.2544107
13.473966 16.373035 1.7624936
13.083727 16.124868 1.8467441
14.289027 16.657288 2.0513315
17.468258 17.81896 2.3555007
18.937754 18.62067 2.036562
15.741171 17.129875 2.0881531
15.65649 17.188591 1.6288613
16.876163 17.603441 2.2610447
17.091286 17.834049 2.1492891
12.580971 15.98143 2.1673307
14.289167 16.659935 1.8664136
17.723581 18.13266 2.4963691
16.044983 17.510157 2.0511115
16.293087 17.64967 1.8432405
17.666307 17.905819 2.4517977
16.752007 17.526894 2.1669862
12.577197 15.933931 2.522819
18.482773 18.252827 2.118813
16.033131 17.552687 1.9547544
13.325755 16.359724 2.3811677
16.779764 17.577219 2.3554339
16.667133 17.80291 2.3669405
13.056445 16.138992 2.0608141
14.950274 17.14974 2.349946
19.368675 18.791882 2.1422825
18.454775 18.2745 1.7626779
19.50568 18.658419 2.3170888
14.012307 16.548836 1.8985791
19.061268 18.675747 2.6528687
17.881872 18.215847 2.2411146
15.686852 17.175547 2.5273361
15.151225 16.928118 2.2655954
14.073766 16.73568 1.9731126
13.598822 16.604462 2.3641179
14.089284 16.561424 2.4337695
16.155462 17.329567 2.1671669
19.051292 18.63607 2.2248304
16.050768 17.361498 2.1571159
15.362787 17.210743 2.4814053
18.62447 18.238625 2.3708358
17.543163 17.836737 2.3535545
18.922552 18.628061 1.9625549
14.667278 16.736515 2.0654509
18.975609 18.587681 2.1384084
17.466618 17.823826 2.2649646
18.467487 18.204489 2.3659866
18.37369 18.189693 2.0576885
18.234608 18.109516 2.546021
16.770832 17.812046 2.0603216
13.566728 16.36145 2.4553998
16.050907 17.493145 2.3631916
14.57868 16.75905 2.2653651
13.464025 16.318558 2.4632924
17.479572 17.78582 2.5906734
17.112516 17.962627 2.4556472
18.245171 18.105938 1.8929938
15.063057 16.9168 2.561547
13.164376 16.192108 2.5488925
13.570446 16.580469 1.9605576
13.57552 16.583977 2.1605484
12.962205 16.113565 2.3531473
18.289211 18.161993 2.4831846
14.246021 16.595959 2.5599833
13.449443 16.525414 2.2400134
17.104105 17.975891 2.257199
17.780231 18.115076 2.2596817
13.669826 16.393171 2.4446115
17.658377 17.903704 2.5485823
17.370871 17.876162 1.8573726
15.349791 17.2313 2.0839648
13.564228 16.595329 2.2636976
19.162315 18.704977 2.3839979
17.253458 17.733583 2.3574684
18.560238 18.229006 2.3586478
13.870028 16.483923 1.9759437
16.770569 17.724777 1.9137328
17.758692 18.183819 2.2439508
19.443539 18.855333 2.7372615
17.967873 17.995995 2.567677
15.298492 17.012348 2.6313436
13.579536 16.5875 2.4409235
17.553377 18.104525 2.7748256
18.197964 18.153488 1.7835708
14.361301 16.890942 2.3517122
13.260411 16.223272 2.3527069
12.331848 15.977049 2.4036856
18.601421 18.23962 1.7477709
15.958789 17.204533 2.6335893
18.548111 18.192751 1.8736333
19.063976 18.430777 2.1703219
17.067865 17.699289 1.9641149
19.480984 18.867146 1.8526931
17.507299 17.872414 2.3643045
18.551571 18.229582 2.2524457
15.845679 17.445108 2.5064113
16.445721 17.437916 1.9742016
17.167484 17.914394 2.3754461
16.884563 17.652273 2.2518988
18.415537 18.248573 2.2259071
14.048997 16.739538 2.4278574
13.969853 16.444485 2.3752978
15.677881 17.392857 2.1592569
19.379908 18.555037 2.3523285
18.436329 18.246592 1.62609
18.545368 18.232244 2.1583133
15.167462 17.137043 1.8192145
16.056446 17.557903 2.2535048
18.563705 18.22245 1.9692787
12.399088 15.960492 1.9587848
14.357532 16.632759 2.1712565
15.684484 17.193512 1.773003
15.684276 17.320917 1.7631614
17.487846 17.796322 2.6255469
13.479448 16.32872 2.5165358
13.954767 16.436455 2.2786345
14.793983 16.860449 1.9088403
19.485138 18.866322 1.8075277
16.338894 17.426502 1.7491939
13.680451 16.370766 2.6145546
17.370506 17.788191 2.3493171
15.587135 17.321886 2.1308815
17.07765 17.678328 2.3578837
18.668026 18.529896 2.5519867
18.266661 18.377176 2.3565831
18.697121 18.565041 2.2812557
15.145287 17.102369 2.352339
14.062987 16.734755 2.2443881
19.569633 18.692726 1.9765961
15.271054 16.981548 2.4498978
19.587811 18.675388 1.792761
18.358168 18.412306 1.9514282
15.263783 16.973442 2.5487015
14.26684 16.823555 1.9747241
19.472179 18.591745 2.2678058
15.839418 17.224056 1.7606288
14.649378 16.718224 1.9464352
18.272507 18.134693 1.7450597
18.940577 18.427435 1.6957
18.96143 18.405519 1.5453466
19.258677 18.797289 2.1857178
18.33773 18.139988 2.1620727
13.352577 16.303204 1.8607717
13.444153 16.521555 2.1759303
19.177353 18.706425 2.2697666
18.375147 18.167751 2.5385401
15.54105 17.097767 1.7717983
15.774463 17.18054 2.360991
16.464697 17.428507 2.2553682
15.870621 17.419893 2.3501906
18.368921 18.176554 2.1601839
18.375498 18.174686 2.2663834
18.376122 18.172426 2.4600148
18.947495 18.626947 2.5576146
16.774605 17.799622 2.5767288
18.173452 18.362816 2.3709249
16.742289 17.533548 2.3650088
18.34478 18.45686 1.7633649
18.879391 18.662952 2.0299072
13.170395 16.20529 2.4691482
17.76321 18.185009 2.4685683
15.77136 17.192184 2.1637843
15.60721 17.1674 1.7697598
18.878181 18.703808 1.8387358
15.765542 17.192545 1.8811513
15.781277 17.205072 2.0659449
16.73311 17.735771 2.242074
16.851213 17.647867 1.8679413
15.820951 17.148972 2.7275045
17.361227 17.797091 2.068768
12.997276 16.026421 2.5729737
13.37018 16.276909 2.2652555
18.584608 18.487104 2.8091996
16.072672 17.298477 2.3522043
13.446616 16.535221 2.4721904
13.174341 16.465801 2.693048
17.084984 17.955639 2.3906739
18.277006 18.392097 2.547895
17.372032 17.791864 2.259053
14.059866 16.738829 2.1608703
17.635664 18.250387 1.8571057
18.30179 18.305567 2.0587914
16.180946 17.365265 2.1655171
16.7719 17.570959 2.2560472
18.474773 18.468756 2.5466592
17.067484 17.68219 2.2604673
18.56546 18.490595 2.5577469
16.663128 17.498606 2.6154053
15.158544 17.186043 1.8618635
13.378642 16.507816 1.8755687
18.487797 18.475822 2.2393625
14.4699 16.695869 2.1645348
17.425631 18.036806 2.4125447
19.497919 18.858833 2.4672747
19.273069 18.772398 2.6714511
17.958242 18.017332 2.0784788
14.867354 16.825033 2.0583434
15.86203 17.257896 2.6729696
15.299583 17.059013 2.2381945
17.980955 18.268721 2.6422241
15.600937 17.155289 2.0439296
19.489243 18.855959 2.3716745
16.831829 17.900234 2.0600662
14.581792 16.763538 1.8702942
13.075926 16.172073 2.4511375
15.977366 17.273464 2.1696835
17.616158 17.986452 2.2570243
17.486229 18.039873 2.1383834
15.890907 17.419895 1.921661
14.030746 16.723034 2.3650782
17.566004 18.109953 2.3645337
16.131376 17.328442 1.7907151
17.378435 18.009632 2.6771851
13.152464 16.477448 2.5514402
18.400841 18.328232 1.8597819
15.611229 17.166296 2.3502738
12.761055 16.025591 2.2539425
18.856239 18.650257 2.7381427
12.670354 16.054468 2.0659766
14.80444 16.871222 2.1493437
18.229452 18.409649 1.6839534
12.777574 16.264542 2.1277151
19.167582 18.482031 2.0608416
13.583955 16.369091 2.0713222
14.010085 16.556679 2.1011927
15.58687 17.377474 2.2962172
19.385145 18.795135 2.2693551
12.967192 16.185658 1.8548263
16.38979 17.65897 2.3513436
12.778138 16.240906 2.1332836
19.416658 18.857845 2.1468723
17.85041 18.209572 2.478056
19.436054 18.540268 2.259321
19.36907 18.803143 2.5557661
12.945907 16.334351 2.0690746
16.60589 17.613153 1.7883294
18.182144 18.372057 2.0634184
19.643288 18.638718 2.1584609
13.187561 16.45155 2.0373068
13.556933 16.326147 2.1577213
17.701134 17.906862 2.6151402
13.658383 16.68709 2.5936606
14.86729 16.826839 2.2696092
12.683552 16.262175 1.9372928
14.382905 16.670177 2.1603639
13.639623 16.326775 2.0655165
19.174417 18.486828 1.8759071
16.273623 17.391726 2.155381
17.258455 17.915932 1.8776469
15.756308 17.138939 2.5325518
18.478714 18.472525 2.1927669
15.800211 17.435108 2.4575255
16.058273 17.303711 2.0674477
19.069237 18.595579 1.9180212
14.29076 16.682003 1.7798698
17.948385 18.038761 1.6465354
16.25202 17.391445 1.9600655
14.08976 16.567068 2.1627121
16.357021 17.389235 2.5660417
18.643682 18.241331 2.4984531
18.352608 18.401888 2.9377017
17.272293 17.785675 1.9716246
14.260086 16.859367 2.0522215
15.886626 17.264107 2.0557728
17.534134 17.799093 2.7390287
12.754473 16.273685 2.0740063
15.499678 17.291502 2.5078979
13.711899 16.451147 2.362865
12.543563 15.933956 2.1684775
17.842318 18.350073 2.1854343
16.747004 17.520483 2.2600529
14.342167 16.880392 2.4801579
15.862644 17.217518 2.2607253
19.193869 18.749277 2.304543
19.587944 18.833807 2.062263
12.971193 16.37492 2.058527
14.866306 16.823866 2.3602073
17.277824 17.773241 2.2645195
15.066903 16.96056 2.174119
16.569286 17.489332 2.4544973
18.482424 18.219975 1.6932445
17.825806 17.933983 1.7539234
14.665702 16.776529 2.0690312
19.189468 18.681309 2.9231043
16.184874 17.528996 2.1833153
14.884881 17.077993 2.202991
18.695961 18.533361 2.6325998
14.863514 16.866024 1.854455
19.666286 18.678505 1.8568336
17.572603 17.965515 2.4866385
13.765951 16.423037 2.0697863
17.375368 18.022957 2.4613991
16.737328 17.503658 1.8323448
15.775903 17.416321 1.9636785
19.301352 18.726921 2.8660953
16.76313 17.537663 2.5457609
13.76479 16.408953 2.5610774
12.98752 16.409554 2.2515559
18.078316 18.304262 2.3703609
14.95933 16.828356 2.3651278
19.446602 18.857449 2.1617708
17.115471 17.950634 2.5762286
12.858759 16.031712 1.861824
12.942468 16.36968 2.3443167
19.464367 18.847868 2.3071382
19.357082 18.527731 1.9507054
15.478124 17.071918 2.5474594
15.867912 17.311773 2.5608828
13.752519 16.413271 1.9608667
17.669304 18.174837 2.0482829
14.452514 16.639788 2.4502792
13.649862 16.618549 2.1261125
17.113457 17.748907 1.8832388
14.947769 16.837715 2.0844119
13.127067 16.111277 1.8943582
18.715574 18.354189 1.8853806
18.555006 18.474594 2.4706066
12.800753 16.356647 2.5780096
15.697391 17.415577 2.2721062
17.266701 17.785446 1.8455594
12.902107 16.303587 2.4752612
15.179324 16.978294 2.0615249
12.871164 16.088314 2.3603241
12.492855 16.152124 2.5216153
15.568941 17.119429 1.9712147
13.798682 16.466171 2.3734896
12.873343 16.308777 2.0433364
17.555267 18.104568 2.5522964
18.591095 18.259392 2.3670166
15.682751 17.390133 2.0708127
13.871867 16.47954 1.8678734
15.532247 17.309441 2.1019874
17.26255 17.720861 2.5493205
18.459881 18.211468 2.069407
15.669187 17.128159 2.167644
17.268511 17.723225 2.4412639
13.772678 16.463282 2.2370324
19.579063 18.666412 2.1540661
15.183344 16.977339 1.9512688
14.434873 16.631432 1.714402
18.67415 18.308037 1.7606436
16.465858 17.439518 2.0555463
16.421593 17.462631 2.6287074
17.960938 18.237093 2.7528751
17.274857 17.77302 2.0704982
13.468052 16.307383 2.2670214
18.621571 18.385551 1.7257991
12.322883 15.835788 2.1892784
17.439297 18.023821 2.3341832
16.455074 17.431927 2.3493342
19.343571 18.726103 2.3155415
13.884097 16.473118 2.3596826
15.186296 16.926949 1.9583038
18.872463 18.387114 1.8556823
14.018934 16.561392 2.1953137
15.470655 17.295874 2.5468073
18.310951 18.422235 1.986611
16.480288 17.68684 1.9558864
15.286811 16.941103 1.8424596
14.637653 16.734627 2.3402097
15.463408 17.319893 2.0590053
14.857838 16.816307 2.4637766
17.345079 18.017736 1.9265698
15.161193 16.97403 1.8641412
14.934679 16.842772 2.1927159
17.482134 17.857018 2.0657017
12.859704 16.28594 2.5640643
13.659346 16.609079 2.2543144
14.475607 16.687073 2.4517124
16.042213 17.30805 1.7654314
16.284714 17.422787 1.8763224
13.768922 16.660818 2.3684633
12.667945 16.007755 2.3531628
15.177884 17.072338 2.4756618
15.333398 16.942986 2.5730355
19.597307 18.875776 2.2822762
19.360714 18.530083 2.3506148
15.564163 17.336826 1.9434407
15.565961 17.091728 2.6515565
18.982357 18.703382 2.2658248
17.94755 18.004509 1.9716005
16.553839 17.560392 2.5975168
13.37044 16.277826 2.5411584
19.215433 18.550583 2.2553675
13.754953 16.620735 1.9532931
13.410346 16.554659 2.0773621
16.258244 17.617687 1.6689451
16.876944 17.592403 2.5549262
18.752613 18.328375 1.9601835
13.782763 16.464376 1.9597425
16.662083 17.521307 2.0697684
13.748528 16.631554 2.0451267
13.706647 16.448456 2.1630542
13.684005 16.456203 2.2475791
15.872691 17.214611 2.37009
12.806152 16.287649 2.5457592
18.368031 18.142822 1.8580213
13.169008 16.200924 2.1758218
17.898846 18.225861 2.1459436
18.880621 18.6553 2.5704825
17.266401 17.845676 2.5124075
19.262869 18.731651 2.2831247
19.478558 18.887383 1.960856
16.888968 17.876263 1.8677068
13.968374 16.71912 2.1697879
13.554243 16.338274 2.532146
14.856452 16.828142 2.1535401
15.170537 16.968075 2.1564698
15.864149 17.269629 1.8671404
16.59115 17.713493 2.0597072
19.184479 18.798376 2.3491356
17.488152 18.033384 2.5750899
13.985028 16.566751 2.2578909
13.111135 16.4832 2.0742493
14.473924 16.709202 1.8675315
15.589326 17.160866 1.8737788
18.29587 18.365456 2.0715833
12.660481 15.931483 1.7847939
19.178297 18.481445 2.1501906
13.743531 16.636141 2.1362357
12.314136 15.874001 2.5550921
18.427137 18.441948 2.8916836
18.571114 18.280361 1.8557107
16.44104 17.418139 1.7367713
14.869457 16.859411 2.0595219
12.959374 16.117607 2.0608449
19.662077 18.66785 1.9533889
12.987269 16.161499 2.2632833
15.874297 17.225571 2.08318
12.985148 16.160372 2.3453269
15.889886 17.292826 2.4680922
15.773277 17.307827 2.1388106
12.69012 16.283585 2.5729973
18.749756 18.355232 1.878337
15.175696 17.121643 2.653415
15.174907 16.931282 1.8981258
17.964989 18.286018 2.0885992
19.151922 18.434515 2.2596273
18.979933 18.40134 2.5395787
18.412249 18.251507 2.0535192
18.555719 18.229412 2.0741365
14.173886 16.586859 1.8721452
13.859201 16.694393 2.4533856
17.277002 17.769367 2.1627538
15.6025 17.393291 2.3337786
12.791208 16.372915 2.4492755
12.406497 16.109541 2.5334632
15.501049 17.188387 2.0461028
12.749719 16.029886 1.9802365
13.940863 16.427437 1.8674668
16.371445 17.672815 2.4486315
13.280668 16.46578 2.1587591
13.657815 16.610428 1.8779259
15.667803 17.390871 1.9519496
18.97826 18.619205 1.8461696
18.244478 18.285524 1.6981312
13.98825 16.577503 1.9647515
17.656612 18.070702 1.9182479
16.093859 17.237253 1.935437
15.477985 17.07555 2.3663676
15.004871 17.124784 2.3019745
14.090369 16.575388 1.9710548
12.97296 16.161001 2.0671635
13.270076 16.219378 1.9652539
18.696924 18.554565 2.4725215
14.873091 16.874687 1.9653386
13.540366 16.65745 1.9809163
13.841378 16.434568 2.465775
13.649621 16.606804 1.9617051
18.970001 18.632942 2.4748101
18.3834 18.124575 1.9455329
13.553481 16.325001 2.3481312
16.091766 17.380518 2.5540512
19.2575 18.730234 2.3614318
18.45598 18.466864 2.3884027
14.841379 16.768209 2.6691365
17.086815 17.775324 2.7109609
12.77701 16.274733 2.3565478
13.271441 16.467089 1.9653796
12.825121 16.299976 2.2775469
14.077477 16.566418 2.2605009
16.109236 17.553518 2.7255414
16.782532 17.600073 1.8606343
16.682064 17.788464 1.8497699
16.57247 17.558758 2.34396
14.030983 16.711817 1.8571694
13.311668 16.467518 2.2751238
15.564591 17.09277 2.4475899
12.978415 16.134462 1.8889039
18.567255 18.51951 1.6471924
18.661205 18.306774 1.6858548
19.235115 18.728256 2.4437525
13.552767 16.331684 2.2672331
13.303411 16.468723 1.8712776
13.080161 16.177305 2.2648818
17.068773 17.962852 2.7659039
15.760334 17.195395 1.9578996
12.779278 16.042305 1.8378769
19.08049 18.466423 2.3581538
13.563652 16.576328 2.065747
15.971385 17.283028 1.8557796
13.663733 16.621218 2.3609679
16.758596 17.586569 1.7640609
16.660128 17.764481 1.7371637
15.471183 17.301765 2.1692104
15.578293 17.37764 2.4698887
18.267519 18.390705 2.4656215
14.970518 16.885059 2.1605072
18.471096 18.471525 2.4665968
13.539978 16.328772 1.7632812
15.509686 17.353107 1.9730135
17.980904 18.353037 2.069438
15.478601 17.313883 1.9701372
12.772717 16.068489 2.1487613
13.263955 16.472422 2.443846
14.171186 16.792355 2.1408939
19.674101 18.673168 2.2576036
15.215344 17.053919 1.7847849
17.881224 18.082533 1.6793247
16.076374 17.367113 1.8750629
13.551686 16.324823 2.0533628
13.560987 16.32148 1.9689285
17.206209 17.924204 2.4937768
16.870903 17.950209 2.2003963
15.242352 17.21357 1.6953635
16.766251 17.587164 1.6798302
13.737517 16.368961 2.623899
18.504698 18.260666 2.4404445
19.260902 18.758438 2.8640976
15.272125 16.996319 2.1575117
12.364277 16.190264 2.2758863
18.635946 18.223324 2.1649539
13.189301 16.42391 2.0570097
16.764536 17.577089 2.6214039
14.180059 16.671318 2.1746294
19.364456 18.559965 2.462672
17.710325 18.155251 2.4849434
19.49876 18.418085 2.5177681
12.868092 16.085093 2.2539024
16.176563 17.601498 1.8607926
15.272556 17.005928 1.9650724
19.425856 18.539444 2.3156333
15.860106 17.41222 1.8372421
15.042232 17.133516 1.7714831
13.468862 16.308954 2.1491721
19.199457 18.729513 2.5652733
17.241154 17.910929 2.049283
17.369795 17.731079 2.3795674
15.274045 17.015631 1.8562182
14.084167 16.566101 2.3649924
14.119914 16.774509 2.1454363
15.570756 17.104233 1.8621441
19.052755 18.680635 2.5536849
12.580742 16.185871 2.2375894
13.752468 16.418882 1.8601177
15.09037 17.160192 2.4771645
14.464763 16.690479 2.2653797
19.063337 18.684626 2.4614985
19.606899 18.828678 1.8039805
13.96491 16.715124 2.3646841
15.599974 17.148518 2.2742438
17.867842 18.224445 1.8672652
17.897141 18.284439 2.197974
16.644434 17.429089 2.2580683
14.641532 16.728556 2.1652679
14.170856 16.650961 2.5474274
12.17622 15.796696 2.4462039
13.757613 16.608425 2.2546008
17.395443 17.782383 2.651552
14.480574 16.715502 1.7839165
18.342922 18.139891 2.2395341
15.147141 16.932034 2.1655254
16.340069 17.596935 1.9833441
18.979942 18.656267 2.453131
17.5473 17.806309 1.9882764
16.483311 17.468559 2.457222
16.046764 17.527344 2.4610326
14.361426 16.677551 1.9650199
16.072285 17.32163 1.8896931
19.19928 18.74905 2.8791978
17.956253 18.232296 2.5577414
17.692818 18.166208 2.5563991
17.405235 17.718142 2.622359
13.894174 16.465914 2.5526097
15.569928 17.377909 1.9490563
18.400003 18.139898 1.7520688
14.775452 16.805073 2.0745037
15.481339 17.308701 2.677289
15.648124 17.134497 1.9825705
15.571693 17.107069 2.2555947
14.268958 16.59935 2.4594042
12.878378 16.030281 2.4108679
15.661608 17.122766 2.0650532
13.856573 16.422058 2.5672941
18.462988 18.260445 2.2568371
19.00259 18.687271 1.9889973
16.704571 17.809538 2.5629547
16.775845 17.602419 2.5487461
16.048893 17.524511 1.8680236
13.070515 16.177744 2.0564604
15.58739 17.462732 1.8992926
13.630389 16.625574 2.636641
18.707344 18.349899 2.1349962
18.27433 18.389767 1.8961518
18.73699 18.529688 1.8821398
17.857309 17.939114 2.6840355
19.241192 18.761364 2.2918348
15.905529 17.365578 1.7459866
18.880268 18.375702 2.0607262
14.929933 16.838556 1.8311785
19.170263 18.760178 2.6290123
12.666047 16.001139 2.0649462
19.174522 18.479282 2.2582676
17.966843 18.013079 2.2702241
13.761828 16.629322 2.4363217
17.909452 18.104919 1.9880157
16.864801 17.57835 2.6330798
15.4805 17.073284 2.4397662
17.777308 18.196125 2.6537902
17.52577 17.81521 2.6251211
17.892338 18.223394 1.9538628
16.055374 17.523422 2.2283096
15.870446 17.474817 2.3414335
15.778979 17.257969 2.4558623
15.753902 17.207617 1.7896817
18.109373 18.291916 2.045785
15.302211 17.051186 1.9574161
15.672985 17.338919 1.9005429
18.353922 18.122484 2.4414046
17.61162 17.99918 2.7045686
19.030243 18.660318 2.0231605
19.382994 18.579977 2.0657761
15.884197 17.495373 2.1550245
17.387075 17.870144 2.2557783
17.275967 17.992069 2.000633
18.291864 18.370815 2.2589746
13.697241 16.652996 1.9636089
13.062816 16.131689 2.6455746
15.472505 17.079344 2.2591023
15.586794 17.372305 2.1684768
15.071833 17.159838 2.3992016
15.38201 17.291382 1.8666241
17.261927 17.977444 2.066607
16.882366 17.595592 2.4503179
17.038853 17.617805 2.1887648
15.583343 17.359991 2.0865049
17.759243 18.139654 2.7984107
19.206783 18.762314 2.5522621
19.132034 18.429897 1.9674406
17.2787 18.008121 2.1600986
15.892101 17.437704 2.6102438
13.422305 16.548393 2.5487213
12.836116 16.042418 2.1521108
19.071337 18.466753 2.1600385
15.761388 17.4478 2.1374316
12.857333 16.044573 2.058255
13.848715 16.696741 2.5554345
16.426014 17.613218 1.9448512
17.460863 17.864447 1.9648424
15.365574 17.274042 2.0548136
13.07283 16.172873 2.168802
15.641945 17.406536 2.3171334
16.067816 17.299503 2.2593694
13.41356 16.359444 2.1394801
12.875992 16.304779 2.3854449
15.615653 17.350552 1.9057311
18.70385 18.572823 2.5860391
17.242937 17.710829 2.6601858
18.379198 18.468069 2.2635458
19.583391 18.701799 1.8602269
17.652822 17.956774 1.7945579
12.844539 16.040148 2.233078
19.512066 18.673601 2.0574982
13.379 16.293226 1.9734071
19.679413 18.672932 2.3600371
18.669882 18.542606 2.2461243
14.269374 16.816483 1.8703378
13.891574 16.477451 2.4483125
13.769181 16.417742 2.4522934
19.074787 18.690878 1.8744903
15.37151 17.284473 2.357461
17.059284 17.755047 2.2306724
13.465734 16.516722 1.9834396
15.749574 17.423096 2.2727864
18.728281 18.504402 2.3785796
15.16569 16.924255 2.4606338
14.768758 16.802736 2.5546374
16.576616 17.570414 1.8654139
16.610605 17.55509 1.9122568
18.525393 18.230686 1.6589748
15.402406 17.314987 2.1215706
18.150023 18.314577 2.6463659
12.671173 16.200047 2.5705519
15.386293 17.071428 2.4362149
15.680153 17.176596 1.9692303
14.17691 16.593376 2.0635433
16.166801 17.334944 1.869772
12.586991 16.209118 2.5962582
17.31778 18.071194 2.1615598
14.374802 16.669601 2.2525373
12.496446 16.115585 2.1475415
13.759076 16.622843 2.3664658
17.468958 18.098061 1.9475549
19.186644 18.756191 2.4721334
13.472154 16.546156 2.1898429
13.786032 16.463425 2.160464
17.363379 18.007221 2.1965475
12.983146 16.134157 2.6630414
16.775431 17.510353 2.6708009
14.469593 16.697495 1.9759588
19.299904 18.801834 3.0167806
17.472866 18.044376 2.7905092
17.46513 18.084585 2.0727043
16.476147 17.747112 2.5466783
