# .PCD v0.7 - Point Cloud Data file format
VERSION 0.7
FIELDS x y z
SIZE 4 4 4
TYPE F F F
COUNT 1 1 1
WIDTH 1113
HEIGHT 1
VIEWPOINT 0 0 0 1 0 0 0
POINTS 1113
DATA ascii
-5.2616329 35.545292 0.63962573
-4.7765074 34.986374 2.5401814
-5.2746916 35.498917 0.07277824
-4.7654624 34.857986 1.7928054
-4.7539406 34.887749 2.4436231
-4.8283744 34.881004 1.6651981
-4.8875256 35.25639 -2.9845841
-4.7644258 35.283543 -3.313971
-4.8850594 35.332832 -2.4894407
-4.8953457 35.604397 -2.9332571
-4.9824562 35.498569 -1.8859736
-4.8913226 35.494011 -2.9206202
-4.9018564 35.443783 -3.0007567
-4.9187951 35.585884 -2.7529716
-4.8971729 35.423401 -2.7721596
-5.0428476 35.670898 0.85143608
-4.8773794 35.44767 -0.10246427
-4.9964547 35.226665 2.034179
-5.0413256 35.679466 0.56105685
-4.7642102 35.081894 -1.7389061
-4.9120426 35.414001 -2.1451023
-4.9478264 34.895885 1.8670975
-5.0065169 35.407021 1.3535123
-5.0368867 35.593681 1.1607068
-5.0806522 35.45966 0.59077603
-4.9342213 35.598278 -2.5449312
-4.9832439 35.339741 2.2195411
-5.039557 35.678371 0.45873135
-4.9389019 35.583405 -3.3353443
-5.0084143 35.313751 -1.0416685
-4.7622571 35.339016 -1.2480046
-4.7667818 35.079426 -1.6402489
-4.9049807 35.203453 0.45790654
-4.903738 35.205196 0.56200624
-4.9092221 35.212971 2.5514982
-4.8281727 35.190941 2.7662191
-4.817081 35.293015 -3.3252971
-4.9099855 35.402557 -2.0309412
-4.7263737 35.287277 -4.0517526
-4.9534349 35.488529 0.35735196
-5.1205549 35.411583 0.30079713
-5.0823593 35.524395 -1.9152292
-4.7338715 35.203171 -1.7329953
-4.8707891 35.380833 0.47262156
-4.9093571 35.302963 -1.4412588
-4.9074173 35.205391 1.2611655
-4.8447142 35.400501 0.36852503
-5.0020275 35.40633 1.4631499
-4.9139247 35.205654 -1.641637
-4.8113198 35.094952 -1.7407161
-4.8997102 35.192623 2.7557371
-4.7633686 35.17672 1.3791921
-5.2407165 35.602081 1.1661958
-5.0013981 35.410316 1.260501
-4.9958544 35.415173 0.65861869
-5.0029445 35.398018 1.6663228
-5.0317025 35.592495 1.2649539
-4.8678613 35.451145 1.0831301
-4.7436962 35.264042 1.3263513
-4.905139 35.38718 -2.5197914
-4.7393398 35.166805 -0.96399844
-4.9093933 35.393452 -2.821419
-5.0531006 35.551353 -2.9774008
-4.7656422 35.18903 -1.3291216
-4.8198628 35.196457 -2.1272352
-4.9284558 35.687332 1.0159478
-4.9560041 35.684917 0.076745652
-4.7684813 35.331581 -0.79765207
-4.7578969 35.077873 -1.8349007
-4.8919907 35.374832 -3.2435904
-5.0002341 35.404572 0.86438572
-4.957798 35.475906 0.95578349
-4.9295044 35.295822 2.5458467
-4.8121867 35.101807 2.6585071
-5.2817254 35.529362 0.32685089
-4.8243203 35.187572 -1.7363553
-4.9305968 35.437847 -3.2965612
-4.9051723 35.206455 0.26446214
-4.939497 35.4939 -1.4444593
-4.7320285 35.233105 1.2098207
-4.6891432 35.113266 2.7954168
-4.9059615 35.201721 1.5553553
-4.8241444 35.189957 -2.0276473
-4.7423024 35.227699 2.6701107
-5.0359483 35.589291 0.95871711
-4.9281664 35.295727 0.86159879
-4.7780704 35.14661 1.912017
-4.7702718 35.170929 0.73393995
-4.8171811 35.095982 2.760453
-4.8178921 34.996651 2.6686778
-4.8217387 35.09647 2.9720409
-4.8069258 35.193642 -3.3402839
-4.9570441 35.489994 -0.74580669
-4.7670112 35.283752 -3.5349724
-5.0683746 35.793488 0.39694747
-5.0016541 35.40984 1.0572213
-4.7623491 34.899319 1.5758404
-5.0376105 35.784248 0.0030326394
-4.7645068 34.923145 1.6159275
-4.9441752 35.58963 -0.23289688
-5.031765 35.679581 0.065594986
-5.0116234 35.569973 -2.1740692
-4.8617339 35.178223 1.4677581
-4.7436657 35.162376 1.8675699
-5.4190807 35.672081 0.95304519
-4.8797626 35.476879 -2.3219776
-4.9528265 35.390266 1.0627086
-5.3390317 35.69352 0.35613659
-4.9262919 35.387875 2.1676445
-5.0452375 35.678864 1.0584791
-4.7556491 35.110088 2.5664232
-5.0121088 35.501663 0.75476187
-5.0349412 35.593445 1.0607002
-5.038682 35.666458 1.2611229
-4.925642 35.495384 -2.2616203
-5.0038528 35.414185 0.7569195
-4.9328198 35.29644 2.1555855
-4.9166822 35.17865 -2.549876
-5.0352244 35.591843 0.86585999
-5.0474873 35.772533 0.76464689
-4.7685165 35.165577 1.2304127
-5.0451527 35.674892 0.96548426
-4.9661937 35.582085 1.3621452
-4.9524336 35.391651 1.1653496
-4.8606071 35.277668 0.75535029
-4.8482499 35.187122 1.5605162
-4.8573275 35.180622 1.2625823
-5.0342646 35.793842 0.65605778
-5.0315118 35.591297 0.76093376
-4.7551866 35.068531 -0.7524212
-4.739563 35.089001 2.6908703
-4.7782145 35.351002 -4.0453959
-4.8538957 35.181561 1.3617043
-4.9651089 35.56871 1.0438145
-5.1219544 35.452545 -1.6464159
-4.9643273 35.478504 1.0550089
-4.952323 35.388618 0.76152939
-5.3393369 35.687828 -0.03623601
-4.9424162 35.38924 1.7659272
-4.9497285 35.393574 1.3603381
-5.3402033 35.691135 0.56141692
-4.9234495 35.482609 -1.9317456
-4.9492483 35.393364 0.66161746
-4.9607191 35.577171 0.36524963
-4.8268971 35.195133 -1.636516
-4.9452648 35.698639 -2.9455714
-4.9434872 35.596134 0.44551301
-5.0099397 35.405575 0.45634091
-4.9107194 35.200325 1.6591612
-4.9207249 35.238033 -2.3915341
-5.097456 35.499935 0.25218487
-5.1135302 35.522411 -0.024564996
-4.8938947 35.214119 -3.2058153
-4.8500986 35.295071 -1.7408664
-4.8325582 35.469833 -4.026475
-4.8457365 35.409779 0.67180574
-5.0310874 35.589951 0.66007382
-5.0314345 35.591988 0.56148791
-4.9879088 35.309692 -0.64903104
-4.9323158 35.389965 1.9534407
-4.8606548 35.470222 0.56894755
-4.9050379 35.408123 -2.8918474
-4.9928184 35.210312 -1.2281429
-4.9436917 35.390556 1.5631015
-4.9363346 35.388287 1.8589542
-4.946136 35.388313 1.4618299
-4.9265909 35.29702 0.55935949
-5.0054655 35.294037 -1.4349227
-4.9248776 35.393833 2.0585711
-4.9083228 35.091721 -1.1348784
-4.9157624 35.090885 -1.3404444
-5.1115656 35.610893 0.76824087
-4.7716403 35.149609 1.0622628
-4.9967451 35.408482 0.15996474
-5.0879755 35.512875 -1.4039763
-5.0305796 35.590157 0.46313176
-4.9494987 35.390015 0.46435216
-5.0315394 35.595753 0.36339322
-5.0165777 35.594379 -0.74295777
-5.0141587 35.504658 0.36074036
-4.9260654 35.296219 0.75993001
-4.9086146 35.203434 1.3634214
-4.950345 35.395245 -0.14388579
-4.7595148 35.021832 2.6731415
-4.755064 35.163002 1.6807482
-4.8142352 35.097591 2.8518028
-4.8324447 35.219185 -3.6612215
-4.9055448 35.499882 -2.5540345
-5.246933 35.697071 1.0658128
-5.2296 35.709694 0.85357839
-4.9473047 35.597858 -2.242723
-4.9588151 35.481697 -0.14196447
-4.9550719 35.490818 -0.54650694
-4.9132566 35.393349 -1.9429462
-5.2163229 35.789028 0.11541248
-4.9096599 35.220989 2.3597152
-4.8305249 35.017315 1.9604498
-4.633359 35.032761 -1.1423684
-4.947154 35.67614 0.63861322
-5.3349829 35.68792 1.0660093
-5.0479765 35.425274 -2.8909664
-4.7504387 35.147011 -0.21868113
-4.6203437 35.059349 -0.27167889
-4.6603646 35.050457 1.5523121
-4.7559142 35.162876 0.053035866
-4.9316049 35.295494 -0.73593646
-4.9122834 35.300812 -1.9419421
-5.3326426 35.583054 -1.1549816
-4.6126404 35.126194 2.1720369
-5.1139841 35.590321 -0.13632441
-4.730382 35.087936 2.152205
-4.9582238 34.893887 2.0541034
-5.3420663 35.686203 0.86669528
-5.0198841 34.838577 2.3524983
-5.1054993 35.599613 -0.55507666
-5.1181979 35.684273 0.16621287
-4.9269381 35.297531 0.16561383
-5.1082263 35.672997 -0.026666904
-5.1277404 35.66774 -0.12968756
-5.1016507 35.680531 0.35847247
-4.8592987 35.265835 0.96380287
-4.8383594 35.019287 1.760287
-4.7628293 35.079353 -1.5340303
-4.9514413 35.578022 0.271631
-5.0989647 35.497978 -0.2458616
-4.9511943 35.390961 1.2557548
-5.0110307 35.504456 1.0620059
-4.996613 35.409267 0.36089936
-5.0101471 35.504578 0.56145567
-4.9083567 35.317131 -1.8333725
-4.8273125 35.292461 -2.1344528
-5.0002608 35.409885 1.1687671
-4.6584778 35.061348 0.86614269
-4.6141491 35.059151 -0.63033682
-4.8589349 35.371029 -1.4335785
-5.1185002 35.667419 0.45962387
-4.9674931 35.770378 0.19822091
-5.0175848 35.505104 -0.034575261
-4.9182572 35.205914 -2.1646957
-4.7712631 35.320591 -1.3256723
-4.8283682 35.088955 2.4587789
-5.118176 35.507256 0.82429659
-4.907269 35.402481 -1.7445266
-4.917697 35.184731 -1.5426275
-4.8691726 35.435055 -2.8576303
-4.9071679 35.18972 2.4582474
-4.766449 35.149742 2.4192736
-4.7342358 35.257088 -1.1828601
-4.8196254 35.094517 -1.5393496
-4.8217907 35.080261 -1.2405148
-4.9250698 35.299927 -0.5367794
-4.7579284 35.103722 -1.047389
-4.642828 35.050823 -0.43201005
-4.8327456 35.08107 -0.8428514
-4.8345518 35.073536 0.26337743
-4.943779 35.580322 0.74104291
-4.9273009 35.49559 -1.8365848
-4.8035035 35.095833 -1.9363208
-4.9178171 35.082317 1.8581681
-4.8409429 35.383556 -0.659293
-5.1817451 35.752235 0.87946945
-4.9286251 35.298176 1.459525
-4.7528682 35.087624 2.0759361
-4.952004 34.898449 2.1559954
-4.9399028 35.602989 -0.14195861
-4.7423043 35.178322 2.2758207
-4.952599 35.488506 -0.84019911
-4.7374082 35.104572 2.3579698
-4.7383404 35.387367 -3.768317
-5.0500131 35.674721 0.16049708
-4.8541985 35.294094 1.6637527
-4.8732524 35.427021 -0.84269226
-4.9227443 35.08255 2.6572125
-5.0078096 35.319313 0.35425803
-4.8266506 35.193443 -1.8363146
-4.9113522 35.499619 -3.3504612
-4.9534502 35.388111 0.95570314
-4.848516 35.192734 1.8629972
-4.9203668 35.403107 -1.6427299
-4.7598214 35.080902 -2.3352773
-4.7603025 35.282188 2.2287841
-4.7610722 35.075893 0.66544771
-4.8101006 35.090355 -1.6360779
-4.8688097 35.282745 1.4618002
-4.9276395 35.296967 1.959473
-5.0072742 35.412075 0.066008702
-4.8583083 35.187313 -0.33609268
-4.7630048 35.299725 0.17674226
-4.9526119 34.911682 1.9535604
-4.9276814 35.296631 0.95894092
-4.7777524 35.148262 0.37957484
-4.9093981 35.389153 -2.3519433
-4.8338876 35.406395 1.2289135
-4.9585009 35.581104 0.15936878
-4.9218354 35.511753 -2.3211994
-4.821826 35.08884 -2.1468298
-4.909059 35.409393 -1.8316828
-4.9108739 35.417805 -2.2230687
-4.9253645 35.296814 0.35935974
-4.7674451 35.017792 -1.4261868
-5.3434777 35.693966 0.76404589
-4.8483777 35.449787 -3.7214341
-4.822238 34.882362 2.0573506
-4.6189318 35.154926 2.320519
-4.7744389 35.037838 1.9503961
-5.042304 35.670803 0.66403985
-5.0036378 35.304005 0.25074756
-4.9611573 35.577595 0.84263974
-4.9335518 35.29311 1.6594478
-4.9172826 35.390877 -1.3317891
-4.9324851 35.295483 2.0571756
-4.7550607 35.035137 0.87407106
-5.0105414 35.489792 -1.7355864
-4.9211287 35.496178 -2.0409834
-4.8102612 34.925785 2.3603866
-4.8432484 35.022293 1.8672053
-4.8524647 35.186707 1.1619112
-4.7583776 35.307518 -1.5439776
-4.8583269 35.186127 1.6529808
-4.871263 34.926632 1.8639255
-4.8545032 34.914829 2.1988428
-4.7659006 35.582558 -3.0651767
-4.9144268 35.203743 2.0586433
-4.8356566 35.078262 -0.23888382
-4.8603663 35.395786 1.0600219
-4.941071 35.489986 -1.5388815
-5.3386126 35.684769 0.96287739
-4.8293495 35.077679 -0.43731725
-4.8339033 35.0812 0.86008716
-4.7565479 35.023045 1.6556206
-4.7604876 35.097332 1.9658403
-4.8631024 35.409443 1.3712237
-4.8474231 35.272545 0.07349325
-4.9457803 35.397709 -0.53623366
-4.8281775 35.08176 -0.94043761
-4.8638825 35.385025 0.60083121
-4.7634702 35.066643 -0.14121722
-4.7529602 35.025246 -0.61984038
-4.7501774 35.306465 -1.4270655
-4.7670546 35.091003 1.8604708
-4.8388853 35.085136 1.4625193
-4.7629657 35.073723 -0.4439809
-4.7507582 35.091553 1.6629659
-4.9527678 35.591816 -0.028809136
-4.8146715 35.083946 -1.4347345
-4.7610841 35.094025 0.94945449
-4.9978113 35.322796 0.95321149
-5.0168362 35.308678 1.065874
-4.9656715 35.487186 -0.43896967
-4.836946 35.081692 1.5603166
-4.8395834 35.081429 1.7606462
-4.8371644 35.078583 1.6580858
-4.8183441 35.201622 -1.9365438
-5.0339994 35.175781 1.7542294
-4.8750882 35.461224 -0.45522198
-4.8607073 35.17992 1.0655577
-4.7421846 35.079868 -0.84377038
-4.8342795 35.080158 0.36330441
-4.8494272 35.386276 -0.74012136
-4.9504099 35.496758 -1.2328883
-4.8575282 35.278423 -0.93085575
-4.7511206 35.03104 -0.53956407
-5.1285615 35.714054 0.078631684
-4.7495413 35.078812 -0.52770752
-4.9462237 35.491806 -1.0381286
-4.8372273 35.406071 -1.2413974
-4.9213195 35.421665 -3.1566451
-4.7440701 34.997673 -1.627241
-4.7647457 35.080124 -2.6454334
-4.8130832 35.085388 -1.828108
-4.5982671 35.110565 1.3637195
-4.8435941 35.013103 2.0645912
-4.8325706 35.081802 -0.641855
-5.027348 35.316319 1.1605858
-4.8240681 35.082966 -1.1366304
-4.9988403 35.301849 1.6616143
-4.7580047 35.075497 -0.34189534
-4.9532084 35.391651 0.56236488
-4.8560243 35.183918 0.46129486
-4.7586641 35.008213 -1.2273704
-5.3264298 35.755047 0.76558983
-4.7458825 35.033554 0.065709583
-4.7565699 35.251503 -0.93577969
-4.7397699 35.090641 2.2548087
-4.9979548 35.221733 1.9588495
-4.7334957 35.246445 -3.808269
-4.6490645 35.05291 -0.94252247
-5.025671 35.507729 -1.242409
-5.0880795 35.525074 -0.43336895
-5.1109986 35.680061 0.27952579
-4.8426442 35.372822 -0.23622352
-4.8496795 35.289513 0.65740478
-4.7789383 35.156635 2.3485022
-4.8783765 35.348293 -0.14065836
-4.8280187 35.012894 -1.6373886
-4.8365641 35.079784 0.75948256
-4.7519636 35.172325 2.5722144
-4.7273827 35.106152 -3.7459617
-4.8357253 35.082664 2.2608528
-4.723629 35.044174 2.1616235
-4.8332129 35.008732 -1.4312651
-4.9279633 35.297192 1.3629879
-4.902349 35.203789 1.0597818
-4.8607535 35.373409 0.77083701
-4.9512649 35.494503 -0.93394458
-4.7586288 35.091873 -0.92799085
-4.7606368 35.166447 1.4739037
-4.8439732 35.022839 1.6683702
-4.7536354 35.075359 0.76528347
-4.9250617 35.295567 1.0599227
-4.9156909 35.385769 -2.4236958
-4.8585534 35.273876 0.45429865
-4.8778729 35.394657 0.86098838
-4.8502736 35.390034 1.1868814
-4.9660735 35.47654 0.84905165
-4.9358597 35.004734 1.8623885
-5.1089292 35.595226 0.664042
-5.0300403 35.588306 0.15745041
-4.8476291 35.383827 -0.55129188
-4.9537902 35.591492 0.065530278
-5.0324512 35.675884 0.25536025
-4.9260178 35.299168 1.1614097
-5.0091314 35.404861 -0.13784154
-5.0140681 35.503052 0.16058885
-4.8687601 35.279388 0.35721332
-5.0049286 35.311657 -0.22378504
-4.9326668 35.58659 -2.1295037
-4.9356623 35.58477 -3.0296099
-4.9282861 35.294472 1.762902
-4.9287624 35.299664 1.8561702
-4.825551 35.079956 -1.0391027
-4.9980345 35.301571 -0.045905862
-4.8384881 35.017471 2.2613866
-5.1024933 35.583637 -0.044025056
-4.8891091 35.134377 2.7537007
-4.7049241 35.288879 -2.5499511
-4.9220333 35.081722 2.1609752
-4.8602705 35.183414 0.85706002
-4.8698063 35.456543 -1.8542612
-4.9781404 35.723267 0.28659648
-5.0189495 35.505722 0.063386366
-4.9563313 35.483097 -0.34995848
-4.9473224 35.386093 1.6661921
-4.8348856 35.008781 -1.3356409
-4.8993921 35.083157 2.3638508
-5.0327826 35.590626 1.3602747
-4.7603655 35.084831 -1.3231927
-4.9302974 35.30196 2.3641043
-4.8854532 35.135521 2.439322
-4.8377075 35.189552 2.5523343
-4.9521322 35.390575 0.86502314
-5.0149341 35.299961 0.75415444
-4.927196 35.294945 1.2576693
-4.920186 35.069302 2.2538307
-4.7708912 35.02499 -0.93098611
-5.01016 35.302006 1.9643369
-4.7502623 35.079239 -1.2357405
-5.0998116 35.600513 0.55946904
-4.764514 35.078712 -1.4448726
-4.830801 35.006302 -1.5405438
-4.9581332 35.574986 0.56566751
-4.8646135 35.297607 -0.041627932
-4.7757282 35.040272 1.5035529
-4.7700958 35.020622 2.3282638
-4.837121 35.013931 2.1575499
-5.0261583 35.592739 0.05985269
-5.0917974 35.498322 0.3660273
-5.0848179 35.629562 -2.1128848
-4.9066377 35.094509 -0.93481076
-4.8328605 35.014389 2.4563324
-5.1162939 35.484486 0.64994186
-4.8601689 35.175644 0.76858628
-4.7528825 35.094986 -2.1319413
-5.0181494 35.39949 -1.1270319
-5.0122604 35.314812 -0.93621308
-4.8303895 35.015896 2.5687037
-4.9463973 35.397938 -0.34037572
-4.8502965 35.190582 -0.63410503
-4.7572317 35.004898 -1.5544971
-4.8621464 35.39822 -1.0540872
-4.9504747 35.577263 0.96869314
-4.5988197 35.071354 0.2700482
-5.1033149 35.508255 0.13244842
-5.0221262 35.396088 -1.042789
-5.0453696 35.761395 0.14021398
-5.0097289 35.503391 0.26574624
-5.0221438 35.390099 -1.4361566
-4.8259892 35.087879 2.5574162
-4.8011355 35.239967 -3.7265747
-4.9116888 35.201454 -1.7305878
-4.9256186 35.287827 1.5596581
-4.7508922 35.320702 -0.16371442
-4.8521481 35.289062 0.26094151
-4.7607083 35.177391 -1.1233023
-5.033041 35.502106 -1.335443
-5.3377361 35.695736 0.065757863
-4.8615518 35.288269 -0.44925711
-4.8706636 35.395077 -1.3289406
-4.8631353 34.928646 2.4439318
-4.8656669 35.370239 -1.1345298
-4.7657633 35.042732 -0.16831987
-4.7544508 35.040699 0.19672281
-4.9102812 35.201187 -0.1347107
-4.9147964 35.202259 -0.3371363
-5.3377547 35.696503 0.45727122
-5.0058179 35.404858 -0.040201642
-4.7439671 35.175873 -1.5371921
-4.7280202 35.349152 -1.5247848
-5.1043887 35.518608 0.46808934
-4.7749314 35.028606 2.0326886
-5.0210199 35.505871 -0.24021785
-4.7623749 35.0373 -0.036403667
-4.7730312 35.096333 2.4442043
-5.0062256 35.302708 -0.33601058
-4.8532424 35.281433 -0.23080203
-4.9177728 35.499241 -2.1398602
-4.900773 35.088493 -0.43627858
-4.8476892 35.282555 -0.13642144
-4.7628107 35.025928 -0.85713029
-4.8532867 35.186939 -0.43944097
-4.7576151 35.36454 -0.86001796
-5.0082488 35.399803 -0.93341136
-5.2089028 35.807922 -0.046299092
-4.817265 35.195908 -2.2360129
-4.7618914 35.190945 1.5739719
-4.9056296 35.094681 -0.74595958
-4.8962822 35.090843 -0.039515961
-4.7236958 35.17186 0.29077995
-4.8309364 35.019875 2.3654125
-4.8213139 35.442577 -3.4949944
-4.8452644 35.291878 2.7554283
-4.9389105 35.182358 -1.4395337
-4.8627224 35.405743 -0.03069485
-4.7544403 35.090603 1.3568664
-4.8309503 35.077412 -0.73763299
-5.000936 35.307739 1.7677743
-4.8491702 35.186066 -0.23943371
-4.7607751 35.029991 -0.42463106
-4.9565582 35.484669 -0.23979546
-4.7760053 35.369091 -0.71435332
-5.02913 35.592037 0.26101384
-4.8548756 35.287586 -0.33209738
-5.1322045 35.763218 0.14077716
-4.9294176 35.296047 -0.24029826
-4.9274564 35.293808 -0.1390145
-4.9314423 35.292156 -0.43393993
-4.9230986 35.290714 0.057884291
-5.0248146 35.593033 -0.53670543
-5.0163827 35.49868 -0.43825808
-5.0172219 35.503204 -0.33752328
-4.9271812 35.296364 0.26440755
-5.0152745 35.593285 -1.1338042
-4.9162655 35.200512 -0.43673882
-5.0241857 35.508957 -0.53334755
-4.902442 35.205845 0.16318238
-5.0135455 35.406467 -0.64316905
-5.0061049 35.395592 -0.44709566
-5.0008788 35.311058 0.059871733
-5.0065641 35.320656 0.16767725
-4.9118509 35.200596 -0.24441926
-4.907876 35.203503 0.067859635
-5.0017028 35.412365 0.2738857
-5.0035572 35.203575 -1.1850295
-4.9846101 35.172211 -0.92164356
-4.9484229 35.396069 -0.23879598
-4.940989 35.393192 -0.64325857
-4.9459839 35.390079 0.26629835
-5.0318346 35.509575 -1.4324577
-4.8547397 35.278999 -0.72770655
-4.8563695 35.471203 0.070810683
-4.8571138 35.279724 -0.62837321
-5.0156655 35.291756 -1.324103
-4.8675833 35.271915 0.15217182
-4.8572254 35.289333 -0.83685446
-4.7549658 35.075302 0.56902915
-4.9023108 35.092216 0.059784193
-5.346837 35.607803 -0.74603379
-5.3718204 35.597298 -0.62436116
-5.0117097 35.29319 -1.2354848
-5.3331738 35.623444 -0.45886993
-5.1944113 35.668056 -0.2576122
-5.3506198 35.594234 -0.33820161
-4.849144 35.455872 -0.021961454
-4.9955087 35.231529 -0.71156496
-4.7650585 35.306091 2.0945382
-5.2158508 35.6063 -0.012357553
-4.9186263 35.31263 -1.6230112
-4.9232516 35.294788 0.66255891
-5.3456097 35.610394 -0.23467691
-5.1942501 35.530857 -0.45791236
-4.9102454 35.079971 1.7663549
-4.8450398 35.27216 0.5671134
-4.942173 35.556187 1.1448319
-4.7404637 35.195824 -1.0358773
-4.8425035 35.192059 2.6560218
-4.9174762 35.080162 1.9563588
-4.7653995 35.094307 1.1600764
-4.8563075 35.180588 0.057198081
-4.9133024 35.290668 2.6560559
-4.8533211 35.18084 0.67009008
-4.8540564 35.178822 0.15714473
-4.9225364 35.294018 -0.33762217
-4.7739515 35.034885 2.2351277
-5.0089269 35.401756 -0.33655584
-5.1135893 35.333683 -1.3368556
-4.9224701 35.296364 0.46431178
-4.8625669 35.177849 0.56249493
-4.8556185 35.182499 -0.13873699
-4.8539319 35.288704 -1.339694
-4.9691739 35.595791 1.2635378
-4.9188972 35.196777 -0.63999331
-4.9947295 35.220139 -0.54691476
-4.7743149 35.319469 -0.51130927
-5.0018787 35.298801 -0.43081596
-5.2441831 35.669209 1.3535012
-4.9985938 35.317001 -0.14186144
-4.9303484 35.293716 -0.035966434
-4.9168215 35.19212 -0.54291826
-4.860446 35.188385 0.36631635
-4.7790384 35.180382 -0.86869818
-4.748548 35.194351 -1.2473289
-4.9081616 35.08506 -1.0329102
-4.9975214 35.311714 -0.82838249
-4.9458251 35.576305 0.65746212
-4.84723 35.446362 0.15116534
-5.220315 35.626984 -0.3278892
-4.8559356 35.289803 -1.4432445
-5.0174451 35.403152 -0.84317589
-5.0294704 35.58873 -0.13754469
-4.8652911 35.314022 0.86980218
-5.0066595 35.406929 -0.53111506
-5.0051446 35.396141 -0.7372399
-5.0111656 35.405075 -0.23326252
-5.0186334 35.502331 -0.6361748
-5.0181913 35.49979 -0.1406122
-4.9134812 35.197292 -0.034539107
-4.915925 35.08791 2.0592208
-4.9968958 35.309048 -0.74264055
-4.7595391 35.386223 -0.59211969
-4.899632 35.0919 -0.63646114
-4.7715797 35.082893 -1.1352737
-4.8349094 35.188042 -1.3455597
-4.9359255 35.191906 -1.3270595
-5.0131931 35.507336 0.46364766
-4.7596831 35.09214 1.55141
-4.9051857 35.198723 0.37054923
-4.7529392 35.084183 1.4556086
-5.0281005 35.498299 -0.9344275
-5.028264 35.417694 -1.5359166
-4.9957266 35.299583 -0.53307796
-4.7954216 35.4366 -4.0292583
-4.849618 35.297703 2.4739621
-4.7638235 35.024002 -1.1456246
-4.7681093 35.010338 -1.3277571
-5.3423848 35.695358 0.65855426
-4.8857012 35.070316 -2.1053348
-4.6496992 35.06366 0.77036166
-5.0279827 35.674049 -0.019396728
-4.6159339 35.079231 1.2403998
-4.8207011 35.089188 -1.33995
-4.996881 35.308323 1.8553754
-4.8559871 34.940308 1.7339224
-4.8751698 34.921703 2.5613327
-4.9497094 34.898376 2.25983
-4.9024205 35.202442 1.4639313
-5.027462 35.294563 2.0915167
-5.0047402 35.411945 0.96752429
-5.0021992 35.306255 1.3546664
-5.0007353 35.318211 1.261775
-5.0086784 35.410862 0.56764287
-4.9054313 35.199986 1.1630416
-4.8310723 35.191658 -1.5395408
-4.8528771 35.296085 -1.6433457
-4.8467746 35.290112 -1.8384773
-5.0594726 35.789318 0.27873755
-4.905468 35.20089 0.86602163
-4.8320575 35.282524 -2.0323329
-5.2900505 35.509903 0.29708818
-4.7533107 35.095093 -1.9391304
-4.8409166 35.298904 -1.9360448
-4.9125113 35.392323 2.256376
-5.0030756 35.499153 -1.5419009
-4.9109774 35.201328 1.9628661
-4.859148 35.290279 2.3525045
-4.928606 34.99041 2.1554012
-5.1191926 35.791916 0.37686971
-4.8527083 35.395779 -3.702991
-5.1297288 35.601509 0.35787633
-4.8525434 35.448391 0.62432587
-4.994782 35.402164 1.5634388
-4.9123373 35.204796 2.2538657
-4.9991755 35.318932 2.1500216
-4.9932151 35.395367 1.7594255
-4.9385619 35.002869 2.0618315
-4.8708663 35.3965 0.97816777
-4.8972473 35.125351 -3.5923483
-4.9996476 35.392174 2.0549538
-4.996027 35.304909 1.5446121
-4.8625917 35.270866 1.8355523
-4.8330407 35.580894 -3.1722136
-5.0269427 35.391617 -1.7520554
-4.7540517 35.103306 -2.239099
-4.7636113 35.306934 -2.2355931
-4.8627582 35.398239 -1.9462914
-4.8590741 35.481125 -1.9569734
-4.9158449 35.298317 -1.3418878
-4.8632016 35.289829 2.04144
-4.7412925 35.281746 -1.9354258
-4.7555938 35.305748 -2.0621629
-4.8095498 35.512981 -2.2324347
-4.9278603 35.089668 -1.8264191
-5.0408006 35.776089 0.4703871
-4.7481055 35.260471 -1.7657771
-4.7701597 35.351677 -1.9521785
-4.7674317 35.1735 -1.9367646
-4.8567996 35.388 -1.7359835
-4.7522464 35.082237 -2.0454199
-4.864572 35.370441 -1.8413244
-4.9467626 35.57357 -1.9306417
-4.8574686 35.273598 1.7621077
-4.7563066 35.021408 -1.8338585
-5.2489429 35.699253 0.056906257
-4.7756934 35.151138 -1.6727338
-4.9297881 35.009182 1.9652183
-4.9369707 35.593254 -2.0296071
-4.9319897 35.298981 -1.0283072
-4.8683538 35.271923 1.1588304
-4.85182 35.300179 2.168757
-4.8677044 35.27874 1.5537951
-4.8340225 35.371143 -3.1147475
-4.8670473 35.257061 1.3554521
-4.8634524 35.273781 1.970104
-5.0041561 35.315269 0.56659085
-5.2058802 35.679398 -0.7020638
-5.2319155 35.667892 -0.14442787
-4.8985181 35.301132 -2.1421704
-5.2538738 35.687828 -0.34929523
-4.9052701 35.202827 0.95908386
-5.2173982 35.682003 0.19983602
-5.1276798 35.773201 0.5594812
-4.8584309 35.273949 1.0590526
-4.8488417 35.282639 1.2568114
-5.2685919 35.695557 0.42994332
-5.0948777 35.692596 0.58370781
-5.3070488 35.697094 -1.0612171
-4.8409023 35.083935 2.163898
-5.2419286 35.602249 0.66439086
-5.235651 35.606384 1.0555544
-5.2443004 35.602989 0.060353223
-4.9084525 35.19479 2.1635914
-4.8495383 35.484638 -2.0380535
-5.2247472 35.612461 0.76385951
-4.7499528 35.022781 -2.4687924
-5.0015984 35.320374 0.45978969
-4.7296305 35.166679 -0.32062045
-4.9893208 35.171978 -1.4079646
-5.1210141 35.774704 0.78011382
-4.8416986 35.38179 -2.2323077
-5.3402901 35.597359 -1.0636873
-5.2363291 35.613609 0.55004227
-4.8575244 35.386383 -2.1289022
-5.2307534 35.596992 -0.73094153
-5.3363271 35.617825 0.076412052
-5.2238708 35.682117 0.35993373
-5.2318683 35.60162 0.45461202
-5.2469401 35.65823 -0.47091728
-5.0119505 35.286469 -1.5382366
-5.0118504 35.2995 0.86276299
-5.013298 35.305111 0.66591012
-4.9421544 35.201462 -2.3393283
-4.903471 35.207127 0.75706691
-4.90167 35.204063 0.66388625
-5.2329178 35.704926 0.68048072
-4.8483357 35.379433 -2.0421219
-4.8499227 35.296593 2.6553535
-4.8506703 35.390755 -1.5315793
-5.1847577 35.64143 -0.45768127
-5.2253356 35.693615 0.96012783
-4.7506781 35.302059 -3.2342119
-4.6890469 35.124344 -3.2522917
-5.2398844 35.630726 -0.56933707
-5.2226129 35.698807 0.77402622
-4.8530827 35.296207 -1.5325241
-5.2234712 35.688583 0.24644518
-4.9757853 35.690651 -2.2630081
-4.8614078 35.371521 -1.6368197
-5.0106692 35.495247 0.86246169
-5.2388692 35.581493 0.36397603
-4.9172149 35.302071 2.4739244
-4.8597012 35.178047 0.95839959
-4.9947834 35.395401 2.1468239
-4.8579702 35.277119 -1.1487099
-5.3315749 35.6059 0.15892112
-5.2011533 35.659584 0.56357312
-4.9133205 35.394482 -1.5356317
-5.1050439 35.606525 0.051244061
-5.3024302 35.754272 -0.052781604
-5.2612433 35.695469 -0.80976951
-4.9137998 35.208393 1.8594288
-4.928721 35.401451 -1.4450476
-4.9174876 35.297493 -1.2433498
-4.8536415 35.280121 -1.0338783
-4.994802 35.39465 1.8611462
-4.9062438 35.306492 -1.5388485
-4.8668556 35.286617 -0.53582215
-4.9100218 35.197285 1.759662
-5.0338092 35.282692 -2.1287849
-4.9043636 35.318035 -1.7296543
-5.2524896 35.59808 -0.64232326
-5.0144496 35.393631 -1.3420671
-4.7213254 35.270061 -2.3650153
-5.1068296 35.592148 0.46310979
-4.8360338 35.081871 1.9598075
-5.004437 35.320976 1.4539564
-5.1093049 35.613808 0.16629204
-4.8253555 35.182724 2.4474785
-5.2410645 35.579819 0.14791229
-5.1033912 35.606659 0.26201186
-5.3430996 35.698887 0.16036952
-4.9198704 35.099884 -1.236321
-5.0078759 35.200188 1.4773135
-4.8529444 35.407696 -3.321424
-4.8322597 35.553886 -3.7368076
-4.843637 35.197998 2.3599935
-4.8228602 35.331833 -3.7288327
-5.0131149 35.404148 -1.6260612
-4.9233408 35.589817 -3.5220754
-4.9253531 35.1889 2.8597627
-4.8483105 35.369675 -0.95350099
-4.9195642 35.10603 -1.4293263
-4.9906173 35.224976 1.7065229
-4.9390182 35.340656 -3.191411
-4.8524709 35.591125 -3.9773636
-4.8519444 35.388435 -3.4477282
-4.7473741 35.096333 -3.1392951
-5.2353072 35.595737 0.95194578
-4.9125786 35.479454 -2.7433386
-4.9115977 35.08569 -1.9547213
-4.9227109 35.075382 -1.6124414
-4.8605843 35.297771 -1.2374719
-4.9197354 35.49794 -3.0468097
-4.8181472 35.278015 -2.9271607
-5.3311806 35.576172 -0.8437385
-5.1075368 35.52285 -1.7453084
-4.7627983 35.094368 0.85156322
-5.0115271 35.395725 -2.0458155
-4.9043555 35.486504 -3.1195216
-4.8150873 35.390186 -3.2502692
-4.8352242 35.300789 -3.0479679
-4.7566714 35.120586 3.3033082
-4.928 34.995274 2.2650881
-4.9263406 35.303963 -0.82935095
-4.9270468 35.506676 -2.8444378
-4.9166718 35.085377 -1.5177842
-4.9394283 35.102028 -1.7437938
-4.8503904 35.191521 -0.8362605
-4.759325 35.17931 0.94033736
-5.0129294 35.497742 1.2606672
-4.8440113 35.185596 2.1566024
-4.8720403 35.471474 -2.6837208
-5.0184016 35.348255 2.238291
-4.8179855 34.889233 2.2716353
-4.845068 35.388783 -2.9336958
-5.0029497 35.495522 -2.0194473
-4.9136415 35.214851 -2.0191698
-5.0308571 35.592346 -2.4696808
-4.81317 35.087082 -2.3477776
-4.8931346 35.074562 -2.024689
-4.9188185 35.292915 -1.1419173
-4.7519937 35.40723 -2.0244129
-5.0510473 35.676628 0.76722372
-4.7429509 35.344696 -3.0626867
-4.7438898 35.364906 -1.8350818
-4.9309983 35.491821 -1.7345303
-4.9248676 35.398178 -1.2373013
-4.9201493 35.202824 2.9458919
-4.7527432 35.026169 -2.2540472
-4.6929936 35.281189 -2.6754978
-4.9294796 35.491676 -1.6320407
-4.8568063 35.181702 0.26321161
-4.7470341 35.247219 -3.1449497
-4.7566504 35.182587 -2.1366622
-4.7192736 35.017345 -2.1580272
-4.7665467 35.178123 -2.0515125
-4.8518033 35.18343 -0.5453673
-5.2598972 35.684753 -0.57337117
-4.7603722 35.352516 -3.2044282
-4.7302184 35.259796 -2.9558513
-4.8740435 35.50885 -3.415334
-4.8280463 35.376381 2.3442647
-5.2627263 35.587486 -0.80788404
-5.0100613 35.501816 0.66067487
-4.817513 35.198959 -2.3470917
-4.9225883 35.29557 -0.93526065
-4.9275484 35.301018 -0.63899189
-4.839139 35.195618 -1.2440163
-5.0887618 35.384735 0.14361106
-4.9510565 35.390457 0.059030723
-4.787652 35.111885 3.236376
-4.8166432 35.189293 -3.2257113
-4.7670403 35.074009 3.1783547
-4.7623215 35.367828 -2.9761703
-4.9366589 35.392735 -0.74144679
-4.9482584 35.39082 -0.043219276
-4.9587722 35.4981 -0.037300982
-4.747128 35.096844 2.8645389
-4.8375864 35.188828 2.2601938
-4.8722372 35.596558 -2.723618
-5.0091724 35.50098 1.15999
-4.8413835 35.190098 2.0582881
-4.9489594 35.39608 0.36115718
-4.856472 35.195843 -0.74178487
-5.0533342 35.674232 1.3657575
-4.8428435 35.193378 1.9537082
-4.8572578 35.184109 -0.03816684
-5.2220669 35.700821 -0.035686906
-4.8502493 35.18594 1.7663411
-4.9146433 35.196644 -1.0375161
-4.927618 35.201992 -0.93063587
-4.9300141 35.399101 -0.93806154
-4.9237995 35.200199 -0.73062152
-4.9299755 35.208874 -1.24203
-4.9276891 35.392479 -1.1440655
-4.9230204 35.195759 -0.83847266
-4.9336734 35.393867 -0.83541727
-5.0055904 35.445095 -1.8132483
-5.006969 35.493599 -1.6348804
-5.0014768 35.308769 -1.6417809
-4.8902287 35.299408 -2.2093496
-4.7645483 35.055199 2.9636726
-4.8951168 35.31065 -2.0241868
-4.8056569 35.144527 -3.3727577
-4.8003798 35.470665 0.82316351
-4.9316597 35.529556 -3.281415
-5.3094959 35.510555 -1.2118676
-4.8446317 35.191391 -2.8119395
-4.7272949 35.397968 -2.6505635
-4.7498617 35.20195 -2.2256052
-4.8514519 35.380592 -2.6318288
-4.8358479 35.387665 -3.0550206
-4.7633185 35.074223 -0.64527893
-4.7606916 35.08112 0.066142477
-4.7573352 35.079906 -0.033615943
-4.9054837 35.491966 -2.6404397
-4.9585371 35.476582 0.46391952
-4.9636855 35.479191 0.76492143
-4.7586908 35.078671 -0.24542953
-4.7545815 35.470852 -2.5144286
-4.8865809 35.194336 -2.5978637
-4.908155 35.483231 -2.4283955
-4.9421668 35.391563 0.16724253
-4.6118717 35.075523 1.4660119
-4.7581086 35.098949 -2.7382708
-4.8110585 35.096447 -2.0229356
-4.82061 35.098694 -2.241538
-4.8318605 35.009842 -1.2345902
-5.0298142 35.592682 -0.039760776
-4.9248872 35.387508 -1.0360065
-4.8608694 35.056137 -2.5650737
-4.9336424 35.291451 -3.0944927
-5.0045762 35.419556 -2.5174053
-4.8959079 35.197468 -1.8203542
-4.9270444 35.295811 -2.6296084
-4.8119426 35.201927 -3.0355322
-4.8432512 35.302956 -2.4512117
-4.9346495 35.593952 -2.4193749
-4.7770991 35.008507 -2.3537538
-4.8109436 35.09594 -2.9477026
-4.8441296 35.293415 -2.82535
-4.9545574 35.49295 -3.4428287
-4.8472018 35.029724 -3.7638712
-4.922473 35.579498 -3.0889964
-4.7363019 35.211624 -3.2470646
-4.7618966 35.278477 -2.1304765
-4.8331075 35.486786 -3.2232175
-4.720057 35.028427 -2.9436326
-4.740416 35.158684 -2.9499977
-4.723402 35.232613 -4.0641947
-4.8564086 35.615692 -2.8596888
-4.7941251 35.191139 -2.6390557
-4.7633734 35.215576 -3.7449155
-4.8304758 35.298645 -2.6315243
-4.899467 35.562977 -3.703856
-5.1963196 35.604927 -0.13272603
-5.2308059 35.597034 0.8595441
-4.797606 35.09417 -3.7238665
-4.8683128 35.389664 -2.5391769
-4.8329959 35.081638 0.66251194
-4.7499251 35.112614 -3.3278012
-4.8392587 35.252895 -3.287514
-5.2056313 35.597061 -0.93506855
-4.8289638 35.491508 -2.1156201
-4.7672243 35.385029 -2.1141443
-4.7772803 35.522533 -2.6447971
-4.8444543 35.596817 0.67948258
-4.8585668 35.600876 -2.9522445
-4.8224411 35.116493 -3.0559335
-4.8167977 35.190987 -2.517714
-4.8947735 35.100449 -2.8623884
-4.9088526 35.323837 -2.8453088
-4.9309034 35.670776 -3.036947
-4.7626576 35.10997 -3.0270803
-5.212297 35.707172 -0.94886261
-4.8451118 35.298592 -2.3430674
-4.8664818 35.3801 -2.3284307
-4.9821568 35.619858 -2.618284
-4.93016 35.583786 -2.8155913
-4.7890377 35.070633 -2.8486869
-4.9120636 35.588486 -3.2307711
-4.8433547 35.290833 -2.2239034
-4.9149232 35.195271 -2.193047
-5.0145807 35.603252 -2.8036318
-5.0384088 35.654861 -3.0003979
-5.2381806 35.653198 -1.0191832
-4.8305607 35.194176 -2.4308493
-4.8156648 35.091724 -2.4312432
-4.8359008 35.082794 2.0646544
-4.8198142 35.278938 -2.7433228
-5.2500634 35.500984 -0.22602539
-5.3352995 35.690681 -0.13739425
-4.8393631 35.087631 1.8589011
-4.8340321 35.079288 0.062343825
-4.8304334 35.0793 -0.13712886
-4.7674675 35.35183 -2.7290699
-4.8335352 35.407692 -2.7278671
-4.8570309 35.488426 -2.6952224
-4.7322688 35.181892 -2.6479764
-4.8390722 35.430542 0.15748452
-4.930428 35.553276 -2.6403732
-4.9645495 35.479198 0.26409185
-4.868505 35.403145 0.045209505
-4.9659495 35.48835 1.2581686
-4.9505095 35.488712 0.056225277
-4.8111658 35.255756 -2.5393958
-4.8467789 35.386204 -2.4475522
-4.7635393 35.090218 -2.5187867
-4.8650527 35.463009 -2.4671474
-4.7734237 35.193058 -2.4703214
-4.7465329 35.183228 -2.8130946
-4.8306308 35.076794 0.16106445
-4.9533305 35.614014 -2.3366091
-4.8312197 35.018478 -2.5342815
-5.2784848 35.539848 -0.36635625
-4.95749 35.481327 0.15381794
-4.8342848 35.189762 -1.1437546
-5.416913 35.680737 0.87148345
-4.8556023 35.425697 0.25929576
-4.809166 35.182972 -2.7172735
-4.7720108 35.105957 -2.4234476
-4.9545631 35.487255 1.3578783
-4.8328185 35.076443 -0.041926622
-4.8541312 35.111439 -2.6936798
-4.7854657 34.922653 2.6169219
-4.8349223 35.411186 -0.33486316
-4.831275 35.080288 -0.3400639
-4.8586555 35.385395 -0.45041534
-4.814981 34.809319 1.5665123
-4.9180202 35.177643 2.6773224
-4.9189572 35.260124 -3.4749956
-4.716948 35.401817 -3.1022251
-4.8899307 35.297318 -2.4232705
-4.7996435 35.101582 3.1704865
-4.8065262 35.217911 -3.1424341
-4.8312664 35.19165 -1.4389899
-4.8077559 35.20388 -2.9483163
-4.7810521 35.209518 -3.4846852
-4.7927165 35.10154 3.0481296
-4.843955 35.195141 -1.0403899
-4.8303032 35.089142 2.3567224
-4.8500481 35.188095 -0.94319284
-4.831049 35.462585 -2.9609592
-4.7752414 35.137962 -2.9865232
-4.9494677 35.481262 0.56582206
-4.9526162 35.491257 0.65344507
-4.8290091 35.079067 -0.53951228
-4.9608083 35.478569 1.1518391
-4.8289728 35.012333 2.7568645
-4.6703029 35.05579 2.0918097
-5.0153804 35.769756 0.57915044
-4.9405065 35.390808 -0.43646044
-4.8785958 35.521194 0.74642551
-5.4145374 35.683964 0.76483101
-5.4256005 35.679558 0.6699627
-5.3396344 35.693237 0.25921986
-4.8629942 35.448795 -3.0289583
-5.0242338 35.182083 -1.0596132
-5.0066924 35.50248 -1.9081087
-4.7826104 35.249371 -3.1088214
-4.8363552 35.230305 3.3485541
-4.9156508 35.107174 -2.9050658
-4.9852972 35.616856 -2.5379105
-5.017415 35.392914 -1.2378831
-4.9504848 35.490704 -0.64163715
-5.0395236 35.681652 0.35723779
-5.0100021 35.415924 -1.9619465
-5.0106697 35.494892 0.95969099
-4.9693546 35.664551 0.95231485
-4.979094 35.809814 0.54740304
-5.0173407 35.199081 -1.3303292
-5.0099216 35.308353 -1.1339526
-4.9277368 35.197937 -1.1321675
-4.8594861 34.901161 -3.7494783
-4.7764335 35.513756 -2.9441192
-4.7589054 35.221413 -1.392242
-4.7426395 35.197281 -2.7815342
-4.7231975 35.174129 -3.1016271
-4.911273 35.098492 2.5447841
-4.7543378 35.175339 -1.8619628
-4.8506002 35.115311 -3.5188422
-4.9027414 35.293304 -3.5013862
-4.9084425 35.313507 -2.3545537
-4.9160142 35.219807 -1.9314272
-5.4287758 35.672344 0.56021339
