# .PCD v0.7 - Point Cloud Data file format
VERSION 0.7
FIELDS x y z
SIZE 4 4 4
TYPE F F F
COUNT 1 1 1
WIDTH 1559
HEIGHT 1
VIEWPOINT 0 0 0 1 0 0 0
POINTS 1559
DATA ascii
-5.4538808 10.792286 2.9584877
-5.3509498 10.491594 2.7657795
-5.3643322 10.571401 2.7477355
-4.7449689 8.5885468 1.774523
-6.4653029 13.479287 2.654249
-6.1530838 12.677667 2.855552
-5.6402102 11.29081 3.0240738
-4.6617675 8.6810112 2.5662239
-6.5064712 13.416821 2.9307387
-4.7537575 8.8931818 2.6638165
-5.6632013 11.279348 2.5623534
-5.2803411 10.382003 3.121083
-6.6990476 14.094598 2.9558544
-6.5512037 13.692647 2.8564661
-6.1474748 12.684733 3.0672364
-6.1047235 12.50685 3.0684767
-5.6504736 11.289416 2.7635465
-5.6069436 11.174855 3.0608199
-6.8905463 14.297124 2.8657942
-4.737277 8.890069 2.8613853
-4.6630335 8.681324 2.6597884
-6.3550024 13.267061 3.1823506
-6.4998116 13.019331 1.9520975
-6.492465 13.091125 1.2813996
-6.6191063 13.806102 2.9351573
-6.058599 12.384157 2.8569331
-5.2869754 10.198825 2.9413688
-5.4550738 10.782298 2.7630286
-4.7699819 8.986495 2.7840533
-6.6131897 13.800527 2.8533263
-6.5014892 13.500817 2.9361491
-6.5274124 13.588174 2.9517167
-5.3519101 10.493534 2.8631902
-5.14958 9.9944839 2.8635387
-4.5292406 8.2964783 2.7531307
-4.5428519 8.2962255 2.4572115
-4.4552751 8.0883856 2.4726796
-6.3881917 12.793185 1.9893656
-4.5674558 8.2829971 2.1416488
-4.832994 9.0047855 2.1495318
-4.7551198 8.8829098 2.4681704
-6.5582438 13.290735 1.8730335
-6.5238404 13.588706 2.8500881
-6.0113745 12.116193 2.9590034
-6.1957974 12.314955 1.3670754
-6.1255236 12.107687 1.752352
-4.9531574 9.2856455 2.1642175
-6.4183064 13.300107 2.8529615
-5.412437 10.601009 2.9721329
-7.0390782 14.510555 1.1405281
-6.0334477 12.22468 2.0950546
-5.1460218 9.7186708 2.0460434
-6.5316176 13.354847 1.6460706
-5.1234908 9.7989578 2.5606012
-7.0231447 14.493238 1.8601377
-5.6655555 11.397963 2.5650883
-4.7370214 8.8842793 2.9538155
-6.4477897 12.897298 1.9445753
-5.4065585 10.550429 2.1015787
-6.4644175 13.583321 2.4601655
-6.1591005 12.818556 2.4055743
-5.4637966 10.879012 2.5749671
-5.3371782 10.67927 2.8412957
-5.3513894 10.749128 2.5504718
-5.3319316 10.66609 2.300899
-6.1966014 12.292756 1.5722727
-6.6786299 13.692511 1.753473
-6.0598564 12.472673 2.7567797
-6.0633359 12.468011 2.5649631
-5.1672187 10.072849 2.6758902
-4.9910011 9.6229048 2.1922214
-6.2491584 12.802739 3.0588586
-5.3558621 10.179036 1.2207334
-7.0087652 14.476711 1.9649957
-6.576211 13.88166 2.9030969
-6.0557489 12.381738 2.6653957
-6.1198611 12.098558 1.1752692
-6.0296144 11.890541 1.3951226
-6.0702186 12.28946 2.1665475
-4.7710853 8.8834801 2.1881847
-4.8388667 9.089345 2.1539435
-4.6705866 8.6657124 2.2243834
-5.0211287 9.5935516 2.8511596
-5.8578787 11.500983 1.5684245
-6.2511797 12.885471 2.8600817
-6.2199326 12.819998 3.1307487
-5.1051569 9.6696033 3.030395
-5.8223667 11.419856 1.847766
-5.86622 11.867515 2.5732608
-5.8598475 11.881892 2.8446932
-5.0788317 9.8847494 2.5309668
-6.5206842 13.092058 1.8551799
-5.6324587 11.285075 2.9504006
-5.6517243 11.30387 2.8629489
-5.6681075 11.388963 2.8754892
-6.2631221 12.880923 2.454195
-6.4932241 13.476197 3.038394
-5.8209658 11.379592 1.464957
-6.3590217 13.197346 2.2195041
-5.1325145 9.892128 2.7568069
-4.9683766 9.6093931 2.9508979
-5.8537235 11.929374 2.4018996
-6.0125113 12.387171 3.0896037
-5.503674 10.890495 3.0576341
-5.297781 10.154529 3.0333917
-5.6487689 11.079473 2.2588573
-6.117609 12.499054 2.9628534
-6.1473832 12.59571 2.7453177
-6.2834883 12.828346 2.9805717
-5.4135633 10.544631 3.0273712
-4.8320332 9.0896244 2.7544622
-5.8457303 11.788261 2.9594555
-6.2903485 12.903022 2.9412344
-5.3099298 10.388893 3.088028
-5.4084311 10.602633 3.0651522
-4.8397427 9.0956049 2.6553667
-5.8211188 11.692857 3.0477731
-5.1487432 9.9978342 2.9568958
-5.1673121 9.9860563 2.3628235
-5.2186141 10.098762 2.9616318
-5.9583287 12.090947 2.4736288
-6.0581942 12.398213 2.9308059
-6.0486736 11.86607 1.8558142
-4.9125118 9.303916 2.9679699
-6.2219028 12.802056 2.9609885
-5.2394972 10.190193 2.8545921
-6.9124241 14.303349 2.7535973
-5.1265078 9.593646 2.0902524
-6.3591299 13.185819 2.9582024
-5.3961706 10.124808 2.0738854
-6.6999063 13.678289 1.796407
-6.2191744 12.390457 1.5828488
-6.3717775 13.056094 2.279999
-5.2518573 10.185132 2.5656056
-6.0662642 11.983902 1.8332088
-6.0400839 11.908666 2.9831731
-6.8289099 14.010748 1.9327346
-6.362536 13.186009 2.5649374
-6.0973587 12.130481 1.2810237
-4.9493484 9.0447168 1.8042495
-6.4035349 12.888372 1.4829607
-6.1108012 12.097287 1.3387632
-5.6913872 11.010937 2.2837152
-5.13696 9.4553995 1.9782197
-5.7318997 11.301769 2.3738718
-6.604692 13.34365 1.639672
-5.2484193 10.192805 2.6611402
-5.8983836 11.527356 2.5378764
-6.3554134 13.186044 3.0656576
-6.653748 13.986756 2.8406754
-4.5604649 8.4835653 2.8722634
-6.5854793 13.292701 1.4328104
-6.2416906 12.482874 1.9545134
-5.3523507 10.039242 1.140345
-5.4093781 10.605169 2.8665681
-6.0925884 12.412513 3.1283901
-5.0199838 9.5017414 2.5610712
-5.5231729 10.893769 2.9477248
-5.5294428 10.984056 2.9608252
-5.8336277 11.798987 3.0477946
-4.9656043 9.580863 2.6321616
-6.2090268 12.311479 1.6707863
-5.7712188 11.664897 3.0608368
-6.2499504 12.492186 1.77946
-5.7588897 11.589602 2.6622343
-5.1318102 9.5962772 1.3629366
-4.9640026 9.5709763 2.8453841
-6.2406483 12.511016 1.5739055
-6.3887186 12.800359 1.8770498
-6.2519293 12.488815 1.2911229
-5.5664735 11.170541 3.0580368
-6.55656 13.364889 1.5946058
-5.7361493 11.485478 2.9595866
-4.5875645 8.394783 2.9319963
-5.1153169 9.9162693 3.0340562
-5.9673195 12.165106 2.4821165
-6.0186367 11.827366 1.9499319
-5.7515531 11.587637 3.1273654
-6.3571324 13.190185 2.7570095
-6.4564409 13.390625 2.5630476
-4.5548339 8.3914442 2.6639354
-6.2008128 12.594584 2.9714143
-6.8134627 14.534385 3.0407169
-4.6942649 8.6391277 2.8284268
-5.9502535 11.714988 1.3779149
-6.077054 12.573468 2.7533166
-5.7618732 11.667324 3.1194482
-5.528482 10.901004 2.8480904
-4.5020313 8.2010288 2.947876
-5.7450571 11.585822 2.9316437
-4.5088744 8.213706 2.857666
-6.1860871 12.29506 2.7699594
-4.658381 8.6826334 2.758925
-5.3612404 10.174758 1.4648273
-5.5527506 10.810113 1.8796407
-6.1101694 11.992855 1.2836885
-6.2102909 12.30408 1.9474487
-4.4383721 8.3232117 3.1292508
-6.2172933 12.312537 1.8586736
-5.3675222 10.188652 1.5476483
-6.0860963 12.023873 2.0432072
-6.1811337 12.299631 2.2053332
-5.4943995 10.824658 3.0717096
-5.8207331 11.664308 2.2020493
-5.4043636 10.311633 2.8463166
-6.4286399 12.895585 1.785099
-6.597487 13.804441 3.0548296
-6.9295549 14.301532 2.0891447
-5.8605905 11.517752 1.4782733
-5.5600605 10.672538 1.3647847
-6.2394991 12.483001 1.8426057
-6.3597851 13.187193 2.6605861
-5.8603053 11.977199 2.4809701
-5.4149075 10.313749 1.2614758
-4.557878 8.3945894 2.7584729
-6.1755376 12.250481 1.936232
-6.2473946 12.573401 1.8482355
-4.4471617 8.1579494 2.4653387
-5.5984726 10.716513 1.3519723
-4.613626 8.4014263 2.8614445
-4.4686079 8.1700764 2.5706372
-5.1535978 9.5835409 1.8907378
-5.0117102 9.5939093 3.0434258
-4.6625471 8.6958055 2.4699435
-5.0078073 9.3106976 1.325963
-4.4747787 8.1667871 2.3947592
-4.462626 8.1730061 2.682025
-5.5175467 10.485631 2.0535998
-6.2443285 12.691329 2.2720938
-7.0103817 14.698186 3.0060391
-5.9149103 11.906117 2.8612041
-4.8403673 8.812397 1.7923967
-4.8425803 8.8275709 1.902262
-4.8385816 8.6791267 1.8991175
-4.8595924 8.7734842 1.6077063
-4.8175883 8.7050772 1.7607943
-4.8205261 8.6979189 1.3045477
-4.8218303 8.7188768 1.6150932
-6.9852037 14.73245 3.1582887
-4.4665742 8.2754707 2.9460254
-5.6988115 11.311377 3.0593038
-4.4521952 8.0916595 2.5665498
-5.1415606 10.014627 2.1632383
-6.5400243 13.587412 2.6549547
-6.9412956 14.489759 2.8399501
-5.2584562 10.299191 3.068229
-6.2534413 12.581008 1.6501577
-4.7062273 8.2892942 1.8273718
-4.860445 9.2825184 2.942872
-5.8488889 11.791914 2.4673605
-5.2526875 10.288725 2.9719293
-5.6016884 10.65962 1.6074455
-5.499712 10.525964 1.5439494
-5.3029122 9.9027376 1.2077358
-6.9279461 14.403769 2.4573674
-6.4458151 13.385255 2.8545787
-5.6078234 10.899037 2.6515076
-4.7565131 8.9845552 2.9550254
-5.6088657 10.688334 1.8629475
-6.1906152 12.581326 3.0305674
-6.8030682 13.926704 1.7216656
-5.3894954 10.226041 1.5242002
-6.0674295 11.983998 1.5717099
-5.9279246 11.701688 1.5757142
-5.7568483 11.594081 2.7633829
-6.7400618 13.803074 1.8640145
-5.405477 10.179647 1.9931562
-6.9995222 14.336296 1.7832404
-5.5077519 10.80618 2.8463962
-6.7277699 14.168015 3.1641769
-5.198761 9.8028784 2.6439385
-6.6914673 13.703499 2.3678946
-6.1486382 12.310356 1.6226059
-6.4639301 13.458775 2.1710813
-5.0573735 9.696106 2.3786263
-5.2264214 10.101774 2.056376
-4.6351647 8.6158361 3.1435111
-6.9297781 14.294886 1.3723433
-4.9618402 9.4849997 2.6674075
-4.6832619 8.2238264 1.9485856
-6.0308495 12.087077 2.1742716
-5.2428184 10.190604 2.7527597
-4.9042573 9.3178167 3.0613174
-4.6181879 8.6013422 3.0736768
-4.584209 8.3323736 2.8705764
-6.6268525 13.690228 2.6527748
-5.7359352 11.075824 2.0743828
-5.7170701 11.059646 1.8753952
-5.2890868 9.8397417 1.8851932
-5.0587001 9.6796732 2.2788386
-5.1104412 9.7658138 2.1689456
-5.3014088 10.206384 2.8541064
-4.9195476 8.9603472 1.8540392
-5.5582585 10.990717 2.3738873
-6.6581492 13.898952 2.5702341
-5.7097917 11.401253 2.7603288
-4.7451243 8.7901354 2.2537534
-6.738822 13.986877 2.3679726
-6.344521 13.095858 2.6585863
-4.50494 8.0863419 2.2603593
-5.4531059 10.581646 2.2021987
-6.2018499 12.616429 2.8466589
-6.7013812 13.696099 1.4850004
-6.8228393 14.301353 2.8435888
-4.5210304 8.1954126 2.5649571
-6.7274709 13.90852 2.6552324
-4.6685638 8.7829752 3.0829048
-5.4883142 10.359805 1.8045646
-5.4477429 10.686432 2.3611586
-6.7128887 13.804535 2.6462638
-6.3529019 13.18557 2.8579283
-5.667861 11.388583 3.0552344
-5.652904 11.402711 3.1612217
-5.4009361 10.305034 2.2673836
-4.90132 8.8616161 1.3415482
-5.2322178 9.8941164 2.1775579
-5.8165994 11.393415 2.1687162
-4.5443196 8.2901821 2.3734725
-5.1778154 9.9597836 2.0839028
-6.7802315 13.925106 2.5930991
-4.9086666 9.1984997 2.9397068
-6.753376 14.00353 2.2527819
-4.7884789 8.6970615 2.4659605
-5.3020453 10.211942 2.7533581
-7.035511 14.701934 2.6587996
-4.7306757 8.7916555 2.4677744
-6.9497805 14.683543 2.4663055
-6.9747486 14.770387 2.4047928
-4.8879237 9.0373507 2.8160238
-4.9116144 9.2131567 2.8518345
-5.3113275 10.110268 2.8140097
-5.6431537 10.714042 1.4759691
-4.9583879 9.103919 1.9800224
-5.9571199 12.092392 2.6669931
-5.3904896 10.226978 1.4042451
-4.8118763 8.9974861 2.6585383
-6.1320343 12.367273 2.1797137
-5.8583255 11.782233 2.376617
-6.6409121 13.78894 2.3623359
-5.2029748 9.8243818 2.7433507
-5.9850526 11.921524 2.8730774
-4.7226839 8.3973083 2.0525055
-6.6532273 13.800066 2.2812555
-4.6860781 8.4648962 2.7680383
-6.340642 12.780423 2.0366178
-4.9252362 9.2897644 2.4687388
-5.2130213 9.9993563 2.7630501
-6.6216121 13.791618 2.6709795
-4.7660713 8.6701097 2.1029341
-4.706933 8.5001659 2.665041
-4.9626446 9.4887066 2.4597645
-4.9712667 9.4739408 2.3637829
-4.7888165 8.7066269 2.6722205
-4.807991 8.8015518 2.3554192
-4.9137793 9.0033817 2.7547324
-4.9348145 9.0168762 2.2717042
-5.1903048 9.8023386 2.4668939
-5.4498405 10.405114 2.823571
-5.9182596 11.623461 2.8258042
-6.5507221 13.394087 2.0831981
-6.4381275 13.515633 2.3940454
-4.8274126 8.8010187 2.7656977
-4.8155284 8.7986689 2.2419415
-4.8297882 8.7876635 2.0676384
-5.4310889 10.398961 2.1951661
-6.4446373 13.292582 2.4635243
-6.4500656 13.274496 2.1838655
-6.4497643 13.356658 2.1759531
-6.1523132 12.588519 2.6626797
-5.1434188 9.896204 2.4628718
-4.5163336 8.4477797 3.2211297
-5.1198192 9.3968248 1.5535195
-4.7172794 8.5965071 2.4602127
-4.7518549 8.6999178 2.1655588
-4.9007874 9.0232162 2.4717746
-5.122776 9.7035866 2.1921518
-5.2639856 10.060295 2.1840696
-6.6581569 13.874375 2.4660609
-6.0946712 11.876801 1.4375507
-4.9030747 9.0282221 2.1894507
-4.8081465 8.7942123 2.5539768
-4.8973346 8.9954386 2.5540302
-5.519218 10.701386 2.2702327
-5.6081848 11.102785 2.8639145
-6.4279876 13.295568 2.661202
-6.4491796 13.296236 2.3617582
-6.1555052 12.589823 2.5622301
-6.0318408 11.900895 1.5802357
-5.2072682 9.9069452 2.2652643
-6.0119104 12.106308 2.8590639
-6.1270018 12.305802 2.2676594
-6.4210191 13.292645 2.7631757
-6.7369714 14.092363 2.5564539
-6.840281 14.287416 2.4514968
-5.4098005 10.504163 2.8474386
-4.8221517 8.9974489 2.5585451
-6.4289613 13.308765 2.9584544
-5.2282801 9.9936619 2.1805327
-6.0989347 12.195103 1.7027092
-6.0461407 12.187757 2.2768772
-6.2523417 12.782025 2.363029
-6.2687926 12.885665 2.3853741
-6.4162984 13.200061 2.09341
-6.4317493 13.306034 2.1032977
-6.5541902 13.578214 2.283535
-6.6664486 13.980848 2.5637794
-7.0436172 14.793857 2.4642732
-6.5134797 13.30789 2.3657169
-4.5064292 8.0967064 2.3730679
-5.6551237 11.278255 2.3716993
-5.0473595 9.6887035 2.669451
-5.4569836 10.684542 2.2579694
-5.5519462 10.98483 2.4701805
-5.653882 11.286911 2.6704221
-6.0596256 12.378444 2.5644674
-6.0682306 12.477047 2.3890405
-6.1618838 12.693591 2.462635
-6.1686716 12.688829 2.5554338
-6.2440882 12.793411 2.55936
-6.4521027 13.390083 2.6654685
-6.453485 13.392217 2.3662934
-6.5793562 13.877496 2.7825952
-6.6380157 13.878813 2.2688572
-6.7350235 14.316523 2.3474145
-6.9416499 14.676272 2.3833656
-4.9566627 9.4876451 2.7721894
-4.607224 8.3091364 2.656574
-5.1416383 9.8940458 2.6633432
-4.5381885 8.2927475 2.5636611
-4.9112749 9.1988249 2.6625535
-4.9230471 9.2070131 2.5647094
-4.922883 9.2990379 2.6542485
-5.1944304 9.9175596 2.7510641
-5.1399918 9.7922497 2.3795049
-5.2957592 10.111563 2.7541373
-5.4455729 10.691862 2.6591802
-6.2103734 12.600422 2.6629193
-6.2321978 12.796611 2.7551181
-6.2432346 12.796228 2.6692879
-6.6593404 13.875198 2.3668721
-4.5335808 8.1938801 2.2660589
-4.9271631 9.299181 2.5637395
-5.1148515 9.701396 2.2688651
-5.1498356 9.8889418 2.3566153
-5.5263004 10.894934 2.7581484
-5.5566387 10.956091 2.264554
-6.4365692 13.292682 2.5666077
-5.0557418 9.5908422 2.2638357
-5.0355992 9.5927706 2.5653594
-5.1559401 9.9845915 2.4760671
-5.4188166 10.595086 2.7617173
-6.0364699 12.289698 2.6578774
-6.0581255 12.372893 2.4648039
-6.2544293 12.863573 2.2600856
-6.2446012 12.78781 2.4622202
-6.245976 12.775546 2.2703578
-5.1152883 9.7944317 2.7448239
-5.1022148 9.7047405 2.8596718
-5.9925447 11.924944 2.5511415
-6.5306458 13.496678 2.5618708
-5.7324719 11.492661 2.8623242
-6.2404528 12.404423 1.1588691
-4.849545 9.0772591 2.2843251
-5.1165743 9.801486 2.6641686
-5.222774 9.9929171 2.2578089
-5.4030643 10.425798 2.7475064
-5.4111433 10.505481 2.7597861
-6.6828852 13.712562 2.5682166
-5.5895433 10.620856 1.9873948
-6.9098711 14.125353 1.5765178
-5.1742759 9.9717731 2.2980547
-4.9189687 9.1979809 2.4645836
-5.1196833 9.7003765 2.564522
-5.2347879 10.092666 2.4568491
-5.31423 10.297787 2.6607537
-5.4531937 10.688379 2.4691632
-5.332983 10.292924 2.3590634
-5.0305424 9.6963253 2.9625375
-6.2605805 13.095292 2.352901
-5.2239561 9.9988003 2.3650005
-5.3137012 10.205564 2.6594415
-5.2148585 10.004267 2.5624902
-6.4903913 13.14173 2.5262394
-5.5408516 10.686259 2.1461661
-5.6036105 10.804612 2.7516415
-6.2323136 12.592241 2.1708138
-6.6018596 13.412141 2.6145947
-6.7799249 13.928796 2.337312
-5.0620828 9.4077435 1.3606791
-5.4408693 10.689777 2.7553041
-5.7982435 11.594381 3.0497518
-5.6064463 11.407331 2.4270587
-5.4051723 10.392276 2.5543876
-5.9007916 11.596752 2.2403908
-6.3814516 12.914299 2.2835684
-6.6216707 13.691317 2.7511873
-4.9259081 9.1896648 2.3598425
-5.5168519 10.797693 2.5603158
-6.4931159 13.223535 2.4602177
-4.6964426 8.6962852 2.9644535
-5.4103279 10.394169 2.355854
-5.4092755 10.403605 2.4673448
-5.4107642 10.395933 2.654669
-6.6031694 13.431171 2.5864034
-5.2039719 10.003531 2.9536922
-5.8433084 11.795127 2.7641993
-5.5278692 10.797206 2.4610219
-5.5076628 10.804963 2.7560599
-6.007463 12.10653 2.7601492
-6.2020316 12.504029 2.358891
-5.1002755 9.5160351 2.7271965
-5.5331316 10.78792 2.3758645
-5.5100918 10.800123 2.6537347
-5.6364408 11.093084 2.3715982
-6.6409535 13.787547 2.462774
-5.1107097 9.7057161 2.7451367
-5.313632 10.20512 2.4541123
-4.5169892 8.0038748 2.2836218
-4.9515567 9.4865398 2.9491284
-5.997386 11.896835 2.7674086
-6.0098972 12.098094 2.6563792
-6.0226073 12.102711 2.5561833
-6.4154425 13.096891 2.6625509
-5.394248 10.012623 1.6239867
-5.2617292 10.283213 2.6600294
-5.4394574 10.586238 2.2603896
-5.1006126 9.6140251 2.3653939
-5.6356502 11.091953 2.4662397
-6.1333213 12.402136 2.2707078
-6.4072838 13.105783 2.7681448
-6.4298263 13.195334 2.5595074
-6.732676 13.993618 2.5580835
-6.1980481 12.422337 2.3824546
-6.453609 13.290745 2.2528853
-6.8136568 14.103341 2.7438924
-6.9476504 14.4957 2.4650917
-6.5551691 13.687975 2.7483025
-4.6047583 8.4963503 2.9501061
-5.9480081 12.085478 2.8487539
-5.903419 11.700021 2.3658102
-6.0270715 12.095312 2.4610071
-6.0329995 12.192007 2.5608146
-6.1281004 12.397587 2.4605532
-6.4083805 13.084832 2.8497639
-6.4020734 13.001653 2.6560726
-6.3393283 12.989009 2.4688067
-6.419589 13.19656 2.6634991
-6.4112477 13.203201 2.8747811
-6.5130467 13.49922 2.7607598
-5.5207505 10.576395 1.4608946
-5.1322603 10.000958 3.0565305
-6.0230122 11.903135 2.1688194
-6.0230064 12.09764 2.3676019
-6.1140718 12.298872 2.457819
-6.2115555 12.51095 2.6484194
-6.2140865 12.494836 2.269465
-6.401381 13.008877 2.36496
-6.4440312 12.989318 2.0045724
-6.6481719 13.593766 2.0628967
-6.6328311 13.522902 2.0636756
-6.8230538 14.090308 2.1638591
-4.4578366 8.0881538 2.3646135
-6.0449686 12.288394 2.4620028
-5.5353994 10.575083 1.3615979
-5.112483 9.5984812 2.2584953
-5.8886132 11.607001 2.5571072
-6.1126318 12.305923 2.3625531
-6.2015343 12.501753 2.4502795
-6.2173076 12.596485 2.276561
-6.3994417 12.999182 2.5527568
-6.4186416 13.100126 2.55477
-6.4263868 13.099142 2.3721809
-6.5117168 13.277 2.1867769
-6.6198626 13.599669 2.4614623
-6.5945787 13.508653 2.2585578
-7.06744 14.597636 1.5724747
-6.0496554 12.292763 2.5692701
-5.9272203 11.797401 2.2702751
-6.5977073 13.512696 2.5659666
-6.6180501 13.599712 2.5692096
-6.6126089 13.533428 2.1683199
-6.8013034 13.99667 2.6718159
-6.7328887 13.995519 2.4676893
-6.7943821 13.990717 2.254292
-6.3117509 12.798458 2.7539592
-6.4427347 13.191342 2.4612305
-6.4477882 13.194233 2.2654164
-6.5404773 13.397761 2.2673838
-6.6215277 13.60076 2.3636448
-6.6338024 13.590215 2.1553254
-6.7649179 14.002293 2.1777611
-6.9078865 14.292493 2.2730031
-5.1140852 9.7020121 2.6614175
-6.6322079 13.791867 2.5690279
-5.9298587 11.682312 2.1599648
-6.6167173 13.588304 2.2652223
-6.652009 13.691355 2.0877891
-6.8716731 14.287686 2.1797223
-7.0026212 14.615489 2.2569423
-6.2894449 12.615633 2.2341986
-5.6545258 11.286431 2.4553139
-6.5970407 13.50255 2.456907
-5.8547502 11.779231 2.2529891
-5.6229057 10.898506 2.1493418
-6.3977723 13.004958 2.4678986
-6.5020838 13.296116 2.4582207
-6.7305183 13.88828 2.2657275
-6.775321 13.992462 2.0278289
-6.8776274 14.262457 2.0664642
-5.6668577 11.290762 2.3051169
-6.6017485 13.509618 2.6582284
-6.5973263 13.508663 2.3724279
-6.5985622 13.489025 2.7763915
-7.1006355 14.810222 2.6629453
-5.1010361 9.5404119 2.3875532
-6.3064251 12.685942 1.5512081
-5.6334906 10.884142 1.4517083
-6.8002853 14.167352 2.0932114
-6.8957443 14.180277 1.7798367
-5.3947206 10.20513 1.2561367
-4.7001309 8.4972525 2.5542161
-6.1126909 12.191227 1.7654016
-4.75179 8.8924589 2.553947
-5.3344173 10.280494 2.1802809
-7.0532613 14.791955 2.5607898
-6.6366677 13.893933 2.8591189
-4.8994164 9.0127831 2.3554184
-5.6628733 11.38581 2.7644491
-6.5285387 13.395561 2.3699586
-6.8255582 14.497448 3.1499138
-6.3769417 12.808752 1.7684267
-5.3442307 9.9884901 1.9395856
-6.5186639 13.409883 2.6564295
-5.2368293 10.286662 3.1281731
-5.9446678 11.682475 1.6456198
-7.0493951 14.698299 2.7647254
-6.4089766 13.199986 2.7539253
-6.1209683 12.397276 2.5579033
-6.0417371 12.190407 2.3655329
-5.0098886 9.5970058 2.9690897
-5.7933173 11.397618 2.6597211
-6.4404697 13.190771 2.3771372
-6.2490916 12.88437 2.7614462
-6.8404574 14.38724 2.5672159
-6.1475849 12.487487 2.370151
-6.0532789 12.384843 2.7569323
-5.545763 10.996188 2.7537923
-4.9051456 9.1979971 2.7491653
-5.3087339 10.200735 2.5568995
-5.8055744 11.303837 1.9394714
-6.5009484 13.303364 2.8603261
-5.4445777 10.691938 2.5678453
-6.3047056 12.913456 2.8567986
-6.168138 12.775561 2.9612725
-6.322629 12.898246 2.558471
-6.786829 14.010718 2.8506894
-5.7868004 11.270665 2.27228
-6.3505521 12.762709 1.8232902
-5.111558 9.7963037 2.9577281
-5.5317984 10.788061 2.2690039
-6.1075978 12.300301 2.5569489
-4.8351407 9.2241507 3.1373937
-4.6118093 8.4949236 2.6597145
-5.2161942 9.9029398 2.5562963
-5.530674 10.688237 1.6830938
-5.7055097 11.114479 1.537015
-5.3456211 9.8064528 1.5435674
-6.5097523 13.407105 2.7586715
-4.9310036 9.3972988 3.0457253
-6.8250527 14.297173 2.756984
-6.7952061 14.007049 2.7643695
-4.9538336 9.5017118 2.8519576
-4.9489923 9.3915911 2.6604507
-6.9952068 14.52631 2.3632019
-5.4121013 10.404437 2.258816
-4.7621298 8.9704132 2.6568789
-4.9163065 9.3938284 2.9642518
-5.4553404 10.778903 2.5612376
-5.219933 10.011928 3.0747736
-6.2291603 12.694499 2.5559442
-4.9159541 9.0976009 1.7560775
-5.7565436 11.688453 2.8713162
-4.9231458 9.2981901 2.8649917
-5.1980357 9.6220398 2.1367373
-6.8767967 14.408525 2.2690365
-5.5334945 10.893901 2.5605257
-5.7678428 11.6757 2.6557839
-4.9858332 9.2292786 2.5363383
-5.8229094 11.290161 2.0515544
-4.9272962 9.0574589 1.6710625
-5.8040786 11.298734 2.1492286
-4.9006042 9.1254606 2.8656721
-6.1299872 12.594953 3.050339
-4.9480858 9.3861618 2.5637827
-4.726531 8.6977243 2.3686585
-6.7939262 14.032066 2.3425815
-5.7613516 11.683666 2.7760046
-5.439343 10.59637 2.3664677
-6.0266676 12.196182 2.6547365
-6.163322 12.19449 1.9327956
-6.2157354 12.498412 2.7523353
-5.334713 10.065718 1.9822255
-5.7524085 11.688544 2.2942636
-5.4320054 10.583567 2.468642
-6.0857296 12.289159 2.9663796
-7.0626159 14.597462 2.0505607
-5.1810708 9.9340343 2.9511151
-6.2110858 12.397368 1.3759794
-6.9422331 14.496242 2.6488183
-6.0936308 12.115714 2.3533683
-6.0160894 12.006753 2.6488519
-4.7022076 8.48384 2.3288851
-5.7018971 11.198711 2.6448283
-6.154294 12.279044 2.0456247
-4.9527798 9.0811024 2.0782232
-5.3287907 10.216993 2.1655698
-5.1701708 10.09623 2.9549553
-6.5150723 13.504996 2.8552015
-4.7293496 8.4983177 1.9602758
-6.7600236 13.828606 1.9561245
-5.8870153 11.890402 3.0487328
-5.5380602 11.203994 2.4648395
-5.5625191 10.881176 2.1809931
-5.938942 11.992343 2.662462
-5.2244453 10.095401 2.6630337
-6.2654324 12.991256 2.556361
-5.1271935 9.4559689 2.0834928
-6.1223702 12.212257 1.465032
-6.7594981 14.084406 2.2661047
-6.3347673 12.901505 2.361501
-6.509027 13.292674 2.5581591
-4.8639851 9.1775656 2.4660096
-5.324172 10.024641 1.7321005
-6.5540872 13.581816 2.4579732
-6.3166575 12.701166 2.1583977
-7.0270972 14.687925 2.281951
-7.0610375 14.787694 2.6499779
-4.8226342 9.0992012 2.860513
-5.091774 9.5115747 2.5412531
-4.8574448 9.2947693 3.0543969
-5.5313854 10.597308 1.7774491
-5.3204384 9.8512716 1.306819
-5.9145107 11.703869 2.6487451
-6.5503931 13.693958 2.4685416
-5.6343875 10.799317 2.1804748
-4.7754116 8.5545359 2.0396011
-6.1443024 12.506998 2.2844789
-5.6647778 11.379078 2.3406558
-5.1248369 9.4982138 2.1467509
-6.5707908 13.773828 2.6413028
-6.7062297 13.797215 2.7594795
-5.8386221 11.792329 2.8546793
-4.7051697 8.5035172 2.4640274
-5.4908772 10.51687 2.7141054
-6.3494039 13.081076 2.4659162
-6.6041441 13.376141 1.6703801
-6.1909966 12.229718 1.94189
-6.2177067 12.389448 1.654084
-6.49757 13.218949 2.3577125
-6.0931096 12.110632 2.6819937
-5.8385873 11.476417 1.8572377
-5.5646596 11.071471 2.5585136
-6.4015517 13.026376 2.7412074
-5.8594975 11.385923 2.0513277
-5.9264812 11.801803 2.4615381
-5.7899303 11.223955 2.1524136
-4.7605257 8.9729843 2.5493934
-5.0100179 9.5119963 2.7557528
-6.9825268 14.431108 2.7237134
-6.0574217 12.451741 2.9567318
-5.5397902 10.598952 2.0715816
-5.902957 11.706191 2.5629776
-5.8091683 11.606121 2.9720113
-5.5114336 10.408804 1.9533432
-5.2708516 10.386715 2.6686091
-5.3107038 9.8353958 1.4947231
-5.7236691 11.118365 1.4342289
-5.5394711 10.990942 2.8591564
-6.5427895 13.272429 1.9460094
-5.9568534 12.084062 2.5586114
-5.6005278 10.601178 1.88973
-6.51826 13.496178 2.6553984
-6.3011789 12.449228 1.7639412
-6.3248115 12.896651 2.2727046
-6.9198589 14.397311 2.5707686
-5.452425 10.29301 1.2040657
-6.9365034 14.381612 2.7453601
-5.9141269 11.606785 2.3494229
-5.0956917 9.4305277 2.10553
-5.7140055 11.198901 2.4708204
-7.05021 14.794357 2.7512658
-6.3076677 12.800098 2.2568009
-5.8098979 11.603658 2.7634802
-5.1039038 9.5171919 2.2353368
-4.8141394 8.6889477 2.1811209
-6.6308489 14.002463 3.1566832
-5.110549 9.5952225 2.6567738
-5.4257426 10.695511 2.8557091
-4.9178123 9.1017132 2.4698424
-5.9263992 11.89723 2.5613446
-4.971014 9.5834007 2.3796968
-6.4837847 13.218772 2.8439007
-6.6744385 13.97922 2.193996
-6.0202007 12.1915 2.8583839
-5.8522916 11.792171 2.5583851
-6.7322555 13.991028 2.6579862
-5.1124287 9.6975889 2.4575334
-6.3457375 12.786451 1.5458229
-6.2087975 12.2936 1.7620966
-6.7115178 13.802547 2.8671663
-6.1088152 12.217627 2.765924
-5.1053033 9.6992092 2.3704643
-5.069293 9.7812719 2.6638441
-6.4954872 13.240604 2.7328053
-6.039362 11.995199 2.1827514
-4.6762152 8.4197264 2.0962288
-5.0935531 9.4103098 2.1901815
-6.6374822 14.013427 3.0785213
-6.504221 13.297552 2.6568713
-5.1051002 9.4179707 1.9538187
-5.887486 11.690676 2.7570682
-6.1281009 12.493709 2.7596188
-5.9339099 11.985337 2.1663589
-6.860034 14.5785 2.940341
-6.2840199 12.526103 1.6333848
-5.6985064 11.114222 2.6509743
-4.9225874 9.4721794 3.1402433
-6.0987072 12.135152 2.5430014
-6.8134847 14.101789 2.2635579
-6.8150487 14.102941 2.8422847
-6.3035274 12.715604 2.6575451
-5.1880331 9.7326393 2.5712819
-5.0168896 9.2745037 1.7853618
-7.0466156 14.502707 1.5538895
-6.6057949 13.294264 1.9270251
-4.9500251 9.3892574 2.3751986
-7.1049371 14.810348 2.4570684
-4.8143754 9.0031099 2.7517941
-6.7254939 13.898018 2.5575004
-6.2323208 12.427743 2.1724505
-6.096941 12.052232 2.3027945
-7.1067181 14.810659 2.5557475
-5.9145322 11.894152 2.6634445
-5.2475181 10.093479 2.2782683
-5.7066512 11.197481 2.2599566
-6.3031068 12.697512 2.7854259
-4.4972286 8.0122461 2.6370337
-4.9215045 9.2948341 2.7517323
-6.7241631 13.88613 2.7443397
-4.6332588 8.4890919 2.4652517
-7.0847607 14.541296 1.8400642
-6.3124886 12.806718 2.5631545
-6.6325464 13.694644 2.4681511
-6.5357647 13.490273 2.4616005
-5.2167649 9.7924738 2.241322
-7.0482383 14.790719 2.3618429
-6.8326511 14.505394 3.2305949
-7.0045509 14.590778 2.4612658
-6.3728395 13.282627 2.8614824
-4.7246161 8.6151361 2.6545014
-6.3156929 12.689389 1.4542321
-6.8941889 14.230544 1.4960604
-5.8312201 11.865173 3.1451526
-5.3081017 10.296592 2.7552245
-4.6457043 8.4949074 2.1568344
-5.2176871 10.096363 2.8703349
-4.6513472 8.5955744 2.2656603
-6.7895074 14.457544 2.1958642
-6.8047614 14.096975 2.363822
-4.5149579 8.1916199 2.4662652
-4.5084944 8.2071676 2.7598088
-7.1149697 14.589342 1.936617
-6.8505573 14.464157 2.9715867
-5.546876 10.893672 2.3757129
-5.8382573 11.596483 2.2645509
-6.9381838 14.404166 2.6595683
-5.2671204 10.389853 2.7491808
-6.3579702 13.248066 2.3535485
-6.1050243 12.080222 1.5599633
-6.8942103 14.299402 2.4640336
-5.9010692 11.720629 2.8419206
-5.9269328 11.994765 2.7582517
-5.9285131 11.995648 2.8545787
-4.4358716 8.0779448 2.942893
-5.0608783 9.7822084 2.7512064
-6.0027952 12.002644 2.3658385
-5.1552544 9.9863348 2.669322
-5.4086523 10.306449 2.3587995
-6.1301665 12.496388 2.5620182
-4.639607 8.5883369 2.754209
-5.2956595 9.8806915 2.0534
-5.7498517 11.197988 2.1015308
-4.4469295 8.0942335 2.7619181
-5.8346729 11.689978 2.560117
-6.529696 13.397063 2.5678809
-6.6050758 13.714663 2.9343133
-6.2565956 12.893807 3.0479081
-6.218349 12.212926 1.3633584
-5.9868379 11.730083 2.4110532
-5.5988407 10.909298 2.8400598
-5.3429489 10.387922 2.3662581
-6.5298028 13.400492 2.4612098
-6.2644472 12.8868 2.5606439
-5.3294883 10.289202 2.4687254
-6.7184634 13.883303 2.847281
-6.0241427 12.100137 2.2681034
-5.7325969 11.619891 2.3086679
-6.9075236 14.179548 1.942942
-6.1559544 12.200823 1.2010261
-5.4172659 10.599995 2.6564469
-6.2969265 12.713523 2.4679661
-7.0079045 14.59233 2.6552446
-4.5551505 8.2961416 2.2809999
-6.2567406 12.980057 2.664866
-4.6277142 8.604784 2.9546759
-5.6958003 11.120474 2.5628395
-5.8610926 11.882236 2.4563231
-4.7371993 8.5731239 2.1491952
-4.9493604 9.3933268 2.4698811
-5.1206865 9.4042463 1.5106814
-4.6066914 8.2360344 2.7203074
-6.098331 12.21479 2.3710401
-4.6122794 8.300621 2.2673128
-6.1187229 12.310041 2.670208
-6.0760918 12.383359 2.2629657
-4.6869354 8.3699598 2.6433342
-6.8114138 14.099346 2.4641292
-5.5665684 11.255716 2.6570642
-6.0993767 12.191471 2.6628327
-5.5383048 10.597795 1.8409445
-5.0931325 9.5165291 2.4695489
-4.5542469 8.4800425 2.6422787
-6.9493814 14.491564 2.2683992
-5.8893709 11.617661 2.6683693
-5.3323922 10.393557 2.755764
-6.4410701 13.392257 2.9397693
-4.6436191 8.2958317 2.1766384
-6.8131008 14.191015 2.858417
-5.4645095 10.792677 2.3534648
-5.167706 10.028905 3.1371655
-6.5687799 13.656715 2.3692365
-5.5767345 11.1647 2.392611
-6.5477653 13.594307 2.565057
-6.5304418 13.594275 2.757623
-5.4711728 10.535983 1.8845546
-5.4667239 10.79445 2.4891522
-6.2152491 12.601644 2.7582312
-6.0970664 12.211835 2.4701474
-6.218524 12.60426 2.5652778
-6.9399099 14.692462 2.2437611
-4.9115334 9.1112299 2.6477535
-6.3612118 13.304968 2.53596
-4.6252475 8.4194374 2.1500323
-6.1182561 12.300965 2.8466687
-5.7726183 11.66731 2.9978657
-6.4150248 13.002858 2.8274918
-7.0166554 14.600151 2.7568207
-4.5933294 8.1973925 2.3561294
-5.9055772 11.701356 2.4618478
-6.5270433 13.198124 1.3467077
-5.8843613 11.614456 1.7661662
-6.4474592 13.392139 2.7554045
-6.3150463 12.822176 2.8310757
-5.7618122 11.688234 2.5642247
-5.8563519 11.790195 2.1799483
-5.8080812 11.240343 1.5648656
-5.820322 11.699246 2.7655654
-4.6294804 8.4003115 2.2775941
-6.9416752 14.487991 2.1590784
-4.5235338 7.9786057 2.188931
-6.2108326 12.500442 2.5518661
-5.9159403 11.601143 2.1634307
-6.1285419 12.2946 2.162631
-6.1070795 12.29903 2.7530811
-6.8277087 14.386949 2.6459754
-6.551302 13.21957 1.7263486
-6.5820451 13.416648 2.4661305
-6.0324702 12.29582 2.7625644
-5.3571038 10.392129 2.2587485
-5.2563558 10.411466 3.1454058
-5.3985491 10.288082 2.1701937
-4.8118868 9.0004854 2.9553072
-7.0307975 14.696407 2.4598997
-4.6226196 8.2094173 1.971746
-6.1497064 12.295872 1.8590692
-6.6592035 13.989253 2.9538255
-6.8688421 14.501522 2.4591987
-6.6655874 13.985253 2.6668601
-5.6524124 10.832632 1.6145011
-7.0339842 14.695029 2.3574901
-6.6072745 13.409006 1.3739153
-5.706965 10.88053 1.9720653
-6.4911451 13.219522 2.6556313
-6.1100788 12.225174 2.2681019
-6.451417 13.378946 2.4686446
-7.0399246 14.69239 2.5681484
-7.012001 14.606198 2.5617056
-4.8129182 8.9946194 2.8565586
-6.3415308 12.884716 2.1838448
-4.5162253 8.2053871 2.6540072
-6.0296946 12.198663 2.4686697
-6.649888 13.979858 2.368381
-5.8237648 11.441432 2.8354046
-6.2581444 12.887347 2.660352
-6.9886732 14.514428 2.5825238
-4.6035881 8.1996641 2.6456509
-6.1496472 12.594869 2.9557664
-6.9457946 14.495575 2.7430251
-4.5824108 8.0915365 1.8820844
-4.6911983 8.4198513 2.5391815
-4.9584379 9.4738503 2.5694871
-6.8947849 14.130032 1.6682532
-4.6061039 8.2917976 2.5553195
-7.1009164 14.793674 2.771091
-5.710412 11.197721 2.3659668
-4.5149713 8.0209208 2.3925173
-4.9431601 9.4044628 2.8583963
-6.5834742 13.427264 2.7737846
-6.1090832 12.40825 2.7616246
-6.3229179 12.903554 2.0843883
-6.3086433 12.80856 2.3591185
-5.0942202 9.3161449 1.5110675
-4.6229033 8.2204685 2.2348442
-6.1104999 12.114242 2.0450342
-5.7886329 11.200069 2.0630753
-6.6987391 13.730009 2.8382769
-5.2971039 9.9985657 2.1587009
-5.7346854 11.306749 2.1872694
-5.1880622 9.8360453 2.3647745
-5.7193379 11.120209 2.1581247
-4.9165802 9.1091022 2.1747398
-4.9392519 9.5565224 2.4819553
-5.9336486 11.902015 2.4595134
-5.9536548 11.774082 1.908062
-4.583519 8.2159138 2.1648626
-5.8036375 11.216962 1.7090076
-4.6690569 8.6290665 2.1776733
-4.8678818 9.3744812 3.1226711
-6.4888511 13.219131 2.5474305
-5.4152451 10.504133 2.5576432
-5.0733957 9.7629194 2.3675931
-6.1976948 12.300989 2.0701885
-6.6209621 13.597726 2.650521
-6.7711453 14.392981 2.5310693
-6.474895 13.219646 2.1769891
-5.0589585 9.6813889 2.4498754
-6.4196916 13.098981 2.4660292
-4.7160788 8.6973333 2.5623872
-5.834641 11.489456 2.1790543
-4.5211067 8.1889143 2.3568528
-5.0533204 9.6886139 2.561491
-5.6545043 11.379482 2.9547904
-4.9503984 9.1020813 1.511586
-6.8712125 14.604651 2.7430627
-6.6987839 13.795859 2.5562429
-5.4242258 10.596478 2.5578084
-6.8869095 14.124468 2.0654454
-7.0934668 14.545035 1.7505134
-5.606894 10.895494 2.5660121
-6.6599607 14.094403 2.3178124
-5.6332312 11.465845 2.6700397
-4.7302637 8.6919489 2.4592338
-5.5015645 10.504591 2.2604895
-5.815012 11.404841 2.269876
-5.4527788 10.470566 1.6347716
-5.938746 11.99698 2.5605099
-5.6129012 10.896599 2.2740538
-5.7004747 11.076148 2.8453145
-5.2841558 10.016156 2.7853496
-5.7028494 11.297848 2.758652
-5.063684 9.7810726 2.5583603
-6.9389625 14.493655 2.5644958
-6.8531275 14.481083 2.5604281
-5.1023679 9.5946236 2.7708459
-4.5524278 8.4900932 2.5579617
-5.8210607 11.705535 2.8549576
-5.9209456 11.603807 2.7409606
-6.7040229 13.722958 2.2781289
-6.1128559 12.39528 2.6566541
-7.0294356 14.602715 2.837153
-6.6909003 13.716581 2.661335
-4.8938999 9.0035744 2.6285295
-5.2927599 10.010962 2.6352019
-5.7141066 11.301784 2.6572459
-4.9621511 9.4052725 2.2829802
-4.8768368 9.3848639 2.7094955
-5.8570628 11.501958 1.7598209
-6.9973531 14.41831 1.664711
-4.6122346 8.3078003 2.3633225
-6.9393873 14.49441 2.364856
-6.8529878 14.388732 2.3632281
-5.8131208 11.342536 1.8473225
-6.6047192 13.948806 2.2969384
-6.9646521 14.585386 2.1802073
-4.6176763 8.1181097 2.1525829
-6.3095579 12.904938 2.7616594
-6.5590901 13.684301 2.6535094
-6.0044584 11.893707 2.3692577
-6.6685038 14.050174 2.5365989
-4.5961256 8.2113819 2.4625065
-4.8895259 8.799243 1.3336861
-5.4027576 10.65119 2.0936668
-6.7569289 13.870133 1.6788285
-6.3292999 12.890973 2.4653454
-6.8702078 14.679462 2.3603287
-5.7417812 11.182958 2.1264081
-5.2824602 9.8889771 2.1446047
-5.9151382 11.603191 1.5601919
-7.0793772 14.57611 1.8113806
-5.6596804 11.16649 2.1300416
-6.3406067 12.987557 2.2792888
-6.3822026 12.798058 2.1647222
-6.8411283 14.202813 2.6489024
-6.5664124 13.671778 2.292412
-4.6191502 8.0936584 1.9234697
-6.86481 14.509381 2.8589983
-5.1234388 9.5041714 1.6652472
-4.6976304 8.6057911 2.7470884
-5.6046934 10.909918 2.3605201
-6.4327989 13.105863 2.2044249
-4.6384268 8.490345 2.2682073
-6.2535272 12.589429 1.7976173
-4.6221752 8.4930944 2.5641887
-5.2705803 10.381454 2.5061724
-6.2439976 12.963243 2.3143334
-4.6149774 8.496912 2.7545409
-4.7000513 8.7251577 2.8658791
-6.0970407 12.208893 2.5513515
-6.3650661 13.092357 2.1805906
-4.7333155 8.3890991 1.8547865
-6.8900223 14.118767 1.8778763
-6.3505259 13.082321 2.3818705
-4.7920527 8.7105131 2.549376
-5.195457 9.6729841 1.3001115
-4.9406681 9.4811726 3.0570738
-6.5522881 13.474077 2.1725812
-5.8018641 11.407908 2.5447078
-6.4609437 13.469625 2.7575798
-5.7680364 11.570682 2.3476183
-5.2574286 10.16948 2.2686865
-4.7125883 8.4964638 2.1649938
-5.0114346 9.0972366 2.0754311
-7.0946298 14.73269 2.8581064
-5.3566089 10.490149 2.3695843
-6.5638347 13.677912 2.5539067
-5.3272223 10.305485 2.9474149
-4.64258 8.4896479 2.3587623
-4.5343499 8.4848356 3.1564746
-5.702538 11.088663 2.2715061
-6.8789277 14.605394 2.8837273
-6.6020484 13.737047 3.0572755
-6.7323642 13.692011 1.9674187
-5.2118979 10.001066 2.6573982
-5.9509873 11.983515 2.3736174
-5.2761126 10.366856 2.0937107
-4.837184 8.730463 1.9178419
-5.9878745 11.793594 2.1908939
-7.1083922 14.721058 1.4796582
-5.8557587 11.566718 1.7388844
-6.8477669 14.511974 2.3829532
-5.2349315 10.095304 2.5581841
-5.3483934 10.394658 2.4627652
-6.284308 12.638279 2.4575689
-5.7847238 11.10297 2.0287588
-6.2417388 12.684522 2.3689532
-5.5357761 10.599319 2.1383128
-4.7159472 8.6045618 2.3564703
-5.4195628 10.696774 2.9524875
-5.017221 9.5495491 2.0796738
-5.0084257 9.0985794 1.7658712
-5.8977523 11.618906 2.4517591
-6.7256041 13.712127 1.8762014
-5.9060421 11.808302 2.7580996
-6.1454573 12.193854 2.0468376
-4.6031523 8.474472 3.0381827
-5.6028414 10.903838 2.4530408
-5.2552381 10.353715 3.1038988
-5.7969122 11.412124 2.4423122
-6.5877371 13.440261 2.3656197
-4.7038598 8.7133284 2.7615073
-5.4528785 10.66487 2.1510289
-6.9980612 14.501026 2.7551763
-6.3399911 12.681945 1.9602998
-6.8878202 14.073217 1.949293
-5.3353033 9.8420525 1.6894172
-5.7034168 11.080182 1.6343718
-5.8760519 11.958302 2.7761743
-6.5329247 13.488285 2.3672924
-5.2056003 9.8013353 2.5766449
-5.8519182 11.875728 2.9677682
-6.1834416 12.199441 1.7840949
-5.7027168 11.028857 2.4641964
-4.8894963 8.7447786 1.9246781
-5.9586611 11.780704 1.5769103
-5.6971803 11.098563 2.7622616
-6.2598009 12.581196 1.5476661
-6.3887625 12.925051 2.3269491
-6.5217133 13.39978 2.1761785
-5.2691054 10.481147 2.7021081
-6.6342297 13.685677 2.2748795
-6.2039747 12.402363 2.7423794
-6.9103842 14.610842 2.7495053
-6.6383276 13.700505 2.1653543
-6.1184802 12.401286 2.8606279
-5.7193108 11.090079 1.7741189
-5.2843342 9.8082466 1.7832689
-4.8009157 8.795742 2.6661811
-6.6152887 13.610236 2.8260212
-6.7740111 14.269859 2.5738621
-5.2186685 9.815731 2.1541538
-6.1314421 12.496308 2.660176
-4.9404097 9.3984423 2.7587996
-6.0559568 12.200045 2.1821773
-7.0239983 14.801161 2.8567936
-4.701333 8.3946543 1.9660261
-5.1652761 10.070121 2.1320407
-5.8236022 11.51208 2.2683678
-5.4116263 10.204151 1.8846955
-5.8362498 11.598902 2.4579363
-5.8878937 11.839107 2.960547
-4.614449 8.3189058 2.7730057
-4.8574958 9.1888781 2.7545311
-4.6155863 8.0812006 2.046329
-5.5229526 10.99678 3.061132
-6.2392135 12.37321 1.7601044
-5.2568655 9.7959919 1.7442274
-6.371551 13.300135 2.6744213
-5.6128154 10.900453 2.7574573
-5.410367 10.871017 2.2650714
-6.1324549 12.590137 3.1817708
-6.1303649 12.140521 2.4414291
-6.3116341 12.799478 2.6504974
-4.614439 8.390316 2.3723164
-6.8611422 14.385848 2.4634547
-5.9517279 11.888967 2.1878867
-7.0225797 14.684656 2.8403318
-5.3484545 10.391798 2.2000971
-5.3302045 10.400015 2.8530262
-6.6062703 13.424875 1.5720589
-5.7643571 11.153158 1.9643784
-5.3028145 9.8917065 1.9582312
-5.8214746 11.572594 2.04475
-5.2607455 10.366371 2.5673935
-4.5026927 8.0028076 2.5655844
-5.1659808 10.076741 2.7706561
-5.8104863 11.590233 2.8576775
-4.6223021 8.4052515 2.4647524
-5.1993365 9.6085606 1.5798541
-7.0228848 14.397038 1.5085212
-6.5098543 13.174818 1.2784494
-5.3363867 10.000535 1.8352759
-6.1622806 12.290998 1.3542973
-6.3256783 12.997021 2.7617671
-5.3173327 10.19778 2.2736053
-5.2591004 10.289433 2.8627756
-4.7061443 8.7025299 2.6610019
-6.6461296 13.592836 1.5653811
-4.8337779 8.995326 2.3552129
-6.9882426 14.532915 2.8516898
-6.9298916 14.493048 2.9498405
-4.8978844 9.4698448 3.2405388
-4.6148825 8.5177822 2.8482552
-5.2272053 9.7792053 1.1816169
-6.1601229 12.292977 1.5706306
-5.0910163 9.5182381 2.6713405
-5.8103576 11.597212 2.6528168
-5.4006944 10.20416 2.2397738
-6.6312776 13.69986 2.3728395
-5.9643474 12.06773 2.3668187
-5.2664394 10.285739 2.5590885
-5.06954 9.7831898 2.4813631
-4.8817954 8.9092875 2.5873463
-5.5896354 10.822865 2.4344404
-5.2230773 9.8046436 1.3578522
-6.8997641 14.221227 2.7468989
-6.8986464 14.680582 3.0462985
-6.2852278 12.615075 1.4503382
-5.3355036 9.9398108 1.6621797
-5.7626839 11.198829 1.6593114
-6.6183801 13.721089 2.8542032
-6.9000702 14.695032 3.1641207
-6.1139612 12.500761 3.1284511
-6.7099404 13.62529 1.5051173
-6.6815386 13.568042 1.6076903
-4.9343286 9.2869768 2.3795984
-6.3205948 13.085824 3.1482601
-6.1323371 12.391461 2.3656662
-6.9944844 14.526133 2.4585404
-5.5910997 10.797887 2.5400333
-5.4207158 10.448256 1.7592665
-6.1981287 12.499922 2.8481894
-4.9189978 9.1988487 2.2821367
-5.85497 11.685998 2.2931864
-7.0866947 14.744748 2.4123473
-5.8022642 11.508955 2.7457933
-5.7588329 11.209164 1.4569759
-5.341671 9.9388361 1.4137825
-6.4377885 13.394226 3.0620847
-6.8432746 14.568882 3.1363976
-5.8381834 11.693156 2.4674284
-5.0609474 9.0868988 1.2404377
-5.1836061 9.715313 2.6236262
-5.937717 11.893367 2.3695362
-6.3154812 12.601602 2.132206
-5.2040873 9.9135628 2.8524244
-5.7938848 11.295568 1.5534761
-5.8349099 11.604441 2.1766906
-5.779583 11.771093 2.4930627
-4.880589 8.7586432 1.7446803
-6.4380088 12.903774 1.8355635
-5.6201978 10.997105 2.5594871
-5.6208558 10.991277 2.2880383
-5.2343044 9.7790127 1.8940773
-5.5280008 10.897239 2.6614392
-5.6260757 11.000518 2.4588711
-6.3026299 12.57977 1.6443712
-5.1650195 10.068986 2.3899603
-5.8520937 11.787635 2.661262
-4.9630523 9.4889727 2.1722519
-6.9637933 14.379426 1.3558121
-6.3122597 12.996236 2.8474326
-5.4197483 10.212732 1.1836799
-5.0833969 9.255887 2.7194638
-5.0287538 9.590126 2.6535306
-6.9054017 14.183237 1.8695542
-5.2496185 9.8904219 1.2571335
-6.0463643 11.917765 2.0561664
-4.8352633 9.3086128 3.1406896
-6.3376803 13.125174 3.2144799
-4.5667539 8.4883385 2.9896896
-6.0613613 12.481514 3.2815239
-5.8363733 11.594897 2.3659742
-5.8201275 11.495557 2.3766367
-6.050137 12.48093 2.843966
-5.907402 11.906761 2.9644911
-4.8566442 9.2573128 2.473587
-5.039855 9.5921001 2.3621213
-6.2669773 12.579444 1.3942077
-6.7772899 14.346863 2.9395134
-5.8949594 11.712451 2.9386175
-6.9908934 14.510862 2.2924576
-5.0404592 9.7733393 2.3085437
-6.3569975 12.75061 1.9851999
-6.0908322 12.374288 2.9408615
-4.8280973 9.1922808 3.0531712
-6.6611142 13.996077 2.7601237
-4.7121515 8.5280972 2.2496667
-5.9707561 11.791579 1.6600835
-5.9461527 12.000341 2.4711804
-5.6120529 11.01111 2.752948
-4.8591418 9.1830482 2.5659144
-6.3093119 12.99288 3.0401666
-5.7466211 11.488383 2.5675354
-5.914722 11.902594 2.7565663
-6.3303018 13.088402 2.9545231
-4.8522291 8.8706379 1.9337981
-6.3341637 13.094701 2.8502283
-6.5406318 13.192286 1.9295049
-4.9025397 9.3892326 3.1239517
-7.0953083 14.726597 2.3603852
-5.7931652 11.515682 2.9903989
-4.8597951 9.2715807 2.5674834
-4.8527236 9.1905289 2.8530798
-5.0506983 9.2136087 1.7832052
-4.8914356 9.3859959 3.2691081
-5.9442115 12.148603 2.1951425
-5.6381674 10.899147 2.0787244
-5.6195889 11.004172 2.3693764
-5.599833 10.795732 1.5782224
-5.2994246 10.010426 2.4684329
-5.7248492 11.294291 2.4605498
-5.9540653 11.993467 2.2486961
-5.2932258 10.004976 2.5651629
-5.7197623 11.299253 2.5558183
-6.6199594 13.485655 1.3079059
-5.5602031 11.091342 2.7706492
-6.2291298 12.695787 2.6608751
-6.7609615 14.415339 3.1938775
-6.7232676 14.010922 2.7618043
-6.3705177 12.8618 1.5435804
-6.5914445 13.293627 2.0376062
-5.1021409 9.3944416 1.7864414
-5.8267307 11.698061 2.6599927
-7.1045675 14.698993 1.5623543
-7.0109291 14.596307 2.3523726
-5.2629704 9.8538685 1.2005378
-6.2236915 12.782049 2.8697317
-5.3407559 10.478202 2.9518092
-6.3821487 12.937111 2.7150078
-5.8196354 11.380402 1.5751866
-6.6469307 14.05493 2.1466699
-5.9231391 11.797012 2.3697219
-4.6199322 8.3014402 2.4679632
-6.489748 13.412056 2.8505962
-4.861362 8.8900471 1.6761765
-5.3107533 10.30687 2.8567924
-4.9641562 9.0959301 1.8770494
-6.3219938 12.9043 2.6537316
-4.8397903 8.7937984 1.9305365
-4.8054104 8.8001537 2.4598954
-6.1578007 12.284302 1.7714322
-4.8885612 9.11203 2.7615025
-5.7193961 11.39898 2.6612883
-6.1570282 12.28886 1.2602735
-6.5612497 13.37971 1.9497763
-5.5797868 11.146549 2.5711126
-5.7468147 11.41431 2.1888115
-5.6127272 10.826713 2.2578661
-6.2334056 12.69333 2.4680583
-6.7980638 14.425359 3.0542424
-6.6340737 13.70243 2.5641627
-6.1443172 12.590304 2.8543406
-6.3628206 13.199933 2.4817162
-5.9368739 12.080164 2.2531173
-4.8572373 9.1850605 2.6549287
-4.456511 8.0946016 2.6598399
-6.2145824 12.697321 2.7565291
-5.9453387 12.097176 3.0475817
-5.3333759 10.477075 3.0655799
-4.8481722 9.1792421 2.2985916
-6.213881 12.693095 2.8594062
-4.7627077 8.5986099 1.7007594
-5.5627751 11.272438 2.451961
-6.4150252 13.033166 2.0541379
-5.3847437 10.189519 1.6892762
-5.9255271 12.110956 2.1882958
-4.8575563 9.2722368 2.6293364
-6.1609392 12.647276 2.2843566
-6.0702338 12.461709 2.510417
-6.9459529 14.590542 2.4642472
-5.9123945 11.799926 2.8508377
-6.1597147 12.80134 2.892909
-6.8303652 14.388749 2.9586017
-6.8272214 14.386664 2.8592353
-4.8453817 9.1964121 2.9645259
-4.5527182 8.388958 2.9517066
-5.2048926 9.8992281 2.3647177
-5.2496462 9.893549 1.9713782
-5.3401675 10.387416 2.5558019
-5.327476 10.39333 2.6596098
-6.4935322 13.19928 2.2556446
-5.311285 9.9886761 1.2251177
-6.3250332 13.111589 3.0665593
-5.3274102 10.390307 2.9699752
-5.2528176 9.8776197 1.4495333
-5.3049145 10.436139 2.0851047
-5.4710011 10.955705 2.8438509
-6.2924809 12.729696 2.3756487
-6.9186621 14.59395 2.8561721
-4.9645939 9.587986 2.7541323
-5.21383 9.7962999 1.6612922
-6.6432304 13.584407 1.4764488
-6.1786704 12.770831 2.2869897
-5.2410655 9.7904673 1.5662845
-6.1083088 12.019137 1.7630179
-4.8499894 9.0833063 2.35605
-7.023571 14.609277 2.1689012
-5.6484075 10.90741 1.7476146
-6.3516784 13.084548 2.5678082
-5.7484336 11.21674 1.5558342
-5.2956991 9.8956156 1.5665799
-6.1930656 12.366352 2.6709139
-6.3206286 12.99804 2.6602426
-5.8551145 11.881238 2.2754648
-6.7394896 13.804379 2.063756
-6.5678697 13.481087 2.0561728
-4.5940151 8.1993341 2.5401738
-6.2758989 13.05852 3.1100152
-5.7863197 11.31087 2.4624629
-4.8812037 8.9352694 2.3313162
-7.0658278 14.671319 1.4830958
-5.2517653 10.289742 2.7581651
-6.9063644 14.223833 1.6701394
-5.6714315 11.486149 2.5929697
-7.1077752 14.678955 1.7762012
-5.3461866 9.8781176 1.4035286
-7.1099577 14.609474 1.5445945
-5.2340398 9.880641 1.6304404
-6.4166884 13.096918 2.270427
-4.6494994 8.5939198 2.5759044
-4.6594272 8.5838642 2.3526852
-4.6508965 8.5918322 2.4628921
-5.9244246 11.605733 1.2623717
-6.3423195 13.009787 2.1660955
-5.9985266 11.784989 2.2626333
-6.5088782 13.195311 2.1785066
-5.7955971 11.334881 2.6507697
-7.0919976 14.634217 1.3631002
-6.560288 13.488167 2.2691138
-5.6677694 11.494388 2.7545991
-6.757709 14.292322 2.7517483
-4.913002 8.9287367 2.251812
-4.7504539 8.8930817 2.7595346
-5.9139609 11.605647 1.9434819
-6.759047 14.187443 2.5731423
-6.5120039 13.679554 3.1260154
-6.9419546 14.694146 2.6803694
-5.2261834 9.7923794 1.439904
-5.4568338 11.015021 2.5002398
-6.9468803 14.679017 2.5655141
-5.8178434 11.602945 2.561312
-6.6561399 14.052157 2.991729
-5.0165749 9.2067566 1.246984
-6.9044924 14.194537 1.2780694
-5.4130077 10.209597 2.0723934
-5.3122444 10.463614 2.1211326
-7.0042553 14.493397 1.6598158
-7.1165648 14.598582 1.7652839
-5.790247 11.328325 2.3783045
-7.1295214 14.69468 1.858259
-5.3944263 10.182335 2.1783752
-5.2374845 10.179261 2.9461842
-5.530159 10.605502 1.2872124
-6.2983341 12.724946 2.8456347
-5.8484492 11.69379 2.3696909
-4.8359547 8.7631931 1.3198094
-5.2438006 9.9792328 1.6659228
-4.621254 8.1052885 2.3171377
-5.4160709 10.203124 1.7565975
-5.7844448 11.324697 2.5662255
-5.2005496 9.7085323 2.1651044
-6.2763829 13.08709 2.8622518
-6.3066888 13.001546 2.9573369
-5.7615867 11.579725 2.5644519
-4.8643842 9.1738195 2.3711014
-5.3638535 10.456469 2.2913666
-5.9009161 11.710255 2.2773418
-7.096015 14.636808 1.6136727
-6.1543002 12.290301 1.4698279
-4.8150368 8.9068918 2.2608516
-6.4666238 13.561579 2.5592461
-6.615262 13.610995 2.7489738
-5.9702206 12.195032 3.0512424
-6.4519358 13.41125 2.2994614
-5.9375701 11.904572 2.282073
-5.3350348 10.000307 1.6815218
-5.7919445 11.206831 1.7361964
-5.215095 9.9035959 2.6550767
-5.238802 10.203682 3.0677886
-6.9425378 14.586055 2.5599339
-7.0857964 14.731024 2.669733
-5.351923 10.48506 2.6599536
-6.4426923 13.410093 3.1510258
-4.8772192 9.1742964 2.134891
-6.0893874 11.950865 1.4970355
-4.8559017 8.9052134 1.7469325
-6.0956259 12.012157 1.5907577
-5.2575579 9.8547029 1.585712
-5.2468929 10.297603 2.1023166
-6.3357859 12.988025 2.5549963
-6.6685238 13.973363 2.4737849
-4.4647942 8.302206 2.7048528
-4.4669261 8.253376 2.4764514
-6.6456347 13.890363 2.6649935
-4.9613333 9.7143908 3.1574914
-6.9227128 14.585544 2.6589108
-5.2565131 10.015041 1.9861342
-5.2046633 9.9961519 2.8390672
-5.2156487 9.7007818 1.4348073
