# .PCD v0.7 - Point Cloud Data file format
VERSION 0.7
FIELDS x y z
SIZE 4 4 4
TYPE F F F
COUNT 1 1 1
WIDTH 1610
HEIGHT 1
VIEWPOINT 0 0 0 1 0 0 0
POINTS 1610
DATA ascii
2.3622353 7.2891121 2.1869464
2.6867909 6.6679635 1.7448161
2.8475609 6.4846349 1.987608
3.7169535 4.1495352 2.0098631
2.6007628 7.0992441 2.0421388
2.3340118 7.9080801 2.0363746
4.9001956 1.0999017 2.5361686
4.7582378 1.3191259 2.7911808
3.8914032 3.8059232 1.9302813
3.7560487 3.6029513 2.0566156
2.6048722 7.1060514 1.8343999
2.7506902 6.7702322 1.978696
3.0521665 5.9175429 2.0596645
5.0714102 1.019613 2.743036
4.2936916 2.2026429 2.2668197
4.7990985 1.3293321 2.5708451
3.0329237 5.9793797 1.7679724
4.65839 1.2959994 2.2693076
4.1038413 2.691592 2.1749778
4.6022282 1.4023012 2.3603346
3.2901678 5.6026044 2.4574404
4.1806889 2.5006773 2.3646185
4.534091 1.6873484 2.3687453
3.2472229 5.7607789 2.2808671
4.79182 1.4912145 2.3682885
3.3505747 4.891293 2.3763437
4.2261047 2.549463 2.3475981
4.02988 3.7780104 2.5537953
2.3494418 8.0812922 2.2676003
4.4394016 1.8973562 2.2636278
4.6816816 1.8180925 2.6395299
2.6338613 7.0544581 1.8994144
4.9104042 1.2884399 2.7150996
4.5867395 2.0949476 2.7497675
4.2058988 2.4169698 2.2777114
4.712326 1.8113811 2.5965788
4.5736756 1.5001427 2.2708046
4.7447934 1.3429809 2.4277353
4.1496282 2.5896251 2.360507
4.9953012 1.0932624 2.8710866
4.9585752 1.1963403 2.8444328
4.9873819 1.1114149 2.4731939
4.9029574 1.3056318 2.4484067
4.3329301 2.9153833 2.7613697
4.0055804 3.8089299 2.7995882
2.6531425 6.692811 2.3673537
2.9346375 5.6647711 1.901108
4.8887992 1.4078836 2.6566019
3.9619529 3.1022992 2.2731755
3.6962152 3.7969496 2.2841532
4.9089093 1.3258466 2.5691442
3.6528833 4.6732769 2.2773554
3.9971056 2.9952743 2.271847
4.5308533 2.4172359 2.8282661
4.1670971 3.3324907 2.8126993
4.0762134 2.7975621 2.2658813
4.7983904 1.6089408 2.4613905
3.3831477 4.4681888 2.4658959
4.9857483 1.1896657 2.6435168
3.4876642 4.3058019 2.2741611
4.0497694 3.6370497 2.7337694
3.393194 4.506722 2.2544212
4.1362677 2.6830976 2.1685975
4.6327271 1.4062923 2.170085
5.0027018 1.0955284 2.6358547
2.6923723 6.7686019 1.6786754
4.0318184 2.97174 2.2694986
3.6404324 4.7726512 2.619561
4.3402061 2.9458694 2.7860649
3.9319992 3.9723599 2.7443228
3.7354608 4.4657454 2.2958305
3.9834762 3.5428565 2.1652362
4.6972322 1.904826 2.5593688
4.2233973 3.1687288 2.1955907
4.2789254 2.3031642 2.1748004
4.5209184 2.3546209 2.1710355
4.3356409 2.8770418 2.5614858
3.9536548 3.9041345 2.7575212
4.0720143 3.5720615 2.2049711
5.0412698 1.0616049 2.396399
4.5288496 2.3680384 2.288305
3.4749346 5.2762718 2.3580103
4.9678726 1.2001415 2.5579987
4.3713408 2.7950664 2.1735497
3.7320299 4.4799533 2.5514796
4.9583373 1.2017089 2.4548588
3.3888085 4.5805063 2.1589365
2.5621786 7.1839681 2.0432506
4.8539643 1.3097212 2.6633885
4.1831117 3.1813962 2.1664972
4.9052477 1.30571 2.2585256
4.6531138 1.9443491 2.1095974
4.9935999 1.1148007 2.5672851
4.3977728 2.6100118 2.5650759
4.9597173 1.1934502 2.3617244
4.3811193 2.6157541 2.3699434
4.6062145 1.4271047 2.1774426
4.9445705 1.2776397 2.6436353
4.8893347 1.4013553 2.5607805
4.3822193 2.6010718 2.6615663
3.4289942 5.2570028 2.2884705
4.6442637 2.0827777 2.6533542
3.4343572 5.2717581 2.649652
3.430233 5.2744431 2.446969
2.6986256 6.6924329 1.8873384
3.4668791 4.3860574 2.2751424
4.5337605 2.3679338 2.4769855
3.6300085 4.7682595 2.5669394
3.2206931 5.8891134 2.5488918
4.443573 2.5855961 2.5488105
4.2774143 3.0003769 2.4692564
3.7448387 4.3651843 2.1654303
3.1328304 5.9656415 2.1490312
3.2652993 5.0193601 2.1630826
4.5997758 1.4044608 2.0987604
4.2251105 3.1960025 2.323633
3.3837218 4.6868649 2.18507
4.42593 2.6560423 2.1826587
3.7459188 4.4688377 2.5001853
3.7338088 4.4970837 2.1876886
2.6862516 6.7973628 1.9337733
4.4460077 2.6667995 2.7309313
4.4337163 2.6572771 2.3529265
4.4220815 2.6967094 2.5295472
4.2266221 3.1650493 2.2892282
2.3632309 7.6708493 2.2542596
4.5350723 2.3820288 2.5416424
4.3618813 2.7828178 2.6591704
3.4330344 5.3081818 2.5738096
4.9031754 1.3829836 2.7496939
4.2072783 3.1299174 2.5220902
2.8969035 5.8306098 2.1544075
3.4164557 4.4747262 2.1242077
4.1128268 2.7055187 2.0823917
4.3973923 2.5798721 2.1451564
3.8002794 4.2015934 2.3544555
3.7552271 4.3747826 2.2683637
3.0847764 6.015255 2.544013
2.991257 5.5968699 2.1769631
4.8858428 1.3878186 2.2629399
3.9846747 3.7972689 2.5585244
3.9406137 3.8485017 2.1721489
3.6477752 4.6867986 2.353827
3.1191416 6.0383773 2.63919
3.5385582 4.1672273 2.0927145
4.9427919 1.2963279 2.5741949
3.9778247 3.777715 2.1699088
4.7794237 1.7011729 2.6538634
4.9357705 1.2886429 2.4522345
4.8789372 1.3969483 2.3709011
4.7744622 1.7006023 2.366504
3.9609423 3.8018813 2.3610396
4.6985044 1.9014634 2.7536454
4.6862917 1.9036847 2.348563
4.09201 3.515286 2.7372146
3.9844499 3.6961324 2.6637762
4.8004918 1.6053693 2.5557847
4.2910738 2.9949319 2.6586106
4.6975894 1.8829399 2.6615679
4.6752024 1.9030262 2.2682409
4.2036676 3.1966412 2.5661225
4.008687 3.7051401 2.5651598
3.5643451 4.8857579 2.4659514
3.4737444 5.0970616 2.3652697
4.6318278 1.3845645 2.2611275
4.9873219 1.0998902 2.3548565
5.0044703 1.0918796 2.7642722
4.9565692 1.1976037 2.2742469
4.9325876 1.2866977 2.2649314
4.9346538 1.2903764 2.7377996
4.8848972 1.3876591 2.4598243
3.8399842 4.1823769 2.7530234
3.7989869 4.2856326 2.6434977
3.7602751 4.3885503 2.4505053
3.4845951 5.1052737 2.4606972
3.3930035 5.3450661 2.7259784
3.3639727 4.6975131 2.2625465
4.5722585 1.496315 2.3581433
4.9403653 1.2832868 2.3724377
4.3166227 2.9729965 2.8138378
4.2838559 3.002758 2.5644755
4.2408633 3.0933967 2.3624904
4.174335 3.2837346 2.7511423
3.7647731 4.4028597 2.5671613
3.7380724 4.4802322 2.3657277
3.4788542 4.3599944 2.33255
3.5631566 4.2536554 2.3004651
4.4411101 2.5911605 2.4621189
4.4635677 2.5922446 2.8532839
4.424891 2.6511116 2.4738116
3.9518478 3.8872962 2.5471408
3.958679 3.890373 2.6408606
3.989089 3.7966578 2.6634049
3.485347 4.8994646 2.5153744
4.5759845 2.2063119 2.7684948
3.9932227 3.6208527 2.2740314
4.0033207 3.6178803 2.6442015
3.9966128 3.712904 2.4382446
2.3104424 7.374301 2.2959452
2.5880134 7.3064051 2.2570102
3.6926081 4.5140266 2.4693999
4.1807442 3.0159578 2.3627641
4.5762715 1.4909071 2.1567822
3.7472866 4.4056606 2.3522666
4.1923285 3.1980155 2.6547651
4.1923957 3.1928427 2.2690163
4.8138084 1.5376669 2.6955788
4.7716031 1.7009258 2.4667456
4.1698494 3.2970119 2.5587263
4.1659036 3.2963257 2.4683371
4.8062692 1.5980706 2.3576598
4.7436247 1.7738345 2.2782936
4.0383539 3.782469 2.7272863
4.6552811 2.0784652 2.7471919
4.6410804 2.0831668 2.3664057
4.6220927 2.2109606 2.7727258
4.9818344 1.1016105 2.2545216
4.9631829 1.2023734 2.7571537
2.9554708 6.1997118 1.9593691
4.1611414 2.5947957 2.269763
4.4322214 2.6611345 2.2671876
4.4284763 2.694571 2.6983399
4.5562673 2.3067577 2.7626626
3.9394097 3.8815484 2.3516772
4.3946643 2.6999624 2.4581227
4.0345478 3.8146489 2.8301039
3.9751289 3.7973366 2.4676154
2.778759 6.977972 2.8367932
2.7305665 7.1825309 2.6292982
4.166821 3.3040555 2.6773059
4.6174145 1.2973094 2.1866264
4.1856809 3.1846519 2.7549481
4.0894656 3.4954989 2.465066
2.4827352 7.6974812 2.7353301
2.3075979 8.1008987 2.3757596
2.5462103 6.8749442 2.2711678
4.186729 2.5040829 2.2749293
4.5425582 2.3054423 2.2723842
4.4635925 2.4958329 2.2662399
4.3952055 2.5843608 2.2739046
4.4471512 2.5862193 2.6563404
4.1393099 2.6924028 2.2699578
4.4558907 2.4884658 2.3708282
4.4609518 2.5685148 2.7678673
4.4377489 2.5926425 2.3556886
2.4506056 7.7838125 2.5753086
3.3731008 5.3896084 2.8456833
4.1855993 3.106885 2.2749443
2.6110306 7.4040241 2.7868543
2.4644444 7.780057 2.6484349
4.6492558 1.3001366 2.088794
2.5400774 7.5535731 2.2571092
2.4733524 7.623693 2.267895
2.9454474 6.509038 2.7010016
3.13989 5.9961371 2.5370319
2.653368 7.2886267 2.5672052
4.4959888 2.408782 2.2721713
2.590399 7.3987203 2.5724921
2.5779088 7.4977903 2.5630114
2.1801281 7.7078991 2.1552553
2.4607661 7.1026497 2.2635965
2.971415 5.695344 2.2623141
2.7747073 6.8847647 2.2924688
2.7806594 6.8981724 2.7222714
2.7349365 7.0793514 2.5642099
2.5974319 7.393383 2.6405404
4.1997905 3.20313 2.0488479
3.2887671 5.5851212 2.7508144
2.7681196 6.9900589 2.5584087
2.7303779 7.0945125 2.7645545
2.7814221 6.9044561 2.6702087
2.7842486 6.7996006 2.2829545
2.8366208 6.7718678 2.3567052
3.1487927 6.0120268 2.6658473
3.2678256 4.8977423 2.0923269
2.3994908 7.6082282 2.2558789
3.5556841 4.8614459 2.1665738
3.5676506 4.8979034 2.5589657
2.7776072 6.794858 2.1654873
3.2830195 5.6039209 2.5448723
2.0904377 7.9962478 2.2695456
2.2603879 7.9950056 2.0908232
2.8564003 6.7708945 2.8885062
2.8355534 6.7849841 2.4403887
2.8888168 6.6742496 2.6544056
2.5109684 6.9057512 2.2801783
2.8778815 6.717762 2.7470479
3.6460428 4.6959558 2.5582561
3.481699 4.7000141 1.8663464
2.2086475 7.6973243 2.2752388
2.0399401 8.1959448 2.2883389
3.2317693 5.8631616 2.8375428
3.1736341 5.9180117 2.8393219
3.1505408 5.993434 2.8012879
3.0866957 6.1079264 2.5611756
3.0892546 6.0967569 2.282522
2.6503315 6.6895905 2.0546494
3.4309852 4.8963451 1.8584703
4.3838639 1.9956921 2.2695246
2.7945642 6.8990698 2.8366885
2.9484184 5.7831221 2.341892
3.3768172 5.0785136 2.1215703
2.6807787 6.739491 1.9650309
4.3795938 1.9857173 2.1774395
4.767509 1.6129346 2.7297018
4.7795482 1.6916248 2.5586958
2.2911277 7.9907737 2.2064128
2.668324 6.686821 2.1682296
2.366046 7.2926059 2.2805948
4.6860085 1.2034051 2.2677901
3.4835799 4.3232255 2.1674199
2.6103249 6.9991903 1.7422576
4.7730751 1.7192442 2.7356696
2.3394563 7.4008913 2.3514729
2.878005 6.3727207 1.6597083
2.8521528 6.4506645 1.6625769
2.6513803 6.6628623 2.4540265
2.2934737 7.4897342 2.2723963
3.4971626 4.6677289 2.0774996
2.8803759 6.1789694 2.043993
2.8548512 6.1038904 2.1844637
2.8635879 6.427146 1.7861947
2.8685403 6.1540232 1.9147893
3.6024179 4.0330482 2.2895012
2.6890242 6.8130388 2.2487369
2.9563506 6.087059 1.7548537
2.9400973 5.8849888 2.2787445
4.3528175 2.0907469 2.3608601
4.1700687 2.9152884 2.4371812
2.4058671 7.0196657 1.9698284
2.6610916 6.512713 2.1743774
4.3233275 2.3294475 2.1102242
3.6403902 3.9761324 2.2799046
3.6020555 4.0049067 2.3493164
3.3919532 4.5963154 2.2775435
3.2143359 4.9658184 2.0094416
2.9970992 5.9949808 1.9600489
3.3683026 4.7004628 2.0534165
2.7949293 6.1169305 2.0449297
3.1365786 5.134614 2.0405197
3.6711764 4.1132278 1.911981
4.2715015 2.2997017 2.2708788
2.9237325 6.2028618 1.8683975
2.2099674 7.411571 2.2126164
2.6535871 6.8317437 1.89643
3.6568511 4.106173 2.1710002
3.6456528 4.6912384 2.4640503
2.7672567 6.9762945 2.7835855
4.2542129 3.0971727 2.5593038
4.7801099 0.89538914 2.5595057
2.9910741 6.0880218 1.9659535
3.9903419 2.9954867 2.3634596
3.9948542 2.9933643 2.18083
3.1940978 5.034133 2.1336772
2.9166956 5.6850905 1.8091458
4.2522168 3.094727 2.6397891
3.686801 3.7969887 2.2065058
4.0346851 2.9926822 2.4319217
2.7647934 6.6742659 2.0723269
4.5401359 2.3974981 2.3657217
2.8150511 6.484179 2.1694598
3.2175181 5.0323219 2.2732594
3.0004547 6.3329062 2.0574348
3.4582014 4.9909687 2.1424556
4.7893052 0.90057981 2.455195
2.5244386 6.6818137 1.8706042
2.3452396 7.7798166 2.0448
2.8965003 5.8939629 2.2648275
4.0635152 3.2370024 2.2861967
3.9230478 3.159517 2.4269221
2.6086905 6.6819577 2.1091692
4.6365695 1.4570277 2.2121394
2.6548715 6.9230151 2.1375856
3.4621103 4.8442254 1.9211669
2.5295591 7.1763773 1.7527219
2.9431121 6.1983604 2.0497503
3.0617683 5.4829941 2.17676
2.7296288 6.7735806 1.7885571
3.0805233 6.0741439 2.6218951
4.1159744 3.2323089 2.3132465
2.4599202 7.7801919 2.2851884
2.4553323 7.4895248 1.9663544
2.3592446 7.7991295 1.9749464
2.9478865 6.2153111 1.7728885
2.1534436 7.4918275 2.181813
2.962239 6.1439857 1.6500037
4.4425526 2.5089226 2.1470802
4.600657 2.2613459 2.043432
4.4681277 2.2269804 2.0370059
4.439373 2.058805 2.05445
2.4156926 7.0820069 2.3961463
2.6349897 6.9999175 1.8650192
4.7469306 0.99019635 2.5611494
3.9368472 3.1818099 2.3560739
2.3412898 6.9992251 2.4486394
4.8455658 0.99133062 2.3886228
2.3401232 8.06705 2.3512819
3.8408365 4.1833792 2.6546402
4.424221 2.3801134 2.0857356
2.3827896 7.6852956 2.1654553
3.7803378 4.2910404 2.2645702
4.3540359 2.7933278 2.3675385
3.8484046 4.1002717 2.1934814
3.8792171 3.9089296 2.1686466
3.1543515 5.3850713 2.1736884
2.7086439 6.3982153 2.1923933
2.6404111 7.370265 2.4667385
3.4647856 4.3870153 2.1702895
4.1116362 2.6180882 2.3890803
3.1362803 5.3049884 2.1961913
4.4010344 1.9038604 2.4589453
3.5862887 4.4420443 2.0901623
3.8566623 4.0021276 2.1615925
3.6336274 3.9834199 2.1217463
2.3050721 8.0963869 2.2754998
3.6862197 4.2247443 2.0379577
3.9931788 3.692539 2.356452
4.3451099 2.4992037 1.987844
4.3991256 1.9011067 2.3611271
4.4008632 1.9080194 2.2627625
3.9480028 3.1980293 2.2743034
3.2687175 5.2797384 2.5351005
3.2021103 5.2797589 2.5334978
2.3701982 7.7882304 2.1799235
2.3417079 7.3786206 2.1752207
3.1724136 5.3274584 2.4604847
3.1317921 5.4218645 2.3121345
2.6196666 6.4073405 2.231806
2.4692528 6.9992533 2.2655203
5.0564246 0.98537588 2.5725551
4.4913473 1.7029021 2.3628385
4.5114307 1.623595 2.5637324
4.0418115 2.9812837 2.3524005
4.0462608 2.6875668 2.7429466
4.0987091 2.6957998 2.3618319
4.0718679 2.7988336 2.3529196
3.4524004 4.8728342 2.0999029
4.4877272 1.6227472 2.2635953
3.2394691 5.0029297 2.2690976
4.4970293 2.3149354 2.4475543
4.503695 1.619241 2.3556592
4.5049224 1.6071293 2.451571
3.168164 5.5974655 2.0928836
3.5833395 4.4845796 2.0624592
3.937727 3.9078071 2.2690914
4.600153 2.0055444 2.2650666
4.5802016 2.1529956 2.1462986
3.9005625 3.9010592 2.2750595
4.0515585 2.8706479 2.5375891
3.1573687 5.3869886 2.2597704
4.6554384 2.0000908 2.2677319
4.6486578 2.0307446 2.1247153
3.8492413 4.0962582 2.2683876
3.8621576 4.0884156 2.3631773
3.7925181 3.5072532 2.1751928
2.7008586 6.6267633 1.9625285
2.9123964 6.2892532 1.6756314
2.5585129 7.4989157 2.6334696
2.9641967 6.0169368 2.1732519
4.5792074 2.1941533 2.3574393
4.6373134 1.7102727 2.2703497
4.0309958 3.0433648 2.5530818
3.5378356 4.4165373 2.1196873
4.6429148 2.0028145 2.7778723
4.5997925 1.9923109 2.3842068
4.3937736 2.7986529 2.7243276
4.7025933 1.1048347 2.2715356
3.2056746 5.0015011 2.3297036
4.3577113 2.7949295 2.5588894
2.850817 6.5164208 2.0877271
4.0479927 2.8878925 2.3565598
2.9814863 6.0142245 1.7364274
2.1370223 8.0828304 2.0667887
3.8107171 3.4160585 2.2761581
2.8173387 6.1108809 2.2932944
3.0852184 5.3348236 2.2839439
2.8417726 6.6044636 2.1882975
2.6741493 6.8965964 2.0620286
3.8562889 3.8150468 2.2660987
3.5330484 4.6600747 2.1430297
4.3559766 2.6700158 2.179137
3.5830789 4.4844813 2.141238
2.3772969 7.7325873 2.4384992
3.8902264 3.9899957 2.2650683
2.8569129 6.4166842 1.9727762
3.5935216 4.8043385 2.6669898
3.5797758 4.8122931 2.3539157
4.7145815 1.0035321 2.4401972
3.2782323 4.8689508 2.5159273
3.2875452 5.6220694 2.6768315
4.7051392 1.1059746 2.3618188
3.8930256 3.8976734 2.3534932
4.9915061 1.0273497 2.6757219
2.590796 7.3935208 2.2811439
2.8664246 6.3902516 2.0615926
2.7464733 6.58673 2.164722
3.8906577 3.9950929 2.3606813
2.6857705 7.2085915 2.6459908
2.7848303 6.1196876 2.3527129
4.5362854 2.3769491 2.6622164
2.8804669 6.6103868 2.7453985
3.7103088 4.2912345 2.2874479
4.7305794 1.2663627 2.1980708
4.3670845 2.4069877 2.3773041
3.2524893 5.1621232 2.3797965
3.8200035 3.3563306 2.3250544
3.9090481 3.915364 2.4461138
3.4440069 5.1899838 2.258801
2.525743 7.6489453 2.2947402
3.3516421 5.1221066 1.8564026
3.592391 4.7121758 2.3386598
2.4989419 7.4279709 2.4300592
3.2646239 5.2132134 2.2346749
2.608233 6.6122999 2.3511379
2.6101189 6.6214504 2.2509637
3.5836167 4.8106532 2.2782323
3.4551742 5.2058868 2.1943252
3.907891 4.0108237 2.6668768
3.4718142 4.2304096 2.4459269
5.0076923 1.0220373 2.5454578
2.6564136 7.291718 2.6679626
3.1572583 5.9756293 2.8720586
3.0138259 5.9981308 1.8730159
4.3831725 2.6983755 2.2684658
3.5879972 4.7083907 2.4785817
3.8946295 4.002347 2.4624305
3.1272769 6.1090512 2.3285332
3.4620807 5.1802216 2.6447699
2.6666503 6.4220481 2.1084783
3.4055138 5.3158922 2.6772113
2.7598872 6.4796357 2.2697065
1.9413562 8.6642399 2.7838244
2.4885354 7.6961417 2.5493958
3.5914333 4.4548845 2.3641412
2.5195539 7.0608821 2.1075406
3.1437116 5.5452132 1.860805
3.6966796 3.9501603 2.0218847
3.4501121 5.1968498 2.4612947
2.1045365 7.9390383 2.3700681
4.5166817 2.3278139 2.6497779
3.5968151 4.7205873 2.5571144
3.5514402 4.600625 2.3615718
2.7224712 6.2703977 1.9000683
2.1395888 7.8816719 2.2849796
2.882853 6.3067641 1.7677838
3.450814 5.1901765 2.3652589
2.5284932 7.3634868 1.9006877
4.2428455 2.388046 2.1570945
3.623287 4.8527479 2.6054547
2.6014836 6.9198661 2.1979411
4.2635832 3.0077696 2.7636247
4.1372724 2.6777172 2.360168
4.8459272 1.4919494 2.3697696
2.0092821 8.1289167 2.2895131
3.4664383 5.2077913 2.5813541
2.0952396 7.7948165 2.4035287
3.7008705 3.7254381 2.1926997
3.1331096 5.5466642 2.7580035
3.4115579 5.191493 2.730592
2.5867574 7.2118363 2.3721709
2.5497656 7.2535229 2.0613587
3.8073831 3.863039 2.6580737
2.7094223 6.9217615 2.8520377
3.3556728 5.4792447 2.5645516
3.9044025 3.8090768 2.4327533
3.9384322 3.5996809 2.0562162
3.3555753 4.79915 2.3544631
3.7419908 4.6519918 2.3169644
2.0157666 8.0989714 2.4402578
4.3863287 2.7012234 2.6582475
2.5509894 7.5721922 2.7620661
2.9916439 6.4120154 2.7872281
2.9620712 6.4741392 2.8300295
3.0822597 5.1562943 2.3522344
3.1385887 5.4588528 1.6289935
3.2651138 5.4058933 2.3479552
3.0786066 6.097785 2.3521836
2.7136574 6.3441992 2.3744707
2.9106717 6.2565832 2.1695144
4.460331 1.7961918 2.2674725
2.2048872 7.6923237 2.3463395
3.2571912 5.0792046 2.4470398
4.6955342 1.7932599 2.445118
4.4965582 2.3939536 2.6387751
4.4757366 2.2107515 2.6276596
3.140873 5.4875331 2.7578068
3.7849481 4.2885404 2.3474267
3.4230714 5.1251473 1.9126581
2.9718041 6.0957198 1.8868765
2.8653786 6.0844507 2.5726473
2.4822004 7.4896798 2.1727571
4.5999217 1.4094272 2.2640834
4.073164 2.5928521 2.6473725
3.80092 3.8612654 1.9645472
2.749351 6.9675941 2.9521658
4.4849777 2.4854684 2.7654877
4.7045565 1.8142828 2.2740531
4.5076828 2.3125813 2.5447569
2.4115407 7.5745692 1.8094846
1.9605572 8.2699728 2.7065299
2.8115015 6.6479197 2.5227356
2.4429626 7.1027274 2.4457271
1.9494609 8.3124361 2.7680156
2.4041152 7.6166129 2.3523173
5.0250773 1.0823686 2.5656078
3.4428134 5.0767851 1.9078974
4.0053535 2.9260108 2.354507
3.4769182 5.0777378 2.2578216
4.2413116 2.3795836 2.3618948
4.6554003 1.9900888 2.3596988
4.4701357 2.4950213 2.655581
3.2356234 5.9618134 2.4543257
2.6108308 6.8873544 1.9789469
4.6076097 1.3076216 2.2303133
2.3368199 7.5232248 2.3355408
3.0746727 5.3909292 2.3406692
3.2885051 5.1091251 2.1422908
3.3746998 5.1925683 2.160145
3.0681314 5.7983913 1.7239578
3.3818822 5.3923931 2.5552483
3.2338276 5.3715696 2.5253725
2.8952482 6.2040315 1.8867309
4.7364898 1.8594934 2.3027086
2.6820285 6.2905512 2.1413095
3.2668588 5.6956639 2.5604708
2.7426066 6.4502344 2.3383508
4.2895837 2.7989674 2.2618959
3.1229956 6.0975475 2.6553476
4.4834032 1.7031265 2.5485859
2.5739336 6.7999635 2.2751124
3.7882583 4.2978835 2.555052
3.5019267 5.0252728 2.6287293
2.3453119 7.3766575 2.2761114
4.5098772 2.3290329 2.3529966
3.6056423 4.5412078 2.3052118
4.6377497 1.2860762 2.5400019
2.9630134 6.3831577 2.4395325
4.9504972 0.9450717 2.4822383
2.3868809 7.2118564 2.3514452
4.7133017 1.0273997 2.5504572
3.6630445 4.0015893 1.755816
2.6501746 7.0177908 1.9207457
1.9502761 8.2659883 2.6012599
4.3385043 2.3854356 2.3003521
3.2514408 5.096384 2.3629594
3.9229684 3.9766531 2.3519301
4.4976211 2.416966 2.5645294
2.4980481 6.7824264 2.0508382
3.8885152 3.3013852 2.1770859
3.0280495 6.0760908 2.1685972
2.2753556 7.5721822 2.462611
3.2025623 5.5915408 2.3614793
4.7105923 1.0420493 2.4061701
4.4281483 1.9764829 2.3011365
4.4953365 2.4062958 2.4624605
3.9039702 3.99125 2.7387609
2.315933 7.8986826 2.2306604
4.1109233 3.33882 2.6612017
3.1562848 5.9813023 2.3638082
3.5504997 4.1140227 1.884516
4.1120014 2.594399 2.2991817
3.7525449 3.6692288 2.184552
4.4471984 1.7941399 2.5507176
3.4016094 4.8128433 1.8114859
3.3136401 5.3850594 2.4878623
4.6084113 2.1062844 2.5483758
4.6337814 2.0709147 2.2812524
4.5967393 2.1052227 2.275466
4.1088281 2.6302075 2.4496813
3.564394 4.1026926 2.1562548
4.0841775 2.5893934 2.5872591
4.6970429 1.1000572 2.556576
4.3069105 2.8873274 2.6507308
4.5927448 2.0874283 2.1590126
3.3671541 5.3840427 2.3672647
3.4373498 5.0033073 2.0007131
2.4021707 7.5818491 2.1292737
3.2805507 5.0648379 2.6795435
3.337009 5.479322 2.2799852
4.3701091 1.8935589 2.6803706
2.4025505 7.4920692 2.6238458
2.7136734 6.4184084 2.2734542
4.4592366 1.79327 2.363565
2.638278 6.9951758 1.8031019
3.8889918 4.0023217 2.5582302
3.7626903 4.2686405 2.1727655
3.6512332 4.3831301 2.04862
2.521378 6.6971092 1.9148314
4.2764473 2.993947 2.2699528
3.6558549 4.4086261 2.1559658
2.6662457 6.5650921 2.287081
3.2511632 5.7571273 2.7380285
4.5875916 2.2046871 2.6573551
2.9741507 5.7529764 2.6840434
4.5755706 2.2008784 2.2752934
2.9645288 6.4826407 2.7817903
3.5655029 4.8954964 2.3693454
3.34904 5.4660168 2.7820818
4.0841389 3.3884683 2.1423233
3.4728181 4.821991 2.0939825
2.680449 6.3862014 2.5596731
3.5783026 4.0916338 2.3370469
3.6995926 4.5149884 2.58318
3.7983842 4.205092 2.4740188
3.8131189 4.2897401 2.7610128
2.4794064 6.8398304 2.2392066
2.3753469 7.7034745 2.0659578
5.0446997 0.99405009 2.4821401
3.8444407 4.1914701 2.4550757
2.7998779 6.1316757 2.1706886
3.2225513 5.7885838 2.8130989
3.084379 5.9133763 2.3841317
3.1901515 5.7933941 2.3487866
3.6304226 4.7535 2.337549
3.6670601 4.4005013 1.9631766
3.785284 4.1094613 2.1930959
2.2427077 7.4868217 2.7351711
4.4888835 2.1564424 1.7984601
2.3993161 7.2069607 2.267946
4.7039814 1.3622288 2.6853948
4.1033916 3.4040947 2.373013
2.9396091 5.8242283 2.2008996
3.6651103 4.6005754 2.3469534
3.5627618 4.1838732 2.2708042
2.982121 6.1139593 2.2400851
3.0302744 6.3058004 2.6269367
4.3661675 2.7812588 2.4628103
2.1371593 7.9939537 2.3536975
3.1423945 5.5720091 2.4874544
4.5421534 2.3911202 2.7710476
3.0461438 6.223947 2.5675838
2.4952888 6.9221802 2.3574581
2.6806297 6.3442464 2.0984545
3.1423798 5.6341419 1.926527
2.5838318 6.5293541 1.9020264
2.6742344 7.1155033 2.3604496
3.3803518 5.5276561 2.204833
3.0466228 5.4746089 2.3295636
2.9561684 5.7929397 2.2729146
2.8738916 5.8838458 2.5142832
5.035378 1.0075904 2.3558252
3.6340246 4.7749043 2.4757855
3.6002836 4.3895144 2.3028383
3.2040458 5.782691 2.6549802
2.4421384 7.504961 1.7981153
2.452847 7.1013947 2.3538942
4.6296549 2.152698 2.4475152
3.3371501 5.4863095 2.3595157
4.323698 2.9812872 2.6110771
2.8616509 6.0042019 2.4669805
2.974679 6.2812791 2.4587994
4.7265048 1.8621604 2.3566694
2.692867 6.5235124 3.1024292
2.8896663 6.4119968 2.2357421
2.9518299 6.2038698 2.8537886
4.0158958 3.3896232 2.1265311
3.2213044 5.8504305 2.3658178
3.1382887 5.7957301 1.9075691
4.5160584 1.9756544 2.8037453
3.1558876 5.7707181 2.1602676
2.3219407 8.1516409 2.4410012
2.630192 6.6960654 2.2727237
2.6632299 7.1896939 2.4532411
2.414422 7.8018122 2.5169458
4.7336931 1.8744153 2.6535907
2.9902735 6.1248016 2.451632
4.7412434 1.7833223 2.4728055
2.5905223 6.6249542 2.557832
3.6837797 4.5017686 2.2784915
4.8280621 0.87924343 2.4518094
4.8294864 1.5805845 2.5681102
2.4511466 7.5010409 2.0777812
3.4616318 4.9739189 2.0899787
3.275677 5.7526207 2.6346462
2.4705884 7.6823373 2.2624509
2.76403 6.3992367 2.4451725
3.3354244 5.2234821 2.0736547
2.6508031 6.6361532 2.2081802
3.2380583 5.4831266 2.0719609
3.94365 3.8977745 2.4710324
3.2832482 5.5933881 2.3571966
2.9981582 6.1043935 2.1824553
4.0905309 3.3159006 2.3426166
3.2368877 5.8494263 2.4631279
3.2967768 5.2285328 2.0368836
3.5191727 4.9453306 2.4627469
3.0251424 5.7233181 2.5877278
3.3998337 5.42171 2.7986991
3.7831862 4.1108007 2.357568
4.1379781 3.3897419 2.4719784
3.7754755 4.0783863 2.0653553
4.2150745 3.0796514 2.4926653
3.8550954 3.4015923 2.1635842
2.603327 6.57968 2.6306179
2.7306135 6.2786589 2.5540631
3.2839341 5.5362082 2.9595902
4.8073144 0.81168914 2.5487788
3.0527349 5.899837 1.7369382
2.3207004 7.9237819 2.1230388
2.6771262 6.9919348 2.2537508
4.7355113 1.4109607 2.5789282
4.0555177 3.0980008 2.5808787
4.0274291 3.6884222 2.2993031
4.0095816 2.9159389 2.2710309
2.5947301 7.1078701 2.2534666
4.126256 3.391192 2.2614374
2.6682706 6.6009326 2.3599615
2.3377297 8.0780172 2.4510634
2.4689589 6.9812431 2.4587913
4.095561 2.5160561 2.6456537
3.3807263 5.0031347 1.8832226
4.4884534 2.1890676 2.3783157
2.0394607 8.2239113 2.9721842
3.0572321 6.1903229 2.3525851
2.7659304 6.4573689 2.6392708
3.2587361 4.78333 2.0020273
3.3084576 4.811038 2.133285
3.8592603 3.9235506 2.5357656
2.9613643 6.2062111 2.4810829
4.0476632 3.5985408 2.2807667
3.0695348 6.1304579 2.7333124
3.8731344 3.3929627 2.4745851
3.1886103 5.8101954 2.2829239
3.2715483 5.4266524 2.1005557
3.268194 5.381175 1.9638696
4.7244735 2.0402198 2.65888
3.8996074 3.2174652 2.2829235
3.798954 3.9976709 2.3119833
2.899776 6.524662 2.3384066
4.5187688 2.1407921 2.4389932
4.0969243 2.4847403 2.5541885
3.010504 6.2648406 2.7130864
2.7615399 6.2773438 2.2721179
2.0622492 8.0886345 2.7740412
4.6367102 2.0752313 2.4697723
3.4901681 5.0082703 2.2772777
2.7895317 6.8149385 2.4684234
4.3492179 2.087785 2.2741845
4.2991748 2.8963675 2.3620765
2.8777368 6.5991383 2.2686496
4.1403518 3.3886471 2.5633156
2.3257582 7.3874073 2.5661118
2.0839007 7.998621 2.4422112
2.9294772 6.5537453 2.2620416
4.8349662 1.5967802 2.7691102
3.1773441 5.5989079 2.2625394
2.4771299 6.9973011 2.7504432
4.2305417 3.1684988 2.6435776
2.7039614 6.3919668 2.3424256
2.8888843 6.5949769 2.6600828
2.5570495 7.0855136 2.3316565
2.5635955 6.7219734 2.1244223
3.0150352 6.3240962 2.5683961
2.9944396 6.3903513 2.6484611
3.5003824 5.0179024 2.5464988
4.3396611 2.8908916 2.6545286
3.9094219 3.4739044 2.4566219
3.5407541 4.976368 2.3738732
4.0756483 3.490571 2.2718904
4.335516 2.8724864 2.2853322
4.7360992 1.790032 2.3723745
2.7786911 6.6940994 2.2562828
2.1946299 7.6859312 2.6980693
2.7659974 6.2607727 2.4850225
2.4935064 7.4547777 2.5479388
3.3317921 5.5785456 2.5540891
2.9140077 5.7725534 2.4581308
3.0611358 6.0058322 2.3478613
4.693531 1.9032352 2.4706044
3.1352534 6.3990889 2.4053142
3.3321419 5.6153045 2.627383
2.0407813 8.1018486 2.8416817
5.0375352 1.065174 2.4883807
4.5039062 1.6104958 2.6513891
3.5999098 4.6281109 2.5598536
2.9705656 6.3973718 2.3565309
2.7798164 6.8924637 2.3542855
2.8539979 6.7064095 2.3521051
3.2314861 5.753099 2.3853333
2.9748981 6.3818221 2.2709312
3.0324388 5.5513325 2.333468
2.3835421 6.8374305 2.3488569
2.9842896 6.1881385 2.6757529
2.3457627 8.0046911 2.5465837
3.2911713 5.4967322 2.2602048
3.3994813 4.993504 2.1151006
4.4893093 2.1720665 2.4436221
3.4934466 4.9094138 2.3578525
3.4024169 5.3022852 2.4551487
3.1388743 5.6773849 1.9788083
1.9852725 8.1863003 2.5830636
3.2410975 5.2551317 1.736159
4.7949719 1.5923734 2.2752407
4.7540617 1.7987094 2.7633884
4.0744309 3.6688619 2.7668664
4.5493112 2.2942991 2.1629112
4.1647534 3.2900774 2.3609636
4.4132442 2.2349389 2.9988132
3.1038771 5.7054167 2.0860968
4.6029449 1.8184205 2.2875268
4.0787029 3.4924741 2.3518629
4.1403313 3.3991425 2.6628752
3.3405166 5.4915309 2.462214
2.8820913 6.6009192 2.3544374
2.759959 6.1999793 2.5791495
2.9035542 5.783917 2.6478891
3.0767214 6.0856605 2.4575098
4.0533552 3.326118 2.5568042
3.0019817 6.0408392 2.2729874
2.6947343 6.3770518 2.6681519
4.8497639 1.5060189 2.5501003
3.9160225 3.6915226 2.0614042
3.0523064 5.536571 2.48647
2.0110421 8.1984262 2.4466653
3.6618891 3.8888071 2.1730475
4.3373976 2.1841202 2.4607527
3.0552533 5.4873767 2.2706864
2.0230341 8.2355556 2.8459468
4.3230925 2.9469688 2.6606617
4.2514954 3.0889614 2.7588925
3.1923308 5.8566055 2.1849074
2.6595368 6.5599089 2.7645767
2.9941819 6.3901181 2.5714025
2.5024779 6.9073734 2.4589703
2.6720982 7.5029716 2.3496594
3.8485577 4.1760755 2.5587854
4.5892491 2.1081848 2.3729634
2.7418499 6.3013134 2.3644383
1.938431 8.283864 2.8811672
2.5973992 7.1067185 1.9398746
4.0043235 2.918438 2.4426489
4.4575109 1.795065 2.4590662
2.3727105 7.4846153 2.5899148
4.7362933 1.0872403 2.3709884
3.8657804 3.4745123 2.5782392
3.0894852 5.7902594 2.0737355
3.2347279 5.7823672 2.4645178
2.7891953 6.1984892 2.2832975
2.2404659 7.6847978 2.3429127
4.7442565 1.8059727 2.5648787
2.9368751 6.2680879 1.9932271
3.147275 5.2910552 2.327841
3.9337397 3.2621069 2.2686119
2.2052894 7.5619392 2.5914595
2.9296756 6.5776649 2.7797272
2.3289237 7.3898559 2.4392915
3.9720368 2.8857026 2.6682878
3.0362153 5.6760259 2.2651699
4.0355091 3.6778178 2.3502669
3.8727176 3.2722104 2.4464688
3.0436783 6.3000884 2.4557548
4.5426116 1.5833892 2.5391335
4.3523111 2.788769 2.2709117
4.3400249 2.079257 2.548996
2.544687 7.5817566 2.3584931
4.4887557 2.2064366 2.8746455
2.8095407 6.8143206 2.3493962
1.9900903 8.1654863 2.7066066
4.1869597 3.2063842 2.3598607
3.9932318 2.9130969 2.5678117
3.3776517 5.1187387 2.3711874
4.2339253 2.3900707 2.4531209
3.2929227 5.3011694 2.1458623
4.3536763 2.3441775 2.735389
2.7693734 6.7311335 2.4622607
2.4340544 7.5806203 2.1570895
3.0850801 5.3916154 2.2691617
3.264184 5.587111 2.2619066
2.9346166 6.5592127 2.6714501
3.8555059 3.482399 2.2595248
3.3160946 5.5324965 2.7254617
5.0458527 1.0558906 2.7732487
4.4571657 2.0037234 2.8335721
2.5730624 6.6585417 2.8346221
4.0109096 3.400382 2.2832704
4.0417576 2.8892481 2.4499698
4.8632045 1.45605 2.8854461
3.0691938 5.9738393 2.2545218
4.7106256 1.8142657 2.3615074
2.8940558 6.6056218 2.565732
3.3410051 5.1777887 1.8709327
3.2426691 5.6940956 2.2755423
5.0463777 1.064639 2.6713102
3.2238784 5.8062458 2.1791215
2.2960355 7.4215961 2.4523799
2.1564269 7.9122834 2.1022041
2.4105601 7.5355296 2.185879
2.7788308 6.3016424 2.1895816
3.0998704 5.4030905 2.4805384
3.2779825 5.3090482 1.8781545
4.2782931 3.0178683 2.1720381
2.256969 7.4761724 2.5668561
4.3983927 2.1931496 2.6954851
3.4830446 5.281939 2.7295818
2.7556741 6.9770188 2.358043
2.0625057 8.0914392 2.3603075
3.1706858 5.1874633 2.342701
4.1386681 3.3832335 2.3686662
4.0632415 3.3176763 2.4437561
2.0938745 8.0014896 2.3516212
3.9306569 3.274539 2.3466411
2.8126168 6.5227385 1.8905432
4.3332453 2.8732533 2.464587
2.2797191 7.4971299 2.4410176
2.5336249 7.5821791 2.5635703
4.8644085 1.4853901 2.7564275
2.6468878 7.0464516 2.0716908
4.3368416 2.1832907 2.3702123
2.745271 6.3928509 2.2731197
2.4939752 7.5067177 2.3643484
3.0133052 6.0158792 2.0383656
3.0596988 5.6182199 2.4564779
2.4748709 7.7034369 2.3574016
2.0111189 8.1424017 2.5333731
3.2060814 5.7297926 2.4354944
4.8565636 1.4882567 2.6469274
4.0118289 3.2510271 2.4576809
4.6213951 2.1687951 2.572674
2.6255331 6.8932276 3.5136366
2.8742919 6.6877093 2.4553018
4.1056376 3.3285725 2.2880051
3.1955042 5.0630813 2.1339884
3.2354572 5.3914084 1.7924068
4.2318964 3.1818714 2.5799773
2.974154 5.6992621 2.3483183
3.2942281 5.5024247 2.3471582
2.809957 6.0754948 2.475714
4.7215633 1.9091202 2.7481313
2.2818153 8.1892967 2.3501828
2.4781933 7.3004618 2.3440557
3.2326508 5.3047361 1.9139787
4.5526133 2.2872872 2.4649532
2.6498084 6.4872146 2.6390035
2.5916305 6.6176739 2.7806911
2.5374446 6.7745175 2.7430577
2.2840173 7.4112453 2.647567
4.1354046 3.4842806 2.5766001
2.9234197 6.5632296 2.5225723
3.3922033 5.1997013 2.3574581
2.578454 7.3894124 2.3527689
2.7133942 6.3172855 2.4758019
2.5665901 6.6801248 2.6669922
2.2771316 7.4812355 2.6547327
2.2015967 7.6783075 2.4413664
4.0069723 2.7217503 2.6773894
4.4199977 1.7453898 2.3173771
3.0838268 6.0094481 2.4406319
2.3382385 7.3057599 2.4946756
2.5134635 6.7907124 2.7045274
2.2704282 7.5031509 2.3465562
4.2988424 2.9164686 2.2701013
2.0505643 8.1745157 2.3566997
3.4857538 5.0997372 2.5505936
2.1240966 7.8233995 2.7265573
4.0614524 3.5978472 2.5597415
4.0490885 3.5919435 2.3597293
2.194901 7.8055549 2.2877512
2.3586302 8.0050888 2.2810154
3.249172 5.7003446 2.3572636
4.2311921 3.1815302 2.4829025
2.855828 5.9916954 2.3588448
3.2843931 5.3026738 2.0515208
4.0678487 3.588567 2.6414194
4.9103136 1.4751172 3.132607
3.2601056 5.5395069 2.5562267
3.1790333 5.5093975 1.9211235
3.1885211 5.4621024 2.2773311
4.1301479 3.4559855 2.6614952
4.8184733 1.5317879 2.4826508
2.5631568 6.6944771 2.7501409
3.7143688 4.2897053 2.2028615
2.7353344 6.4376235 2.3570766
4.5464683 1.778486 2.7969837
4.1136045 3.4238396 2.6553345
2.5389738 7.5036607 2.2817521
4.6715317 1.9830848 2.6525278
3.4974899 4.2247763 2.2948439
2.9942393 6.315485 2.3547134
4.0005026 3.5118926 1.9058367
3.2476547 5.478065 1.8688052
3.289856 5.4988642 2.4705884
3.1697152 5.4586387 2.1580582
3.1477695 5.4538856 2.4842994
2.7603736 6.1741238 2.4930027
2.4257374 7.8617096 2.2829993
3.5339386 4.9721341 2.2582912
2.850873 6.026474 2.7028019
4.0535002 3.5974119 2.4619248
3.7743974 3.6950626 2.469775
2.1104269 7.9404211 2.6061568
3.067626 6.3626771 2.7813408
3.0853081 6.1848354 2.7813213
3.8303933 4.2857046 2.5696881
2.6419284 7.2890544 2.2959533
2.8588245 6.6878796 2.2758615
3.0256314 6.2779684 2.2751486
2.8981986 6.5025902 2.4331853
3.1913211 5.8148484 2.5564952
3.0226395 5.7510438 2.7949383
2.5715468 6.6933517 2.5854869
2.3580923 7.9839239 2.3555763
3.8370397 4.1871543 2.3833334
2.6375484 7.279644 2.3584359
3.407444 5.2134719 2.469377
3.1729646 5.6135912 1.8683068
2.9383516 5.712276 2.5177011
3.3064537 4.7147026 2.3601484
2.5254769 6.8159394 2.7105348
2.390944 7.8990078 2.3563328
2.8070273 6.0894752 2.5551081
4.4418206 2.3147717 1.8451124
3.8386703 3.730458 2.27352
4.6116962 2.0735166 2.8156974
2.5362124 7.5782108 2.4665358
2.7478297 6.9958048 2.4671297
3.1150968 5.1388636 1.9051325
2.4245257 7.8848991 2.5544667
2.3854947 7.9169226 2.4601653
4.1350856 3.4774477 2.7548447
2.3695881 7.1939473 2.8497956
4.4736195 2.4978447 2.5571105
2.7750492 6.8891253 2.4699204
2.6675415 7.1878986 2.2806187
2.1404293 7.8862085 2.4509096
2.5805547 7.3151112 2.4438486
3.8035426 4.2051497 2.5682559
2.1014638 7.9267864 2.4274924
4.4745502 2.4947257 2.4677515
3.2163312 5.4323335 1.9128551
4.1521587 3.3141813 2.1359377
2.8705096 6.5877237 2.4593143
3.5402181 4.985352 2.5507386
4.3858962 2.4195151 2.0909405
3.524049 5.0601506 2.375422
2.4876857 7.6923895 2.4639907
2.848099 6.2205567 2.3243532
4.0419092 2.6786551 2.6750946
4.066082 3.4240267 2.5647311
4.1081023 3.3910632 2.2844689
3.1799943 5.4592137 2.8122013
4.6618338 1.993006 2.4656899
2.3708391 7.8876586 2.2763174
3.1563611 5.7696486 2.0477991
4.3939238 1.8162482 2.301311
3.0361781 6.2986927 2.3655639
2.9403055 6.5079155 2.4729798
4.8906951 1.3042451 2.3681788
4.0952773 3.4093361 2.4559557
3.2708032 5.4980674 2.1936071
2.9686184 6.1991229 2.1940765
4.6387386 2.0855756 2.5374503
4.0419822 2.887573 2.2715859
2.593493 7.3112521 2.3524764
3.194407 5.8118243 2.7321606
2.1493721 7.879262 2.3355813
2.9811046 6.3080258 2.2857232
3.8279595 4.2565761 2.3768303
4.1291418 3.453187 2.4024394
2.886632 6.222064 2.2070389
2.5546284 7.4994321 2.4333246
2.7707858 6.3818674 2.8609111
2.3729658 7.9947658 2.4492579
4.3461461 2.0892944 2.462146
3.3896964 5.2274542 2.527755
4.1889381 3.1041689 2.3594737
2.4813855 7.6031237 2.3782771
2.6616299 7.2054367 2.3519228
3.1094508 5.802876 2.3733156
2.2936809 7.3841496 2.5630274
2.6411099 7.2902141 2.4764788
3.6944818 4.5016351 2.3614674
3.5027032 5.0863395 2.6542938
2.4870799 7.6127081 2.4345412
4.2002363 3.4738679 2.1090701
3.6926777 4.0755091 2.2853098
2.8353724 6.4079547 2.6387601
3.891454 3.6653368 2.3603165
4.3853183 2.694267 2.366653
4.4157181 1.8205721 2.5410883
4.3398852 2.0636659 2.6457202
3.0063224 6.2195907 2.3802204
2.4245219 7.1895847 2.472127
3.8016045 3.5193248 2.3403869
4.4163151 2.5071883 2.1492195
4.860199 0.85417926 2.5855486
3.776154 4.2003183 2.1677761
3.8290608 4.1808701 2.1976881
2.0347672 8.1786489 2.4317758
4.4104977 1.7956551 2.3636529
2.1796818 7.7885275 2.3679643
3.8007321 3.5071383 2.2515073
4.4448876 2.5818202 2.2567022
2.9934289 6.2003393 2.2659571
2.4217036 7.866858 2.3997695
4.8361259 1.5622482 2.6606448
2.2263122 7.6569128 2.4538908
3.9035449 3.2089579 2.4403384
3.1862419 5.5450659 2.5742228
4.5290308 1.9054101 2.2158527
4.5091209 2.2363873 2.7363338
4.5435009 1.5827261 2.2586684
3.1841655 5.1099744 2.3220196
4.2819901 2.9846902 2.3542099
2.273315 7.5694876 2.348707
4.5263176 2.1344969 1.7844157
4.1446152 3.3688223 2.0605302
3.0306954 6.1580939 2.9029126
2.4306009 7.8703871 2.4529979
2.7125921 6.3269873 2.5500855
3.4751649 5.1191034 2.2036986
3.5933084 4.7961574 2.4597681
4.3021493 2.9087603 2.5662446
2.9468966 6.4802666 2.3588438
3.1500149 5.5696211 1.7683461
3.6803439 4.597374 2.4763541
2.2105157 7.3647242 2.0999174
4.3853745 2.802635 2.8381777
4.1603808 3.3006728 2.0798504
2.76038 6.7073002 2.1572959
2.0796461 7.9453211 2.6392159
4.6696134 1.3732364 2.5125482
2.6506667 7.1018987 2.1646934
4.29633 2.9388967 2.79228
2.3928165 7.9010773 2.5560431
2.7261915 6.9055786 3.1707056
3.5017674 4.8386588 2.3575985
3.3487308 5.50735 2.8930244
3.3588533 5.5138831 2.6740654
4.2404518 3.0901177 2.4647894
3.5143571 4.8226142 2.2288015
4.5791535 2.1437171 2.0845444
3.6820447 3.7242944 2.2941897
2.9616122 6.4772806 2.5321093
2.724134 6.5919652 2.9655759
2.7976236 6.6091909 2.3932254
3.6229506 4.4332867 1.8730102
2.642894 6.4973364 2.5806813
4.5508137 2.2945867 2.3546486
4.2549181 3.0849905 2.2765162
3.662421 4.5918117 2.2684975
2.6342211 7.3935432 2.4003692
2.9028988 6.385047 2.4636376
4.6581316 2.0007949 2.55549
2.3016658 7.9352522 2.452157
3.6663539 3.7521238 1.9620203
3.9128547 3.8039951 2.3165526
4.2993689 2.9144266 2.4714718
2.6804206 6.7690425 2.6318159
3.6657515 4.6166735 2.1396317
4.1903806 3.2101688 2.4608438
3.8318784 4.2506523 2.6572807
3.6932344 4.4120979 2.2790065
4.0601044 2.8165185 2.5435488
3.4073982 5.3065863 2.5496726
2.8893123 6.3123059 2.2552106
4.7521324 1.1860762 2.3590512
2.7074451 7.0745068 2.6335607
2.774955 6.9911499 2.6528413
2.8432558 6.3994436 2.8388746
2.4349458 7.5787416 2.0703146
2.552876 6.7463284 2.1835113
3.7810409 4.3830538 2.7573636
3.8020325 3.8820186 2.2309134
2.4011323 7.1845798 2.4482703
3.7172883 4.1762538 2.3598149
3.4994144 5.0099831 2.4494743
3.1671288 5.8983517 2.6833985
3.2155149 5.6470919 2.9630697
4.4000444 2.396184 1.8514296
2.8397393 6.084435 2.3490648
3.0612044 5.2706847 2.0192623
2.4627907 6.9146113 2.0433474
3.0137434 5.6621733 2.1803684
3.4517391 4.4895663 2.3381543
4.6915655 1.8324783 2.770617
2.8895643 6.3160095 2.0636969
2.4062488 7.5966692 1.8125639
3.3024514 5.3725071 2.1658692
2.7556088 6.614398 2.4291954
3.6420398 3.9991915 2.3347852
2.7968552 6.440268 2.1546242
3.2755296 5.7322192 2.8575854
3.4962702 4.8568354 1.9876581
1.9149486 8.3121185 2.7731872
2.7536237 6.1882319 1.8819367
4.1553693 2.6078916 2.0760257
4.6986575 2.0293622 2.8691683
4.3900828 2.7034109 2.5520501
3.2999401 5.1817689 2.1310248
4.5411315 2.2728279 2.8116338
4.4965572 2.3910949 2.3697629
3.2873781 5.3863912 1.8613589
4.4871817 2.3089116 2.2768943
4.5010695 2.404798 2.74841
2.3156931 7.6018219 2.5155945
3.2625813 5.3955245 2.2596018
2.1295114 8.0466528 2.5638561
2.1640346 8.0723944 2.3697636
3.5641668 4.2678838 2.5142393
2.786701 6.3655152 2.5588362
4.4495168 2.3407893 2.0853693
3.933465 3.9663408 2.5500877
4.6079049 2.0345054 2.7721064
3.4285023 4.4873123 2.190798
3.3736091 4.7522287 2.1462953
3.1039903 5.5875459 2.5594029
2.1330945 7.8613801 2.7902975
3.0897591 5.5912881 2.6147876
4.8076582 1.6212288 2.6531808
4.2440119 3.0734737 2.1952059
4.577527 2.2033913 2.4726565
2.1367974 7.9929929 2.2663443
2.7011242 6.9337435 2.3522956
4.5976176 2.1184838 2.6674163
3.8442783 4.0573106 2.0932605
3.0744164 5.8731985 2.7646117
2.1519721 7.7958789 2.4604652
3.0938764 5.7151127 2.4567893
3.0421865 5.6491232 2.3438358
3.8765876 3.281708 2.3479888
2.9593961 6.0934563 2.3885291
4.5445147 1.591861 2.3706291
2.8808327 6.5000687 2.2552395
4.5648499 2.2732282 2.6631734
4.4481316 1.8698144 2.5747402
3.5957773 4.7978344 2.5608642
3.041338 5.5819063 2.2690258
4.0861983 2.5392492 2.5018842
3.5900865 4.0852709 2.2820325
3.336195 5.5705757 2.7609723
3.2303481 5.1425018 1.9367783
4.9268007 1.3489356 2.5536227
4.2475257 2.3971453 2.2718213
4.5544109 2.292727 2.564471
2.7610855 6.6859713 1.7718396
4.5750003 2.005899 2.4567266
3.3220112 5.5648985 2.3824983
3.4319222 4.2346778 2.5960569
3.6886816 4.4057322 2.3355026
4.8301549 1.5771786 2.3607755
3.8868592 4.0901003 2.821275
3.4544721 4.4771838 2.2869356
4.3937535 2.719614 2.770442
3.6687744 3.8839855 2.2800157
2.8580613 6.503654 2.1512532
2.2527716 7.593811 2.2693751
4.3675847 2.3103199 2.5634551
3.5981226 4.5949335 2.2179372
3.5673652 4.9004159 2.648242
4.6349888 1.3795428 2.4516547
2.3924565 7.8049836 2.4550483
3.7906306 4.1993132 2.2617178
2.4832618 7.7026777 2.6657534
4.601531 2.1151257 2.4637764
3.7239416 3.769279 2.2670817
2.6185014 7.0596089 2.6922817
3.7553678 3.5985966 2.1533079
3.7623472 3.9655981 2.6676435
3.7826931 3.5975399 2.2674062
2.375452 7.812326 2.252538
3.7819092 4.1112466 2.2808816
3.0966551 5.5638685 2.8222098
3.3499904 4.7920728 2.2625184
3.7317739 4.1162167 1.9821202
3.1801028 5.8955975 2.4555297
4.4268603 1.9748875 2.3664103
4.4862132 1.9933819 2.48366
3.4249089 4.5778799 2.2019722
4.0286393 3.74739 2.4937189
4.6148753 1.0584896 2.4113219
2.4207578 6.8126025 2.3320298
4.6986613 1.103717 2.4580755
3.7956784 4.0255103 2.1893883
3.7580204 3.9854569 2.2545857
3.659575 4.3008728 2.0599883
2.5900896 6.7078562 2.3452241
4.4205499 2.1631384 2.6026504
4.5869083 2.1881561 2.5577137
2.3651459 7.3044257 2.3548117
2.5668917 7.2130375 1.9658066
4.4400716 1.8797921 2.3699589
4.7452211 1.8044733 2.6480324
3.4927053 5.0039535 2.3542657
4.4850373 2.1045001 2.6094997
4.500658 2.1137505 3.0447762
2.6966243 6.8656902 1.7958202
3.2084098 5.099544 2.2607553
3.167563 5.9117146 2.5488205
2.8300979 6.8675117 2.8603079
3.8092909 4.0783167 2.4381521
2.8727546 5.9906092 2.2739048
2.716562 6.61203 1.8842256
3.0496128 5.454442 2.0414436
3.881855 4.0893283 2.677141
4.3307471 2.9593771 2.4938824
3.0804737 6.1799049 2.6294408
3.0508926 6.2112455 2.2842243
3.2701266 5.3832507 2.879879
2.7368622 6.5011263 2.4725897
3.6813998 4.1743827 1.7663009
3.3034081 5.4322214 2.8051531
2.5074234 7.4787569 2.4648311
4.3472209 2.271436 2.2517157
2.7675693 6.595264 2.2278225
3.6538558 4.6712122 2.6451073
3.512197 4.6227899 2.5424507
2.6794357 7.1913252 2.5598207
3.6861777 4.5898504 2.6664491
3.1691608 5.8957486 2.2868669
3.1369314 5.362412 2.7599552
3.0595725 6.1985288 2.4472375
4.6676178 1.5228703 3.0429859
3.1349449 5.492054 2.6280587
4.1159916 3.5310128 1.9947222
4.0315557 3.6818769 2.4511287
2.4453168 7.5629554 1.8712382
3.08743 5.8267632 2.4417167
4.0414095 3.7528734 2.6637044
4.0456624 3.671093 2.6334522
4.8637552 0.9821198 2.6504285
3.4710491 4.8099923 1.8783046
4.1253428 2.8681676 2.3147955
2.433919 7.2601614 2.8348064
4.2910724 2.806406 2.4396932
4.0409331 3.6800549 2.5451441
2.4311213 7.5948257 1.9798813
4.0662351 3.5064096 2.1596222
4.0822434 3.5069108 2.6381555
3.7620959 4.0163345 1.7462217
2.8833168 6.0597858 2.4217374
4.6341138 1.3795949 2.3518021
2.4318371 7.1533694 2.3993237
4.4619365 2.1314864 2.7715418
3.0997882 5.8642826 2.4125559
4.1577978 3.2882881 2.2665105
3.1983726 5.4399996 3.0102251
3.8918333 3.1869256 2.2049983
3.9110074 3.2148209 2.3578203
3.2691629 5.2052107 2.4674158
3.8767917 3.2998929 2.2595391
2.9852657 5.9004331 2.6005154
3.0288801 6.2024603 2.1925237
2.763792 6.4636059 2.9294453
2.4976926 7.6143317 2.5761583
2.514667 7.3057537 2.1805086
3.1332219 5.3968368 2.4238305
2.4421127 7.6209455 2.6808639
4.9664211 1.3027387 2.8579051
2.5504942 7.1314344 2.5645497
2.4449401 7.1618371 2.2465849
4.4322829 1.8917258 2.442076
4.0711989 3.5024066 2.0731311
2.7519758 6.4940825 3.1911602
3.119251 5.6121459 1.9355851
2.470911 7.5892262 2.748661
4.0961642 3.4904776 2.5548573
4.4189315 2.2873745 2.9249923
2.9452376 6.282156 2.1824939
2.7279093 6.5293708 3.0513077
2.5636039 7.5043702 2.7843771
3.8692837 4.114193 2.7402203
4.4325213 2.074301 2.6159213
3.8724232 4.0951753 2.449508
3.8765001 4.0830793 2.5493555
4.7091742 1.5041497 2.6298695
4.4717894 2.3038487 2.1523688
3.975409 3.0021019 2.5496225
2.7315042 6.5688996 2.7345569
3.1677358 5.8961034 2.3481076
4.983356 0.85149932 2.6517284
3.7797897 3.3299108 2.5620253
2.8375723 6.1832929 2.2588098
3.0630016 5.9054461 2.667325
2.9587724 5.8830175 2.3266087
2.8229246 6.1887903 2.4357014
4.0158744 2.7359145 2.5256212
2.7089837 6.9083877 2.4583023
3.2255354 4.8650661 1.8107618
3.9378693 3.3932939 2.4446299
3.4712384 4.9108105 2.2649899
2.3783276 7.804296 2.3561993
2.9976492 5.6060662 2.3538475
3.7891557 4.2969031 2.4704149
4.3326683 2.2728891 2.3357465
4.2017779 2.4144111 2.3678586
3.1127486 5.8427181 2.2226326
2.8910363 6.3944731 2.1302609
2.6069598 7.1685133 2.5447955
3.4913681 4.0247703 2.3595314
3.6247985 4.7596736 2.2603593
2.5854344 7.2058868 2.1493642
5.0006227 1.0003629 2.4394348
4.5857267 1.9920142 2.161346
3.5539815 4.6129732 2.0702388
3.5910051 4.6964226 2.275209
2.9970489 5.4952955 2.3491223
3.8620088 3.3722162 2.2740481
3.847235 3.3788419 2.3335047
3.1819608 5.5312867 2.081286
2.562938 6.6216664 2.053679
4.5768924 2.0245523 2.5413868
3.1023293 5.6701689 2.168251
3.0916896 5.7795143 2.146282
3.0617852 5.8880062 2.2418933
4.9978538 1.0042161 2.3513694
3.510674 4.1235781 2.2763622
3.6349111 4.7262149 2.1906374
3.809931 3.3627927 2.1899226
2.6376462 6.9325242 1.6308309
2.5332994 6.7832036 2.0432472
3.5512347 4.2599263 2.349108
4.7580438 0.98942256 2.4527261
3.1392374 5.981452 2.274641
2.6729529 6.4205837 2.4702246
3.8010838 3.3447874 2.2994735
3.8549306 3.4941099 2.2097762
3.5197377 4.1165152 2.3206327
3.0633585 5.8845687 2.1450176
4.3371506 2.1786473 2.2746806
3.6837456 3.5138602 2.3626714
3.4345748 4.5620899 2.3979661
3.33676 5.5786347 2.4948757
2.6856155 7.0153031 2.3437788
4.3412418 2.8811553 2.3508077
3.0006776 6.0313015 1.6707416
3.2629783 5.6893735 2.4604833
3.5657911 4.1954021 2.3728366
2.573072 7.1886439 2.2652194
3.4315495 4.5782747 2.2646332
2.5661585 7.0380597 2.2783296
3.1296029 5.1780701 1.9593263
2.5027325 7.1961222 2.1626322
3.8660369 3.3756287 2.5434763
2.6766119 6.7713041 2.1613159
2.1745958 8.3192024 2.3908396
2.5929554 7.1608887 2.4960909
3.8402278 4.1611838 2.2609963
4.8509417 1.495038 2.465519
2.1725006 7.8758497 2.2015264
3.2579703 5.6845651 2.6519914
2.2345638 7.6938095 2.2820582
2.5404017 6.8834529 2.4148962
2.0467575 8.2271624 2.5685878
2.6268206 7.3780708 2.7748311
2.8532965 6.0954251 2.265177
2.749917 7.0849257 2.6623042
2.6367433 7.3641105 2.6122191
2.5417578 6.8751516 2.3523166
2.0683682 8.0933084 2.269341
3.9292753 3.9585149 2.2995279
3.1908481 5.2035832 2.190608
2.9755168 5.9492588 2.3231828
2.7792072 6.2159886 2.349175
2.6884339 6.5055575 2.271172
3.168915 5.2766604 1.9938329
2.5840297 6.7006211 2.2730591
3.0245023 6.4037805 2.3637722
4.7276011 1.8686388 2.5678692
2.6797681 6.5038099 2.3457875
4.4001322 2.6036587 2.4680741
2.6240435 7.3761802 2.5737722
3.6777749 4.5997195 2.5527122
4.0114675 3.4745688 2.4448359
3.9361713 3.9785507 2.4761901
2.6751888 6.885139 2.2464027
2.6541114 6.9020586 1.9802701
2.6299353 6.9931431 2.1524191
4.2302876 3.1535287 2.7577772
3.0330615 6.3816624 2.5456569
3.1425734 5.2963438 2.2812095
4.8282595 1.5796537 2.464206
2.4700699 6.9954233 2.3449097
3.9960959 3.5864887 2.4372361
3.2369289 5.0521965 2.3054605
2.7138891 6.6878462 1.6990498
3.9317529 4.057837 2.6253285
2.2419431 7.5845304 2.791213
2.8793869 5.9461741 2.5115335
2.0836816 8.1341133 2.5764008
2.2021234 8.0179195 2.4468958
2.4485121 7.7934842 2.4551287
2.4369578 7.7836761 2.3496106
3.2937517 5.475421 3.0562623
2.5488989 7.5768127 2.6578176
2.5795143 7.4033241 2.4502151
3.2712388 5.2825155 2.2545059
3.9289629 3.9701481 2.6853788
2.690412 6.8127365 2.0728917
2.5569484 7.2977781 2.1596289
3.1673124 5.187294 2.2824311
2.5557232 7.4931173 2.3483393
2.1990571 7.9045067 2.5330794
3.8610957 3.6077163 2.5687003
3.4562342 4.2237329 1.8506184
3.1735444 5.6271009 2.6806569
4.2989926 2.2234848 2.6346624
3.0985248 5.7307663 1.9503114
2.8608279 6.0228643 2.2083118
3.8727026 3.8043725 2.6924593
3.7800512 3.9251502 2.5678682
4.5810099 1.7104559 2.5395086
3.1444862 6.0714264 2.4672763
3.5599108 4.8956647 2.2917082
2.9872584 5.7752867 2.446358
4.6208506 2.0340233 2.1105466
3.1550021 5.9863029 2.459481
2.524981 7.5473986 3.2514753
2.6540661 6.8910856 1.8522809
2.4061744 7.0783525 2.2813199
3.2142794 5.4297462 2.0346553
