# .PCD v0.7 - Point Cloud Data file format
VERSION 0.7
FIELDS x y z
SIZE 4 4 4
TYPE F F F
COUNT 1 1 1
WIDTH 657
HEIGHT 1
VIEWPOINT 0 0 0 1 0 0 0
POINTS 657
DATA ascii
47.629818 45.730438 -0.52804494
47.840534 45.835068 -0.64479017
47.639286 45.77021 -0.66090345
47.694843 45.782932 -0.74964857
47.895973 45.858311 -1.3936536
47.829643 45.845333 -2.1230237
47.485863 45.726517 -2.0922849
47.213837 45.595402 -0.65824878
47.706947 45.757328 -0.85967278
47.807972 45.799129 -0.7833178
47.090858 45.510597 -0.69569433
47.12854 45.526684 -0.70497167
47.163387 45.558517 -0.74340832
46.992138 45.432705 -1.1300435
46.639652 45.335949 -0.96380669
46.549313 45.326298 -0.67952794
46.549713 45.304604 -1.1428244
47.667019 45.721405 -1.2344046
46.308411 45.255886 -0.65546501
46.666931 45.373558 -1.0554817
46.763573 45.383427 -1.0276713
46.276756 45.224182 -0.62128139
46.308823 45.274242 -1.0848703
46.814056 45.457397 -1.3592844
46.075558 45.188942 -0.82417011
46.099937 45.18689 -0.75914866
46.681602 45.403053 -1.1670351
47.152859 45.562103 -1.3494081
46.497421 45.350494 -1.6134998
46.806343 45.453293 -1.5382318
47.089066 45.553135 -1.4613769
47.073036 45.555508 -1.5203849
46.053291 45.171886 -1.1389167
46.519115 45.345966 -1.1800238
46.815453 45.456951 -1.8177801
47.169182 45.575119 -1.4463166
47.203583 45.598148 -2.039643
46.310398 45.249805 -1.6442878
47.820568 45.829739 -2.3056111
46.19371 45.217285 -0.83939415
47.612656 45.768711 -1.96727
47.670361 45.790344 -2.0735323
47.862495 45.855721 -1.8467995
47.883533 45.848618 -1.3069917
46.533382 45.324574 -2.5828352
45.550385 44.942539 -2.1773911
45.581211 44.968483 -2.1780014
45.661518 45.012558 -1.2282332
46.489372 45.346523 -1.7690657
47.095543 45.557938 -1.3221663
47.311825 45.63372 -2.3316269
47.340271 45.636021 -2.3376694
47.39328 45.671074 -2.0436735
47.553463 45.725006 -2.248661
47.726742 45.784393 -2.2391586
47.672688 45.780693 -1.5575862
46.175987 45.180489 -2.3213496
46.286877 45.258347 -1.4326218
46.577702 45.367451 -1.446894
46.563408 45.361179 -1.5128909
47.452732 45.685917 -2.365032
47.445442 45.709518 -1.9084438
45.690247 45.021828 -1.5572149
46.293316 45.257965 -1.7374643
46.36866 45.250004 -2.3394539
46.366501 45.283901 -1.6347635
46.581848 45.368137 -1.2296883
46.942368 45.471012 -2.3786385
46.999603 45.48999 -2.1515267
47.12225 45.531971 -2.4026864
47.183388 45.587395 -1.5421945
47.407364 45.660851 -1.9131203
45.862286 45.080242 -2.4861107
46.071796 45.173122 -1.4263407
46.127018 45.179752 -2.0608177
46.257099 45.255726 -1.9190928
46.377529 45.277443 -1.2207749
46.703117 45.378654 -2.3271732
46.78339 45.40918 -2.3629112
47.0821 45.524338 -2.3926659
47.106369 45.559589 -1.6534454
47.527359 45.710716 -2.0086961
45.579147 44.969666 -1.7437308
45.650341 44.987514 -1.4621744
45.670071 45.019684 -1.1776896
46.059536 45.133396 -2.3440714
46.062843 45.160648 -1.5250266
46.525372 45.327091 -2.0744181
46.634583 45.384491 -2.0788126
46.735168 45.425449 -2.2368937
47.084415 45.570923 -2.2612467
47.186314 45.576702 -1.1608994
47.276093 45.612701 -1.9561632
47.307697 45.650887 -1.7505755
47.611748 45.746536 -1.3766904
47.618397 45.772392 -2.0264444
47.691475 45.795437 -2.1393595
47.826981 45.852158 -2.2373819
47.860367 45.871387 -2.3355265
47.88649 45.854702 -1.6422145
47.953102 45.876778 -1.5477864
47.972012 45.889832 -1.6349986
46.218555 45.209995 -2.1947083
46.364193 45.269299 -1.5201224
46.605011 45.362747 -1.6550823
46.666283 45.39064 -1.5349849
47.163868 45.571152 -1.61783
47.890884 45.866646 -2.1344147
45.58197 44.973553 -2.0284135
46.030094 45.145782 -2.115108
46.073311 45.171307 -1.7325402
46.672661 45.383461 -1.6534584
46.775909 45.425331 -1.1250546
46.889229 45.472584 -1.7398931
47.023811 45.520878 -1.9945637
47.081955 45.55621 -1.7414265
47.17601 45.581978 -1.8405225
47.462173 45.676449 -1.4281218
47.504879 45.698265 -2.0278888
47.966949 45.897541 -2.0500531
45.515053 44.958344 -2.3213563
45.555927 44.97303 -2.2642066
45.57991 44.975742 -1.9319978
46.09193 45.169781 -1.8347657
46.172905 45.191689 -1.8950541
46.376831 45.288967 -1.9350932
46.371735 45.27005 -1.8093243
46.469444 45.301136 -1.9138298
46.601761 45.362343 -1.8300774
46.964966 45.501492 -1.9337345
47.107105 45.561317 -1.8618019
47.148628 45.58279 -2.1372223
47.23951 45.611729 -2.2129982
47.46035 45.690868 -1.8356847
47.68129 45.769882 -1.6399484
47.667965 45.769855 -1.9216223
47.770481 45.810135 -1.9505816
47.880356 45.864513 -2.0298529
47.885235 45.870453 -1.9375387
47.888577 45.863316 -1.7448111
45.698593 44.989876 -2.0453894
46.05365 45.13179 -1.8310463
46.165508 45.187031 -1.7722951
46.936462 45.45295 -2.198271
46.971199 45.47604 -2.0508292
47.189117 45.579296 -1.7379682
47.55645 45.715057 -2.1484771
47.634106 45.725853 -2.1675093
47.690338 45.741127 -2.264189
47.757122 45.805943 -2.1171346
47.843639 45.812775 -2.0298793
47.966843 45.880791 -1.9322464
45.573914 44.912773 -2.0259504
45.693558 45.007858 -1.7545292
46.145416 45.171478 -0.73661327
46.466675 45.278431 -1.1473016
46.500626 45.293335 -2.2237215
46.638702 45.351791 -0.70588863
46.936306 45.415112 -1.9276838
46.968716 45.426147 -2.3113508
48.078087 45.834789 -1.832469
45.563641 44.921913 -2.2770648
46.055096 45.111355 -1.2825235
46.09005 45.096199 -2.2538903
46.165165 45.192513 -1.631852
46.481728 45.240566 -2.3059611
46.62188 45.293884 -2.4813151
46.732044 45.342705 -1.8322672
47.030914 45.445129 -2.1694865
47.394783 45.592194 -2.1428142
47.569908 45.712418 -1.833182
47.766014 45.739113 -1.8427042
48.037193 45.825867 -1.7002481
46.373638 45.213749 -1.8121699
46.41124 45.227341 -2.2700555
46.668686 45.378983 -1.8402359
47.154736 45.524323 -1.9317386
47.524197 45.627377 -2.3234003
47.772026 45.797409 -2.0441875
46.042454 45.117313 -1.6076088
46.109283 45.127754 -1.4725814
46.17028 45.137913 -1.7605729
46.280979 45.220711 -1.6345556
46.380398 45.272884 -1.7376056
46.576328 45.307281 -1.5571094
47.039841 45.440895 -2.23806
47.203884 45.511013 -2.2199936
47.260899 45.54253 -1.9007796
47.435177 45.603859 -2.0948105
47.54401 45.635509 -2.1932602
47.604324 45.661133 -2.4693832
47.791813 45.737129 -1.9134142
46.096817 45.142941 -0.78675258
46.073296 45.114338 -1.7395062
46.137138 45.136932 -1.550753
46.175892 45.146553 -0.92096889
46.277325 45.19289 -2.2474587
46.354034 45.217628 -1.7343367
46.43174 45.237808 -1.8242043
46.566158 45.309692 -1.4315784
46.553947 45.278931 -2.4865205
46.685024 45.381119 -1.4496228
46.673897 45.325756 -2.1034639
47.058956 45.500546 -1.033955
47.063957 45.512783 -1.8499295
47.384991 45.60955 -1.9305234
47.575821 45.709538 -2.3601334
48.001957 45.822208 -2.0583963
47.949413 45.779137 -2.4500589
47.915428 45.758671 -2.5099206
45.858208 45.028534 -2.4552572
45.851349 45.014805 -2.2573526
46.054729 45.115608 -1.3432873
46.121971 45.139462 -0.93035489
46.164745 45.140228 -1.945577
46.243645 45.180672 -2.0432773
46.263897 45.211891 -1.9343802
46.441513 45.23777 -1.9426608
46.629364 45.307125 -2.0768392
46.77174 45.404003 -1.8253213
47.258816 45.542416 -0.95379239
47.25742 45.521118 -2.2850912
47.361996 45.61359 -1.99448
47.329052 45.548111 -2.2775838
46.066807 45.113857 -2.1099069
46.14595 45.138378 -1.6443942
46.061081 45.101566 -1.9449161
46.350891 45.206558 -2.047564
46.469215 45.292656 -1.6498851
46.429474 45.2397 -1.7724361
46.765724 45.40411 -1.7352451
47.091522 45.475784 -1.9476888
47.151619 45.497402 -2.0387235
47.168598 45.50264 -2.1512322
47.465042 45.633015 -1.7483984
47.781445 45.799206 -1.7430754
47.661385 45.720303 -2.0250902
47.870087 45.819309 -1.8170162
47.966286 45.875816 -2.1166453
46.489681 45.285362 -2.5412507
47.977123 45.795082 -2.6491799
46.175476 45.18203 -1.8353429
46.670059 45.357357 -1.945678
46.755436 45.383762 -2.0443997
46.690411 45.376408 -1.7413778
46.982788 45.491772 -1.8293
47.277023 45.597946 -1.7493303
47.274784 45.562782 -2.1634214
47.375351 45.60746 -1.7430505
47.47303 45.689495 -1.7228733
47.478977 45.687469 -1.5288285
47.637505 45.707485 -1.9477221
47.677227 45.779144 -1.7343765
47.772877 45.795135 -1.6376903
47.742367 45.730408 -1.6326802
47.986374 45.890167 -1.8257557
46.555656 45.310131 -1.3214539
46.494957 45.247505 -2.4665697
46.56316 45.319077 -1.9125651
46.676373 45.377571 -1.3313251
46.81908 45.409081 -2.1131151
46.771393 45.387871 -1.651039
47.191895 45.580032 -1.9036262
47.226562 45.5341 -1.627755
47.274433 45.579056 -1.6514596
47.650833 45.719982 -1.8161354
47.568886 45.690266 -1.6435715
47.760918 45.78817 -1.8319435
47.86256 45.820019 -1.9353235
47.778954 45.791401 -1.537051
47.966179 45.822578 -1.8192165
47.870659 45.794304 -0.94038182
47.968319 45.822273 -1.9128616
48.074963 45.903664 -1.9276381
46.171303 45.144474 -2.0949132
46.267666 45.192451 -1.8226457
46.188915 45.136093 -2.3731725
46.257313 45.200996 -1.7339622
46.965679 45.427097 -2.2205236
47.172649 45.527977 -1.77323
47.036213 45.449352 -2.2095373
47.158409 45.514133 -1.6377232
47.143475 45.483345 -2.313812
47.284077 45.6064 -1.8288786
47.468147 45.687729 -1.3419656
47.468876 45.625717 -1.8370057
47.565151 45.705036 -1.5504675
47.498745 45.63781 -1.9197319
47.560566 45.694851 -1.7371943
47.663971 45.712551 -1.7292391
47.973137 45.884296 -1.7238282
47.961277 45.811424 -1.6549803
46.263496 45.168514 -2.1603293
46.342476 45.189026 -2.3267696
46.426174 45.224785 -2.0289817
46.55191 45.294601 -2.2767093
46.670338 45.325775 -1.8383306
46.677353 45.317867 -2.2331007
47.266567 45.601608 -1.5319908
47.24707 45.521664 -2.0108473
47.305714 45.544434 -2.1073508
47.474628 45.675774 -1.6330225
47.535244 45.642754 -1.5170189
47.677261 45.70892 -1.6483847
47.764427 45.733509 -1.764345
47.957397 45.809299 -1.7138603
48.036942 45.833012 -1.5541639
47.966743 45.791325 -2.1256318
46.277039 45.172157 -2.3479674
46.431625 45.238342 -1.6787809
46.356579 45.20895 -1.9313078
46.557201 45.308945 -1.7299436
46.668633 45.365406 -0.93039298
46.778954 45.405243 -1.2326729
46.782585 45.418476 -1.5356601
46.731689 45.337631 -2.0509212
46.961437 45.472584 -1.2262912
46.942894 45.417778 -2.1629272
47.050564 45.478111 -2.1229095
47.568443 45.686974 -1.9345478
47.767029 45.730721 -1.4325643
47.672573 45.7057 -1.5425237
47.639004 45.618641 -1.4211076
47.775391 45.724316 -2.0061905
47.865379 45.800362 -1.7296169
48.029655 45.830196 -1.6283714
46.561516 45.286072 -1.8206049
46.657745 45.320904 -1.7276201
46.68417 45.322227 -1.9436092
46.779419 45.380363 -1.9611111
47.362324 45.60437 -1.6344236
47.973022 45.82502 -1.5397646
46.592648 45.3097 -0.9627946
46.659355 45.32156 -1.6632504
46.572117 45.305099 -1.628619
46.589359 45.315479 -1.2402864
47.081448 45.501503 -0.82391453
46.764629 45.386532 -1.44032
47.272484 45.589264 -1.446081
47.254444 45.531368 -1.739765
47.169918 45.518707 -1.8275274
47.365059 45.595562 -1.8399676
47.87376 45.797066 -1.5359154
46.764793 45.395813 -0.85353017
47.269104 45.567471 -0.8389625
47.181126 45.523087 -0.98112136
47.552273 45.69754 -0.75637245
47.444702 45.62793 -0.86945951
47.244217 45.528141 -1.5545349
47.761936 45.732613 -0.84528762
47.734352 45.718201 -0.72199661
47.295212 45.578762 -0.74435538
46.995319 45.47258 -1.136927
46.941216 45.43409 -1.0451339
47.755936 45.72958 -1.2495759
47.284191 45.563274 -1.2539266
46.977509 45.48101 -1.0663867
46.986145 45.470127 -0.7952621
47.870659 45.788742 -1.3250901
47.771183 45.716209 -1.3161466
47.683537 45.706593 -1.3407341
47.66869 45.694382 -1.4554429
47.574745 45.694202 -1.4553516
47.467934 45.618996 -1.5431013
47.38245 45.59671 -1.5272539
47.67086 45.729954 -0.84868878
47.275372 45.586468 -1.1542956
47.964912 45.796638 -1.06551
47.788582 45.73848 -0.92533147
47.676384 45.696049 -1.0376691
47.454971 45.621872 -1.1523808
47.27774 45.575287 -0.92485869
47.990917 45.819626 -0.94827968
47.871338 45.789261 -0.8406018
47.888573 45.771984 -1.0434134
47.82539 45.743099 -1.0477332
47.759998 45.720039 -1.049036
47.63475 45.710072 -0.61476719
47.473904 45.634178 -0.95641291
47.473995 45.627171 -1.2129265
47.447227 45.623329 -1.0152495
47.631054 45.725307 -0.68875808
47.773926 45.760578 -0.88363481
47.696789 45.763557 -0.93900979
47.676651 45.708305 -0.94594473
46.98737 45.463112 -0.74552196
47.050514 45.523449 -0.93051517
47.165363 45.574371 -1.0310287
46.189491 45.201603 -1.3293273
46.132149 45.197678 -1.0398302
46.177277 45.190235 -1.2436512
46.179214 45.203606 -1.1313827
46.179031 45.189098 -1.5484042
46.179539 45.182125 -1.4230381
47.964111 45.797573 -1.2352183
46.66288 45.329498 -1.3083454
46.688999 45.384995 -1.256579
46.67226 45.337219 -1.4723516
47.064243 45.492451 -1.3546935
48.044975 45.834606 -1.4411746
47.234673 45.533291 -1.2577758
47.866619 45.725594 -1.4385746
47.992584 45.875496 -1.4239674
47.041924 45.423779 -1.423901
47.056786 45.497871 -1.5351933
47.250015 45.535706 -1.3182545
45.593895 44.995171 -1.8225975
48.054943 45.826847 -1.3373013
47.251606 45.539333 -1.4115393
46.686043 45.349949 -0.79364109
46.578579 45.318008 -1.0227968
46.563023 45.359066 -1.3734851
46.578728 45.347538 -0.58605218
46.541443 45.291248 -0.8686533
46.565983 45.329075 -0.72357333
47.877197 45.866459 -1.060113
46.60038 45.347694 -0.84133214
46.589527 45.361549 -0.91174096
46.568249 45.349014 -1.0652231
46.584557 45.37571 -1.7717061
46.314011 45.209801 -0.84497422
46.279621 45.200336 -1.1343373
46.248421 45.20874 -1.3414177
46.310616 45.237411 -0.72895336
46.260052 45.217178 -1.224153
46.290901 45.175068 -1.0491109
46.269634 45.212112 -1.4332761
46.268875 45.215649 -1.5440968
46.020435 45.107948 -1.0762434
46.274239 45.252636 -1.8086494
46.084354 45.176662 -1.2190002
46.073349 45.174389 -1.3116233
46.05262 45.161655 -1.0030451
46.038948 45.155472 -0.90657157
46.283119 45.253258 -1.5579346
46.38834 45.2631 -1.1340492
47.945717 45.809258 -1.1219993
47.063095 45.501362 -1.6422343
47.968521 45.813229 -1.3290188
47.672997 45.766151 -1.1984792
46.352192 45.269859 -1.4278357
47.07922 45.501175 -1.748075
46.368744 45.26519 -1.0277677
46.376797 45.290356 -1.3322088
46.346592 45.211967 -1.3718179
46.393265 45.228783 -1.4198385
46.368828 45.215828 -1.6436479
46.353943 45.219322 -1.516963
47.963219 45.824909 -1.4339646
46.400963 45.237431 -1.2605455
47.680691 45.763714 -1.4394628
46.341724 45.229824 -1.1070255
46.350811 45.207397 -1.0624545
47.164589 45.514297 -1.2686085
47.452347 45.614635 -1.453395
47.477631 45.614521 -1.3761661
47.752628 45.724548 -1.5327541
47.775105 45.780148 -1.3279901
47.811153 45.85339 -1.43779
47.87096 45.798923 -1.4271002
47.778023 45.78381 -1.4501975
47.770535 45.783234 -1.1469117
47.764797 45.782604 -0.93877822
47.769287 45.762444 -1.0392823
47.778614 45.787735 -1.2495053
47.980305 45.852982 -1.1722008
46.968288 45.479645 -1.4316548
46.993969 45.486618 -1.728844
46.96714 45.495049 -1.6434815
47.994621 45.866283 -1.3393289
46.972923 45.485405 -1.5377297
48.080624 45.825191 -1.0162132
48.04314 45.82655 -1.1436962
46.376354 45.257797 -0.72663403
46.373802 45.255138 -0.64755225
47.871597 45.736259 -1.2418523
47.868793 45.766541 -1.1399044
46.943783 45.428753 -1.3637129
46.388165 45.232944 -0.9838413
48.003632 45.880234 -1.2391505
46.979034 45.487755 -1.3464831
47.974514 45.86898 -1.0466456
47.831116 45.738979 -1.161139
47.163654 45.571747 -1.1900719
47.150425 45.489548 -1.0638849
47.274696 45.577194 -1.0610535
47.555153 45.641666 -1.2180904
47.151146 45.510818 -1.3500295
47.769756 45.725018 -1.1483173
46.664398 45.331604 -1.5409592
46.058861 45.120674 -1.517985
47.656433 45.695808 -1.1390862
47.144203 45.508919 -1.4328746
47.173183 45.513382 -1.5214366
47.550972 45.639938 -1.1499164
47.85194 45.797245 -1.255439
47.368877 45.597775 -1.3308541
48.029362 45.816063 -1.2476323
47.706192 45.75766 -1.1368301
47.572624 45.680645 -1.2325169
47.893547 45.860458 -1.5436635
47.56786 45.685631 -1.150946
47.490139 45.66272 -0.94593847
46.977222 45.440128 -1.5486177
47.379044 45.620369 -0.85007524
47.483566 45.671539 -1.0339472
47.59343 45.756199 -1.4760854
46.82663 45.3708 -2.3782709
46.903229 45.411465 -1.9299351
47.662182 45.772594 -1.8462534
46.870674 45.430069 -2.275986
45.845158 45.014408 -2.0273666
47.387928 45.658905 -1.4200847
45.877518 45.018932 -2.3018594
46.805489 45.457928 -1.704903
45.886082 45.026897 -2.1478324
46.874313 45.464153 -1.8167431
45.790291 44.989716 -2.11483
45.969643 45.099232 -1.8363301
46.878632 45.474022 -1.6446508
46.487495 45.288147 -1.8424002
46.436405 45.265705 -0.81704688
45.983166 45.148315 -1.6991574
45.737976 45.013744 -1.837729
45.905937 45.042496 -1.7515547
45.75383 45.032948 -1.7476881
45.979542 45.098419 -2.3302188
45.979912 45.110947 -0.96668947
45.756718 45.039742 -1.3771321
45.941242 45.045425 -2.2508464
45.866444 45.0294 -1.8861983
46.853695 45.423561 -0.94541699
45.774414 45.033657 -1.6549696
45.78614 45.06192 -1.7234268
45.746429 44.998444 -2.2423716
45.796013 45.062992 -1.8284461
45.763184 45.048206 -1.3263712
45.982639 45.107033 -1.6458914
46.018284 45.070671 -2.2025375
45.95266 45.117439 -1.537818
45.793598 45.063118 -1.5629038
46.006645 45.141521 -1.0207224
45.770706 45.059196 -1.9260542
46.858227 45.421654 -1.4177043
45.873642 45.086712 -1.6388327
46.857719 45.413376 -1.7338392
47.48341 45.688789 -1.1595417
45.770546 45.001377 -1.9522231
45.85709 45.023537 -1.9214841
46.870865 45.411503 -1.6440425
46.849316 45.412804 -1.3507106
47.28854 45.589249 -1.3341166
46.95586 45.432442 -1.6548927
46.964096 45.438095 -1.8118185
45.954403 45.103657 -1.2535515
45.973156 45.116844 -1.4267012
46.869938 45.473701 -1.5268792
46.864223 45.475113 -1.4502506
47.263504 45.606312 -2.0120196
46.901764 45.451805 -1.0410011
46.871349 45.415081 -1.5425314
45.9505 45.079773 -1.7414246
47.567379 45.683453 -0.93282312
45.81543 45.071678 -1.448547
45.978561 45.143875 -1.3696486
47.168892 45.524734 -1.1405843
47.388996 45.670082 -1.8410212
46.853302 45.411087 -1.0221387
46.87867 45.42083 -0.87802762
46.949085 45.425617 -1.4487482
46.892082 45.468094 -1.3577758
45.635551 44.932846 -2.1366496
45.948975 45.042133 -1.7989119
46.565338 45.265556 -2.3156905
45.652348 44.99931 -1.9178376
47.070988 45.492462 -1.1379949
45.746983 45.029755 -1.4186256
45.967648 45.070396 -2.0238137
47.450871 45.693092 -0.7557981
47.226261 45.538147 -1.1155603
45.960621 45.05724 -2.1202962
45.864944 45.033646 -1.6443399
47.081516 45.495598 -1.4390614
45.960655 45.100113 -1.1365544
45.855011 45.033897 -1.3413191
47.485332 45.662457 -1.2491308
47.484459 45.70417 -0.50487113
45.765091 45.034691 -1.5659555
46.861004 45.401001 -2.1413517
46.874779 45.417015 -1.1469443
47.693489 45.762066 -1.3345414
47.360008 45.661884 -1.2031415
45.780972 45.056404 -1.6284722
47.375328 45.668526 -1.046059
47.375599 45.664017 -1.5389053
47.568146 45.676769 -1.054666
46.772415 45.392723 -1.360543
47.568275 45.691956 -1.3457059
46.876408 45.46714 -1.972342
45.99472 45.154041 -1.1376276
45.886078 45.091675 -1.7224989
46.741856 45.3396 -1.7433983
46.983604 45.439522 -1.7498347
47.23819 45.540562 -1.8377081
47.053402 45.541992 -0.62879199
47.375992 45.595051 -1.2182366
47.363811 45.603008 -0.93982321
47.38279 45.662357 -1.7388998
46.007725 45.156693 -1.5645453
46.755959 45.379887 -0.69394726
47.068127 45.484528 -1.2356913
46.868347 45.405277 -2.0346763
46.858318 45.408817 -1.8166363
46.864681 45.469147 -1.2448015
47.465065 45.624012 -1.6356788
47.346596 45.664276 -1.6227993
47.393501 45.653053 -1.1568413
46.882671 45.430332 -0.7221455
47.361454 45.603268 -1.1378611
45.858292 45.084732 -1.4485116
45.642082 44.923382 -2.4325547
46.174492 45.140251 -1.8307321
47.402168 45.6763 -0.79975498
46.462345 45.301155 -1.3520738
47.410339 45.666454 -0.92018241
46.472595 45.292904 -1.4309121
45.912354 45.08905 -1.1670458
46.095444 45.173996 -1.6340986
47.367859 45.598778 -1.4249913
47.52528 45.639748 -1.3744266
47.544636 45.61607 -1.4482394
46.465996 45.298424 -1.5458338
46.487972 45.295078 -1.2468865
47.863983 45.789871 -1.648993
47.539368 45.673302 -0.87060601
47.89127 45.849449 -1.2193538
45.676067 44.938133 -2.3322859
46.474442 45.289021 -1.7371647
45.782951 45.016663 -2.0337541
45.694782 44.976631 -2.2457495
45.678032 44.953457 -2.3423212
45.902409 45.079796 -2.1590431
45.874653 45.081219 -1.5360388
45.665443 45.015381 -1.6263502
47.386639 45.603466 -1.0519757
45.844383 45.06078 -1.9722328
45.854733 45.057262 -2.3367472
45.871281 45.073483 -1.8461564
47.613644 45.771172 -1.8269588
45.682571 44.996967 -1.8349247
45.637703 44.987343 -2.1412392
47.570358 45.760696 -1.7528073
47.601238 45.7551 -1.5288051
46.435612 45.293385 -2.0736923
47.588482 45.749714 -1.6455016
46.510586 45.313148 -0.77288079
46.199589 45.248203 -1.8159114
