# .PCD v0.7 - Point Cloud Data file format
VERSION 0.7
FIELDS x y z
SIZE 4 4 4
TYPE F F F
COUNT 1 1 1
WIDTH 1518
HEIGHT 1
VIEWPOINT 0 0 0 1 0 0 0
POINTS 1518
DATA ascii
-2.0330093 8.703084 -1.4540591
-1.4427859 8.9846897 2.673353
-0.54766679 8.6908216 -0.63852203
-0.79931331 8.9098701 -1.4231068
-0.92458087 8.8967381 -1.4027946
-3.0270913 8.3703833 0.95815539
-2.0372245 8.7182875 1.4577928
-1.947536 8.7253866 2.0549133
-1.1149586 9.0910625 -1.643389
-1.3259342 9.0028124 -1.633975
-1.4312826 8.989645 -1.6314096
-2.5168087 8.5709648 0.15862164
-2.216996 8.7672987 2.8122132
-0.63646758 8.9888926 -1.5379989
-0.84031236 9.0867424 -1.5306541
-3.1229911 8.3758001 -1.3413845
-0.32098815 8.7376842 -1.6081309
-3.2192392 8.3957977 -0.93640828
-3.2219753 8.3608551 -1.3057835
-0.61105627 8.3902006 -1.1257532
-2.03316 8.7140102 1.5587472
-0.72913861 9.0729761 -0.64337492
-2.1162429 8.3285875 1.9987808
-1.9248017 8.7848949 -0.84020847
-2.9184935 8.4249525 3.0522239
-2.8564668 8.3264971 -0.94027847
-1.686651 9.0341606 2.3525324
-4.5234013 7.7938137 2.6509285
-0.53029257 8.5980453 -0.23906307
-2.5371931 8.525322 0.65301931
-1.9432573 8.7188234 -0.43998742
-2.1113131 8.6045456 2.8530731
-1.7327423 8.8755341 2.7699938
-2.8477087 8.3255339 -0.83196145
-1.1228477 9.0199852 -1.9379129
-1.7451534 8.8645821 2.377481
-2.2258255 8.6898203 2.8695922
-0.55890357 8.8905649 -0.61897641
-2.4429674 8.5199223 -0.13130425
-1.0942706 9.1721992 2.9284382
-1.7278323 8.8710432 2.4502237
-1.9779204 8.6295319 -1.3059254
-0.44410199 8.6859007 -0.11883096
-1.9411036 8.7122765 -0.33107322
-1.2133939 9.0729437 2.4702287
-1.9152733 8.7115297 -1.341938
-1.1581343 9.0356693 2.4974046
-1.1273752 9.0705395 -0.13649023
-1.0042732 9.1863194 1.3493888
-1.6930523 8.9567833 -2.3198876
-1.7629316 8.7184219 -0.33844945
-1.7282083 8.6212587 1.7413089
-2.9391141 8.3862171 2.0583258
-3.753437 8.0081701 0.95715153
-0.70185703 8.8054953 -0.64832586
-1.7332071 8.8661833 2.5683455
-1.743485 8.7211113 -0.53739136
-0.53440279 8.6023617 2.1422753
-2.3127708 8.4096184 1.1627074
-1.4784364 8.9329519 3.0711355
-2.9179087 8.4770985 0.98711324
-1.7505889 8.7354841 -0.25549003
-2.7206206 8.4913015 -1.5447909
-3.2288187 8.2836018 -0.13489003
-2.7400491 8.4790201 -1.4319395
-4.4348116 7.9960155 3.2749469
-1.1258969 9.1606312 0.36986792
-1.8240017 8.969243 1.777003
-0.90152925 8.9140263 -0.37174025
-1.0202901 9.021533 -0.33402532
-1.2319354 9.0710707 -1.1405212
-0.93175083 8.9217796 0.5437879
-0.92138207 8.934413 -0.25354877
-3.1068811 8.1237364 -0.23249018
-3.0544772 8.2283106 -0.85658455
-0.91808432 8.914772 0.062295418
-3.4593704 7.9991846 -1.5239491
-0.48086327 8.4429636 1.1048133
-2.7298331 8.4792709 0.75574017
-3.0277147 8.2077503 0.066401392
-2.5310717 8.5750875 2.5676963
-4.4226708 7.7363749 -1.2441895
-2.528326 8.5382681 2.9548764
-1.8473985 8.9648046 2.195065
-2.8347406 8.4110518 -0.64217216
-0.56642449 8.9759207 0.42395845
-2.7354686 8.4088821 -0.74531364
-0.54145217 9.0018024 -0.46823651
-2.8223596 8.4849167 -1.2308471
-3.7484169 8.0172319 1.5719769
-2.7052996 8.4782772 -2.0515485
-2.8304713 8.3929205 2.3534031
-3.736115 8.0187216 -0.13503055
-3.7460134 8.019599 -0.2212168
-3.7328396 8.0149641 1.2808632
-3.8203175 8.1531925 1.9705378
-3.7396569 8.0248947 1.1557542
-2.1180749 8.7746468 -0.85975814
-1.0281259 9.0214128 1.3642092
-1.0206317 9.0264425 0.54826343
-2.1270905 8.776453 -1.5328629
-2.1200273 8.6928234 -1.7299883
-2.1032634 8.7636232 -1.4383999
-1.0260234 9.0256357 0.055154838
-0.44006592 8.8117685 -0.078052245
-3.5233541 8.2589521 2.8447955
-1.5115471 8.9840546 -1.63871
-2.936465 8.4420328 3.8450382
-3.3312984 8.2140198 -0.83530945
-2.6350143 8.5139313 3.3004577
-3.7510955 8.030652 1.0618726
-3.3309619 8.2126637 -1.4320331
-3.3122394 8.2838697 2.0599439
-1.2353752 9.0154953 2.2545357
-3.5083163 8.3995552 3.7507439
-1.1332762 9.0141525 2.1627276
-0.37434283 8.8210421 -1.4204614
-2.6042023 8.5242872 3.1807582
-3.7321548 8.0270462 0.84766167
-3.3321149 8.2150784 -0.93998832
-0.56507707 8.7729435 0.56267238
-2.9297881 8.3962164 1.4585726
-0.90254164 8.9987183 2.3757763
-3.7330182 8.0835848 1.9660345
-2.4315128 8.5832186 -0.44409204
-3.293529 8.3781166 -0.6309858
-3.4123483 8.404829 0.33027217
-3.7425678 8.0355501 0.55626142
-3.3053777 8.3462858 1.541039
-2.9264257 8.3911943 1.5651015
-3.7279012 8.0943127 2.0575416
-2.729579 8.4945583 2.8663723
-1.6413724 8.5242443 1.2741358
-3.3560541 8.345767 0.84407413
-3.9415827 7.9283218 2.7686117
-3.3147433 8.3500061 -1.1650027
-2.9651542 8.4100571 3.575933
-4.526197 7.7929435 0.461335
-3.8696055 7.9358082 0.97726381
-3.5394249 8.3852711 3.3516779
-3.9348974 7.8941388 2.5713234
-3.3322761 8.2058058 -1.0231261
-2.0322769 8.7183666 -0.24189764
-3.7289996 8.0152664 2.0772891
-3.5599415 8.3746071 2.7869518
-2.9279714 8.394227 1.0582273
-2.03597 8.7159777 -0.13859262
-3.6603317 8.0021372 1.06137
-3.1451929 8.3230667 2.9664183
-2.9321592 8.3949633 1.259714
-0.52929354 8.6013184 -1.13859
-2.9309509 8.3108931 -0.15917259
-2.3558009 8.7952452 2.4139082
-3.5358684 8.1227379 -1.0390482
-1.2284226 9.0063982 -1.2423474
-4.2398987 7.8279638 -1.1477035
-3.7353945 8.1625576 2.4650936
-3.6753891 7.9765387 1.004774
-1.9544883 8.7300224 2.8183622
-2.1334634 8.7106104 2.7633579
-3.2361293 8.2881651 2.3580132
-1.5789206 8.8427439 -2.0957839
-3.607666 8.0073166 1.2805896
-0.56622875 8.986742 0.97700292
-1.1296933 9.0762043 -0.4379673
-2.9252343 8.3339405 -0.036783148
-0.56360561 8.8931675 0.5626716
-2.427228 8.5739784 -1.643123
-0.51914889 8.5980272 -0.73611414
-0.51471645 9.0049496 0.89674377
-1.5329101 9.0853996 2.7762027
-0.72229147 8.9984102 -0.23551816
-3.3217299 8.3976002 -0.55361855
-1.0071889 9.2523394 0.57545948
-2.1252174 8.6864872 -0.94022059
-1.6006985 8.9706688 -0.35302109
-3.5775015 8.3511829 3.2127652
-1.9081078 8.8649921 1.3459706
-1.1028533 9.1727142 2.6648982
-0.71903765 9.0831146 -0.34624535
-2.9492507 8.3233986 -0.82297468
-0.46368763 8.5677528 -0.73918259
-1.1192003 9.0770922 -0.23782352
-0.5659411 8.8782415 0.66949487
-2.0598304 8.7260351 2.6406395
-1.1186383 9.08813 2.4708066
-2.4555528 8.3200293 2.1293883
-1.6031086 8.9693661 -0.24814424
-2.9298437 8.3892708 0.15848885
-0.56991267 8.9779387 -1.1529607
-2.0249467 8.7837954 -1.4363372
-1.6166104 8.9651794 -0.16035609
-0.83433485 9.1567564 0.76694876
-2.9347758 8.4239063 3.3483901
-2.5946634 8.2044659 1.7324132
-2.6288371 8.5440941 3.6243713
-1.6099738 8.9778929 -1.5337356
-2.6327217 8.500432 2.2651877
-3.9562483 7.9253583 1.8742827
-2.5964448 8.2029858 0.97163385
-1.471483 8.7242537 1.9806782
-1.1025108 9.1594324 2.3307388
-3.4711785 8.1300182 0.64993501
-3.5314529 8.1222992 0.35261413
-2.6629703 8.245224 0.84424937
-2.0499873 8.8591862 1.8580033
-3.3585908 8.1407995 0.30488908
-4.1174126 7.9650264 -0.04021645
-0.53318161 8.4035654 -1.8490281
-0.72711897 9.0974512 1.958864
-2.4195848 8.527113 -1.7188895
-3.4380105 8.2677927 -0.34863651
-3.4204152 8.2615442 -0.42562574
-2.4424553 8.5091295 -1.2431524
-4.1125016 7.9652615 -0.13834128
-2.6493826 8.5096865 2.9406869
-2.598398 8.5434942 3.5083699
-3.6504941 7.7932181 1.9672171
-2.346231 8.5213146 -0.65082693
-3.8169656 8.1600666 1.7355175
-0.92506218 8.9931107 1.3607969
-0.61995423 8.9100389 -1.7437012
-1.8527802 8.7271862 -0.54086637
-3.4028361 8.2574053 1.5833335
-2.3401883 8.532752 -0.75344819
-3.7475443 8.0153542 0.66336662
-2.2239954 8.6709881 -0.33887449
-2.0398822 8.6273088 -0.72383326
-1.4221308 9.0060234 3.0558922
-3.6393108 8.1369181 3.4536846
-3.4512131 8.2427902 3.8872883
-4.5308375 7.8010359 2.8432243
-0.52162981 8.9604206 -2.2891841
-0.56031352 8.9873848 -2.2788081
-1.4160558 8.9502115 -2.2266231
-1.7236924 8.7958212 -1.5229213
-0.74022651 9.0597363 -1.823727
-2.332324 8.615366 -2.0472994
-2.4356122 8.5776377 -1.8274753
-2.5389228 8.5061569 -2.1071653
-3.419595 8.2017584 -1.5338593
-4.0375676 7.9789195 -2.1239533
-4.5011501 7.8217573 -2.1660507
-2.000762 8.7127085 -2.2760696
-0.72760051 9.0749216 -1.7331126
-2.2171507 8.6729403 -1.8498073
-4.329473 8.0152283 -1.0646405
-0.59399027 8.8071909 1.0876253
-2.5186696 8.5215034 -2.3414688
-2.933557 8.4002905 -1.7392581
-3.2131228 8.2618408 -2.3340805
-3.3244767 8.2355022 -2.3434291
-3.5230918 8.188405 -1.7601638
-3.9574418 7.981987 -2.3587267
-4.3285336 7.8701115 -2.3807993
-0.56836224 9.013484 -2.0782773
-3.5199757 8.1810398 -1.5409801
-1.321937 8.9954948 -2.0300469
-2.2161407 8.6781216 -1.7504874
-2.4290481 8.5994415 -2.0300927
-3.0434163 8.3048754 -1.8368139
-3.347899 8.1973724 -1.8427607
-3.5410707 8.1022129 -1.8359362
-4.2079349 7.8844852 -1.8537954
-1.6323125 8.9555235 1.43331
-0.73890698 9.1758432 -1.6170837
-3.8284633 8.0825357 -1.9356703
-3.0343657 8.382515 -1.7421291
-1.6354121 8.890543 -1.745185
-2.1331034 8.9014521 2.9733531
-1.834306 8.7864437 -1.8277713
-3.1360118 8.295619 -1.8447146
-4.05124 7.925374 -1.8296932
-1.8211581 8.8156271 -1.9387912
-3.6218822 8.1000776 -2.1439004
-3.7383296 8.0019531 -1.8124359
-4.0340633 7.9240589 -1.5324973
-1.9266646 8.6889925 -1.8226066
-3.8189137 8.0142412 -1.6311822
-4.2776957 7.8388925 -2.0254405
-1.1221427 9.0130081 -1.7672216
-2.3112597 8.6730518 1.6523739
-2.4348683 8.5078182 -1.8240491
-2.5337121 8.499217 -1.8308301
-3.5227153 8.1090393 -1.9148908
-4.0610671 7.9113107 -1.9411359
-1.3368542 9.0061378 -1.8336625
-1.6954401 8.6860952 0.035944387
-1.3408772 8.7303867 1.5945374
-1.1520822 8.9930058 -2.0437589
-1.2678523 8.9430256 -2.0190778
-1.3530242 8.9156036 -1.7326899
-1.4178028 8.9092426 -2.0132756
-1.6352961 8.8037357 -2.0476422
-1.7490499 8.7680893 -2.0521209
-1.9545934 8.7069559 -2.0514596
-2.1227982 8.6177988 -2.0855451
-2.4048991 8.5246315 -2.1052594
-4.5470138 7.6932988 -1.9791837
-1.4431347 8.8962193 -1.7410048
-2.34286 8.5265732 -1.8484294
-2.952384 8.3195 -1.8245542
-3.6774313 8.0388365 -1.9257779
-4.2791481 7.8228464 -1.6351285
-2.2503712 8.6124048 -1.9295785
-0.92981917 9.1574526 -1.9215236
-0.55097222 8.9559078 -1.9679942
-0.70756876 9.1493616 -1.9227719
-3.1152697 8.3165503 -2.0184655
-2.0571587 8.6643925 -2.1163528
-4.5376081 7.7369618 -1.8612489
-4.3444581 7.8191743 -1.7312825
-0.92426109 9.019556 -1.943543
-1.6087008 8.8917532 -2.0228646
-3.1177285 8.3386316 -2.1030545
-2.4070377 8.6635914 1.5746611
-2.1315491 8.7822962 -2.1354117
-2.2565854 8.5900173 -2.1233108
-3.7404821 8.1640835 1.7538625
-3.9955182 8.0827742 1.7648119
-4.2234221 7.9806161 1.8608698
-2.1241076 8.6256275 -1.8656356
-2.9271665 8.3306246 -1.8933744
-3.057478 8.3051262 -1.9263269
-3.1701481 8.2414541 -1.9007919
-3.7513657 8.0060129 -1.9047134
-3.8142433 8.0243301 -1.939723
-3.9249084 7.9377699 -1.9112747
-1.6416118 8.8268538 -1.7637103
-1.8303181 8.7076054 -1.558583
-2.6331949 8.424448 -1.8382589
-3.225673 8.2112026 -1.8447973
-3.6261744 8.1171093 -1.845119
-3.7237878 8.0960655 -1.8249327
-1.718748 8.8596869 -0.046070259
-1.2002203 9.0074348 -2.0556836
-1.3045048 8.9436693 -2.0835159
-1.4010191 8.9012556 -2.088948
-1.6754665 8.8034124 -2.1007278
-1.7779042 8.756319 -2.1068313
-1.8730363 8.7212896 -2.1110427
-1.9630289 8.6949501 -2.1138504
-2.1301055 8.6175919 -2.1403461
-2.6425061 8.5028963 -1.8156
-3.3047853 8.1940517 -2.1604202
-3.831275 8.0248308 -1.8251057
-4.3304582 7.8263912 -2.1982009
-4.4363089 7.7952743 -1.8585403
-1.3148282 8.8896694 -1.8103578
-1.7401117 8.7649345 -1.8285434
-2.0678668 8.6081629 -1.8229005
-2.6489685 8.4217587 -1.2225506
-2.8795142 8.3207932 -1.5358933
-3.0994484 8.2352371 -1.8649338
-3.3291709 8.1400747 -1.8742722
-1.1421568 9.1810589 2.1476355
-1.2118175 9.1545553 1.5903106
-3.4332559 8.1044865 -1.8530949
-3.6483049 8.0102367 -1.8545473
-3.7300265 8.0294352 -0.84488487
-3.9543679 7.9262719 -1.2410053
-3.0360956 8.3137703 -1.6301851
-3.1267159 8.2954197 -1.635844
-3.22243 8.2805071 -1.6284901
-3.7331285 8.083478 -1.621435
-1.2367516 8.9699135 -1.8092341
-3.7272367 8.0241919 -0.54213929
-2.4283943 8.6500835 1.9705206
-1.0301063 9.1675959 1.5824167
-2.9233336 8.4722557 1.9401331
-1.531841 8.8291445 -1.6432207
-1.6265436 8.7915583 -1.629297
-0.55793238 8.8689156 -0.23797393
-3.9267712 7.9292388 -1.4336977
-3.3462362 8.1921682 -1.7591615
-3.6923666 8.2605476 -2.2073717
-0.60584772 8.7025738 1.687072
-1.0458692 9.0374594 -1.6188374
-1.2120769 8.9429417 -1.5950845
-2.5663447 8.4438801 -1.5661254
-3.1424649 8.2343807 -1.5517931
-3.9478669 7.9201384 -1.5378968
-4.4234495 7.7166882 -1.5600489
-1.0313396 9.1596861 1.952599
-1.1245363 8.9933462 -1.8342835
-0.81217158 8.8887444 -1.739608
-2.9561672 8.336729 -1.6357558
-1.1442879 9.1658459 2.3033578
-1.170181 9.1746664 1.817656
-1.7624691 8.7352524 0.69195163
-0.54130518 8.7419252 2.0659146
-2.1236405 8.8611174 2.0184851
-1.1308728 9.0029783 -1.5413724
-0.44848722 8.6639938 -0.23729774
-1.0428032 9.1989794 3.4805043
-2.5364003 8.4283504 -1.3263602
-2.9193482 8.3260508 2.1469207
-3.9490533 7.9235888 -1.3361551
-3.936703 7.9234524 0.1762225
-4.044745 7.9172187 0.96497953
-4.1542802 7.805923 -1.2495492
-2.7156026 8.4283705 -1.7514601
-3.2598577 8.2173595 -1.7256839
-2.7424388 8.4224615 0.85407877
-2.3588293 8.5261688 -1.3499566
-4.3353553 7.8211741 1.7554944
-0.44909233 8.7243767 -0.35683224
-0.47275162 8.7895565 -0.12886594
-1.2451911 8.9222574 0.22159792
-2.3549721 8.5231838 -1.0244926
-4.1293197 7.8196363 -0.13966917
-2.9081779 8.4841976 1.7488149
-3.6093669 8.1053686 -1.4202633
-4.5322909 7.7930279 0.55700248
-1.0843481 9.2094412 2.0258501
-1.2122933 9.1811237 2.0813761
-2.0999553 8.8537788 1.9614549
-2.5181425 8.5649118 1.258957
-2.5235815 8.5640869 0.95940506
-2.9008417 8.4596148 2.251868
-3.4111722 8.2695446 2.7612112
-4.2293248 7.7893996 2.082972
-4.1167674 7.9674225 0.65035361
-0.45974398 8.6814213 -0.93312824
-3.1184874 8.1674652 1.9765639
-0.43362445 8.8522167 -1.4468892
-0.35810021 8.6515894 -1.1519399
-0.43960702 8.8749247 -1.7506247
-0.99572134 8.9515114 -1.7036366
-1.0511333 8.919486 -0.63408172
-1.1394607 8.8763103 0.35868025
-1.2608026 8.8345995 -0.53969622
-1.3118491 8.8120613 0.38608503
-1.3602191 8.8224506 -1.675626
-1.3742384 8.7751684 -0.98726702
-1.4515537 8.7695589 -0.97701311
-1.7706537 8.6301489 0.80826521
-1.8179386 8.615941 -0.94179583
-1.8676778 8.5987244 0.0024180529
-1.9467552 8.5696526 -0.22191666
-2.0428226 8.5300264 0.85514021
-2.0738263 8.526288 -1.6267323
-2.1356964 8.4919338 0.87107038
-2.3074112 8.4216003 -0.17537735
-2.336246 8.4174938 0.067359462
-2.6129148 8.3041334 0.95395613
-2.6664746 8.2882061 -1.219933
-2.7037151 8.2705564 0.60568953
-2.7533598 8.2953196 -1.2307026
-2.8033988 8.228529 0.62131453
-3.2577477 8.0657234 -1.5405507
-3.3620374 8.03302 -1.5317006
-3.6945496 7.8905215 -0.75038958
-3.8652964 7.822135 0.029700767
-3.9208827 7.8052859 0.037879478
-4.2527695 7.6654153 0.081153408
-4.5053391 7.5523033 0.89603376
-3.0726707 8.3177166 2.8890388
-0.46055484 8.6850624 -1.3460706
-2.5289836 8.5160131 -1.6408308
-2.6554992 8.4356937 -1.6627486
-3.4673145 8.1397753 -1.6127827
-2.5117147 8.3315372 0.89010471
-0.42530429 8.7574062 -1.4495411
-0.42449987 8.6507969 -0.76364529
-1.1550663 8.9389877 -1.0416721
-1.4313123 8.8282385 -1.3449879
-1.434225 8.8321695 -0.32427046
-2.5451603 8.4169455 -1.2642384
-2.6340582 8.4429741 1.1429733
-3.3455858 8.1059856 -1.2065601
-3.4708242 8.1283236 2.5543103
-3.6503298 8.0191555 -0.82604975
-3.7495785 8.0089359 -1.1270634
-4.0804825 7.8373342 -1.1511402
-4.4687786 7.7141895 0.43870354
-2.8378956 8.4112234 3.1437259
-3.9072156 8.0152979 -1.9132037
-4.5318584 7.8176084 2.7395995
-2.819211 8.4852667 3.2571378
-2.5345972 8.5171432 -0.63782507
-4.020648 8.0588703 1.3654354
-1.2329173 9.1623936 1.9558806
-3.5267959 8.1894436 -1.6364951
-3.2559183 8.3557901 3.3640633
-2.7642624 8.3367443 -0.39272577
-4.5116096 7.7885389 -1.6547555
-0.40559977 8.84408 0.031916067
-1.0350928 8.9231472 -0.91092449
-1.0987928 8.89958 0.56029642
-1.1639197 8.8772793 -0.89612347
-1.4300275 8.8050852 -0.11867841
-1.5492299 8.8136635 2.0458391
-1.5993116 8.718174 -0.60461956
-1.8282361 8.6001892 -1.5500847
-1.8775543 8.6176348 0.46441117
-1.9623019 8.5569458 -1.5367485
-1.9653363 8.5849171 0.29571
-2.0498822 8.5248184 -1.5285698
-2.23982 8.4394217 -1.5130669
-2.3318551 8.4173355 -1.1314141
-2.6170623 8.3130093 -0.72589642
-2.7113533 8.2732582 -1.0911309
-2.8145924 8.2443905 0.43175736
-2.8516393 8.4222345 3.0433033
-2.5200582 8.5798512 2.4674859
-4.2475204 7.8036594 1.7678605
-1.6134386 8.8067675 -1.5167247
-4.2188506 7.9674792 3.3628995
-2.7701383 8.3908014 3.0021996
-4.755157 7.5957594 2.0713353
-1.1482996 8.9449816 -1.4206327
-1.9245269 8.7859669 -1.6412598
-1.1423383 9.1666698 1.4563501
-1.344066 9.0793667 1.433095
-1.4342182 9.0952387 1.4860022
-1.7331991 8.8838263 -1.4245118
-2.1345949 8.7876816 1.5729015
-2.4259377 8.6813869 1.6702279
-2.4478648 8.6619234 0.94426721
-2.7372663 8.5831661 1.7390865
-2.3235428 8.5390759 -1.5905775
-1.342136 8.8955908 1.7432098
-2.0218711 8.6366253 -1.1650134
-2.3027563 8.5388155 -1.1404773
-2.3584819 8.5198593 -1.9115632
-2.4497623 8.4925861 -1.9384346
-1.3827627 8.823349 -1.1987163
-1.9467493 8.6249905 -0.39647016
-2.0273395 8.5972767 1.0640974
-2.5161028 8.5609112 0.058924578
-4.5427241 7.7251425 0.76433343
-1.0443993 9.1855278 -1.7273945
-1.2355946 9.0900774 -1.7143923
-1.2799699 9.1455374 0.9022131
-1.3185407 9.1489582 1.8585308
-1.3947989 9.0953512 1.1736772
-1.4113426 9.0522947 -0.78138065
-1.4180486 9.0902405 1.8778397
-1.4665045 9.0524683 -0.045479774
-1.5268997 9.0600796 1.9131384
-1.5963471 8.971056 -1.762105
-1.7286751 8.9987087 1.9368947
-1.7177296 8.9766502 1.1604843
-1.8293697 8.8659401 -1.712159
-1.9563639 8.9101181 1.9637249
-1.9837134 8.8725977 0.50640011
-2.0069711 8.8464031 -0.97797489
-2.0711677 8.8463478 0.51787472
-2.2242279 8.751133 -1.7146692
-2.253279 8.7695465 0.54064083
-2.3032162 8.796525 2.0509558
-2.3991463 8.7509966 2.068778
-2.5328493 8.6680918 0.73389488
-2.1879506 8.7721882 0.74746114
-2.5111747 8.6568127 -0.58972019
-4.6839252 7.620851 -1.8619202
-4.0160985 8.0527172 -1.8490453
-1.8598768 8.9966421 3.1326005
-1.131795 9.1519985 0.17539886
-1.4459143 9.0525169 0.91120064
-1.9021367 8.8885489 1.7268134
-2.0364552 8.8783054 1.7516031
-4.4652448 7.8905892 -1.9239434
-4.5847077 7.8654919 2.1836619
-4.6712055 7.6294422 -2.0161178
-3.7664814 8.260252 3.1914511
-2.5961654 8.6492004 2.1977093
-1.4716277 8.8449383 -1.4184691
-4.2482114 7.8248925 0.85113025
-4.3841395 7.7327967 -1.1798216
-0.62976986 8.8950729 -1.0321941
-1.2505678 8.9415808 0.44233286
-3.6490879 8.001009 0.44221497
-3.8308411 7.925004 -0.79100454
-3.9227817 7.914854 0.85983127
-4.5136337 7.6425304 -1.5623058
-0.61235952 8.7152786 0.55236739
-1.1184592 9.1709051 1.3683779
-1.2110953 9.1703691 0.95867509
-1.2937819 9.1624022 2.0970418
-1.29539 9.1478453 1.3437458
-3.4102495 8.3815098 1.6170613
-3.5125799 8.3478689 2.4397542
-3.6203008 8.2801895 1.2411457
-3.6170249 8.301363 2.4569051
-3.7146411 8.2655544 2.4508705
-3.9198673 8.1716957 2.0854437
-4.0170641 8.1582518 2.1097982
-4.1291056 8.0740929 0.49680635
-4.12535 8.1048269 2.1265218
-2.13819 8.7652569 -1.9257556
-4.5326614 7.788301 0.36440155
-0.62573743 8.8197975 -1.9573432
-0.60325259 8.624464 0.35456187
-1.0847788 9.1338177 -1.8921244
-3.1194055 8.375041 -1.8370419
-3.2029185 8.355341 -1.8500388
-3.3109577 8.3702641 0.58181298
-3.32393 8.2828512 -1.8363267
-3.436348 8.2645226 -1.8197043
-3.5980413 8.2778511 1.4631608
-3.6098065 8.2774048 0.65657252
-4.1059055 7.9815936 -1.825461
-3.4202635 8.2486286 -2.1096866
-2.8323352 8.4784775 -1.7286801
-0.56653631 8.8082256 1.7636603
-4.5442352 7.7169719 1.6701096
-3.0318823 8.3637791 -1.6202749
-3.140831 8.280798 -2.268055
-3.222959 8.2789125 -2.2558596
-3.3316102 8.2147007 -2.2608318
-3.4382746 8.1220274 1.0478553
-3.5476274 8.1301022 -2.2563152
-3.9311929 7.9798598 -2.2470989
-4.0429249 7.938899 -2.2443523
-2.4883487 8.6520777 -2.2715912
-2.6776395 8.4382591 -1.9705238
-2.7720902 8.4348173 -1.9689369
-3.2438219 8.2837572 -1.9533451
-4.0394917 8.0054455 -1.9662669
-4.4462099 7.8132625 -1.9895668
-4.708396 7.7843518 2.0593507
-2.4139743 8.5708284 -2.3074017
-2.3620691 8.5410032 -1.4711884
-2.6400352 8.403842 -1.5090953
-2.0275321 8.5836926 -1.6932088
-4.7122078 7.7829132 2.3663609
-3.2231104 8.2714796 -2.0554194
-3.5291038 8.2042446 -2.0529828
-3.6261265 8.2019053 -2.0328662
-4.7449551 7.524684 1.7548968
-1.9152629 8.7264671 -1.7297968
-0.47837692 8.8206978 -1.9939903
-3.6737382 8.0426559 -1.2441585
-2.4410467 8.6751242 2.1668994
-2.9221673 8.4876957 2.1539054
-4.2464828 7.82026 -1.3215985
-3.3372264 8.219079 -2.0622954
-3.980701 8.0550375 -1.6838245
-3.6235535 8.0292988 -1.114213
-3.9247832 7.9260297 -1.1308099
-2.5243289 8.566968 1.3643826
-2.9196522 8.125721 1.8356477
-1.028452 9.1881866 3.555326
-2.4045115 8.6910286 1.7906309
-2.4523463 8.290061 1.1138245
-1.081841 9.201108 1.9341903
-3.478224 8.1383619 -1.5151216
-4.5257654 7.7959166 -0.75354952
-4.6491394 7.5864654 1.427964
-3.5550632 8.0136948 1.3088884
-2.7155855 8.5791655 3.5027268
-2.9539499 8.3243847 -1.531482
-3.2318022 8.3884716 2.1645141
-2.9325356 8.4552364 -1.8176005
-2.7124274 8.5628777 -0.31384808
-2.7308087 8.4850788 -1.8308512
-2.4148021 8.4325943 1.1272949
-4.5293069 7.794107 0.75684112
-3.7472403 8.0179148 -1.7363011
-4.8838167 7.5394444 1.3924413
-4.441864 7.8045001 -1.3407159
-4.2299824 7.967061 -1.7093854
-2.151078 8.6414251 2.0502295
-4.1210227 7.9708571 1.0604931
-1.7214386 8.9630432 1.8601055
-4.4462905 7.8003726 -1.0313796
-2.1463499 8.7554131 1.8711939
-2.5318105 8.5770283 -2.0177507
-3.820076 8.0812016 -1.5324527
-1.6137952 8.8347969 -1.969148
-1.7149549 8.7941971 -1.9636549
-2.1446083 8.6258631 -1.9393018
-3.4763336 8.0811672 -1.4552504
-4.643672 7.5972877 -0.64059812
-3.7929697 8.0312548 -2.2550735
-2.1584527 8.6122694 -1.7286025
-3.6793296 8.0353327 -0.67757714
-4.2281857 7.8167343 -0.66104889
-1.1770275 8.9421368 -1.3191361
-1.403682 8.840909 -1.8139482
-1.4788315 8.8361826 -0.82401896
-2.4937203 8.4365091 -1.8207231
-3.8450789 7.9097404 -1.2972975
-2.4390528 8.5308495 -2.0405324
-3.438092 8.1805344 -2.053792
-3.8252325 8.0702744 -2.0419445
-4.0265694 7.9566607 -2.050374
-1.4503196 8.8241796 -1.0721576
-1.6756414 8.7288666 -1.0743549
-1.6973608 8.7202396 -1.6821004
-2.1356328 8.5356588 -1.696932
-2.3575468 8.4664392 -1.7026693
-2.4204273 8.6498899 0.45370284
-2.5830286 8.3666153 -1.7099324
-2.6970067 8.325716 -1.7129232
-2.7128778 8.4864025 -1.6428332
-2.8118181 8.2833147 -1.7159749
-2.9260566 8.2452354 -1.7187215
-3.1599481 8.1529398 -1.7248861
-3.2806947 8.0949202 -1.7286092
-3.6310763 7.9590631 -1.7370321
-3.8652868 7.8690443 -1.7422811
-3.9828258 7.8350244 -1.7441732
-4.009037 8.0509892 0.4811278
-4.4201927 7.7092376 0.37994587
-4.6392865 7.601306 -0.4420768
-1.6086113 8.9463673 -0.65784514
-2.1838138 8.7775087 0.33916417
-3.3344102 8.2720213 -1.7440068
-3.3107858 8.3581047 0.31505528
-3.6208153 8.1790285 -1.8221231
-4.2462521 7.9755955 0.29218274
-1.4270558 9.0614071 0.67152417
-1.935281 8.862112 -0.35437506
-2.2125096 8.7884464 0.62622017
-2.2873068 8.7677364 0.63266385
-3.6311951 8.2657804 0.55232394
-4.1149426 8.0752602 0.59897244
-4.3320971 7.9941144 0.59826416
-1.1354253 9.1533346 0.79778016
-1.3844765 9.0569534 0.79823643
-1.5998949 8.9780245 0.77887774
-1.7143266 8.9512634 0.76966149
-1.9540141 8.8628883 0.74924952
-2.2943435 8.7571201 0.74366051
-2.4147375 8.7065134 0.7389608
-2.7701664 8.592679 0.72400719
-3.1197922 8.4644051 0.71070153
-3.3645597 8.3864727 0.70148522
-3.7278512 8.2550631 0.68915612
-4.2062941 8.0724039 0.67511803
-2.8381593 8.4681168 -1.6309448
-1.1634576 9.1566067 0.65839022
-2.0192869 8.8589411 0.62990832
-3.036052 8.4761763 0.57357287
-1.6011571 9.0590353 -0.12067654
-3.732518 8.0118465 -1.0513664
-1.0684338 8.9444609 -0.83507538
-2.3435206 8.5214577 -0.95209581
-3.8285737 7.932611 -1.1392136
-4.0777531 7.8401313 -1.1634445
-2.135303 8.8292398 1.7612734
-1.931782 8.8966827 1.8488011
-4.7796092 7.4313226 1.3105327
-2.190769 8.7486477 1.1595455
-3.5405726 8.3012018 2.1212769
-3.039696 8.488945 2.1361651
-2.0095541 8.8742132 2.2705045
-1.6407425 8.9883738 2.2609682
-2.3507102 8.7573786 2.2105713
-3.8980393 8.1700287 3.1064525
-4.20608 8.0635118 3.0759299
-3.2234895 8.3767872 2.0620835
-3.3607173 8.3545303 3.190737
-3.2340465 8.3930054 3.2030182
-4.4369268 7.9598002 3.1344519
-4.5395393 7.9701533 3.1126125
-3.9559109 8.076046 3.2452047
-1.6429293 8.9761047 2.479558
-2.5107563 8.6692724 -1.0890546
-3.0034511 8.4858713 2.5412369
-2.5009849 8.6564598 2.6248205
-1.9143128 8.8686981 2.760098
-0.60488987 8.8057032 0.66161442
-4.010747 8.0710363 2.7789812
-4.0453682 8.0764542 2.9515505
-2.5698674 8.2691517 1.4532773
-0.78299218 9.3630657 3.4166098
-1.9054363 8.863615 2.6697757
-4.6284819 7.7705817 1.8548394
-2.520803 8.6613665 2.2035463
-1.9357088 8.8933287 2.3119447
-3.9470227 8.1832418 2.851892
-3.7300558 8.2648716 2.8847899
-3.5897837 8.3033504 2.9198773
-3.3264964 8.3882189 2.9596722
-2.9102917 8.5065718 3.0431523
-2.5205965 8.6696701 3.0758832
-4.4242525 7.9802923 3.5757711
-3.6367793 8.2834272 3.6869161
-1.9629905 8.8580666 2.8388896
-4.2986612 7.9881854 3.3503127
-3.8916581 8.1915417 3.3725638
-3.7588859 8.1786032 3.3690941
-3.6254215 8.2666864 3.4241557
-3.5074561 8.2753639 2.2920985
-3.374584 8.3666 3.4655375
-3.1151919 8.4657192 3.5091777
-2.8626273 8.5683327 3.5506206
-2.6157367 8.6596613 3.5929179
-2.4335966 8.6826801 2.4601474
-2.3566298 8.7498522 3.6674027
-1.9938962 8.8864813 3.6915507
-4.6824079 7.8638325 3.2473011
-4.2228994 8.0582781 3.6022522
-3.9936452 8.064209 2.4778626
-3.6995726 8.2621822 3.6884339
-2.9331603 8.5669489 3.8140442
-2.8109684 8.6062603 3.8360779
-2.6857145 8.6574678 3.8564026
-2.4308612 8.7620144 3.8977845
-2.1871896 8.8546362 3.9389222
-2.0683529 8.8930826 3.9604065
-1.8289368 8.8664656 0.36558264
-4.7524147 7.9099598 3.5580153
-4.7151332 7.8828635 3.4532959
-4.622437 7.9060593 3.4500868
-4.5022407 7.9584694 3.4804068
-4.0320921 8.0985708 3.552902
-3.9982154 8.0603828 2.3551786
-3.91646 8.1650476 3.5399501
-3.5276794 8.2973185 3.5792613
-3.1338663 8.4587917 3.6625502
-3.0244572 8.4944372 3.6482491
-2.8862851 8.5669794 3.6955702
-2.5339847 8.6871176 3.7460747
-2.4080935 8.7791595 3.741509
-3.1547041 8.2363749 0.29776561
-2.6670678 8.4304953 0.38062435
-4.5616956 7.9128346 3.4524586
-2.9546266 8.5027256 3.6539295
-2.8198199 8.5709248 3.6539655
-2.7497754 8.5813389 3.648365
-0.82594842 9.1614733 1.772939
-3.012521 8.4455633 2.4368906
-0.54073787 8.7139082 1.7594383
-1.7602071 8.7171564 2.0401795
-4.3040977 8.0442648 3.7178922
-4.1385326 8.0619125 2.5854459
-4.0367498 8.1399498 3.7467008
-3.9030519 8.1904802 3.7606168
-3.6103563 8.2527151 2.6545377
-3.4803004 8.3246193 3.2385221
-3.324194 8.3906021 3.2741072
-3.0676746 8.4519043 2.7255826
-3.6296926 8.2227383 3.6416569
-2.6598663 8.5928659 3.677259
-4.4729609 7.8825216 3.2761116
-4.0568538 8.0519361 3.3047371
-3.5143251 8.2549629 3.3452644
-3.386199 8.3097067 3.3538094
-3.0090921 8.4834194 3.3556783
-2.4814997 8.6491652 3.4221687
-4.6268291 7.8319592 3.2444987
-4.3429394 7.9378309 3.9176397
-0.84213758 9.1089554 3.0610876
-0.59419882 8.7385015 1.0146855
-4.6433525 7.844048 3.4667053
-2.9624543 8.5005264 3.2637343
-2.8368611 8.4119883 2.7627435
-4.3449287 7.9682469 3.6643291
-2.1681049 8.8553915 2.6530876
-1.830151 8.8806067 1.9186451
-2.4871449 8.3153706 0.93710411
-4.4225783 7.9365597 3.6376989
-3.7926633 8.1178284 3.6199105
-0.53354514 8.7301493 1.9269174
-4.1768098 7.9430017 3.4000957
-3.5034032 8.1937866 3.4658306
-0.9325996 9.123744 2.6719451
-0.54119337 8.6793671 1.3540547
-0.46297634 8.4964809 1.3523825
-3.0369725 8.4796944 -1.0963997
-4.3325028 7.9170985 3.7163596
-0.93341076 9.1114435 2.8537359
-0.85699558 9.0862713 2.7699311
-1.50674 9.0641575 2.2594531
-2.8309367 8.410429 2.6615241
-2.9035501 8.2363338 1.5849556
-4.230504 7.9016972 0.46163177
-1.8353857 8.8688602 3.2630045
-1.7146699 8.8670282 0.55891949
-4.5738091 7.5006781 0.46057749
-1.8320624 8.8003721 0.96244442
-2.5357764 8.3419123 2.4946842
-2.3180935 8.4897804 1.9483997
-1.436739 8.91856 2.3576617
-3.0358016 8.3692722 2.7554464
-4.5235744 7.7958293 -0.94279552
-4.5363035 7.8430729 -1.9264126
-1.4310091 8.9178982 2.4324751
-4.5282097 7.7898784 -1.8421153
-2.7747855 8.1414967 1.4262959
-3.1338871 8.1687174 2.0688446
-0.56410146 8.7797165 0.054027673
-2.8387678 8.3259478 -0.63821566
-2.9706702 8.3069954 1.685689
-1.9244852 8.801631 -1.9407257
-4.5472264 7.7249007 -0.24814929
-3.7762284 8.0291319 2.8146095
-4.6074214 7.7141008 -1.935979
-2.5280807 8.5638828 1.4597527
-2.520622 8.5692024 1.157703
-2.5231688 8.6097708 3.3516636
-1.7216631 8.9620476 1.6964179
-4.4786305 7.7096763 0.7007795
-3.8173747 7.9423218 1.7632184
-3.6753764 8.0047626 1.7871033
-4.1178527 7.9725332 -0.43498746
-4.5267582 7.7893538 -1.7469646
-2.7598701 8.5532122 2.4693003
-0.51164585 8.7046585 -1.6434293
-1.9505268 8.7872219 -1.8458292
-2.7455831 8.264267 1.4742548
-2.8227072 8.2819748 2.3503613
-2.7863784 8.5482864 -1.3680035
-1.1445343 9.0925798 -2.1526301
-1.2296382 9.087903 -1.9196386
-1.4267808 8.9929352 -1.9410077
-2.140173 8.6156368 0.76079655
-2.9414277 8.3207512 -1.150544
-2.8293016 8.3303394 -0.45139346
-4.118721 7.9675112 1.2641374
-4.1044259 7.9835625 -1.3395271
-1.5143157 8.9169025 -1.7294842
-4.6482658 7.5479274 1.9876857
-2.7560172 8.3393383 -0.52953988
-2.5193548 8.5790329 3.4687018
-2.2352252 8.6933193 -1.9061658
-2.446363 8.590786 -1.9201597
-2.7160504 8.5055895 -1.9379792
-4.1440663 7.911283 -1.4220536
-0.5323258 8.800045 -1.9251789
-4.5310636 7.7901225 -0.3349629
-4.1133451 7.9656501 -0.34648988
-4.1236563 7.9671016 0.15943398
-0.97242308 9.1863203 -2.0263314
-2.0236816 8.7824678 -1.9347596
-2.3448246 8.5285463 0.93781728
-2.551724 8.5858784 -1.9146035
-3.4010658 8.2848186 -1.9399796
-3.6567249 7.994194 1.4523942
-4.6535468 7.5820398 0.049909852
-3.0461352 8.2386465 0.81371123
-3.547133 8.0346565 1.852048
-2.8541348 8.2468166 1.7745759
-4.6354079 7.5945168 0.47895619
-3.4497881 8.0938015 2.1661158
-4.4191027 7.7115636 1.2797382
-2.7415254 8.279892 2.276197
-0.47051671 8.6728354 0.62332869
-1.5310377 8.8033867 1.7614901
-1.750857 8.7358904 0.86209822
-3.6458375 8.0159454 0.14826533
-3.837997 7.9257317 1.7051158
-4.1231446 7.9648285 -0.23652342
-2.5168405 8.5678215 1.9613864
-2.5228257 8.5880146 2.166471
-1.03774 9.1910706 -1.4451888
-2.8395333 8.2787199 1.9568087
-4.6356831 7.5809045 0.17683916
-3.4418697 8.1085835 2.0475609
-4.4215341 7.7076254 1.1584957
-2.0403585 8.4241705 2.229043
-4.5429711 7.7906156 -1.0348043
-2.9252219 8.2926474 1.8566978
-3.0301919 8.3189354 2.6580532
-3.3305871 8.1341877 1.6556993
-2.875864 8.3369741 1.3597803
-1.0389886 9.1129789 -2.0567479
-3.4136956 8.2187147 -1.8445987
-3.4329014 8.0764961 1.2710092
-3.9156458 7.8969989 1.3374687
-3.2662642 8.1438465 1.7666665
-3.6766698 8.0092049 1.3150674
-4.4316025 7.7296896 0.87259072
-2.7125592 8.3204536 1.970562
-3.3333132 8.0967779 1.9629087
-3.5374794 8.0408573 0.97836292
-3.4062316 8.0381584 2.0421648
-4.6320133 7.5918155 -0.03508414
-0.47963288 8.7175045 0.50306499
-1.1962013 8.9391441 0.63880718
-1.4628162 8.8306103 0.67842209
-2.022737 8.5960894 0.75552094
-3.8590398 7.9073439 2.085207
-4.5390382 7.6829624 2.0315347
-1.5151443 8.7844486 1.9855713
-2.9873807 8.2061577 1.738562
-3.2531767 8.11728 1.2602905
-2.8397689 8.47439 -1.8421673
-1.9374176 8.871912 -1.1319833
-2.9987054 8.4974251 -0.013128214
-4.5645671 7.5287547 -0.30864584
-2.7470396 8.4278412 1.0613564
-2.7235711 8.3406363 -0.64430726
-0.93354505 9.1799154 -1.8202298
-1.7347078 8.882762 -1.7332735
-2.5998983 8.5797043 -1.7290046
-3.1430964 8.3779325 -1.7459524
-2.7485456 8.4198256 0.97451574
-4.5607338 7.7118893 -1.037288
-1.9054384 8.899538 1.6119087
-2.3225634 8.7693291 1.681608
-3.4191959 8.3536739 1.836457
-4.1451263 8.0745811 1.958966
-4.3117323 7.989141 -1.269588
-4.4206095 7.946785 0.90493852
-0.50901312 8.5134792 1.2615118
-0.62497354 8.6922207 1.3019985
-4.6218863 7.7029934 -1.8271465
-3.8264771 8.0833721 -1.7508621
-4.1146574 7.9345284 -2.1304011
-4.2701802 7.8778949 -2.1203303
-3.1356537 8.1195049 2.2542782
-3.2185149 8.3136101 -2.1442597
-4.1232204 7.981113 -2.0362277
-4.4235816 7.8603339 -2.0558162
-1.3208987 9.0873604 -1.5038542
-4.430583 7.8108459 -1.1423135
-0.60540545 8.6016941 0.68337876
-2.225358 8.7614641 0.92958695
-3.0548885 8.450882 1.025908
-3.3441443 8.3518991 1.0645432
-3.3807166 8.3859472 2.1661057
-3.4909439 8.3008118 1.0841966
-3.6382372 8.2504177 1.104033
-3.9884593 8.1495867 2.2654099
-4.1409264 8.0099449 3.6358764
-3.0996673 8.1264019 2.716486
-0.46337709 8.6511879 -1.2136552
-0.5931235 8.596777 1.0396732
-4.3273678 7.9537668 3.2887464
-0.66234261 9.2833242 3.5927987
-4.4092698 7.9582314 -1.5566545
-1.3200926 9.0831642 2.1379995
-1.623296 8.973381 2.1866932
-3.3497126 8.3656025 2.4512992
-2.7759473 8.5550451 1.5895076
-4.1376934 7.9851909 -1.0431006
-4.119307 7.9782619 1.6653122
-4.1237364 7.9758062 -0.74268973
-4.1432242 8.1134005 3.1459672
-4.095252 7.9821749 -1.6670569
-3.449842 8.1389456 3.1021667
-1.7052945 8.9615364 -0.54058087
-1.7520049 8.4833708 1.7122478
-4.5334406 7.7211194 1.8412205
-2.7149253 8.5874033 0.46619123
-4.7288871 7.6773934 2.1657193
-4.7451491 7.5916729 1.3528025
-4.5441275 7.7202964 1.3616732
-4.8208456 7.6658378 1.6569935
-4.8005338 7.493669 1.6396165
-1.8253133 8.8029814 0.46199617
-4.7370987 7.5970249 1.470807
-4.4680872 7.7838326 -2.2309856
-4.6463251 7.5732131 1.7958674
-1.8715453 8.51264 1.7874403
-4.6097627 7.77742 1.3515317
-0.47344288 8.7518063 0.34320793
-0.92195177 8.9220829 -0.91625571
-0.51621193 8.4956293 1.0406404
-0.61366004 8.7062473 1.549408
-4.1196194 8.0700684 3.0907791
-3.0551162 8.5023298 0.083017163
-3.0530736 8.5608673 1.3142793
-2.5228448 8.6964684 1.3439825
-2.3971996 8.7918034 1.3868501
-2.2319655 8.8580809 1.4071748
-2.0580912 8.8605032 0.21662313
-1.9270444 8.9602423 1.4476411
-1.7407966 8.9956284 1.4757488
-1.6007409 9.098073 1.4874361
-1.270165 9.1606283 0.33912069
-1.1309226 9.1750679 1.5767314
-1.2878919 9.2176151 1.5277193
-1.2054377 9.2090549 2.770793
-3.7058949 8.262022 2.6192882
-3.0344348 8.5256338 2.6583972
-2.7056434 8.571003 1.4707286
-2.3542602 8.7823372 2.7377734
-1.7168398 8.9488163 1.582423
-1.4014953 9.0752153 1.6179454
-3.6224608 8.2752647 2.8678551
-3.0562043 8.4645786 1.6946807
-2.8890054 8.57306 2.9674544
-2.5396578 8.652359 1.7616439
-2.382796 8.7642021 3.0120711
-2.2223382 8.8286715 3.025682
-1.5757279 9.0772429 3.0832992
-3.3215835 8.3519478 2.3165965
-1.4834993 9.0561094 2.5169749
-4.5350108 7.8737998 2.7469215
-0.4714773 8.7171173 0.85879415
-0.9691931 9.1208496 3.123086
-0.74400592 9.0349064 3.1869249
-1.8366981 8.5132055 2.0696497
-0.85347015 9.1655521 2.9775457
-4.5838284 7.9906654 3.6284294
-4.2405872 8.0868073 3.6735802
-4.0833678 8.1027098 2.3814201
-4.0457754 8.1870327 3.6912956
-3.9030206 8.1806746 2.405407
-3.8735533 8.2521563 3.7109489
-3.5486875 8.2808447 2.4591942
-2.9867611 8.6024199 3.8097038
-2.7282629 8.5619001 1.3103141
-2.8140955 8.6678658 3.8297234
-2.5099368 8.7188063 2.6046867
-2.3411481 8.782341 2.6293449
-2.2025194 8.7727737 1.4000968
-2.0024798 8.9170437 2.6775017
-1.6649227 8.9870453 2.7315588
-1.346439 9.1582994 2.7751579
-3.71924 8.2072687 -2.1388862
-3.0326505 8.546958 2.968477
-2.7009609 8.6772118 3.0140703
-2.181031 8.878768 3.0862749
-2.0161889 8.9386253 3.1102006
-1.6913598 9.0667353 3.1551225
-2.0497351 8.7434092 2.8166776
-3.9045451 8.2647276 3.3004694
-3.7232244 8.3219852 3.3264704
-3.5813055 8.2939415 2.0544367
-3.4056759 8.3682022 2.0808649
-3.1511841 8.5040951 3.3572354
-3.0026481 8.6091194 3.4164972
-2.8426275 8.6511593 3.4416437
-2.528337 8.6967611 2.2214899
-2.5015364 8.7886438 3.4841852
-2.3398328 8.7617168 2.2371652
-2.1981282 8.779212 1.0184869
-2.1823118 8.8497677 2.2723932
-1.5257111 9.1032972 2.3767023
-1.3688807 9.1547737 2.4034967
-3.9182467 8.2450714 2.7358654
-3.7439482 8.3008785 2.7622325
-3.511627 8.3970985 -2.2335103
-3.4035828 8.3811579 1.5205333
-3.3290434 8.3784046 -2.2018285
-3.0509019 8.5123892 1.5805919
-3.0194609 8.5774994 2.8587902
-2.8810945 8.5813036 1.608485
-2.703511 8.6508236 1.6371105
-2.3332102 8.8068266 2.9313326
-1.9606169 8.9653597 2.9952648
-1.4942578 9.0785036 1.830653
-4.7048097 7.9060454 3.0563214
-4.1494913 8.0923367 1.8294643
-3.9562685 8.1834698 2.5131803
-3.7965269 8.1882 1.8626275
-3.6144972 8.2746572 1.9163046
-2.8691783 8.6046009 3.3014669
-2.6917405 8.6690407 3.3243856
-2.54491 8.6796722 2.0799398
-2.5178671 8.7560301 3.3518033
-2.0237899 8.8964863 2.1665006
-0.57251751 8.545475 1.3398403
-4.621779 7.5284562 -0.2269679
-4.1150408 7.972362 -0.62974709
-4.7535801 7.9294224 3.3351202
-4.3322849 8.0699615 3.3562095
-3.9608757 8.1887503 2.1293013
-3.8178172 8.2842169 3.4717696
-3.6307857 8.3632383 3.4970992
-2.9232962 8.6204166 3.6037886
-2.7437124 8.6969662 3.6280196
-2.5353856 8.7254753 2.3824751
-2.2298441 8.8954725 3.7028487
-4.1077194 8.0125532 3.5467288
-4.0209312 8.0745058 1.8564235
-2.9403701 8.5573635 3.3414917
-2.4241066 8.7486448 3.4157715
-1.9072431 8.8842497 2.239624
-1.7547156 8.9965267 3.5124512
-4.3953204 7.9467978 1.8071611
-3.9630511 8.1731882 3.1689775
-3.5836768 8.3178167 3.2133501
-3.0415034 8.5345726 3.2746904
-2.4983802 8.7248707 3.3585992
-2.38905 8.7232056 2.1006792
-1.353207 9.0948877 2.2539299
-1.8062301 8.8861046 0.95912659
-4.5125322 7.8822947 2.8773427
-4.5423064 7.7920504 1.4657015
-4.5449133 7.7160301 -0.52051616
-3.9137936 8.1695976 3.2292676
-3.7492249 8.2499914 3.2564731
-0.83487213 9.0034142 1.9627072
-0.8236416 9.0946417 1.963995
-1.8165355 8.8619394 1.5723624
-4.1322479 7.9898224 3.4555397
-4.4742589 7.7190962 -0.99184304
-4.6544051 7.8895383 3.1498823
-3.1428943 8.449523 3.283849
-4.5169911 7.7243791 -0.43257922
-4.7285633 7.8226972 3.2517059
-1.7509053 8.8953037 3.4775939
-1.9558126 8.8645334 3.0404441
-4.343441 7.8304558 0.45646426
-2.7293909 8.4798508 0.65945858
-4.5472221 7.8904133 3.6710916
-2.3071239 8.7482796 3.8410745
-4.6404881 7.9022064 3.6464045
-0.59829408 8.5982046 1.1636769
-3.1724937 8.4485979 3.1780529
-2.9806445 8.5313549 3.1950207
-0.60283226 8.7199593 1.1381114
-0.81995666 9.2507095 3.4651873
-4.3188925 8.0519056 3.5054777
-2.7280259 8.5490685 1.1486661
-2.626107 8.6642227 3.6448209
-4.1216335 7.9658613 1.3713446
-3.6262155 8.2757664 1.7699752
-3.5840797 8.3063946 3.050859
-2.8358335 8.416007 -0.43716392
-1.4087733 9.0990286 2.4227173
-1.1278886 9.1474438 1.2602417
-0.92659527 9.1612167 3.7177491
-4.5524402 7.8429351 3.1416221
-4.0125785 8.1062326 2.8394077
-0.83490163 9.1904325 3.7575114
-4.1550727 8.058486 2.7179799
-3.5873437 8.2577 2.7735219
-4.1262321 7.8446245 -0.82494533
-0.52305782 8.8089952 -2.1405265
-2.8663795 8.4820786 3.9092393
-2.7605109 8.5189781 3.6190279
-4.3898296 7.9336157 3.8233845
-4.2377629 7.9493599 3.8413899
-3.9938142 8.0879517 3.8574641
-3.2220173 8.3797379 3.92503
-4.3379273 7.8934288 2.4618721
-4.3283763 7.8196526 0.35817528
-4.325057 7.8818512 1.16271
-0.92172551 9.1106205 3.0573959
-3.1193976 8.2171097 1.0712962
-4.6219029 7.7754245 -0.53586662
-4.6267395 7.7754741 -0.44830281
-3.0152738 8.3956795 -1.3494617
-4.351006 7.8223896 0.86010343
-4.3251867 7.8944077 2.2526901
-4.4293203 7.8775845 1.9562665
-4.6176486 7.7767105 -0.14124902
-4.3503003 7.7268863 -0.49654171
-4.7037678 7.7746849 2.8573375
-3.2295065 8.3655977 1.804368
-4.6246114 7.7209349 1.1578615
-4.3281751 7.8745093 1.3647444
-4.1201448 7.9739971 -0.84135258
-4.1168532 7.9844689 -1.7196156
-4.4270096 7.8978553 2.4672544
-4.2378759 7.8917737 -1.7448081
-4.1434507 7.9752378 2.2525792
-4.2993984 7.9801908 1.9522315
-4.6222296 7.7739682 2.1617413
-4.6231899 7.7721524 1.2611467
-4.117507 7.9709959 1.1636189
-2.9346006 8.2148724 1.1654167
-4.2351017 7.8052721 -1.9028977
-3.0288229 8.3212919 2.5474806
-2.8376665 8.3273239 1.0277781
-4.1199274 7.9921827 2.5511909
-4.3360472 7.8181076 2.2421477
-4.5511475 7.630064 -0.42015082
-4.4606175 7.5703034 1.0274215
-4.5297365 7.7926831 -0.63716471
-4.62533 7.7734642 2.0626645
-4.3452787 7.8191977 1.154439
-2.525255 8.5729094 1.6604005
-0.5532676 8.8819294 0.74155128
-4.3289862 7.8181601 1.3497944
-4.6225667 7.7947345 2.3577929
-4.3243895 7.668294 1.7149876
-1.6600735 8.8386307 2.5782602
-1.1148878 9.0340729 3.164686
-4.505568 7.5997653 -0.66268206
-4.6218157 7.5906706 0.25831771
-4.6186876 7.6849022 -2.145545
-4.2927136 7.9022408 3.6193635
-3.8910341 8.0327854 3.6338289
-0.55949563 8.7928238 -0.83459318
-4.3413343 7.8210287 1.6616591
-2.8288767 8.2772121 1.1927246
-2.4959393 8.5197124 3.334481
-3.0405188 8.3093853 3.1108336
-4.3633652 7.6217036 0.095679775
-4.2498641 7.9391875 3.4349792
-2.8595819 8.3255091 1.6748701
-4.3619838 7.7435989 0.069020316
-2.1895232 8.7525206 0.26708904
-1.5688269 9.0593567 0.70426947
-4.5308657 7.7930512 0.65623921
-4.4504862 7.6440496 1.4527202
-4.1550965 7.9586773 3.7274568
-2.8463326 8.2966166 2.2487874
-4.6139183 7.8666229 1.6542184
-2.1478336 8.7894039 0.18586878
-3.0605323 8.244854 -0.12242332
-4.9173412 7.6683631 1.4742274
-0.57430255 8.9825325 0.75957507
-2.819684 8.2796068 1.5380265
-3.5694187 8.0081749 -0.65598643
-3.0245633 8.2082529 0.52760732
-2.825563 8.5052195 3.7292938
-2.863961 8.3258085 -0.13488017
-4.4328814 8.0032873 3.6726446
-4.1357193 7.9053125 1.9539838
-0.46674159 8.5680885 1.6640389
-4.402873 7.9725809 1.6466854
-4.6243119 7.5234022 0.46270263
-2.8369641 8.3264732 0.84298086
-0.81489408 8.9200649 -0.33061403
-2.5724633 8.6986094 -0.056894802
-4.7330379 7.6588249 2.2737079
-2.8352001 8.4219398 0.86226803
-4.1327758 7.9108386 2.3655555
-2.8312004 8.4729309 -1.1327398
-4.8875751 7.4305806 1.2950379
-4.3274493 7.8802896 0.9630208
-4.6424727 7.5969543 0.65649402
-4.6193776 7.5896397 0.35547093
-0.55908048 8.9937143 1.0474597
-0.624901 8.9791126 -1.8310461
-4.4205694 7.7996645 -1.2368637
-4.4330111 7.8063817 -0.64363277
-0.44364238 8.5869274 -0.24860415
-4.6425824 7.7255096 1.0592638
-2.7248783 8.4772835 -0.53586352
-4.9062195 7.5407376 1.6993332
-2.5773625 8.3215361 2.5148568
-4.3883595 7.7120266 1.5543497
-2.8578191 8.5473652 1.7517402
-4.3351908 7.9680772 -0.44415516
-2.84062 8.3258142 -2.2670956
-0.60633099 8.7078352 -0.62743336
-0.46235561 8.8839502 0.044428274
-4.2259569 7.8990397 -1.5327574
-0.51831692 8.6015978 -0.83543992
-3.1741199 8.2414074 0.74723709
-0.81515044 9.1109915 3.4631529
-0.87488478 9.1592884 -2.8196249
-4.6562619 7.5914135 -0.23441964
-2.9601536 8.1842766 1.3587646
-4.7305422 7.9641376 3.4480684
-4.2376351 7.8271537 -0.90779799
-0.47408426 8.7040367 -2.504581
-1.794284 9.0241337 3.018275
-4.7323461 7.6907816 1.6569346
-4.7016749 7.626699 -1.9101628
-0.57690614 8.8974752 -2.4948769
-0.56549954 8.7878885 0.35635209
-2.7415137 8.4172668 1.6610061
-4.1348872 7.9114099 1.8594296
-1.0791214 8.9437733 -1.2092164
-4.107728 8.1663036 2.7111461
-0.66677827 9.0769911 -1.3237691
-1.3990527 9.1038933 1.3471508
-0.44261691 8.4989557 1.5178727
-2.7045808 8.5660181 0.64568013
-2.5329053 8.5809755 2.6713576
-4.1762066 7.8385587 0.10284757
-2.7256403 8.555871 0.34569308
-4.3421059 7.8212357 0.15609552
-2.7547402 8.3320351 0.7859512
-2.7277715 8.4727516 -0.14528801
-2.7236791 8.4749832 0.059006818
-0.82527709 9.1787853 3.066494
-2.8304951 8.4031115 -0.74452662
-0.77557468 9.0355282 3.0691051
-0.57011425 8.8832474 1.7259636
-4.3357944 7.8138795 1.0539738
-0.72630852 9.0805387 -0.53212494
-0.64777738 9.0723124 -1.5561255
-0.44911861 8.8948154 -0.44522882
-0.61720026 8.8032074 -0.83303934
-2.7291203 8.4780474 -0.039749961
-1.7962093 8.9740934 -1.4370505
-0.5960983 8.6089687 -0.75512189
-0.33267829 8.7071695 -1.751104
-0.66837388 9.0902729 -0.9364813
-0.61060452 8.8006554 1.2518671
-0.71206683 8.9120913 -1.3460777
-4.1948228 7.9533763 -0.92064655
-4.3249454 7.8890882 -0.94549221
-2.7198036 8.4767723 -0.83439618
-2.8277366 8.2579336 2.5791471
-4.2767458 7.99123 -2.187993
-0.61593699 8.8112211 0.95101666
-0.6485883 9.0606117 -1.9345981
-0.53220773 8.6679983 1.6796203
-0.54633892 8.6967402 0.65420717
-4.2101812 7.9903603 -1.433726
-1.818523 8.7950325 2.1577096
-0.65581632 9.1686306 1.4717174
-0.72765297 8.9972343 0.15956879
-0.76022756 9.2117777 -1.5715941
-4.2145529 7.9673228 -0.74274063
-4.4365845 7.7272635 1.4574463
-2.7266648 8.4756451 0.16340758
-4.2253366 7.9660192 -0.82771355
-0.66023433 9.0810099 -1.8295264
-2.7031944 8.5772638 0.57117361
-4.5454617 7.7264113 -0.65044427
-2.818687 8.458993 -0.53815037
-4.215651 7.9830556 -1.624274
-0.73604327 9.1727152 0.36244369
-0.72536069 8.9320383 0.5607087
-2.8256774 8.1964283 0.73621029
-0.62656558 8.9009247 0.85059923
-2.7500257 8.5948124 -0.034490518
-2.6906846 8.5570307 1.8513421
-0.66999125 9.087965 -0.64399916
-4.2015362 7.9485087 -2.0416968
-3.127279 8.2249031 -0.14651376
-0.62356007 8.8237095 1.460963
-0.60493243 8.8155165 1.1465976
-0.72908682 9.0812941 0.26125538
-3.7941501 7.7719078 2.0135212
-2.8200357 8.4683666 -0.031871978
-4.2249742 7.8714466 -1.6235929
-0.58995378 8.5076895 -1.7178998
-3.848716 7.7408476 1.8948749
-0.72664893 9.1894884 -1.2419806
-3.3573031 7.947793 1.7055501
-0.73962516 9.1716166 0.56134427
-1.8288689 8.8773165 0.56263936
-2.7188816 8.4819469 -0.7369284
-0.64010584 9.0701485 -2.036793
-2.5303054 8.5205727 -0.73734373
-0.72405249 9.000948 0.36344886
-1.321191 8.7316828 1.1766511
-0.7236011 9.1692467 1.2587883
-2.5205588 8.6135502 3.7743416
-4.1069927 7.9114389 -1.7310805
-1.8289371 8.6795158 1.597924
-2.8141549 8.4646025 -0.24079238
-2.5137331 8.5732288 1.7575811
-1.1807071 8.6603231 1.654848
-2.8128254 8.4662666 0.073000602
-2.8353353 8.2812881 2.0548282
-2.6004953 8.2413759 1.4658554
-0.73467624 8.7548914 1.3690264
-0.72625816 9.0842829 0.46048564
-0.73874444 9.1746273 0.46105763
-0.61423326 8.8050117 -0.73440808
-0.6395936 9.0705519 -2.1605239
-2.5314956 8.5202799 -0.038484223
-2.0115802 8.5084972 2.3924077
-0.60153514 8.7040501 1.3517647
-0.61058837 8.6162071 -0.92549539
-2.9959843 8.1228542 1.6233368
-2.2447741 8.3831959 1.5471039
-1.9577852 8.501298 1.514328
-0.55119467 8.689991 0.95177436
-0.55038691 8.6839828 1.1490903
-0.55236602 8.6976604 1.2627941
-3.1597824 8.1388474 2.1036556
-1.1044284 8.7907219 1.6795721
-2.7772617 8.3419762 -0.15000893
-0.4784677 8.5538912 1.747483
-2.5331316 8.5771961 2.7604482
-4.7265306 7.5927501 2.5506556
-4.223855 7.8325186 -1.5370457
-0.36185676 8.7098904 -1.446465
-2.8349214 8.4182835 1.2607213
-1.014763 8.8500471 2.208602
-0.90439487 9.2561178 1.2464478
-2.8979273 8.2066031 1.0907986
-2.5400691 8.5155249 -0.53409219
-0.88048476 9.2693377 1.4053292
-0.5199073 8.6000843 -0.93243343
-2.5390477 8.3317947 1.6771331
-3.1433067 8.2011948 0.85632861
-2.1922495 8.424428 2.1185241
-1.9055994 8.5094576 1.1108948
-1.6010032 8.6400394 2.0930114
-3.0271158 8.4490376 -0.42757788
-3.1406436 8.239439 1.3735201
-2.9921911 8.458683 -0.54836851
-0.69437081 8.6992712 0.39244905
-0.74043775 9.1730242 0.2651464
-3.0722859 8.4687338 0.61545193
-1.2778907 8.8913908 2.0174534
-4.2564292 7.8139429 -0.84726316
-0.73716784 9.0136642 2.0579004
-1.8469965 8.9619694 2.7030754
-2.9093356 8.1759834 0.86669195
-2.7798052 8.3388491 0.37427765
-3.0106149 8.4989948 0.71503502
-0.62716687 8.9023876 -1.2431316
-0.72669303 9.1690788 1.1603876
-2.9247613 8.1856861 2.5465364
-0.64613384 8.9803076 -0.74164271
-4.3251815 7.8800693 1.0591173
-0.59608746 8.8958931 1.8948129
-0.62178922 8.797328 -1.2280709
-0.43941724 8.6114149 -2.2403045
-0.46861109 8.6865568 -1.6110525
-0.34153908 8.7927017 -1.0615826
-0.82691121 9.1495667 -2.7431307
-0.71303397 8.7108097 -0.44502363
-4.1318588 7.8388062 -0.43637925
-1.1720023 8.7826929 0.89264703
-0.62466896 8.9852972 -1.7432638
-1.4114097 8.7290602 1.1725903
-1.8340756 8.7030334 1.6387203
-2.1029065 8.459198 0.95053184
-3.0091357 8.4528198 -0.61486971
-0.447359 8.725935 -2.7836726
-0.65264988 9.0652723 -0.035350971
-0.74355739 9.274889 0.80036706
-0.3723478 8.8379192 -1.3755547
-2.8080595 8.5560284 0.58577991
-4.226613 7.8963346 -1.0323265
-1.8234153 8.7302351 -1.8321655
-0.31646568 8.7401571 -1.225274
-0.72924978 9.0141544 2.1576793
-2.2791667 8.4523478 0.57590002
-4.2172813 7.9513044 2.1591449
-1.8391906 8.697752 1.8370543
-1.814967 8.6074314 1.5504442
-0.60888696 8.9074097 1.5754718
-4.5462613 7.7140212 0.57569623
-4.6255198 7.5899272 1.589011
