# .PCD v0.7 - Point Cloud Data file format
VERSION 0.7
FIELDS x y z
SIZE 4 4 4
TYPE F F F
COUNT 1 1 1
WIDTH 607
HEIGHT 1
VIEWPOINT 0 0 0 1 0 0 0
POINTS 607
DATA ascii
6.4144135 29.563541 3.1865358
6.424943 29.634472 1.6347656
6.2158303 29.584379 -1.9156265
6.487464 29.638584 -1.2375675
6.3586898 29.504442 -1.8087773
6.320199 29.46876 -1.6760826
6.9172111 29.723227 1.0831631
6.6653204 29.714249 0.82966518
6.1027689 29.532681 2.813673
6.6904402 29.724913 0.29910937
6.7406602 29.843887 3.5850801
6.553493 29.789495 2.8815165
6.4838419 29.76088 3.4237366
6.5803375 29.789045 3.039536
6.4905996 29.748047 3.3404346
6.5556498 29.773212 3.1221728
6.5578833 29.797634 5.9917102
6.5685887 29.87505 5.9820752
6.4772973 29.722723 -2.0127287
6.6639585 29.739384 -1.5480087
6.554142 29.819761 2.9828694
6.4049582 29.74884 3.5116365
6.4645758 29.769125 3.1677644
6.5967226 29.752554 -1.9066277
6.6435895 29.740807 -0.89837044
6.6789875 29.733387 -1.7955369
6.451736 29.61339 -2.3390441
6.4693341 29.637203 -1.7362714
6.6753917 29.832924 5.970644
6.6381946 29.722298 -0.53126538
6.2634473 29.583622 -2.1409099
6.5740681 29.731215 -2.0892067
6.461956 29.669842 -2.1102066
6.3504448 29.619822 -2.1314394
6.6661649 29.726788 -2.3200371
6.6352496 29.738348 -2.0102508
6.5706239 29.707745 -2.046011
6.3503103 29.613804 -2.0702093
6.6677361 29.878061 5.6427207
6.7542295 29.735378 -1.2438047
6.6840343 29.866697 5.944222
6.6583571 29.72015 -1.7323312
6.4723001 29.621569 -1.438803
6.4783068 29.774307 -1.6211197
6.4752951 29.763197 -1.0520449
6.4845071 29.769653 -0.93993944
6.4141936 29.760675 -1.4431517
6.3512182 29.617559 -1.9332867
6.500598 29.766356 -1.8375802
6.6591702 29.729156 -0.14374962
6.7072706 29.744205 -0.21712929
6.4619899 29.751886 -1.7867626
6.269361 29.670282 -1.7223506
6.5917048 29.774384 -1.8200651
6.7231622 29.720198 -1.9017102
6.5527 29.717094 -1.8187183
6.467504 29.683527 -1.8279238
6.3570781 29.615442 -1.8301426
6.2570648 29.611151 -1.8390511
6.4599519 29.671583 -1.9308403
6.2654028 29.591576 -1.9201636
6.5537791 29.701384 -1.7520339
6.4675493 29.688305 -1.7408937
6.3795633 29.633379 -1.7457573
6.4710841 29.757324 -0.84019637
6.6295252 29.742752 -1.2420323
6.3502493 29.626505 -1.6493127
6.5765538 29.770483 -1.71152
6.381135 29.687222 -1.6440533
6.3525448 29.632383 1.0508027
6.6938038 29.807215 -1.7248011
6.5799408 29.771368 -1.3313134
6.5024981 29.765564 -1.5213097
6.4998465 29.762474 -1.427072
6.5758901 29.774364 -1.6341413
6.2682896 29.619572 -1.7392923
6.3579912 29.632919 1.9697362
6.37252 29.678534 -1.7249151
6.5640965 29.772406 -0.74023092
6.1904573 29.619413 -1.7333156
6.6319838 29.736635 -0.65926886
6.6785679 29.799101 -1.5285995
6.2533894 29.618774 -1.6279027
6.6431003 29.734118 -1.1024538
6.6396608 29.73089 -1.0464054
6.6781549 29.79694 -1.6512965
6.3789921 29.674898 -1.5404494
6.3492136 29.630117 1.7629521
6.3353081 29.607889 1.1669894
6.2570977 29.668385 -1.4451286
6.422122 29.625257 1.1468629
6.5048022 29.526773 0.51749444
6.2604437 29.758333 2.1488855
6.7036529 29.878269 5.7830172
6.7602406 29.823074 -1.6436422
6.6803989 29.852587 -1.6197011
6.1798258 29.590437 3.2297621
6.2548628 29.604052 3.0746984
6.2596364 29.627354 2.0591817
6.2580328 29.66925 -1.1373265
6.7353854 29.706032 -1.6702595
6.4690013 29.703024 -1.4392347
6.4774938 29.707504 -1.6439228
6.3793712 29.783573 1.7661929
6.3674655 29.686371 1.0577605
6.3862066 29.771706 0.55913156
6.3689699 29.686739 0.75940746
6.3723645 29.62224 1.2546307
6.3569446 29.611364 2.5620139
6.5797663 29.770887 0.75916749
6.3843694 29.757586 1.6405796
6.3744693 29.687954 2.5628793
6.5991945 29.762014 2.7408531
6.6413922 29.70425 0.65900797
6.6706471 29.798374 0.75674146
6.3573384 29.614231 1.5688218
6.4665875 29.571388 0.46000439
6.428371 29.644779 -0.25557178
6.5528808 29.581846 -0.27656788
6.386683 29.615192 3.2326255
6.3572617 29.709806 3.0572739
6.3438601 29.624731 1.4415022
6.4387221 29.642843 0.72513515
6.4906101 29.633385 0.87083083
6.6560535 29.735809 -0.39439923
6.3740625 29.699993 2.7704165
6.3462591 29.638918 3.0897727
6.3857884 29.704958 3.1825187
6.3698392 29.682571 2.8667221
6.6731162 29.803715 -0.33623666
6.2985921 29.539814 3.1469462
6.3568001 29.622772 1.6646395
6.4953556 29.603327 0.67120343
6.7773027 29.720348 1.4048808
6.3639283 29.614714 2.877352
6.3391728 29.603645 2.6666067
6.3550196 29.615385 2.9815977
6.5580163 29.731335 -0.93806052
6.7638135 29.822468 -1.5372901
6.2659121 29.615637 2.2558293
6.2028761 29.628433 1.6636834
6.2720675 29.625572 2.1704993
6.1741595 29.606039 2.5584967
6.4720173 29.768679 0.77363157
6.7672138 29.710052 1.1385471
6.4567623 29.69141 3.0652308
6.1895623 29.62875 1.9698336
6.1685896 29.620626 2.1583452
6.4836416 29.764856 -0.63538027
6.4925075 29.765398 0.35931522
6.4776559 29.762621 1.2576581
6.4656272 29.711823 -0.33796531
6.2882137 29.54431 2.1739528
6.472013 29.778347 2.8633046
6.7744985 29.718641 1.25418
6.4530139 29.690193 2.9321544
6.4594674 29.599476 1.9219706
6.4876428 29.763004 0.26700184
6.6808558 29.732822 0.35576239
6.4605203 29.660748 3.1785579
6.1525793 29.610624 3.4580486
6.4694567 29.856564 -0.14229318
6.2563548 29.688606 2.8892622
6.361433 29.633255 0.75234485
6.7726951 29.826321 0.35761443
6.4724154 29.767849 1.9552003
6.8323684 29.743036 0.90774941
6.2885218 29.78109 2.3474104
6.5740085 29.773207 -0.33505517
6.5591903 29.727356 -0.7306084
6.1765447 29.618477 2.4563053
6.27349 29.684467 2.4453816
6.5395727 29.620508 -1.321685
6.4894314 29.766251 0.47976771
6.2553663 29.620232 2.4765089
6.484611 29.757702 -0.74732357
6.3740034 29.683992 0.26337832
6.1747398 29.649727 3.1667798
6.2963791 29.711235 3.0214927
6.1913133 29.610996 3.0718229
6.5728145 29.773014 -0.53840876
6.1808176 29.681826 2.1560514
6.4767728 29.763966 2.4557788
6.8371925 29.857359 0.36052486
6.2792802 29.665016 2.5677176
6.3620329 29.61874 0.36512527
6.4906297 29.784922 1.3634514
6.1725678 29.616283 2.3632469
6.5550714 29.726887 -1.1437235
6.4620848 29.603218 1.59417
6.5092731 29.595041 0.38750497
6.371829 29.793034 0.071440242
6.7250557 29.633816 0.74041027
6.8624935 29.678169 0.68782437
6.5561075 29.67963 2.7610903
6.6735559 29.802349 -1.1418201
6.6094341 29.843483 5.6512532
6.5707841 29.777477 -1.0401815
6.5703573 29.784727 -1.2317744
6.4610209 29.705551 -1.1362985
6.1873598 29.678017 2.066982
6.3483119 29.626192 0.16507441
6.5825305 29.773878 -0.43658152
6.7630973 29.819416 -1.4332776
6.6683955 29.796883 0.35801938
6.1665392 29.624331 2.8628819
6.837687 29.828804 -1.3377366
6.6676106 29.720284 1.0776274
6.5762262 29.767078 0.26027855
6.3462639 29.63283 -1.0311762
6.4881883 29.767551 0.55707216
6.5498562 29.635044 -0.99195737
6.4784141 29.76779 1.5576029
6.1809034 29.691414 2.2564678
6.4655809 29.717398 1.3561201
6.3544526 29.624485 -1.4270312
6.4607592 29.715361 1.4632696
6.3551254 29.632822 -1.1217231
6.1941395 29.684416 1.8606223
6.249774 29.682983 2.2609301
6.4945993 29.645523 3.0731707
6.3761292 29.684147 -1.4510636
6.4729695 29.763941 2.2579472
6.7730579 29.825344 -0.039124075
6.4707065 29.713419 1.8563294
6.269474 29.628071 2.374306
6.7739882 29.825876 -0.23696537
6.4601598 29.712406 1.2612
6.5526648 29.730307 1.2556058
6.5419602 29.730009 0.26072919
6.4652309 29.716801 0.45934841
6.555315 29.724627 0.95275772
6.6813822 29.800098 -1.2352184
6.4648671 29.716036 0.95867825
6.3827753 29.772181 2.0519392
6.2646098 29.624418 2.6585062
6.5512505 29.733356 0.8611033
6.4855175 29.771744 1.4570618
6.2621732 29.687473 1.9594063
6.2637486 29.686724 1.5605416
6.4666128 29.71348 0.6636014
6.5599689 29.724386 1.4580183
6.4667616 29.717436 1.160995
6.4632888 29.713531 1.6593354
6.4717979 29.712952 -0.039786998
6.5631251 29.72332 -1.3345624
6.5767789 29.775112 1.1644291
6.6470404 29.736486 -1.3463528
6.6730313 29.799973 -0.13985202
6.4749713 29.77033 1.8693602
6.3685484 29.681992 0.061754066
6.3752136 29.682718 -0.83695221
6.4657097 29.712614 0.86532032
6.5845013 29.770458 -0.040162425
6.1954379 29.687687 1.9653133
6.5515671 29.732418 -0.14026301
6.5803652 29.770372 0.6589247
6.7749324 29.826986 0.66404384
6.5584197 29.734287 0.15310885
6.7719069 29.825682 -0.13719285
6.4720607 29.763144 2.0639954
6.2580824 29.627649 1.6604149
6.4680963 29.715656 0.76354289
6.4708409 29.706238 2.4643579
6.4686131 29.712248 -0.13793446
6.5539169 29.726978 1.1704401
6.3685555 29.681656 -0.040903717
6.4785657 29.770926 1.155692
6.9345136 29.706007 1.1299112
6.5773344 29.69191 2.9556539
6.3740025 29.686878 0.85867876
6.5740843 29.77375 1.2615045
6.6236563 29.737995 -0.83110607
6.6741338 29.79669 -0.038517084
6.6739583 29.802061 0.55746692
6.4692745 29.764683 2.1764381
6.5534158 29.727867 -0.64289045
6.579205 29.76955 0.16020751
6.3734598 29.685751 0.66080081
6.4695396 29.713724 0.16103467
6.4690156 29.714085 0.5578649
6.3693595 29.626564 -1.5313517
6.6943769 29.723732 0.065674774
6.2604065 29.624403 1.7643346
6.3665681 29.687328 0.9622758
6.3568525 29.623844 2.4637098
6.4681664 29.71529 1.7563114
6.4528184 29.768457 3.0155511
6.5785456 29.772676 -0.23665003
6.1767159 29.685095 2.5471585
6.6754198 29.796906 -1.0371516
6.1835346 29.617626 3.1294901
6.4703774 29.714876 0.058440451
6.4620051 29.711987 -0.24174748
6.4796076 29.613863 2.1571062
6.5519433 29.733652 0.4557983
6.254436 29.619795 1.867102
6.1737971 29.681631 2.7576411
6.5818214 29.771461 0.061344609
6.5426607 29.730299 0.053097546
6.2513595 29.675459 -1.2324466
6.3614173 29.622866 2.2530882
6.552835 29.729733 -0.03322221
6.5604 29.731247 -0.53349966
6.7313089 29.907564 5.9412899
6.7491579 29.803989 -1.8292785
6.368175 29.683735 -0.54040623
6.3805413 29.6453 2.7761974
6.4982653 29.61227 1.8812964
6.6739602 29.799623 -0.54103792
6.3398509 29.633989 -0.13921213
6.3807678 29.695665 2.673404
6.3719854 29.685087 -0.13959926
6.3734226 29.698135 2.4657538
6.3712568 29.685108 -0.34186083
6.4715691 29.715134 2.6746442
6.5726051 29.776691 -1.1364325
6.3705034 29.676878 -1.3409909
6.2582278 29.691561 1.8659601
6.5763311 29.776667 1.0599859
6.4606504 29.716614 -0.53457475
6.4838967 29.767351 -1.2243569
6.558043 29.725647 -1.4286735
6.7374458 29.732662 0.1805253
6.4741807 29.602596 -0.61311215
6.3644609 29.703457 2.3702588
6.5798287 29.768457 -0.13925932
6.367219 29.629154 1.8524531
6.2529631 29.614302 -1.5342324
6.675137 29.80187 1.060172
6.5731149 29.768234 -0.64278036
6.2595072 29.69072 1.7608111
6.3709292 29.68334 0.46427476
6.8339629 29.82777 0.36154521
6.3784828 29.763683 2.4724288
6.375402 29.679649 -1.0392057
6.1829929 29.624386 2.7538619
6.2761321 29.609489 3.2567554
6.3848643 29.773579 2.1538944
6.5557041 29.723387 -1.2369941
6.5534549 29.729191 -0.34072831
6.6697621 29.801924 1.2648258
6.3522949 29.628773 2.1574504
6.6691875 29.794683 -0.64093345
6.6217732 29.61492 1.1611866
6.4808412 29.761356 -1.138502
6.6760445 29.802223 -0.4433732
6.3763361 29.688711 2.1656127
6.7726994 29.824659 0.45827898
6.2478909 29.674595 -1.3353163
6.5778828 29.773605 -0.83749747
6.7454567 29.73147 -1.4592057
6.3509126 29.635937 0.65863621
6.6734552 29.79858 0.65625882
6.5583229 29.728653 -0.23358925
6.3768816 29.688358 -1.2294425
6.6566057 29.72333 0.93362045
6.2704678 29.685984 2.3651905
6.1794696 29.687941 2.3615768
6.6689453 29.800844 0.16257049
6.3796115 29.766722 2.2269247
6.5495677 29.720711 -1.5473272
6.4666653 29.578835 1.7786671
6.198225 29.617655 -1.3336885
6.2625966 29.621187 -1.0303384
6.1424026 29.64674 2.951405
6.4639053 29.711977 -0.63473129
6.2533789 29.624214 1.5603771
6.6731415 29.792562 -1.3347384
6.260447 29.618555 -1.2372574
6.3666945 29.689432 -0.93834811
6.4114704 29.777739 2.6382709
6.7402401 29.695576 0.9788301
6.2549167 29.681465 2.0550189
6.5741391 29.780985 1.4537606
6.6688762 29.796492 0.25993034
6.2533693 29.617052 -1.3336519
6.3674407 29.687914 1.1669363
6.3671312 29.691181 1.5580217
6.5693274 29.725922 -0.8405087
6.5030417 29.635708 2.3842778
6.6723366 29.801538 0.96143776
6.5707135 29.77206 -0.93093699
6.6702929 29.802137 -0.8351717
6.3779941 29.688358 -1.8457515
6.2782826 29.684509 2.7528262
6.6815295 29.797373 -0.93797344
6.6732378 29.798698 0.46338326
6.2637715 29.687441 2.1631508
6.6759601 29.794739 -1.4410274
6.5624561 29.728851 -1.0413647
6.3728905 29.62085 2.3924479
6.3864136 29.523308 2.5155339
6.2822657 29.695713 2.9558034
6.3689761 29.695446 2.0698311
6.1701369 29.679659 2.6515245
6.5638161 29.725842 -0.43169782
6.4690585 29.711472 -0.93199474
6.380271 29.711025 2.9502132
6.4673572 29.706793 -1.5240799
6.3662653 29.684866 1.4557294
6.4632921 29.705381 -0.83729315
6.2572923 29.621004 2.5589497
6.189034 29.613388 2.6604314
6.508985 29.762571 -0.24935967
6.4932542 29.761824 0.64285547
6.4603033 29.718082 -0.73619819
6.391551 29.779926 0.65091568
6.465507 29.715775 2.0525146
6.4855046 29.767513 0.85947257
6.4637375 29.768414 2.3585973
6.775629 29.826317 0.16279463
6.4902282 29.760834 -0.041237984
6.4848804 29.761171 0.050359335
6.4863505 29.762203 0.95571864
6.3716345 29.684366 0.1618378
6.4835649 29.774239 0.15150447
6.4650497 29.712622 -0.43741247
6.4597268 29.703375 -1.2377659
6.7728539 29.825716 0.060498271
6.5753493 29.773565 0.95084989
6.4908514 29.762695 -0.14839265
6.3356547 29.633577 0.85594499
6.8302703 29.831413 0.46690369
6.2601738 29.620672 -1.1337187
6.2630634 29.773005 2.0517178
6.676662 29.799629 -0.23832539
6.470407 29.706812 -1.3419247
6.3477812 29.632946 0.56014431
6.4661269 29.712662 -1.0357909
6.7741218 29.824717 1.2632955
6.3727574 29.770441 1.4440039
6.4740815 29.704508 2.1518338
6.3652091 29.698952 1.8646511
6.3692679 29.691425 1.7603561
6.4703174 29.698652 2.8574603
6.3826265 29.755785 0.94259983
6.3701015 29.693428 1.6662215
6.3671832 29.686935 1.3592912
6.3997364 29.773478 0.34712625
6.3710999 29.682562 0.36206731
6.5534406 29.733852 1.0531416
6.6742477 29.795109 0.061165813
6.4373279 29.592417 -1.332122
6.5741124 29.770044 0.56331772
6.6603785 29.722603 0.77295893
6.3686924 29.689625 1.264268
6.3610287 29.631527 -0.6477443
6.35465 29.631926 -0.34545913
6.4100881 29.753273 2.3536804
6.5775304 29.767633 0.35964614
6.3750033 29.702126 2.2553606
6.3830338 29.766087 1.9659843
6.1703973 29.687164 2.4556391
6.3382254 29.632486 -0.045338299
6.3456345 29.618874 -0.23383479
6.5747414 29.769541 0.46404299
6.3671618 29.682369 -0.6348232
6.3881702 29.766077 1.852324
6.3699174 29.698332 1.9602375
6.5428743 29.565346 0.37969247
6.3327971 29.625448 -0.43042767
6.3495302 29.634548 -0.74075729
6.5475903 29.733227 0.56230772
6.2514124 29.611729 2.8562384
6.6824121 29.698299 1.1493266
6.3587265 29.772306 0.77526546
6.6751957 29.803612 1.1679893
6.6660876 29.794477 0.86249954
6.4667139 29.711954 2.5666246
6.4933152 29.768715 -0.53185076
6.3850241 29.824291 0.83906174
6.3744082 29.687489 -0.73917073
6.3570733 29.625582 -0.84506583
6.5982275 29.616913 1.167707
6.3697929 29.684792 0.56432593
6.3724346 29.636772 0.44174501
6.4662776 29.71175 1.5541196
6.3723769 29.684513 -0.23811606
6.3757005 29.688416 -0.44176763
6.6765833 29.803379 1.3579233
6.5752268 29.775681 1.3592725
6.573153 29.772936 0.86130953
6.5792723 29.777893 -1.5273073
6.4829011 29.761036 -0.46732172
6.5374603 29.592552 0.81278759
6.6648231 29.621204 0.77559185
6.4872284 29.767227 1.0569506
6.3716273 29.622375 2.0494702
6.3467836 29.633162 -0.93652278
6.2648849 29.618977 -1.4359001
6.2624364 29.686886 1.6551814
6.4708724 29.71578 0.36143264
6.4882426 29.768827 1.6691152
6.4640427 29.71435 1.0557028
6.4612083 29.708384 1.9659622
6.4809566 29.769062 1.7489049
6.5515733 29.732367 0.66476214
6.4680676 29.715303 0.25888777
6.5534954 29.721766 0.75930554
6.4706936 29.698671 2.7545919
6.468781 29.692955 2.2612982
6.3525567 29.629181 -1.2205048
6.4611955 29.715679 2.3742161
6.3749328 29.68697 -1.1416919
6.2557249 29.623207 1.9722561
6.7664332 29.879599 5.7666731
6.2436199 29.617258 3.3275695
6.4487476 29.767067 2.9224372
6.4556384 29.661995 3.4258394
6.4010992 29.774019 3.0598807
6.3967385 29.66655 3.4572105
6.4319725 29.705484 3.3700953
6.5576553 29.731213 1.3640697
6.4725037 29.662743 3.2494912
6.2826977 29.617661 2.7634881
6.5553141 29.854641 -0.23072529
6.4990616 29.631033 3.2291346
6.4973307 29.633255 3.1887314
6.4058857 29.691418 3.2452581
6.7417216 29.906237 5.6134725
6.5546598 29.734463 0.36182481
6.3533764 29.632933 0.076726243
6.3367038 29.631098 -0.52994716
6.2961955 29.668453 2.6816185
6.6598196 29.773956 -2.0576534
6.4656749 29.618679 -1.0340611
6.3801994 29.670631 -2.032701
6.3416047 29.749102 -2.3298376
6.296886 29.677282 -1.6499945
6.6670661 29.739187 0.12813054
6.4505243 29.626762 1.2536097
6.3539248 29.624121 0.96547461
6.6691132 29.787672 -1.9544799
6.5745211 29.772388 -1.4447161
6.6691313 29.721159 -0.74190199
6.8276787 29.826588 0.5564034
6.4729948 29.644505 -0.70650119
6.7645416 29.807566 -1.7229656
6.2810745 29.790043 2.4172914
6.4835072 29.757013 -0.32773373
6.5757198 29.8559 -0.0315671
6.5391307 29.852314 0.77883714
6.8013382 29.680973 0.64959168
6.6782136 29.692291 0.0090356525
6.5328336 29.608 0.02352462
6.3434248 29.536968 0.6495012
6.7485466 29.728535 0.3384921
6.1732087 29.619787 2.2600274
6.3502879 29.626389 0.2494636
6.1944695 29.624882 1.7497646
6.170238 29.52877 -1.6297669
6.4324489 29.775446 2.7973669
6.3662415 29.627323 -1.3384653
6.8535409 29.816828 -1.4371405
6.1997466 29.621685 -1.423141
6.6399341 29.745464 -1.4111974
6.11305 29.62204 2.731854
6.1964674 29.615606 -1.5473241
6.2025671 29.621084 -1.1374085
6.1807985 29.620764 -1.0431011
6.1845479 29.613337 -1.632018
6.1909504 29.622124 1.8712118
6.1744366 29.61776 2.0643015
6.7716694 29.828287 0.56004256
6.3554482 29.635687 1.360114
6.7673955 29.891346 3.4614096
6.767724 29.820921 -1.3394352
6.0885963 29.65974 2.2783225
6.4625096 29.869005 -1.0518495
6.5636468 29.858603 -0.81808722
6.1185679 29.572748 -1.7344197
6.0952787 29.619617 -1.6370634
6.0686297 29.642918 -1.5386244
6.056531 29.523561 -1.7177327
6.4962091 29.754436 -1.3382158
6.7983112 29.738235 0.76235318
6.7281351 29.717356 0.48208636
6.6789227 29.734829 0.43100885
6.6505842 29.727625 1.3725684
6.4052773 29.76717 -1.2776318
6.6618152 29.740513 1.222119
6.3397989 29.498793 0.12684031
6.5692978 29.720612 -1.6421386
6.5764651 29.717075 -1.9118034
6.4906139 29.852848 0.12007292
6.4703836 29.848341 0.55186224
6.2102356 29.658018 3.3065116
6.2285819 29.509296 1.522608
6.2065878 29.664398 3.496944
6.2646017 29.516907 -0.37207055
6.6411252 29.660723 -2.1916993
6.6748118 29.77833 -1.8415629
6.6582727 29.774792 -2.1212885
6.4170189 29.673569 -2.222132
6.4373255 29.681664 -2.3297305
6.5644321 29.737617 -2.2951303
6.5446444 29.847834 0.86768031
6.3941216 29.757757 -1.1799585
6.3924618 29.707392 -2.2900066
6.4762163 29.768707 -1.9147347
6.4090319 29.649136 -1.9354215
6.5846863 29.850945 -2.1252775
6.4357023 29.779446 -2.1604948
6.8725767 29.682074 1.3088225
6.5727854 29.855055 -1.7534947
6.2150497 29.632591 -2.0208285
