# .PCD v0.7 - Point Cloud Data file format
VERSION 0.7
FIELDS x y z
SIZE 4 4 4
TYPE F F F
COUNT 1 1 1
WIDTH 1518
HEIGHT 1
VIEWPOINT 0 0 0 1 0 0 0
POINTS 1518
DATA ascii
-1.9384336 7.7629147 2.088603
-0.91396356 8.1609221 1.267673
-1.9412462 7.5286846 1.3687614
-3.936301 6.525568 -0.14025491
-1.8349963 7.5930762 1.6666412
-1.2404225 8.0148783 0.74579674
-2.7416813 7.2288542 -0.83654809
-1.9028622 7.7758846 1.5297894
-2.6896784 7.2658277 2.9123275
-1.8280919 7.5829048 -0.5322715
-4.0185218 6.4700651 -1.1310593
-2.8532 7.4223342 1.5677066
-2.3321431 7.3993444 -0.43442348
-2.8467717 7.4162593 1.7075644
-3.5077591 6.9754415 0.23309323
-3.820868 6.6699295 -1.8530471
-2.1620505 7.6780691 1.0721037
-3.4068284 7.0586863 2.353935
-2.8263426 7.174439 2.2915065
-2.2199113 7.392725 2.3853357
-1.6203423 7.6768909 1.1573936
-1.857856 7.5428171 -0.65153396
-1.5162451 7.9047413 1.0557693
-1.9024439 7.7666755 1.9295436
-1.2363709 7.8110113 2.2662899
-1.3269414 7.813622 2.4432116
-2.1994455 7.4563522 -0.34973115
-1.2351247 7.8184462 1.860182
-2.7410789 7.4373245 1.9582533
-1.7236679 7.6571951 0.96426666
-1.8416238 7.5984583 1.4658428
-0.8330282 8.1252041 0.76339364
-1.9021466 7.9014721 1.672871
-3.2666056 7.0330296 -0.333031
-0.82601595 8.1773024 0.1525747
-0.62298763 8.1014862 2.4513283
-1.7371757 7.8183804 1.5608015
-3.6356537 6.6285973 -0.33817726
-1.9246309 7.7724376 1.6529639
-0.78372818 8.1532135 2.3365619
-1.882967 7.5462365 -1.2510779
-1.83164 7.5984244 -0.023551319
-3.2492776 7.0370655 -0.73528737
-3.258158 7.035387 -0.63137358
-1.6312779 7.6753564 0.54654223
-1.4050419 7.792655 0.64475083
-2.8331904 7.4118128 0.87780845
-2.9226196 7.1836138 -0.34578094
-1.6255138 7.6858864 2.8376667
-3.0262959 7.1147952 -1.2253139
-3.23107 7.0318522 -1.2416784
-0.63752913 8.2066011 1.3565215
-1.94822 7.5369225 -0.32610923
-2.2691145 7.341485 2.2811728
-3.546284 6.9321423 -0.64455831
-1.0034492 7.9619184 1.7725455
-3.5297248 6.9802437 0.15680037
-3.6381903 6.8971801 -0.73791766
-2.7296207 7.2227468 -1.0372322
-3.6963489 6.8682642 -1.0381862
-3.6582799 6.781116 -1.0309714
-1.6560351 7.6320562 -0.85131079
-2.1116886 7.5813632 2.1419365
-3.1438527 7.1240802 0.16174935
-3.7838187 6.6549425 -0.5080021
-3.3129776 7.0836596 2.0648501
-1.8604611 7.7851448 0.34655166
-2.604284 7.3671989 1.1994144
-1.5221672 7.8399539 0.6704303
-0.60822809 8.0981913 1.1655561
-3.4653683 6.9380083 -0.83270943
-1.3623757 7.8913927 1.3490446
-2.1159148 7.7069788 2.0892653
-2.7055936 7.3599901 2.0112751
-1.4059472 7.9724312 1.0905226
-1.7073029 7.882637 1.9860165
-2.6286013 7.2840066 -0.53746474
-3.5680714 6.9362445 -0.1465003
-3.5111101 6.9637833 -0.64099914
-0.72960317 8.0117073 1.0521419
-2.5706847 7.5334172 1.604439
-1.3324772 7.805562 2.1573195
-2.6293902 7.282846 -0.63958055
-1.1363136 7.8223376 2.2639744
-3.6314244 6.6797819 -0.54049093
-2.8397348 7.2262192 -0.050742913
-1.9345361 7.5879164 2.3648584
-1.4507003 7.6344481 2.4564898
-3.1441102 7.14568 1.6044519
-3.6111143 6.9151883 0.23495065
-3.5227895 6.9649329 -0.34127203
-3.9278221 6.5606666 -0.048474427
-2.0380988 7.5116978 1.25308
-2.3005409 7.4596033 1.8421425
-0.72554696 8.0234804 1.2630752
-3.6379521 6.7989969 -1.1483341
-1.225687 8.012702 1.1545416
-1.9375554 7.527596 1.1370296
-1.2992198 7.8635039 2.5978341
-1.4510329 7.7159758 1.7719012
-3.1543939 6.9994345 -2.5937078
-3.3232625 7.0894914 1.9566429
-3.1320624 7.0928869 2.3656569
-3.3331308 6.9923601 2.4676402
-3.7003264 6.8775549 -0.94361871
-3.608918 6.9674387 -0.62579221
-0.93825489 7.9411221 1.2760824
-1.9518514 7.728395 1.9927943
-1.4972097 7.7609482 1.7598399
-2.0249567 7.5011601 2.0686672
-3.3374791 7.0520883 0.95033932
-3.2815375 7.0572972 1.2392797
-3.5216799 6.9663086 -0.24279332
-1.4255127 7.7984838 2.6495547
-2.1094918 7.4811449 2.7624252
-2.2601943 7.4298687 0.68345451
-0.93469381 7.8991556 2.5673907
-2.9454145 7.1751823 1.3522968
-3.2212667 7.0650272 -0.74096853
-0.73036379 8.1919231 0.96353823
-2.4362094 7.3794708 -0.041515153
-0.82866883 7.9848213 1.4626521
-3.6891999 6.7910638 -0.12782058
-1.1199752 7.8370585 1.4063699
-3.2361102 7.0859795 2.3614964
-2.1107752 7.4683008 -1.0350144
-0.82099438 8.1739302 1.5641786
-3.4721758 6.9442005 -0.51941049
-1.8909255 7.7865577 1.3385378
-1.904775 7.7205915 0.7719962
-0.71361864 8.0700922 2.4725409
-3.1992514 7.0770006 2.7158434
-2.4123132 7.4501233 1.0638287
-3.2131298 7.0856576 1.85692
-0.73292768 8.0046635 2.6277466
-1.7302595 7.6268606 -0.43349367
-1.3314179 7.7991877 1.8681233
-1.9358122 7.524437 -0.93047273
-2.2429307 7.4153728 1.0670701
-2.1235838 7.4821672 2.0579362
-3.1284547 7.0925002 -0.7337538
-2.0072594 7.5592613 1.669699
-0.63578868 8.0161848 1.9666051
-3.1220202 7.1059532 2.5751567
-2.645344 7.3186569 3.0210278
-0.92291379 7.9697266 1.666883
-3.3343091 7.0681477 2.5720608
-3.420974 7.0342202 2.6416223
-0.63466734 8.0164862 1.6659448
-2.2295477 7.4263735 1.1691234
-0.71515483 8.0706625 2.5589271
-2.3100586 7.4622111 2.7783203
-3.6243536 6.8767476 -1.4414134
-2.6271257 7.3464885 1.5807536
-2.6050093 7.3558464 1.6419325
-3.3266575 7.0549121 1.5249255
-3.5222971 6.9881868 0.3484402
-2.1378407 7.5225492 2.4652236
-2.6428339 7.2857652 2.4296544
-3.7019691 6.8045659 -1.3536339
-2.4317479 7.2788367 2.868619
-2.517489 7.2638402 -2.2321477
-2.0331669 7.4216919 2.1599798
-2.6276653 7.2928271 -0.43524772
-3.929076 6.5562129 0.15891902
-2.4478917 7.3938465 2.2563119
-0.82429904 7.9965448 2.0612533
-3.2345805 7.1010799 2.2518291
-1.4267893 7.7149162 1.4588974
-2.595453 7.3484368 -0.19767304
-0.71399331 8.117281 1.1517204
-1.1312697 7.8151183 2.3440485
-0.71615607 8.0728788 1.6555862
-2.6501739 7.5776892 1.7374901
-3.0594285 7.1383343 -0.035117291
-3.9140322 6.5636692 -0.22747427
-3.0524974 7.1472745 0.6756345
-4.0670137 6.4400506 -0.28267851
-3.5454619 6.9186091 -1.2319355
-2.130507 7.6536121 0.69664049
-1.4342408 7.6268492 2.6817336
-2.1010859 7.5473762 2.2640016
-2.1099958 7.5883951 1.9389342
-3.2368007 7.1168551 2.1555829
-3.577646 6.6285825 -0.95858884
-3.9219077 6.4766421 -1.4308417
-2.7339168 7.2959023 2.1577916
-0.92862242 8.1599293 -0.26833409
-2.6382692 7.3033924 1.3700328
-1.0134166 7.9580727 2.3708835
-3.5448403 6.899394 -1.6254277
-3.8241825 6.5134988 -1.7510257
-0.82316005 8.2554436 2.8399432
-2.284543 7.4513359 -0.072437115
-2.450861 7.334374 -0.73448604
-0.82456559 7.9872608 1.0663546
-2.1066718 7.5494647 2.0989349
-3.8424292 6.514565 -1.6421764
-3.8927572 6.4974518 -1.635707
-1.5299997 7.7001367 1.2706233
-3.297487 7.0996399 2.4808676
-2.61449 7.3639865 2.0548375
-1.8321134 7.6580529 1.7368881
-2.9166813 7.1716604 -1.144382
-2.805335 7.2569728 0.76657951
-3.6198981 6.6077685 -1.5261786
-1.9786893 7.5435991 0.80901003
-2.0347435 7.4968843 -0.74619228
-3.2085037 7.0904121 2.6425886
-3.531796 6.9120564 -1.5165737
-1.831303 7.5959792 1.5552337
-3.4677539 6.9342003 -0.91403693
-1.8246833 7.5737 -0.83837843
-2.4309475 7.3942327 2.5534642
-2.8252952 7.2768278 2.2474568
-3.6499567 6.7819242 -0.93189692
-3.8336716 6.5073786 -1.5457671
-1.3494364 7.794014 0.68189639
-2.038295 7.526145 0.46400794
-1.4081841 7.9636931 1.2585168
-2.0244756 7.5668888 1.9768645
-4.0054293 6.4664097 -1.2269734
-2.5263209 7.2826357 2.7606063
-2.3635273 7.3387876 -1.2521552
-3.6295722 6.6861415 -0.83573824
-2.5937777 7.3634214 2.1720848
-1.2121693 8.0589409 1.5749489
-2.6698973 7.2413406 -0.82640404
-3.7339561 6.6200285 0.1573755
-2.8268075 7.2784858 2.048244
-2.0386798 7.5290241 0.96180761
-2.0264506 7.5716143 2.0739887
-1.3313181 7.8006854 2.0614369
-2.4297395 7.3677092 2.6514065
-2.6042972 7.2688961 2.5778022
-3.014257 7.19626 2.1723206
-0.89205545 8.1632652 0.026343647
-1.7130648 7.656539 0.75990981
-2.2201514 7.3983998 2.5693457
-2.2495363 7.4052434 2.6329193
-2.3375821 7.4158049 2.6506724
-3.0275922 7.1868668 2.3400064
-3.6232524 6.6730714 -0.24623249
-1.932302 7.4963346 2.1560848
-2.3433621 7.3868699 2.1565146
-2.6222799 7.2966719 1.4780164
-4.0563922 6.4307566 -1.2374648
-3.3218918 7.0632324 1.3874811
-3.328707 6.9999471 -1.2385305
-2.626188 7.3762584 2.3486516
-3.7241111 6.621953 0.04953387
-2.6213434 7.3070517 1.9605612
-2.3336282 7.4054556 0.25173736
-2.4260001 7.3828969 2.374685
-2.6129069 7.3211727 2.2694519
-2.3061779 7.3965001 2.2652006
-2.5407035 7.3176594 1.3554186
-1.1300625 7.8851089 1.8642262
-3.8230522 6.52842 -1.3361123
-1.8402162 7.5982542 1.7578167
-1.5943599 7.6563058 -1.1396277
-2.3318584 7.3932381 2.0670879
-3.547406 6.9053602 -1.3382515
-3.6881714 6.7915111 -0.2491606
-3.3142118 7.0591512 1.8870697
-3.4026752 7.0619621 -0.86848068
-3.6976125 6.8699479 -0.84576601
-2.4372678 7.3394837 -0.53389108
-3.8364294 6.512279 -1.4435126
-1.6387835 7.6648989 0.25893709
-0.99899393 7.9619026 2.2704194
-1.7249818 7.6765094 2.4555824
-0.71064818 8.0971861 1.4720943
-3.6183975 6.8682117 -1.6501267
-2.3353062 7.4561572 2.0974584
-2.9385562 7.190958 0.16422458
-1.8369725 7.610846 2.5691655
-2.0522392 7.5525436 2.7753782
-2.724164 7.2727394 -0.043011799
-1.5997497 7.6636014 -1.250868
-1.1013718 7.9763231 2.5902424
-2.124836 7.3887739 2.7711718
-2.3688514 7.454546 2.457865
-3.5102181 6.9640355 -1.0429882
-4.0453897 6.4318581 -1.3381574
-0.53771377 8.1783476 2.3416352
-3.9217939 6.4899292 -1.3361441
-4.0487204 6.4342403 -1.132778
-2.5516956 7.3697586 1.7565002
-2.9289975 7.2195921 1.7495292
-2.5195661 7.5479903 1.3765826
-2.3163152 7.4710526 2.2429767
-1.9235001 7.5696025 -0.046472799
-2.4344885 7.4235697 2.7720697
-2.3732312 7.3441815 -1.0551337
-1.8182529 7.7961826 0.97358882
-3.8372326 6.5258203 -1.0420096
-2.4238217 7.4044757 2.1625144
-2.4400034 7.391799 2.0606194
-2.7351725 7.3091006 1.8593595
-0.72969145 8.0909758 1.5577674
-1.4080569 7.7735205 0.87926519
-2.3229053 7.4515095 1.7698768
-2.4203267 7.3883715 1.7647306
-3.0727468 7.2260303 2.2377944
-1.995692 7.5575647 2.8300767
-2.2011514 7.454649 -0.54255259
-2.2276073 7.4825058 2.063525
-2.4282119 7.3876281 1.870364
-3.9147308 6.5631948 -0.140568
-2.5238638 7.3679967 1.9530977
-2.4101882 7.396657 2.4883585
-2.2082515 7.4987135 0.72719723
-3.6469755 6.8685608 -1.7339692
-3.6507802 6.7821565 -0.7427181
-2.3291132 7.403193 1.9480674
-2.1171672 7.4652815 -1.2307756
-1.630519 7.6635041 -0.048371121
-2.7201912 7.2904296 2.4613602
-0.52240455 8.1817732 2.2678709
-1.7699509 7.5417867 2.274739
-1.8134034 7.5680957 -1.1315523
-2.0208986 7.5615067 2.5417187
-2.5399923 7.3393364 0.23269849
-3.3143711 7.0622544 -0.72915703
-2.3986285 7.3910952 0.87876093
-2.4450583 7.36204 0.39333484
-1.7358495 7.6051726 -0.74443352
-2.6501026 7.2214074 2.2496498
-2.4472547 7.3295722 -0.8395859
-1.0093992 7.959136 1.957675
-1.842927 7.583148 2.9667575
-1.8279576 7.6047192 2.4524543
-2.2172182 7.4766922 2.379777
-2.8255615 7.2065792 -0.8354128
-3.2304995 7.0769949 -0.13855472
-3.632431 6.6798873 -1.1443999
-2.7066498 7.2669392 -0.94081348
-0.9278577 7.9640331 1.563991
-3.3191671 7.0609403 -0.042301383
-1.992438 7.5554714 0.46990475
-1.1200575 7.8863645 1.6659757
-3.7299213 6.6023698 -0.24384724
-3.3321292 7.0214529 -0.44090003
-3.6379654 6.611793 -1.0396308
-1.237462 7.785789 2.7490406
-2.3308294 7.4016576 1.7528983
-3.2391033 7.0135088 -1.3497828
-1.2212176 7.8662701 2.2584147
-1.4219013 7.7819815 2.2625318
-2.2413642 7.4172115 -0.83919746
-1.4325987 7.7169504 1.5639273
-2.4209251 7.3923907 0.16824797
-3.6334853 6.6802769 0.15688595
-3.022526 7.1770706 3.033484
-1.6284151 7.6711092 -0.55215138
-1.2326905 7.8678212 2.5757818
-1.6842165 7.6456919 -0.68373471
-3.0197439 7.1870461 2.5497334
-1.41445 7.7754922 1.5606893
-0.9360255 7.8832006 2.7552261
-1.6459932 7.7128801 2.5700696
-1.7231543 7.66363 1.7672276
-2.1261969 7.4958138 0.77305013
-3.6275709 6.8808098 -1.5328314
-2.4034719 7.3922033 1.3821089
-2.1184475 7.4983921 1.8646858
-2.1726694 7.4288454 -1.4321173
-0.70970869 8.014164 0.96661139
-1.2302827 7.8036032 2.066097
-2.6044114 7.3003163 0.40839133
-1.220322 7.8695641 2.3590515
-1.220533 7.8598166 2.0701437
-1.1067268 7.9878287 2.7983296
-0.45150438 8.0985126 2.2450321
-2.758256 7.2095885 1.4549994
-2.0275674 7.5151572 -0.2415984
-3.7014847 6.888155 -0.12806594
-1.8444195 7.5961375 1.2575649
-1.4279716 7.796802 2.5697327
-1.5308113 7.715858 2.2573652
-2.0295401 7.4923143 -0.83517915
-3.2051408 7.0610719 1.5509766
-2.1176057 7.4926934 0.65556508
-1.918952 7.5675907 0.057876356
-3.3253129 7.0572548 -0.23910126
-2.4361873 7.330792 -0.92576087
-0.61791968 8.0917311 1.2672908
-2.6188154 7.3071747 1.2879509
-0.93789041 7.9089398 2.263711
-2.0386455 7.5173888 1.366169
-0.83025199 8.0142918 2.4621196
-1.6257682 7.6943827 1.6659606
-2.0298271 7.5285988 0.66114223
-3.1387184 7.1208773 0.047891743
-3.2275441 7.0885515 -0.040945534
-1.824324 7.606585 2.1591077
-0.82635224 7.9918566 1.5606501
-2.4567268 7.3360605 -0.61658216
-1.9387684 7.5289474 -1.0271647
-0.83149475 8.0107222 2.5463648
-0.73896748 8.019783 1.4561371
-3.6361609 6.5960774 -1.6386274
-3.7075121 6.8343086 -1.4427179
-3.4112399 7.0560856 0.23356532
-3.5119312 6.9587245 -0.94848132
-3.3206155 7.0002656 -1.3341854
-2.6589484 7.2382941 -0.76407397
-3.7310286 6.612011 -0.1387516
-2.1279252 7.4676394 -0.64078027
-1.8275265 7.6131048 1.865558
-1.2319771 7.8121934 1.9596934
-2.2003701 7.4564996 -0.63306224
-2.0303164 7.530582 0.56514889
-2.3204947 7.4668999 2.1562905
-3.3157568 7.0403814 0.22938353
-4.0296879 6.476512 -0.73596203
-0.83161879 7.9844275 1.6612931
-1.6118336 7.6999884 1.7757753
-1.1279727 7.8853669 1.9612664
-1.1310502 8.0316181 0.19909631
-4.028028 6.4695001 -1.0329187
-2.3162036 7.5934381 1.3899863
-3.9114614 6.5587993 -0.33478427
-1.8211269 7.6695175 1.8495573
-3.6919374 6.9236178 0.062109873
-3.7083802 6.5760822 -1.3516662
-2.8073914 7.4807358 1.3673695
-2.725534 7.2667227 0.25793338
-3.4890685 7.0535331 2.2410233
-1.125224 7.8992472 2.4689527
-2.8206658 7.2256136 2.7290261
-1.2378442 7.828702 1.4670568
-0.66462272 8.02672 1.4635547
-0.95311189 7.9140439 1.8608379
-1.7349499 7.6269431 -0.22928214
-3.6196775 6.6960502 -1.5373845
-1.247703 7.8319097 1.2843285
-3.3366075 7.0150871 -0.7389645
-3.6950262 6.8194895 -0.65733403
-2.5315742 7.320343 -0.54123348
-3.6320212 6.6349831 -0.052192532
-1.2154061 7.8638744 1.9571652
-3.0405393 7.1306515 -0.34709665
-2.4219401 7.364996 -0.53954613
-2.4180207 7.3796744 1.662204
-2.0026479 7.5568409 1.1634592
-3.61923 6.6766853 -0.43263435
-0.85199142 8.1277008 1.2611328
-3.6330328 6.6770434 0.28115276
-1.6078799 7.9747529 2.188267
-2.2358537 7.3986163 1.97093
-0.52942753 8.1015196 1.8631294
-0.82933372 7.993865 1.956876
-0.93191749 7.9149723 2.1561146
-2.3273652 7.4094787 -0.24127594
-3.5938711 6.9607062 -0.23340228
-0.72338796 8.0666943 2.1566029
-1.81209 7.8155413 1.0504593
-2.3247585 7.537858 0.77394593
-1.1176959 7.8891673 1.3473517
-4.0517907 6.4287806 -1.4381583
-3.2311068 7.0873575 0.64321166
-3.4203954 7.1937733 1.4486222
-2.1212497 7.4842892 1.5634143
-0.52816808 8.190136 1.7574071
-2.8410215 7.1867514 -1.0358448
-3.5227478 6.9792252 -0.041192647
-3.9400661 6.5179353 -0.34145254
-1.9766077 7.5416551 0.64265555
-4.1215873 6.4649935 -0.14331582
-1.1247529 7.8824143 2.2576201
-1.9795108 7.539556 0.60174507
-3.6446235 6.6238441 -0.43388188
-2.6223705 7.2777429 -1.2308035
-2.1942623 7.4604702 -0.93416429
-1.0051612 7.9584527 1.8847477
-1.9201026 7.4870148 2.7386596
-0.63884443 8.0185747 1.7590015
-2.2922003 7.45713 2.8274579
-1.2265005 7.8142142 2.1592953
-1.8273476 7.599649 1.0811253
-2.1276894 7.4849668 -0.14153227
-2.5319142 7.3144689 -0.63537961
-1.9442149 7.5350323 -0.42656893
-3.3166506 7.0615535 -0.32877859
-1.8506078 7.7982674 0.20931982
-3.6957037 6.8794808 -0.33679542
-1.7452023 7.6320081 0.85200626
-3.699039 6.8939838 -0.03961071
-1.2291733 7.7978125 2.6643202
-2.4286509 7.3699393 -0.24109097
-3.1365418 7.1336327 1.6562533
-2.6286299 7.3554592 2.2727013
-4.053411 6.4418616 -0.75729567
-3.6899216 6.8103542 -1.2289844
-3.6418951 6.6248064 -0.63435841
-2.4507635 7.3740616 2.8682859
-3.4444969 6.9957657 2.3394506
-3.2632186 7.067297 0.41539118
-3.6923859 6.8891897 -0.23626338
-1.4297949 7.7673612 1.1618752
-1.5205805 7.6818566 2.7446549
-2.1636677 7.4421959 -0.51509422
-2.1252398 7.4624453 -0.935247
-3.1341906 7.1091986 -0.24628082
-3.5472946 6.932858 -0.53552485
-1.8332636 7.5659637 -1.3628485
-1.0300915 7.9037752 2.0611141
-2.7775054 7.2356057 1.073221
-2.0362434 7.5331349 0.86776131
-2.0384667 7.5217752 1.1705337
-2.9918802 7.3872437 1.4705971
-2.2113454 7.38345 2.456722
-2.1349368 7.6888423 1.682644
-1.8995278 7.5988688 2.5545526
-2.4673755 7.3335156 -0.43571118
-2.6057608 7.2961159 2.9109848
-1.1202583 7.9075866 2.8980904
-0.61517042 8.0831642 1.6698039
-2.4307363 7.3272796 -1.233628
-2.6311572 7.2947574 -0.34503993
-2.6381519 7.2923985 1.6688612
-1.1202847 7.9084382 2.5580952
-3.9533563 6.5242329 0.14988747
-3.8197744 6.5681982 -0.43779463
-1.9488008 7.5265083 -0.54135513
-3.5220184 6.9071455 -1.4462264
-3.8495228 6.5286393 -0.84158152
-1.1354736 7.8813334 2.0641136
-2.4258847 7.3594804 -0.74409187
-2.7443671 7.2325687 -0.64174151
-3.1298637 7.0961785 -0.63007957
-1.0370673 7.9094052 1.6655104
-3.7420146 6.6103015 -0.043086573
-3.7585745 6.5377264 -1.372794
-2.0300632 7.5034237 -0.64354038
-2.1334014 7.4795752 1.3782556
-1.2192559 7.856791 1.6650847
-1.5390011 7.7118373 1.6620091
-3.536993 6.9310961 -0.73540974
-0.62619627 8.0173903 1.8489327
-3.4302092 6.9777946 -0.83005762
-2.2352629 7.3887672 2.1571884
-2.5208402 7.3742437 1.8559829
-1.1220338 7.8936753 2.3668153
-2.2155781 7.4762807 1.3731945
-3.7268658 6.5791039 -1.1431401
-1.8336216 7.5926013 -0.14010032
-1.8174981 7.5700841 -1.4384803
-2.3417809 7.3048596 2.5798707
-2.1264231 7.5049081 0.96315253
-2.017215 7.5499086 0.74887174
-1.724637 7.6062999 -1.1314435
-3.7386155 6.5809546 -1.2405785
-3.0060196 7.1592813 -0.64018774
-3.5251961 6.9744258 -0.13529117
-2.5303495 7.308898 -0.83393425
-1.8832172 7.8119254 0.30255044
-2.8185802 7.187912 2.1301064
-1.8282151 7.7860966 0.45493728
-3.0055628 7.1663375 -0.53885472
-3.4497643 6.9756675 1.0271704
-3.0853393 7.1490688 1.1499506
-1.9328666 7.5628862 0.46848145
-2.2197204 7.473588 0.1649348
-3.1171429 7.1280723 2.8184052
-0.9450047 7.9115157 2.4496901
-0.689358 8.1226883 0.95090491
-2.5743442 7.5419741 2.1717479
-0.73317999 8.0073051 2.0644329
-0.73608905 8.0084963 1.3670188
-0.82965791 7.9958024 1.8607625
-0.93809015 7.9125342 1.9559212
-1.2155803 7.86408 2.1673625
-1.3444829 7.7873015 1.3669864
-2.9191413 7.1718402 -0.83061522
-1.622003 7.6784115 1.2703338
-2.0134671 7.5608902 1.3538955
-3.5341418 6.9213133 -1.0367166
-3.6593695 6.788095 -1.2395167
-2.0250449 7.5607982 1.5617467
-2.3285103 7.38554 -0.83949983
-2.5281479 7.2879853 -1.2384832
-0.64874601 8.035573 0.5747447
-2.0397341 7.518846 -0.13045986
-2.3382838 7.288579 2.8554847
-3.7334592 6.5863271 -1.5398245
-3.0648942 7.1267495 0.054582018
-0.64485359 8.0256767 0.9852941
-0.83113772 8.0117598 2.3662028
-2.7252274 7.2772503 1.1704447
-1.2442071 7.8299942 1.1667354
-0.52089232 8.1894226 2.0585959
-1.6183462 7.6933737 2.4406786
-1.8256402 7.5737171 -0.74590069
-3.0067463 7.0932102 2.3371565
-2.7115595 7.2602701 -0.62714285
-3.6453016 6.6239352 -0.5363664
-2.6273768 7.3017945 1.8642194
-2.2371533 7.4326372 -0.34009099
-3.6502755 6.6291327 -0.13961187
-2.4200082 7.3643789 1.4717808
-2.5493689 7.5543852 1.2653077
-1.9314965 7.5841303 1.5686115
-1.1036955 7.901875 2.9293311
-3.4268508 6.9900427 -0.44054365
-2.221298 7.432066 0.92931336
-3.6971428 6.8814149 -0.43609264
-1.730607 7.6355762 0.76153427
-3.9251862 6.4918551 -1.1341758
-3.1327164 7.1156397 -0.1382311
-2.3371844 7.4213619 0.055779699
-3.8358324 6.5774055 -0.044362988
-3.723923 6.5871911 -0.74039149
-0.8435142 8.0201349 2.6435111
-3.6401424 6.607501 -1.2282369
-0.63214946 8.0158176 2.0563219
-1.7208754 7.6718583 2.0580652
-1.344867 7.8233275 2.5771966
-2.6064773 7.353507 2.5941088
-4.1081085 6.4643769 -0.82405299
-3.3345652 7.0604405 0.15467863
-2.0351145 7.5009732 -0.53501987
-1.831351 7.8658123 0.91576552
-1.3620503 7.7301989 -1.8616523
-0.61557907 8.0809689 1.7624493
-1.5312508 7.6968408 1.1621816
-2.1351125 7.4887094 1.1614102
-0.84390897 7.9148216 2.2608435
-0.92025018 7.835001 2.4832182
-3.634897 6.9117746 -0.44610116
-1.1343495 7.8145375 2.1521878
-3.0500813 7.1520944 2.6427233
-1.6315917 7.6658378 0.65149385
-2.1283326 7.4582496 -1.1445972
-0.63395977 8.2092314 1.4576662
-2.0125237 7.5593386 1.2681692
-3.6942234 6.8145447 -1.0411593
-1.0312953 7.9039488 2.1649072
-1.9055614 7.5632262 -0.13154742
-1.9584217 7.538908 0.044221569
-1.7271821 7.6640863 1.6692301
-1.2924697 7.8580723 2.4552288
-2.644964 7.3018289 1.1538084
-1.0347638 7.9094205 2.9631498
-1.7391651 7.6068621 -0.64741129
-3.415401 6.974504 -1.2398834
-1.8003292 7.6538939 2.4505405
-3.4735405 7.0328264 1.6125443
-2.1008966 7.5060368 0.86319035
-1.7445706 7.6385255 0.35357079
-1.8236715 7.6111131 2.0538685
-2.1483631 7.4355245 -0.93629152
-1.9175429 7.5646887 0.16760752
-2.8160105 7.4620066 0.86332345
-3.9305665 6.5071292 -0.83973944
-1.8170351 7.5780058 -1.040583
-2.7214508 7.2646909 -0.2319711
-3.5404859 7.0052357 -1.2624177
-1.4670922 7.935122 -0.10221165
-1.7499652 7.6071415 -0.54832953
-2.341383 7.420085 0.16892542
-2.2289319 7.4703612 2.5417657
-2.2434757 7.3947935 2.0471327
-3.2245071 7.0674624 -0.63125336
-3.2227147 7.0747323 -0.53527123
-3.4228902 6.9932318 2.0648336
-3.7293613 6.5920806 -0.63850075
-1.0296632 7.9176421 1.5688239
-1.0490077 7.8713794 2.8899746
-2.1298161 7.4774723 2.3559461
-0.92207915 7.9794259 2.3602312
-3.7555828 6.5391536 -1.2403433
-3.314471 7.0611849 0.053203925
-3.6544986 6.7852378 -0.33240986
-2.4163756 7.3668294 -0.63017154
-2.1309478 7.4986234 0.056712337
-1.5226094 7.7054424 1.4656587
-0.87336797 8.1771784 -0.24825868
-2.0052683 7.7527699 1.9251153
-1.7359426 7.626286 -0.32221383
-1.5468049 7.6176314 2.7419257
-1.5197827 7.7572622 1.4545231
-1.9959328 7.55581 0.19875246
-0.93750226 7.9117274 2.0597243
-1.7333338 7.6043677 -1.0322289
-1.7308823 7.6244283 1.0714127
-3.6129217 6.9616399 0.050007466
-2.2461493 7.4329405 -0.24549845
-3.396826 7.0606828 -0.94846332
-3.4971449 6.97646 2.4914529
-3.6283131 6.6779451 0.059552085
-0.61394715 8.0865622 1.5605747
-2.1103921 7.4960661 0.56216747
-2.4022985 7.3886814 1.1777911
-0.72823602 8.0153408 1.6639358
-3.3345842 7.0237474 -0.33965132
-1.8180184 7.6725483 2.1728013
-3.4668622 7.1817298 1.8723241
-3.3291912 7.0901089 2.3436813
-1.4419819 7.914753 0.34016722
-1.9287623 7.5703597 0.86499357
-0.71618891 8.0661774 2.368458
-1.9669706 7.5483904 2.8252888
-2.232281 7.3920307 2.2592258
-2.6217923 7.2764645 -0.93184334
-2.7479424 7.2331266 -0.43258092
-2.9359143 7.4068213 1.5678341
-1.2410681 7.8010502 2.4488893
-1.7207134 7.6115513 -1.2316945
-1.9077259 7.5565214 -0.34190291
-2.1093602 7.4991136 0.36648765
-2.1189914 7.4960647 2.1608768
-2.229372 7.4660521 1.4748344
-1.7391275 7.6307316 0.65414441
-1.9314508 7.5022955 2.8651397
-1.6238595 7.8760118 1.4613609
-3.2274582 7.074163 -0.33853698
-1.62755 7.6598506 -0.32399249
-3.0261209 7.169652 0.13835835
-2.7329338 7.2763009 0.05580119
-2.0253198 7.7606597 1.3384908
-2.6340275 7.3048882 -0.033181969
-2.4187484 7.360424 -1.0180842
-2.414428 7.3630633 -0.82787102
-2.4279585 7.3682089 -0.34323889
-3.7331803 6.5918584 -0.53786844
-2.1233406 7.465147 -0.83836222
-1.9358071 7.5136852 -1.2333194
-1.6298163 7.6927686 2.249089
-1.4283825 7.7711873 2.0554628
-1.5280573 7.7172399 1.853928
-3.5185971 6.9630203 -0.74002296
-1.3315753 7.7989039 1.566097
-1.2339042 7.7932324 2.3451447
-1.0334228 7.9097733 1.9643084
-0.94201338 7.9229136 1.5466053
-0.91929907 7.9697838 1.9632463
-0.9198885 7.975152 2.1591713
-0.53808457 8.1004963 1.1594075
-2.1202486 7.4855404 1.4607693
-3.7093472 6.8682222 -1.3093324
-2.1243315 7.5038977 1.9554133
-1.2117798 7.8823743 2.7696612
-1.2303756 7.8811736 2.6503921
-3.6975546 6.8034797 -0.74207681
-1.8086176 7.6508222 2.7653823
-3.3089664 6.990869 2.6812794
-2.2439907 7.4087129 -1.0284832
-3.0100555 7.2058811 2.4239004
-2.1597896 7.4409657 -0.74471486
-3.054013 7.1334047 0.15196444
-2.2336423 7.4054284 1.8510461
-1.7217357 7.674428 2.1569111
-2.0470264 7.5552125 2.6296685
-2.2386355 7.4237041 -0.74117786
-2.4184184 7.394496 1.9445751
-3.8214765 6.569849 -0.33930257
-3.1169486 7.1685576 2.4342442
-1.1231116 7.8812823 2.1552494
-3.7026434 6.808846 -1.5248696
-3.6896527 6.8093095 -0.34062621
-3.5117159 7.0112162 2.0621419
-1.9426897 7.5199561 -0.83486772
-2.0367031 7.4754281 -1.3489773
-0.62679452 8.0893965 2.1576388
-3.6517384 6.8093019 -1.6377375
-2.1241841 7.4677067 -0.73976582
-2.5329239 7.2998056 -1.0402927
-2.0169199 7.5612283 1.060434
-2.6752238 7.2403541 -0.98200017
-1.9411935 7.7771335 1.2468536
-0.7044512 8.078455 1.2470055
-1.7289473 7.608058 -0.93427378
-2.2242451 7.4146652 -1.137915
-2.2371213 7.4655824 0.056435842
-2.2236636 7.4701953 1.2693338
-3.816215 6.5645847 -0.73078656
-2.317076 7.3860397 1.4622976
-3.3359842 7.0125899 -0.84042168
-2.4405437 7.3337898 -1.0460237
-2.9099469 7.2696886 -1.2485764
-1.3269846 7.8023167 1.663331
-0.82551092 7.989727 2.1600432
-2.796175 7.2577596 -0.12280554
-1.9280493 7.5168529 -1.1413863
-3.631423 6.6351027 0.048918821
-2.1306639 7.5105872 2.2588367
-3.1274157 7.103209 -0.44318226
-1.416908 7.7910357 2.3620031
-3.446182 7.0188742 2.4673867
-2.4532642 7.3235016 1.3776394
-2.5405827 7.2866406 -1.3467804
-2.2135792 7.4796753 1.6697677
-2.3088405 7.465085 2.3527353
-2.6064804 7.3558879 1.7417206
-0.83687848 7.9930625 1.2593243
-2.247452 7.4408422 0.57830012
-3.6905658 6.8069296 -0.036549821
-2.2111192 7.4742818 1.9539454
-2.2286477 7.4189787 -0.94060063
-2.240464 7.4264092 -0.43772003
-0.93028682 8.017148 0.77656049
-3.5133114 6.9817166 -1.134608
-2.2147584 7.4565244 2.6717405
-3.218611 7.0709414 -1.1390436
-3.6955664 6.8848662 -0.73029935
-1.3048768 8.0574417 1.3581566
-1.7471777 7.6195302 1.1638939
-1.7410305 7.6235023 1.2578619
-3.4236746 6.9645262 -1.3313727
-2.2278397 7.4584656 1.1762249
-2.4182317 7.3922586 0.055906326
-1.9304013 7.5287151 -0.7388581
-1.730186 7.6327686 0.45348224
-1.8261311 7.6033411 0.16516204
-1.8401437 7.604425 1.9564664
-0.92871398 7.9785862 2.460043
-1.3249583 7.9859419 1.3677875
-2.041621 7.4907918 -1.0253371
-3.2932222 7.1102619 2.3036625
-3.4280903 6.9808259 -0.73536873
-1.5886922 7.7527084 2.5735276
-1.6337818 7.6797948 1.3662823
-1.9425216 7.5320826 -0.64408678
-3.0931284 7.1508999 -0.20763484
-3.82988 6.5817323 -0.13811421
-3.3615627 7.0299172 0.15988235
-1.6372629 7.6805801 0.85783947
-2.0084782 7.5580554 1.4653823
-2.4290726 7.3690615 -0.43601868
-1.0312313 7.8265343 2.2687216
-2.2996001 7.400538 2.7637942
-3.7143936 6.5605555 -1.4328718
-1.02605 7.8026314 2.4839096
-3.630414 6.9090347 -0.54048729
-2.4080522 7.3572068 -0.93181551
-3.6475477 6.7802472 -1.3389812
-3.8353 6.5781331 0.25021738
-3.7037361 6.8152266 -0.95316219
-1.4280376 7.764843 0.76414502
-2.597219 7.3532195 -0.6718061
-2.8251266 7.2651734 2.4587948
-3.0499444 7.137876 -0.12644649
-2.5514674 7.3300557 -0.046050023
-1.8309705 7.5974264 1.3621687
-1.6269825 7.6732883 0.16199869
-0.92214048 7.970305 1.867186
-0.93262833 7.9638577 1.7700101
-3.3370116 7.0165019 -0.64139879
-2.3420103 7.4044065 1.8619351
-2.6425452 7.2963037 0.24551511
-3.7372024 6.5811224 -1.0406282
-1.7434155 7.6145825 2.2476981
-3.4323316 7.0095892 0.044317957
-2.3316004 7.400475 1.5612056
-2.3469369 7.3968406 1.662789
-3.7540107 6.5250788 -1.6324111
-3.4175322 6.963913 -1.54577
-1.5396973 7.7158914 1.9574357
-1.2993525 7.849525 2.6202073
-3.2078664 7.1537113 1.8891066
-2.8439136 7.2283506 0.17624627
-3.8170388 6.5674672 -0.94830382
-3.6421971 6.6171532 -0.74031115
-2.7424371 7.2207026 -0.93239301
-1.8433009 7.5980029 0.75561184
-1.1315917 7.9147382 2.6412752
-0.61508071 8.0877247 1.463405
-0.8356213 8.1197977 0.86971718
-0.53595847 8.1930933 1.5580293
-3.4297802 6.9872227 -0.53998268
-3.1965935 7.1482677 2.1563802
-2.6883769 7.2667246 0.67704171
-2.8685327 7.4450397 1.1297543
-2.6238248 7.2691526 -1.0376819
-3.4498889 6.9301543 -1.6325642
-1.7981455 7.6527801 2.5592892
-3.0033011 7.1616631 1.329066
-1.9670236 7.5412521 0.25712252
-3.6994507 6.8210196 -1.1512986
-1.938676 7.5792575 1.0651673
-3.4237385 7.0662923 -0.33043739
-3.3094006 7.0080647 1.6168232
-1.5131298 7.7669191 2.4470134
-2.1891396 7.4457417 -1.0207099
-3.6924281 6.822876 -0.82374114
-1.5465807 7.6867852 2.6750565
-1.6486008 7.6563129 -0.1232827
-1.5419536 7.6962137 2.5562553
-0.60755473 8.0986738 1.0539294
-2.2298992 7.4015679 -1.2222257
-1.5379945 7.7001743 0.95243442
-1.7383206 7.5897474 2.8402243
-1.527325 7.7050748 1.5688311
-2.6675744 7.2827568 2.7048571
-4.1216569 6.4667878 -0.04891995
-1.8224251 7.6148596 2.3639755
-1.8118912 7.5843182 2.6531301
-1.8079321 7.7967997 1.2591362
-1.7217931 7.6667376 1.8545271
-3.3277576 7.0058455 -0.94742745
-2.8319244 7.2090912 -0.5361535
-0.91893327 7.9650297 2.0672529
-2.6921077 7.2700586 1.0750167
-1.5473069 7.6710305 -1.0435663
-0.4254657 8.1857243 2.0520084
-2.6283176 7.3639197 2.662961
-3.6321702 6.6066236 -1.3413651
-2.2284181 7.4715014 1.7619839
-2.722204 7.2868276 1.4583355
-1.7326566 7.6171193 1.3608761
-1.8941246 7.5554533 -0.74049008
-1.8426877 7.5937691 0.56197202
-4.0450702 6.435955 -1.0368108
-1.3315597 7.7975273 1.0670097
-3.2132928 7.0665059 -0.93236691
-1.5476629 7.6900091 2.3578582
-2.7221847 7.2614427 -0.53931648
-3.4150255 6.9702678 -1.1454177
-2.7120845 7.256772 -0.82679182
-2.0290163 7.7218499 1.5637079
-0.94293737 7.8379607 2.3816845
-4.0634518 6.4334884 -0.93733859
-2.31862 7.4098959 0.74666566
-1.5267622 7.6907458 2.463892
-3.440083 7.0100679 0.16066831
-1.8393703 7.5922618 0.23462245
-1.6269265 7.6757622 1.0490223
-1.552762 7.6864634 -0.045951411
-1.1377865 7.819315 1.8609617
-0.93681145 7.9189591 1.768018
-0.92728639 7.990056 2.6449559
-2.7366974 7.2310057 -0.73993754
-2.8534236 7.2670965 2.3569968
-3.7058191 6.8199654 -0.51926666
-2.7628574 7.2395067 -0.16253598
-2.0094059 7.7679501 0.58056557
-1.7310553 7.6133227 1.9721338
-1.7365692 7.618094 1.7652247
-1.5379384 7.7113781 1.0577183
-0.65249264 8.0300035 1.5610478
-2.8310599 7.1761889 2.4373767
-3.6516836 6.7736349 0.2653572
-3.6583352 6.7916942 -0.43968281
-3.2583444 7.0389318 -0.23901165
-0.64200538 8.0259476 1.1792612
-0.6127277 8.0889807 0.98027116
-3.831712 6.52356 -1.2398305
-1.326767 7.803381 1.7674783
-3.931798 6.5002794 -1.0218412
-3.3327401 6.9989176 -1.142249
-3.8548119 6.5380445 -0.34264305
-3.4097483 7.0125761 1.7705995
-3.6344473 6.6147823 -1.1399481
-2.3256493 7.3842058 -1.0461528
-1.3032424 7.8525286 2.3760571
-1.008087 7.9653497 2.4598992
-1.7347853 7.6290522 0.24964413
-1.736093 7.6248817 0.16139171
-3.5207093 6.9668531 -0.43880284
-3.4194689 7.0055065 0.46036425
-3.637347 6.6203294 -0.8321591
-3.3261342 6.9987049 -1.0370746
-1.7332549 7.6071882 1.5591036
-1.9206955 7.556612 -0.63112348
-1.7440956 7.6030598 1.6569129
-1.3033137 7.8632927 2.2557592
-3.5390115 6.9229512 -1.1343467
-2.410706 7.3635616 -1.1324731
-0.62929553 8.0929136 2.3608837
-3.698452 6.7991571 -0.41695833
-2.1465046 7.4410691 -0.85062176
-0.74576104 8.004385 2.4373934
-3.6296444 6.8944883 -1.0374185
-2.3313146 7.4020162 0.43492526
-3.8376312 6.5793099 0.062927052
-1.5329888 7.7067108 0.74871683
-2.7337244 7.288516 2.0690794
-3.8283706 6.5834665 0.14745383
-2.9481132 7.1915498 2.462595
-3.3108847 7.057888 -0.5301407
-1.0200067 7.9673724 2.1759641
-3.9224682 6.5625501 0.064739093
-1.3276048 7.7917204 0.96375519
-1.9835773 7.7882538 1.4677997
-3.3078687 7.0676861 -0.43624091
-2.2557979 7.4317846 0.053323556
-3.6474733 6.7844539 -0.84083921
-1.7263385 7.6064277 -0.83472139
-1.5357163 7.7055783 1.3655348
-3.4624527 7.0088372 2.5319803
-3.7022412 6.8656197 -1.1418549
-1.5584993 7.6885109 -0.15282892
-1.9109118 7.7605314 1.1797386
-2.8802388 7.2339487 2.5646329
-3.8162222 6.5698528 -0.83511341
-1.6380088 7.6307592 -1.2471619
-1.3165612 7.8065743 1.2791739
-2.815918 7.252131 -0.02947217
-3.188427 7.0938416 1.1171484
-1.6215751 7.6287203 -1.1365657
-3.6959984 6.9763384 -1.3337735
-3.113569 7.1762004 -0.74219835
-0.53529704 8.1052856 0.96847504
-2.3212304 7.384378 -0.93184811
-0.52623904 8.1651011 2.4680207
-3.6386611 6.6167164 -0.93154585
-2.6524725 7.3035965 2.3446429
-2.6101503 7.3048201 1.7616466
-2.4338431 7.312314 2.4558263
-2.3415513 7.394979 1.2446468
-3.2333367 7.0907397 0.1472728
-1.7042248 7.7083015 2.7478735
-3.5497563 6.9355826 -0.43360099
-3.4367774 6.973856 -0.93963486
-0.71967268 8.067831 2.0587847
-3.0015302 7.4035921 1.3931874
-1.7237322 7.8456397 1.775799
-2.0213242 7.5582542 1.7686025
-0.70075369 8.0332718 1.1649466
-1.810222 7.6617002 2.2457459
-0.71402794 8.0722265 1.8739425
-0.99801069 8.3024025 1.7063692
-1.7178352 7.6775055 2.2606235
-4.073287 6.443574 -0.44187856
-1.8345826 7.6162028 2.2655513
-0.91384757 7.9700489 1.4658399
-1.1614238 7.8416252 1.435645
-1.9014901 7.5866199 2.6440125
-2.6273148 7.2785192 -0.73478448
-2.0260069 7.4953761 -0.94008738
-2.3229401 7.3715067 2.3596206
-1.6241388 7.6938424 2.7511566
-0.52559239 8.188694 1.8667158
-3.6526458 6.7869077 -0.53731793
-0.8457334 7.9187174 1.7584313
-1.9265454 7.5148344 2.4704001
-0.90992832 7.9853806 1.2622156
-0.9461 7.9296517 1.34041
-0.90973091 7.9715323 1.3795217
-1.8489083 7.5908833 0.33983278
-3.561954 6.931428 -0.24257562
-0.52304184 8.1954203 1.953631
-1.1134542 8.1793261 1.1256628
-3.3387349 7.0277915 -0.23532389
-2.2256126 7.4754248 2.1664691
-2.2141612 7.4688644 0.98231333
-1.9938691 7.7618513 0.6205318
-0.91936111 7.9879251 2.7530549
-0.63137931 8.2135773 1.5585647
-2.6532962 7.2377844 -1.5471686
-3.8249829 6.5444212 -0.12545501
-3.634032 6.8923569 -0.93685031
-0.95356178 7.9398012 1.1915321
-0.83202249 8.1826591 -0.15185717
-1.7273169 7.60782 2.148315
-1.8038442 7.6548891 2.0507345
-2.2247252 7.4773698 1.8579539
-1.0368437 8.0998507 2.1453671
-3.7277372 6.5837359 -0.93878299
-2.6317341 7.2976203 -0.2405066
-3.1100869 7.0932608 2.6504521
-2.3628712 7.3832569 2.9477842
-4.0772777 6.43958 -0.57274717
-3.6002483 6.9661055 -0.32689402
-1.4057095 7.9576683 0.94700557
-1.4614419 7.9528399 0.44506872
-1.0366522 7.9148698 2.6584537
-1.7246082 7.6101775 1.4678166
-3.2078662 7.155889 -1.2227712
-2.3990293 7.3780446 0.73163438
-2.4333138 7.3948188 1.5399427
-3.7326047 6.5865235 -0.8336615
-2.6336775 7.307508 0.058646139
-3.7322493 6.59763 -0.34363943
-3.1901228 7.1208115 1.4765952
-1.9279417 7.5790496 1.6608405
-1.9024758 7.5609798 -1.1375312
-1.7360444 7.8238506 1.8682392
-2.5185225 7.3727856 1.4724444
-1.5309615 7.6745543 -1.2392519
-1.6264431 7.6952481 2.0573297
-2.7314148 7.28619 1.9732369
-1.9236007 7.5826273 1.4651778
-2.6381667 7.3174119 2.1512647
-3.4991863 6.9595599 0.51070434
-3.9410844 6.4838128 -1.2379794
-1.5238985 7.7154865 0.86878502
-1.5476327 7.6684885 -1.1405933
-1.5200887 7.6895056 -1.3405747
-1.9344926 7.5681453 0.7556234
-2.8218198 7.1743002 2.6591206
-2.2176309 7.4529572 -0.83652335
-1.6445416 7.6921377 2.3624008
-2.250809 7.343617 2.5054963
-2.1375842 7.4005551 2.548115
-1.8120555 7.5098448 -2.6736028
-2.8314886 7.1987009 2.5698199
-3.4353824 7.004056 -0.12979561
-1.7957505 7.655129 1.9771755
-1.9197872 7.5817504 1.361833
-2.6303689 7.2733583 -0.83899945
-3.263052 7.0401921 -0.42461023
-3.4380286 7.0769444 -1.2363979
-3.2525671 7.0335665 -0.84148133
-3.5593925 6.6862202 0.16319168
-1.9438498 7.7222285 1.6235491
-2.0047958 7.5644932 0.22651091
-1.9207833 7.7361503 1.1929871
-2.4292936 7.3599324 0.46296686
-2.5194657 7.3865829 2.0759878
-2.6282871 7.2901568 1.5635018
-1.9399039 7.7591963 1.7427115
-1.9776465 7.7249813 2.0471427
-1.7313155 7.6711092 2.3632922
-2.7938614 7.258532 1.3789945
-1.9453814 7.7306232 0.56877518
-2.1219578 7.4761305 -0.44077739
-2.1390626 7.4791989 -0.23563094
-1.9429417 7.5251312 1.5646062
-2.0302422 7.5043831 -0.43475971
-1.9032313 7.5539465 -0.85773343
-3.4066448 7.054657 -0.43892565
-1.039625 7.9186912 2.4707849
-2.2012446 7.4508023 -0.73739529
-2.6273239 7.3187981 0.15394005
-1.7250352 7.6808004 2.5554302
-2.8387539 7.2238259 1.1800829
-2.0097096 7.708518 2.1585817
-1.3080041 7.8747339 2.1784973
-3.1265402 7.1587753 2.1369746
-2.048384 7.464901 -1.4271185
-3.426348 6.9677191 2.2483475
-1.9212906 7.5674314 0.3645727
-2.2319958 7.4203963 1.4457419
-1.9304236 7.5801239 0.96186882
-2.8080263 7.2532353 0.063662738
-2.238225 7.3995624 -1.3289984
-3.3272822 7.021637 -0.53865552
-3.1710813 7.0420523 -1.3553228
-2.2160027 7.6720424 1.7392076
-0.73756266 8.1093645 0.87682313
-2.5278461 7.3006706 -2.0302007
-3.6415651 6.9141078 -0.23974468
-1.5093777 7.6669607 -1.4353141
-1.3263997 7.8047295 1.4645215
-1.7969205 7.6877098 1.5738113
-0.93598056 7.9060378 2.3574736
-3.6332333 6.8859529 -1.3341595
-0.63320398 8.2006407 1.8601347
-2.7290213 7.2826095 1.7428943
-3.4615748 7.1422234 1.8683306
-2.0306394 7.7539849 1.2532527
-1.1093886 7.8106041 2.4618106
-2.7282262 7.2207942 -1.1337941
-1.6220304 7.6661139 -0.23251504
-3.2566133 7.0308652 -0.94186664
-3.2012088 7.1200018 1.2734945
-1.3378958 7.7884541 1.1608434
-1.97848 7.7675214 0.69495559
-1.9486364 7.7222219 1.5517746
-3.8542802 6.5406346 -0.256762
-1.6346029 7.6658649 0.35987926
-1.8643565 7.6590757 1.4402567
-1.9004509 7.5615001 -0.95008415
-1.0419142 7.905839 1.4713553
-3.4258418 6.9249673 2.1914093
-3.3830833 7.0297556 1.3171114
-2.730557 7.2963953 2.2450366
-2.1282268 7.4923534 -0.054048989
-1.6637985 7.6432786 -0.36292136
-2.3072667 7.4607992 1.9577767
-1.8483928 7.5367064 -1.8174628
-2.8060927 7.4834766 1.1446574
-2.0251606 7.5224009 0.054786026
-1.7957727 7.6567907 2.6265011
-0.81948608 8.180459 1.0704589
-1.7267717 7.5986757 2.3610444
-0.52354664 8.1900673 1.1565583
-0.69770765 8.2210503 -0.033245139
-1.9385784 7.5295091 1.4561307
-2.3199258 7.3023362 2.6537001
-1.9334602 7.5784607 1.8623979
-3.4265194 6.9827809 -0.64337528
-3.4731841 6.9858117 0.51834422
-1.9262285 7.5686021 0.65923017
-1.5320203 7.7139249 2.0559838
-2.0764883 7.7608242 0.79675698
-2.3244283 7.6000276 1.6795992
-2.7446597 7.2062273 -1.3203247
-2.2119749 7.5461111 0.54174829
-2.80424 7.4513721 1.2595904
-1.6174172 7.6560574 -0.94063407
-1.8931547 7.7949004 0.85106438
-2.4668124 7.3365622 -0.25243592
-3.166302 7.0394936 -1.4194932
-1.0300897 7.9085736 2.3543687
-0.74475777 8.0107059 2.2601264
-2.3557267 7.3425431 -0.62324011
-2.82511 7.2240653 -0.14252199
-1.9779317 7.7511353 0.48281837
-2.8196988 7.2097831 2.351764
-2.493144 7.3495917 -0.54401129
-1.922271 7.5537419 -1.0346707
-2.122839 7.4815226 -0.34629241
-2.2358992 7.4259601 -0.64089721
-2.4178879 7.3898044 1.2467864
-1.9169272 7.7747383 0.75164098
-1.8593217 7.5295401 -1.0100287
-1.9599267 7.7164297 1.2810241
-1.8932712 7.7769055 1.885479
-2.9360964 7.1777601 -0.43700677
-2.8315096 7.2047863 -0.6374898
-3.128999 7.0980139 -0.53964758
-1.0448463 8.1915102 1.6424376
-1.7513782 7.6202779 -0.14469281
-1.6286558 7.69661 2.1583476
-1.9749339 7.7318401 1.4716023
-3.1243112 7.0170617 -2.3624456
-1.1129851 8.0913792 0.47504097
-2.7317359 7.2928452 1.5524682
-3.9471331 6.5277152 0.051077481
-1.2538731 7.8268051 1.3689408
-0.83891821 8.1575003 0.25646457
-2.4539237 7.3408718 -0.32562327
-1.9473548 7.7601118 2.2590892
-2.7050571 7.2924767 2.5648026
-1.1307735 7.8779998 1.4540482
-1.9412781 7.6837931 0.45244491
-1.42484 7.7742982 1.6613717
-2.3433177 7.6868243 1.7011131
-2.7286844 7.2168064 1.6704912
-3.647732 6.6258535 -0.25255895
-2.5010705 7.3555741 -0.33770081
-1.6196949 7.6774178 1.5561931
-1.9768686 7.9079933 1.7953129
-0.61763525 8.0825872 1.8617328
-1.1331621 7.8779306 1.563238
-1.9550112 7.540307 -0.052599918
-2.3282461 7.4135914 -0.12949145
-1.6849558 7.8552952 1.8284034
-3.4306302 7.0093684 -0.03998889
-2.8495202 7.2283802 0.053945094
-1.9908623 7.7621408 1.5371597
-3.6348877 6.9190326 -0.03890489
-2.2194829 7.4943647 2.4790311
-2.5000029 7.358089 -0.67435509
-3.2422104 7.2735257 1.311816
-1.5305271 7.9091105 1.2567942
-2.6501954 7.2327704 -1.2692692
-3.5106936 7.0196099 2.2254174
-1.6274976 7.694159 1.9609277
-1.9212688 7.7175031 1.3531995
-1.7498219 7.6164141 1.8576751
-3.0223579 7.171207 0.34373879
-3.2849183 7.2491674 1.6243255
-2.1883442 7.4478731 -1.2199897
-1.884447 7.6606135 0.65369672
-1.3376294 7.8100586 2.3606136
-2.2722838 7.6275978 1.8311989
-2.6330233 7.2143111 2.5451188
-2.0426533 7.5186439 0.35372654
-1.850624 7.6963797 0.86885595
-2.6409883 7.259304 -1.3414003
-0.93851924 7.9224277 1.6676567
-3.4488735 7.014699 0.22467655
-2.1042676 7.6662979 0.1613622
-3.6508653 6.7969928 -0.62919295
-1.4299119 7.6943684 2.459446
-2.0947351 7.727139 0.5529539
-2.1622722 7.5094781 2.6835113
-1.7319419 7.6007624 2.0634084
-3.5455785 6.9011745 -1.714994
-3.6285088 6.6842737 -0.94376355
-3.1088538 6.9292765 3.026686
-2.8456888 7.2232156 1.3190405
-1.7525104 7.5401983 -1.9379462
-3.2341375 7.0726609 -0.24458472
-3.6305428 6.6786475 -1.032958
-2.7218051 7.4514866 1.6680372
-1.7048097 7.8405657 0.55501139
-2.240916 7.4669628 -1.1119469
-1.0624769 7.8233418 2.6677182
-2.3350074 7.3301864 2.3694389
-1.2121284 7.86479 1.8601739
-1.9945446 7.4439659 2.8283606
-1.9239831 7.4871001 2.5643351
-1.7421824 7.8221517 1.4577929
-1.383805 7.9866347 0.22159792
-3.2367597 7.0885777 0.054368664
-2.354044 7.3161163 2.4882383
-1.034706 7.9153438 1.770705
-0.7075088 8.0685654 1.7671099
-2.9319148 7.1752868 -1.0388741
-0.72468668 8.0831919 1.3715844
-0.66356444 7.941865 2.4595535
-1.4299942 7.7708182 1.7675319
-2.3388815 7.3258281 2.2450793
-1.4459296 7.7197404 1.1482503
-1.0352521 7.8210154 2.3507705
-1.9334379 7.5787387 1.2594494
-0.93457425 7.9278073 1.4649013
-3.8370752 6.5231767 -1.1365813
-1.0139318 7.872035 2.771699
-1.7338692 7.6347313 0.56311721
-2.1853333 7.472693 0.69309312
-3.5519729 6.9341407 -0.34331119
-4.005374 6.5614734 -0.12961482
-0.82969332 7.994432 1.762189
-3.5684745 6.6961703 -0.029546265
-1.8447485 7.7862816 1.6705079
-2.8263257 7.2210269 -0.23969769
-1.4255838 7.6928716 2.6607046
-2.5016773 7.362114 -0.44215006
-2.8258436 7.2055936 -0.73681766
-3.6315336 6.6786675 -0.63145328
-0.7158612 8.0649834 1.9574243
-1.804316 7.9688649 1.7823697
-3.4759886 7.0266385 2.1560512
-1.4369158 7.9254861 1.0635622
-1.7214857 7.6705337 1.3787696
-1.0435541 8.0818834 1.9738398
-3.4346938 6.9803963 -1.6446652
-2.7035649 7.2901206 1.3515079
-1.3300822 7.8012261 1.96073
-2.7210057 7.2645001 -0.32913211
-2.0264516 7.7802005 1.7259508
-2.4434605 7.5837617 1.0653707
-2.4170871 7.5869827 1.2761586
-1.0180452 8.0990791 -0.11659499
-0.67670262 7.9368405 1.8432076
-2.7102814 7.268343 -0.45169625
-0.72656 8.1989107 1.2595544
-3.7313232 6.5949636 -0.43899572
-2.2385421 7.472405 1.5566404
-1.8274845 7.5882215 -0.3283076
-1.1161238 8.0725594 1.2560894
-1.2088795 7.8625102 1.2444593
-2.7310371 7.2929201 2.6427884
-2.8259683 7.1984854 -0.93642467
-3.5661111 6.6419063 -0.74062985
-1.2227985 8.0167999 1.7646737
-1.4108573 7.773201 1.3601674
-0.97372973 7.8277187 2.2656879
-3.2508461 7.1541023 -1.3382052
-1.6417352 7.5831008 2.7618446
-1.6231204 7.6105947 2.5612907
-2.5347321 7.3215456 -0.43599093
-2.5296052 7.3855858 2.2579038
-4.0045109 6.4694805 -1.44867
-2.5267768 7.3872008 2.161274
-1.6350349 7.6003075 2.8649313
-1.2457147 8.0055361 1.9648817
-1.5049978 7.7514009 1.6563574
-2.729527 7.2770343 1.656186
-1.5003386 7.7551246 1.5428684
-3.6263669 6.9609165 -0.41659361
-0.65057576 8.2002745 2.446624
-1.4377866 7.7234097 1.671885
-1.6907192 7.6490841 0.37990215
-1.7070509 7.5997453 -1.7325019
-3.9266756 6.5698152 -1.0415494
-2.7032256 7.2861075 -1.1315539
-1.7332952 7.5882773 -1.6391045
-3.4098864 7.0483913 0.061140873
-2.2857769 7.4554324 1.5594633
-2.6895661 7.2495923 -1.401203
-2.5282896 7.3943815 2.3547854
-2.2940395 7.4138479 0.68034232
-2.2238259 7.4918756 2.2499723
-1.7217263 7.651803 -0.74562436
-1.6699729 7.5387354 2.8862543
-2.0262136 7.5074534 -0.33191162
-3.3914106 7.0507154 -0.03670641
-3.6462076 6.92349 0.15242393
-1.0242066 7.9068131 2.2577169
-4.0193977 6.5639229 -0.64866453
-1.5383018 7.6640596 2.8616076
-4.0088167 6.5482001 -1.1161119
-3.4253705 6.9789791 -1.0374656
-1.878569 7.5449181 1.2407663
-2.3480721 7.5135837 0.39726692
-3.760776 6.5445409 -1.0718573
-0.93196857 8.1208372 0.16894379
-0.9406805 8.117157 0.67463815
-3.7650774 6.5438175 -1.1065253
-2.3411169 7.4016752 0.83941406
-2.4376841 7.4050832 0.23613997
-2.6483331 7.206809 2.4550409
-0.78821874 8.0580034 2.5566342
-2.3327098 7.3921518 -0.64580405
-1.4207691 7.7745337 1.4647253
-2.7127645 7.2147245 -1.5475653
-1.0363016 7.9119987 1.8617375
-0.82170522 7.9122453 2.6670146
-1.656194 7.6366553 -0.66781616
-4.0168529 6.570591 -1.0054264
-3.9158847 6.5640883 -0.83740485
-3.6966798 6.8720222 -0.63648206
-2.5354786 7.3735633 1.5435661
-1.4712204 7.6316752 2.713412
-1.6462398 7.6085029 2.9608469
-1.6320283 7.6020966 2.6510806
-1.6304901 7.8799248 2.1858158
-3.5768356 6.6659741 -1.1313463
-1.8315213 7.5811939 -0.44345567
-1.6276084 7.6183572 2.4507217
-2.8087316 7.2465987 -0.73026437
-2.818152 7.2644577 -0.84792227
-2.8123853 7.2904329 -1.2433765
-3.57898 6.6342111 -1.1353949
-2.8155329 7.2964759 -1.1318954
-2.52898 7.3057795 -0.94434398
-2.1086316 7.575263 1.0649418
-3.5451307 6.7038679 -0.30635434
-3.5687749 6.6752481 -0.58420575
-3.5720184 6.6492281 -0.46965599
-2.3322384 7.397294 -0.54132497
-1.5357797 7.7138734 2.1554558
-3.5500927 6.6938782 -0.22453882
-2.6254869 7.2727423 -1.1331015
-3.4157724 7.0191102 0.3692354
-3.5796945 6.6324129 -1.2967108
-2.6696272 7.2373061 -1.0388678
-3.4257298 6.9978037 -0.33781889
-3.7140813 6.6627703 -0.53222847
-3.5700688 6.6412697 -1.4044482
-2.5870252 7.2146363 2.6437001
-0.74942863 7.9265156 2.4718263
-3.7233009 6.6509361 0.03992141
-3.7293818 6.663434 -0.29726839
-3.7058811 6.6719661 -0.44400036
-3.5039091 7.053556 -1.3328917
-3.6900182 6.9577565 -0.48895609
-3.7208333 6.6662664 -0.9468956
-3.1792417 7.1749506 -0.66315043
-3.0057874 7.1705704 0.24513161
-2.7318954 7.1923265 2.6690385
-3.708822 6.6693454 -1.1587715
-3.0573077 7.13831 0.27211076
-2.6914229 7.2866068 3.0180426
-3.6906345 6.8534269 -1.5163764
-3.5995944 6.9643087 -0.52744997
-3.7503204 6.5325117 -1.4721259
-3.2104468 7.178875 -0.8475883
-0.72246218 8.0695629 2.2650955
-3.2047095 7.1593165 -1.1409476
-3.2391219 7.0857186 0.28634197
-2.3147712 7.4511442 0.23363607
-1.6547781 7.6245642 -1.3356544
-2.7558203 7.4434114 1.7695997
-2.8912954 7.2635965 2.5716631
-1.0347842 7.913558 2.5618205
-3.9020844 6.5963097 -1.4133492
-3.2174342 7.0733929 -1.337027
-1.4371728 7.7249336 1.3488779
-0.64317769 8.2622452 -0.45675105
-1.37363 7.7689676 0.85584664
-4.0310001 6.4713163 -0.8391133
-2.7601123 7.2371187 -0.22715773
-0.90147352 8.1640434 2.2015777
-0.7131815 7.9416323 2.6401317
-3.4107223 6.9793954 -1.4380822
-2.9109156 7.137506 1.9800165
-2.5057089 7.3589993 -0.25292879
-3.9284244 6.5696483 -1.2218229
-1.490859 7.9676371 1.4484352
-0.617329 8.0961189 1.3664045
-2.7003989 7.1291022 2.4133437
-3.1028161 7.3490357 1.6278664
-1.3519554 7.7516475 -1.5853461
-2.1272442 7.6774511 1.9328084
-1.7242212 7.5067902 3.0873189
-1.5128736 7.7623429 2.0487347
-1.0320112 8.0944786 1.3622344
-2.7032042 7.1485333 2.8880854
-1.648175 7.5408463 2.9232323
-1.5330354 7.6688852 2.9143426
-1.5408565 7.6119795 2.6826246
-0.82551616 7.9108782 2.3535419
-0.82355511 7.8981299 2.4566901
-3.5738347 6.9398203 -0.015843101
-2.5217221 7.3037181 -1.1358511
-2.0591404 7.4327207 2.4420378
-4.112915 6.4653273 -0.3396191
-0.67076254 7.937284 2.5400231
-0.73752099 8.0109243 2.3601525
-0.63528532 8.1886396 0.26827729
-1.3329148 7.7183523 2.0495572
-2.5158861 7.243238 2.5960891
-3.6880488 6.6539302 -0.053218406
-3.7044108 6.6618357 -0.62142068
-1.4188031 7.7691789 1.2653965
-1.8090498 7.5239477 -1.9633673
-2.2402577 7.4405227 0.47566372
-1.3125348 7.7592392 -2.0469854
-1.3474243 7.8097868 2.6428945
-1.9392631 7.436842 1.9501479
-0.75951517 8.2373657 2.8098936
-1.9330068 7.5087538 1.8542416
-0.67609471 7.9454908 2.2793405
-1.4437661 7.7047887 2.2542906
-0.93432558 8.1152306 1.1670592
-1.9723316 7.5404844 0.37719873
-1.0410459 8.207305 2.1265218
-2.7481556 7.2364297 -0.33965445
-1.6567205 7.6335549 -0.7367841
-1.9547908 7.5362806 -0.23769389
-1.9335426 7.5004148 2.0622075
-3.7023363 6.6654472 -0.22965655
-1.7628641 7.5448155 2.1995206
-0.62463003 8.0215645 2.1518633
-2.3265586 7.5020757 0.95462
-2.2977564 7.4515028 1.2443073
-2.4743898 7.5124788 0.94233692
-4.1294122 6.5491271 -1.0791788
