# .PCD v0.7 - Point Cloud Data file format
VERSION 0.7
FIELDS x y z
SIZE 4 4 4
TYPE F F F
COUNT 1 1 1
WIDTH 552
HEIGHT 1
VIEWPOINT 0 0 0 1 0 0 0
POINTS 552
DATA ascii
37.625248 23.015392 -2.5917592
37.708115 23.065285 -2.407269
38.149788 23.290422 -1.0014775
37.981495 23.178499 -2.316576
37.63694 23.058376 -2.031898
37.916649 23.152388 -1.4193476
38.003151 23.159517 -2.1349583
38.073513 23.01977 -0.66982132
37.895569 23.169783 -0.87776238
37.953522 23.025354 1.6485448
37.934807 22.892399 -1.0833616
38.016754 22.923203 -0.37859714
38.052048 23.011482 0.44399059
37.976105 23.150146 -1.1127688
37.943497 23.026993 1.4609822
37.904449 22.854698 -1.2225337
37.983528 22.929173 0.22130582
38.030331 23.043797 -0.3394613
38.026997 23.029652 -1.0876702
38.15667 23.253216 -0.81616884
38.08532 23.277145 0.57204878
38.17305 23.269089 -2.3699317
38.04034 22.980856 -1.5855736
37.821003 23.16114 -1.2262963
37.959274 23.013363 -1.5294071
38.02808 23.01355 -1.2615988
38.04446 23.00885 -0.95654142
37.933777 23.043602 -1.9568148
37.80191 23.071194 -2.5399592
37.976952 23.003151 -2.6470895
37.9939 23.004433 -2.9876328
37.957256 23.018127 -2.3303175
38.043224 23.028725 -2.3337746
37.960396 23.035839 -2.2597332
37.963573 23.027676 -1.2493688
37.78664 22.980345 -2.4993606
37.966179 23.007519 -2.5241058
37.875729 23.007986 -3.0585835
37.837296 22.967888 -2.6391289
37.935944 22.989645 -2.8414605
37.950809 23.037941 -2.0358155
37.907375 23.03031 -2.5393605
37.982811 23.028486 -2.7113674
37.853424 22.990219 -2.9092398
38.052113 23.067127 -2.7413683
37.952682 23.025074 -2.440079
37.957516 23.018738 -1.8225348
37.855495 23.0898 -2.0283253
37.760349 23.067739 -1.3519124
38.071205 23.115549 -0.037606869
38.088558 23.161587 0.76266927
37.977989 23.159094 -1.3453064
38.044327 23.303122 0.91611195
37.973232 23.088537 -1.3302279
37.778255 23.064362 -0.53747404
38.083511 23.16626 0.85669547
37.767406 23.071186 -0.037118122
37.972569 22.944002 -1.3364681
37.60331 23.063925 -0.35945535
38.082687 23.161997 0.57088411
37.940434 23.033634 1.7315226
37.971512 23.085196 0.5613429
38.085472 23.16242 0.66986942
37.965199 23.086191 0.16293605
37.98103 23.178226 -0.057604179
37.968636 23.090918 -1.4338704
37.9659 23.089146 1.0589422
37.968422 23.083797 0.060760789
37.975426 23.088169 -0.13901612
37.597069 23.055918 -1.7884638
38.073898 23.117752 -0.13790692
37.987259 23.171381 0.2208456
37.966022 23.089426 -1.7371813
37.857727 23.017691 1.4606445
37.973873 23.084955 -0.64105093
37.761402 23.00749 1.0582575
37.644016 22.987869 -2.9025958
37.766953 23.001715 1.3591946
37.960354 23.094418 -1.2295988
37.885605 22.919916 -1.4820865
37.998592 23.259146 1.1784368
37.836452 23.185843 -2.2726133
37.611515 22.920492 -1.834219
37.503021 22.992281 -1.8532016
38.044056 23.043289 -2.0919764
37.532104 23.071581 -1.8441834
37.587418 23.050245 0.74197447
37.675789 23.05665 -1.3316648
38.071724 23.113907 -0.73985839
38.068974 23.11569 0.55513698
37.765308 23.006315 -0.13715903
37.601891 22.964518 -2.4418364
37.972637 23.092052 0.7587027
38.072624 23.105955 -0.93312317
37.968742 22.914915 0.46117979
37.603958 22.91341 -1.7409314
37.44957 22.998095 -1.9377285
37.858334 23.029171 0.56182408
37.820507 22.921623 -2.2479775
37.863155 23.01758 -1.0419416
37.767464 23.162079 -1.0774759
37.762936 23.169512 -0.90221405
37.77512 23.065552 -1.5182683
37.857487 23.00679 -2.3189526
37.784283 23.06517 0.45964047
37.600529 22.914724 -1.9512398
37.85796 23.018209 -1.2539455
37.878868 23.073074 -1.243917
37.872864 23.066668 -1.5393391
38.070972 23.112991 -0.53439856
37.873295 23.016001 -1.8248118
37.859215 23.017117 -0.93633693
37.666534 22.979929 -1.3405529
37.764778 23.007505 -1.9434975
37.753002 22.995432 -1.1397139
37.865891 23.024817 0.95869559
37.880222 23.069386 0.96098047
37.879177 23.064255 0.16135016
37.997963 23.159948 0.38426298
37.948921 23.030685 -0.54379582
38.021248 22.944721 -1.0252855
37.949409 23.007984 -0.64520371
37.980301 23.013016 -0.74422556
37.976639 23.017408 -0.44524866
37.983784 23.16939 0.17484923
37.772999 23.065479 0.16355984
37.853081 23.018568 -0.53190017
37.881359 23.068047 0.56089622
37.965889 23.180927 0.46849838
37.75164 22.998606 -1.5257052
37.771606 23.061348 -1.6422881
37.662846 22.968588 -2.4511178
37.978008 23.156033 -0.8571353
37.868023 23.016287 1.2613187
38.068462 23.11104 -0.83800143
37.574944 23.000298 -2.7723577
37.859146 23.022764 -0.83351719
37.778564 23.073145 -0.3249864
37.773682 23.067417 -1.4335814
37.392189 22.941202 -1.8822253
38.051754 23.013725 -0.033005428
37.763355 23.009228 0.86144787
37.879601 23.065969 -0.04065603
37.778145 23.010096 -2.0354967
37.77964 23.066463 -0.73215866
38.085224 23.173246 -1.929633
37.877918 23.067402 0.36130202
37.858624 23.027901 0.36733025
37.777206 23.16666 1.0485735
37.7673 23.009241 -0.23488806
37.877865 23.063831 0.055645693
37.857944 23.025833 0.16761558
37.808998 23.198814 0.53803337
37.969681 23.089153 -0.33852503
38.098328 23.253099 -1.8009909
37.968834 23.181183 0.55804372
37.875885 23.070988 -0.64276165
37.672871 22.979033 -2.2400258
37.773716 23.06838 -0.83119488
37.764015 23.008387 -0.033982653
37.691944 23.061275 -1.1349415
37.759975 22.993519 -1.3389645
37.865498 23.021967 -0.33622655
37.852654 23.190105 1.2908655
37.853584 23.024282 0.76101828
37.599808 22.982471 -1.9416778
38.023735 23.26568 0.16403362
37.663486 22.959465 -2.3235419
37.973362 23.087082 0.4614704
37.671944 23.070995 -1.8099232
37.779869 23.06847 0.25929436
37.667442 22.975883 -1.7369876
37.926842 23.145884 -0.21553184
37.860123 23.021227 -1.6298163
37.969185 23.099201 1.3598516
37.790554 23.106415 -2.24722
38.088394 23.160139 0.46745682
37.728584 23.311487 -0.92217255
37.759052 23.00683 -0.33571893
37.865181 23.017021 1.3597405
38.055565 23.043907 -1.9129368
37.763424 23.004827 1.1582234
37.880032 23.067154 0.75680494
37.864017 23.014595 -0.64258695
37.85762 23.024893 0.86736
37.943573 23.0156 0.76759446
37.7584 23.000944 1.4578152
37.650414 22.971989 -2.1294205
37.713802 23.058989 -0.23050651
37.967995 23.094358 -1.0381991
37.967777 23.00318 -1.1351373
37.735889 22.926525 -2.4271891
37.666256 22.981691 -1.4350202
37.749348 22.897129 -1.4399759
37.78352 23.079557 -2.0363743
37.87656 23.074764 -0.73137188
37.888657 23.005323 -2.7027073
37.855923 23.023546 1.1599654
37.689377 23.061224 -0.71996397
37.735695 22.891369 -1.6367726
37.764877 22.933886 -2.0327015
37.691643 23.054176 -0.83128917
37.85511 23.021156 1.0625221
37.973457 23.093012 0.96352476
37.697979 23.08028 0.95066059
37.749008 23.273289 -0.8817054
37.866714 22.932375 1.2442601
37.668068 23.056744 1.1589134
37.764008 23.007641 -0.73462433
37.702389 23.062407 0.85055077
37.747643 22.902216 -1.7601057
37.874756 23.075497 -0.94374442
37.877827 23.07317 -1.0365767
37.760128 23.004332 1.2668347
37.870522 23.079556 1.3590082
37.517231 22.991831 -1.5913703
37.670925 23.067467 1.0551153
37.690636 23.056744 1.2799963
38.084557 23.168447 0.36510989
37.964249 23.034245 1.3661044
37.665916 22.983929 -1.2336867
37.667126 22.980272 -1.9341552
37.576458 23.132277 0.83644277
37.784321 23.069599 0.76173502
37.65448 22.978758 -1.8322951
37.853474 23.020294 -1.5290219
37.66473 23.064245 -0.53773248
37.604092 23.054546 -1.5490217
37.881123 23.068258 0.65700185
38.148888 23.27018 -0.22331524
37.873535 23.070171 -0.33961093
37.858566 23.011089 -1.3392558
37.997383 23.281504 -0.61830002
37.620071 23.054588 -0.39766157
38.154907 23.287283 -0.053492911
37.974915 23.087536 -0.038269028
37.751892 22.901882 -1.5516489
38.046581 23.003696 -0.44165605
38.081608 23.028959 -1.7359573
37.733227 22.916315 -1.8211156
38.040173 23.032511 0.56504059
37.974037 23.160879 1.3855778
37.783092 23.066927 -0.13013677
38.08897 23.27969 -0.35400993
37.879925 23.065771 0.25972077
37.822498 23.157387 0.59140795
37.584583 22.988066 -2.2387798
37.766209 23.066002 -1.0260785
37.774872 23.05537 -0.94254684
37.951031 23.030676 -0.82889771
37.793663 23.191044 1.2539535
37.778187 23.06142 1.1608969
38.153572 23.259989 -0.097629227
38.071732 23.112858 0.061853785
37.877079 23.068485 0.85752982
37.750629 22.9058 -1.340394
37.962944 23.092947 -1.1409019
37.683628 23.159033 0.6227445
37.59129 22.970678 -1.5543898
37.59005 23.084513 -1.4407492
38.092777 23.163166 -0.54682881
37.851875 23.019547 -0.74291921
37.67342 23.063074 -0.027814293
37.671204 23.064709 0.77596772
37.582664 23.004543 -2.645112
37.765625 23.008724 -0.43219957
37.904129 23.151468 1.3874713
37.970764 23.170185 -2.2557626
38.084087 23.16367 -1.0293974
37.594265 22.96064 -2.3415334
38.007893 23.164179 -1.262877
38.0821 23.16757 -0.13112229
37.97023 23.097599 1.2644787
37.766384 23.004478 0.96020919
37.945759 23.019735 1.5693669
37.973457 23.093218 -0.84099174
38.05975 23.021088 -0.15152067
38.067608 23.111759 0.36249289
37.761669 23.001955 -1.4424995
38.070999 23.109455 -1.2320329
37.988049 23.156242 -0.13951123
37.855686 22.936649 -0.7779547
38.020164 22.913921 -0.98055315
37.958511 23.010334 -1.0285109
37.94788 23.027565 1.1638582
37.87215 23.071751 -0.2360215
37.591721 22.974762 -2.017952
37.824493 23.216009 1.0061918
37.6031 22.977732 -1.4481355
37.612907 22.983461 -2.5094042
37.599159 22.990244 -1.3481005
38.030457 22.936377 0.04727567
37.59948 22.97575 -1.7452385
37.852764 23.02454 0.65941775
37.70676 23.063286 -1.3903443
37.696632 23.057499 -0.12225746
37.639812 23.096113 -1.7383339
37.955505 23.021507 -0.92156911
37.968315 23.105045 1.5608646
37.600063 22.974102 -1.8381912
37.970371 23.090269 -0.73460656
37.609173 22.964397 -1.6309915
38.046207 23.011753 -0.72236741
38.076336 23.166096 -0.84622675
38.054302 23.004677 -0.845743
37.689358 23.061083 -0.35129869
37.757111 23.000298 -0.9437179
37.962021 23.152691 -2.011229
38.093628 23.162052 -0.75001287
37.767319 23.005987 -2.3246818
37.852482 23.02282 0.46678084
38.081146 23.165945 -1.7411779
37.760551 22.956032 -2.6212716
37.773453 23.064341 0.96851611
37.969837 23.085917 -0.23935895
37.874409 23.07502 1.0632814
38.054806 23.25456 -1.6391613
37.933083 23.32539 0.46918407
38.008041 23.299988 0.37301567
37.987106 23.1803 0.67482829
37.977501 23.181656 0.85856771
37.791508 23.063765 0.55878687
37.968216 23.087301 0.25839862
37.775284 23.062473 1.3620676
37.781502 23.002171 -2.2510283
38.11945 23.263363 -1.5658717
38.081509 23.161898 -0.32128105
37.803608 22.95261 -3.1226683
38.078091 23.165293 -0.63562089
37.707512 23.19569 -0.97176445
37.772507 22.97246 -3.0640767
37.759872 23.001467 -2.1278481
37.773689 22.971754 -2.7358799
38.071697 23.109999 -0.64215815
37.850544 22.925703 -2.4668193
37.849636 22.930195 -1.1279246
37.858524 23.010712 -1.4319974
37.865665 23.007877 -1.1376904
38.087631 23.040066 -2.9027691
37.764908 23.00696 -0.53885305
37.776428 23.058352 -1.2443763
37.769993 23.158978 1.1819644
38.069885 23.113401 0.85883671
38.093342 23.164881 0.26295912
37.970394 23.088041 0.3614791
37.880444 23.147694 -1.0153257
38.232647 23.161413 -2.8070738
38.079739 23.093176 -2.2434566
37.774364 23.063904 -1.9492476
38.065876 23.114077 0.26019546
37.851311 23.029457 0.2594642
38.070526 23.113417 0.76373768
37.85218 23.024643 -0.13843283
37.940308 22.935698 -1.4945388
37.963528 23.012968 0.37705725
37.98988 23.164587 0.75667924
37.955563 23.262148 0.98198605
37.769623 23.194202 0.95799923
37.704929 22.92515 -3.1269407
38.004074 23.199932 1.2466605
38.058567 23.00028 -0.2606563
37.96463 23.019047 0.94490504
37.97998 23.002985 -1.3466864
37.88718 23.18325 -0.35020605
37.795097 23.177227 0.84520328
37.87711 23.219837 0.36009198
38.166195 23.363848 0.44354573
37.967449 23.271072 0.84383535
37.782303 23.066217 0.86003751
38.087112 23.02597 0.13760045
38.029621 22.957785 0.73474884
37.827633 23.215441 -0.6411882
37.990833 23.179438 -0.75516123
37.801548 23.150084 -0.71888894
37.975449 23.178137 -0.61891848
37.787571 23.061275 1.2655252
38.056805 23.337284 -0.64339429
37.85046 23.271976 0.61399096
37.966656 23.247505 -1.1494429
37.985462 23.178776 1.4609537
37.863426 23.173189 0.16063799
37.774002 23.062462 0.065976851
37.762115 23.164755 -0.0041685631
38.07019 23.173023 -1.51008
38.091118 23.184834 -2.5711534
38.046463 23.040165 0.63979602
37.963619 23.026423 0.45743623
37.958324 23.032505 0.57506716
37.974537 23.102629 1.4595023
37.858227 23.029621 0.059180032
38.076355 23.114002 -1.7389647
37.945076 23.011488 -0.13760404
38.021378 22.966234 -1.8183417
37.968914 23.093214 0.86251688
37.937717 23.019039 -0.35836428
37.970329 23.089653 -0.43134966
38.069599 23.114149 -0.33952829
37.880131 23.065374 0.46010643
37.964092 23.168625 1.057184
37.980274 23.004261 -1.7405659
38.069126 23.112467 0.66214985
38.090015 23.156137 -0.43625638
38.050903 22.994267 0.075769417
37.875145 23.076502 1.2609643
38.09264 23.168079 0.16295134
37.8536 23.023817 -0.040301304
37.882469 23.070171 -1.1407121
37.965912 23.104277 -2.3416295
37.90477 23.015993 -2.4456632
38.067623 23.112959 -0.23630576
37.972839 23.092566 -2.2441576
37.865108 23.020037 -1.7271258
37.755722 23.004702 -1.7298682
37.841408 23.019199 -2.2533693
37.973045 23.102512 -2.0397928
38.070004 23.115324 -1.0422354
38.079872 23.092789 -2.1422932
37.857826 22.9956 -2.1317368
38.084538 23.11179 -1.3366517
37.765587 23.006504 -0.83731568
37.854557 23.086531 -2.5247984
38.069088 23.114819 0.16116193
38.086403 23.169878 -2.0286527
38.085026 23.181696 -1.440819
37.871277 23.024334 -1.9371828
37.758057 23.005928 -1.0373019
38.068344 23.114601 -1.1304284
37.907143 23.088068 -2.3502145
38.069523 23.083323 -2.4229515
37.880302 23.065472 -0.14334749
37.866901 23.028534 -2.0410602
38.059479 23.109772 -1.9342635
37.850868 23.023256 -0.4318828
37.983368 23.054594 -2.5479617
38.07008 23.113194 -2.0335782
38.070297 23.11561 -1.5352687
37.881504 23.070379 -0.53576195
37.967484 23.025995 1.2749183
37.972294 23.089268 0.65981913
37.786041 23.054903 0.65822768
38.079689 23.093124 -2.3254995
37.867031 23.157391 0.44879723
37.882244 23.158134 1.484856
37.976753 23.163177 -0.540658
37.975971 23.092514 -0.93726707
38.083626 23.164673 -1.2315792
38.100414 23.184731 -2.2279239
38.087978 23.194597 -2.1365008
38.085445 23.164391 -1.1342145
38.167076 23.205458 -2.0209327
37.976246 23.155088 -1.0279499
37.760628 23.011469 -0.63852578
37.765354 22.99469 -1.830073
38.086979 23.17639 -1.3319438
37.869736 23.071945 1.1611403
37.874176 23.074785 -1.3351971
37.880295 23.086475 -1.7273848
38.075558 23.186014 -2.311368
37.965782 23.181583 -1.7235854
37.782116 23.060337 -1.7473936
38.101761 23.165262 -0.238362
37.790936 23.07028 -0.24326973
37.695091 23.071833 -1.2482343
37.969608 23.16267 -1.6400303
37.960449 23.171875 -2.6656263
37.869743 23.071981 -1.6448987
37.83585 23.116755 -2.6695936
37.786938 23.068874 -0.64239794
37.715221 23.056446 -2.6758192
37.881035 23.086666 -1.4353198
37.783787 23.060907 -0.43994325
38.105549 23.175686 -1.8088917
37.97858 23.091358 -1.8376448
37.874897 23.071995 -0.84228367
37.862694 23.098186 -1.8446212
38.099411 23.164989 -0.051785797
37.670048 23.060347 -1.0450218
38.073421 23.166451 -0.94882196
37.993355 23.180611 -1.9090734
37.781025 23.061546 1.0597638
37.848976 23.084999 -1.944186
37.707031 23.051537 -1.9254812
37.999413 23.169025 -1.8379856
37.707283 23.099802 -2.3654981
37.767197 23.074755 -1.8439144
37.861698 23.02824 1.5549548
37.913124 23.237204 0.244298
37.976021 23.085941 -1.9484737
38.065422 23.113445 -0.43315402
37.686066 23.057678 1.3621671
37.791138 23.072899 -1.1399878
37.779369 22.994267 -2.4363647
37.802731 23.243565 0.45203319
37.973915 23.09539 -2.1524363
37.969929 23.013527 1.0598512
37.663689 22.982538 -1.6334777
37.873962 23.085121 -2.2252278
38.061272 23.105003 -1.4267551
37.963356 23.083233 -1.6438504
37.750793 23.060051 -2.3180349
38.07579 23.198122 -2.4287353
37.863113 23.085833 -2.1332538
37.755276 22.998249 -1.6343685
38.080948 23.096415 -2.4981716
38.084194 23.163919 -1.6592013
38.072224 23.112398 -1.6282254
37.977257 23.170607 -0.35929465
37.880882 23.124468 -2.4247561
37.973957 23.089983 -0.53579468
37.963394 23.025103 0.67855829
37.88102 22.911152 1.3663774
38.001575 22.939693 0.66902876
37.952526 23.025557 0.16950314
38.073856 23.032238 -0.55535233
37.959534 23.025457 0.25457597
37.963795 23.024609 0.86491162
37.879192 23.073862 -0.4425562
37.988602 23.088579 -2.4174225
37.970516 23.039955 -2.1204236
38.074554 23.114029 -1.8329548
37.929989 23.179348 0.035663269
37.682804 23.053434 -1.5656934
37.970829 23.089649 -1.5291431
38.069912 23.113964 0.46166724
37.764229 23.003941 -1.2366099
37.668037 22.983063 -1.5364606
37.869129 23.206945 1.1610088
37.98061 23.02429 -1.6494362
37.695183 23.060425 -0.6511389
37.679459 23.062712 -0.42634675
38.08865 23.16127 0.065190926
37.97657 23.16012 -1.4411243
38.061001 23.032206 -1.6456554
37.861355 23.02253 -0.23733096
37.948845 23.028923 -0.23107263
37.954597 23.034237 0.04850534
38.066376 23.029659 -1.3481909
37.977921 23.012497 -1.4502827
37.739838 23.218569 0.045477398
37.794907 23.233616 0.325234
37.974655 23.097752 1.1601472
37.894356 23.173065 1.0584561
37.9813 23.150229 1.1642365
37.978748 23.172356 0.98321617
37.857452 22.932514 1.1170301
38.094017 23.251421 -0.91238123
37.960876 23.018911 -0.03497101
38.030228 23.025019 1.3520081
38.146854 23.246225 0.1719037
37.515514 22.987682 -1.766922
38.16684 23.258566 0.57371855
37.426846 22.899889 -1.8953533
