# .PCD v0.7 - Point Cloud Data file format
VERSION 0.7
FIELDS x y z
SIZE 4 4 4
TYPE F F F
COUNT 1 1 1
WIDTH 843
HEIGHT 1
VIEWPOINT 0 0 0 1 0 0 0
POINTS 843
DATA ascii
52.733742 18.768745 2.2909629
50.815685 18.050081 2.0775306
52.559898 18.690355 2.225384
52.721416 18.723309 2.2329962
52.768414 18.779251 2.1712894
52.634098 18.71521 2.2552166
52.422764 18.63212 2.4437561
52.411278 18.608074 2.7178066
52.992443 18.862722 2.5366502
49.850975 17.640717 2.7280114
52.74041 18.739656 1.9622658
52.421288 18.615828 2.3427007
52.754047 18.760233 1.9801705
52.763332 18.735905 2.1558452
52.738464 18.735357 2.0235319
52.570827 18.682171 1.974062
53.279732 18.946634 1.9028406
50.936977 18.039934 2.4702604
52.054325 18.44104 2.3078203
51.26815 18.140915 2.2914131
49.96072 17.634262 2.3388984
49.92318 17.639286 2.0311592
51.240166 18.145376 2.4422739
52.779095 18.765478 2.0544634
52.695827 18.749472 2.0749569
52.663498 18.717375 2.0462737
52.573441 18.690477 2.0534964
52.485939 18.660406 2.0662303
53.131573 18.838749 2.6167982
52.448334 18.627403 2.1665509
52.453342 18.632412 1.9703997
52.448929 18.63685 1.8928471
50.538433 17.917803 2.8203139
50.102718 17.738935 2.8114028
53.047203 18.825689 2.5796859
52.438904 18.625296 2.2659717
52.365978 18.609558 2.0701511
53.22319 18.874609 1.8360014
52.238323 18.507965 2.6224394
52.371925 18.606153 2.1649041
49.797344 17.655563 2.7514577
49.671234 17.692831 2.3591433
53.135109 18.833073 2.4617119
50.156094 17.737396 2.5296986
49.837296 17.632021 2.272563
49.672157 17.687803 2.0501018
52.16674 18.501667 2.5547481
52.051331 18.431894 2.621074
51.243851 18.142719 2.5997839
50.936375 18.039251 2.365696
50.171551 17.739794 2.1428771
53.324738 18.924419 1.8902354
53.051723 18.835283 2.0468013
52.457066 18.626137 2.0618219
50.952896 18.025822 2.2772369
49.808037 17.657532 2.2489336
50.956543 18.036299 2.0961933
50.276207 17.814064 1.9789193
50.135376 17.731068 2.2628434
53.158848 18.892254 2.0595915
50.644962 17.930506 2.3559175
50.652496 17.929176 2.2866576
49.685089 17.600126 2.0664058
53.068851 18.880806 1.9031062
53.038353 18.835157 2.1585965
52.362038 18.601263 2.352818
52.37553 18.590096 1.8922451
52.248108 18.53219 2.3678074
49.666542 17.699329 2.1795943
50.942162 18.033472 2.6613038
53.049686 18.838249 2.367723
51.953793 18.432844 2.3518071
51.962006 18.420845 2.5586653
51.760204 18.332615 2.5528409
49.701977 17.614143 2.2668271
52.154156 18.520796 1.9671245
52.890022 18.806993 2.2589586
49.812035 17.650515 2.4723392
51.102104 18.155827 2.1745899
53.050365 18.837132 2.2495074
51.138252 18.129469 2.0763443
53.292549 18.961449 2.7098792
52.013813 18.443495 2.7344763
50.362461 17.833138 2.7465026
49.885143 17.666346 2.7519665
53.26899 18.937311 2.6701152
53.25531 18.925989 2.1718273
53.170303 18.900517 2.1697836
53.2085 18.947248 2.6796527
50.1535 17.73613 2.6597514
49.860897 17.634035 2.6488206
53.261974 18.928572 2.2634194
51.443714 18.230127 2.449769
50.861092 18.026007 2.4627497
52.189892 18.569044 2.0900438
49.872047 17.737902 2.9644849
50.867172 18.023804 2.8717959
50.76289 17.99761 2.8652651
50.299393 17.824425 2.8245351
50.133492 17.740307 2.825881
49.851257 17.631998 2.5494308
53.335636 18.93672 2.2614641
53.261894 18.913361 2.4639833
53.065029 18.833225 2.4598837
52.163788 18.522938 2.1617341
51.342171 18.208849 1.8833992
51.945477 18.435625 2.4542651
51.445503 18.240026 2.6499958
50.367599 17.828167 2.547466
52.940548 18.817671 2.6699121
52.962265 18.821598 2.1716933
52.888119 18.81481 2.6595135
51.98267 18.469799 2.0713549
51.161251 18.132816 2.6523001
50.865231 18.022165 2.6520309
50.266701 17.810055 2.2622983
49.84293 17.634686 2.1667266
49.702988 17.599947 2.1663918
52.994656 18.861237 2.3647814
52.969101 18.819382 2.5606596
52.895355 18.809223 2.5697732
52.199615 18.559822 1.997602
53.27248 18.927973 2.5563788
53.253178 18.922714 1.9568607
53.170631 18.901535 2.2620242
52.967464 18.819113 2.4636171
52.97934 18.851349 1.9742314
52.969322 18.822121 1.9557629
52.162354 18.5177 2.4512591
51.956757 18.425323 2.6474981
51.366013 18.219084 2.3525543
51.148693 18.131699 2.3556705
50.468792 17.880241 2.6585283
50.355595 17.833559 2.3636467
49.76503 17.614845 2.2678795
51.155708 18.131094 2.4420867
50.771156 18.004564 2.160522
50.552422 17.91346 2.7345631
50.357681 17.826031 2.4668298
49.763069 17.618027 2.3620512
49.700603 17.614695 2.3546815
53.3717 18.982222 1.9730786
53.262344 18.925724 2.3557093
52.967728 18.818844 2.3541148
52.170658 18.508389 2.6276891
51.069187 18.101648 1.9621282
52.644966 18.724661 2.1466393
52.686108 18.754442 2.1664684
49.875206 17.728628 2.8166134
49.767334 17.615936 2.5511475
53.219082 18.947018 1.9950433
52.999115 18.853159 2.2619069
52.965904 18.82222 2.2624273
52.988495 18.864103 2.6493547
52.894115 18.806503 2.356354
52.158371 18.522966 2.0611532
51.945911 18.432194 2.2622938
51.074047 18.100393 2.6564946
50.563587 17.905432 2.6463749
50.031994 17.729174 2.0009129
49.990505 17.638662 1.999486
51.063328 18.111786 2.2670517
50.956909 18.078346 1.9615161
50.891716 18.062078 1.958073
50.853024 18.014593 2.5598073
50.760616 17.998825 1.9506119
50.56377 17.922388 2.1624062
50.268867 17.813517 2.1651726
50.1978 17.785217 1.8703778
50.001194 17.628096 1.8486922
50.067455 17.774946 2.7449243
49.987267 17.757387 2.7523046
52.164238 18.523838 2.2616115
52.13625 18.526697 2.8642223
52.05312 18.484627 2.8587596
51.907433 18.443516 2.844691
51.07299 18.117277 2.1663289
51.064674 18.121321 2.7431338
53.383862 18.980021 2.0841823
53.058475 18.882324 2.6511652
50.769714 18.00359 2.3593969
51.369312 18.220476 2.4570031
51.278671 18.187744 2.7435462
50.381336 17.854767 2.6511798
50.177029 17.770557 2.662677
50.391453 17.88073 2.7677796
50.186375 17.775152 2.7487311
49.970139 17.705673 2.0679836
49.76495 17.616331 2.4552231
51.366039 18.210207 2.5656111
51.158154 18.130531 2.5610871
51.173462 18.169058 1.8993244
50.966988 18.044727 2.5480361
50.853382 18.024429 2.1659405
53.379726 18.989866 2.6647637
53.168823 18.901657 2.3582759
53.175549 18.906603 2.6561062
53.077801 18.871626 2.3653793
53.054943 18.832468 1.961143
52.886105 18.800592 2.1667464
51.875042 18.418705 2.4576576
49.873577 17.667318 2.3684518
49.869263 17.706192 3.0290883
49.806149 17.655134 2.3591909
49.808548 17.657782 3.0283558
49.768902 17.610409 2.6633687
52.572552 18.694574 2.1542997
53.158356 18.912584 2.7267597
52.997849 18.856941 2.4418004
52.952782 18.82757 2.7403469
52.957359 18.822294 2.0636609
50.152428 17.775372 2.8383107
50.064976 17.727673 2.161797
51.351631 18.231079 2.8769763
51.073452 18.1054 2.5552244
50.768318 17.998922 2.4587986
50.772842 17.987926 2.6539083
50.265514 17.810795 2.3559539
51.370995 18.229584 2.7462189
51.357983 18.223207 2.0749469
51.177128 18.136574 2.7395039
50.860695 18.027397 2.3574467
51.063545 18.113537 2.4571519
51.066326 18.113922 2.0720143
50.858677 18.022987 2.7319527
50.759113 18.002354 2.7368994
50.565624 17.919621 2.3544888
50.473141 17.891314 2.0572686
50.458561 17.886084 2.7384632
50.277458 17.807669 2.6498711
53.07262 18.868818 2.2659636
50.509552 17.992701 2.9581985
50.45829 17.902386 2.9625931
50.351471 17.835028 2.2786171
50.270973 17.799583 2.5587242
50.178635 17.774082 2.5535524
50.130619 17.76465 2.9323196
53.362488 18.986723 2.5473733
53.171383 18.903091 2.5540857
53.077084 18.876276 2.5490601
53.045486 18.913393 2.8912346
53.073727 18.870678 2.1659675
52.984432 18.878826 2.8892205
51.362171 18.20709 2.66786
51.255814 18.176838 1.9813792
51.068508 18.112268 2.3624091
52.674877 18.749615 2.2364681
51.369026 18.226542 2.1718948
51.265228 18.17956 2.5573928
51.021523 18.127705 2.8838258
50.071152 17.774954 2.8796566
49.881847 17.662815 2.5458422
49.809639 17.651791 2.5516248
51.573666 18.327133 2.9538014
51.360107 18.22262 2.2632935
50.333614 17.838896 1.8967187
53.283257 18.954643 2.0929403
53.176083 18.902098 2.4495733
53.086533 18.88851 2.7549326
53.082592 18.877876 2.0680702
53.079964 18.871531 2.4569337
52.975639 18.880159 2.7826157
52.982601 18.862968 2.0586998
52.888836 18.802149 2.4454038
52.863415 18.793264 2.0557942
52.856232 18.86405 2.7924275
49.959579 17.696926 1.9822061
51.9823 18.466978 1.9721497
50.041313 17.715546 2.7701309
50.771255 18.008146 2.0699842
49.933056 17.761349 3.0491159
49.890373 17.669773 2.6454644
50.870052 18.122126 2.9982986
50.061535 17.71888 2.4635239
50.281837 17.813002 2.4547877
52.982845 18.856668 2.1676946
50.053059 17.720911 2.5550036
49.970135 17.692263 2.4693437
50.064526 17.718956 2.6521487
50.263626 17.848198 2.0146837
50.06348 17.727531 2.3632624
49.961037 17.690767 2.5598826
49.958843 17.691174 2.7595005
51.041412 18.039459 1.9185288
51.742798 18.334621 2.457304
49.85207 17.632292 2.3652647
50.195431 17.788706 1.9753217
51.951469 18.434549 2.1763933
49.856274 17.633961 2.4693098
51.156746 18.129797 2.2698083
51.155998 18.13459 2.1580024
50.357994 17.830027 2.6540105
50.164089 17.776773 2.0622227
50.641705 17.93359 2.1678746
50.650013 17.930681 2.5533414
50.137623 17.730335 2.3502922
52.031857 18.433655 2.5291834
51.149067 18.12492 1.9367054
50.134758 17.732937 2.4663608
51.514854 18.244347 1.9891059
50.060001 17.724863 2.2716646
50.085011 17.763577 2.0640893
51.44062 18.237749 2.2684319
49.841267 17.630024 2.0557308
51.446369 18.240305 2.1624806
50.685986 17.968727 1.9503592
49.88372 17.675837 1.9825997
50.36311 17.835749 2.1566119
50.681744 17.974655 2.1580713
49.874928 17.667353 2.2621825
51.659588 18.328718 2.4490209
50.060696 17.724888 2.0585334
50.350208 17.835716 2.0437109
50.344963 17.830515 1.9775743
50.040264 17.714275 1.8823093
51.86462 18.414768 2.2667
49.830399 17.619101 1.9951625
51.57386 18.412838 3.1474419
51.761665 18.38662 1.9617405
52.312771 18.646645 2.2617519
51.572548 18.393536 2.7669702
51.56921 18.398943 2.8801622
51.464146 18.279079 2.0713537
51.885979 18.559513 3.0414147
52.072784 18.577148 2.4638095
52.289879 18.578529 1.910228
50.471996 17.89348 2.3589683
50.673649 18.052111 2.2691495
51.772545 18.391619 2.455898
51.45071 18.331924 2.8733277
51.650333 18.334311 2.0602498
52.275806 18.579891 2.0618701
50.382275 17.871389 2.1614764
51.268749 18.284981 2.7712383
51.659599 18.408829 3.153625
49.961636 17.720169 1.8972723
52.075005 18.487333 2.557162
51.878662 18.472601 2.2732615
52.065166 18.491381 2.3570864
50.674397 18.061771 2.7659242
50.682339 18.06818 2.6563947
50.99221 18.17452 3.0176837
53.272259 18.924648 2.069154
51.682613 18.397015 2.7480264
51.671032 18.411524 2.8609221
51.654957 18.423859 2.9399049
51.901882 18.578459 2.8781331
51.613297 18.358282 2.0702989
51.566952 18.379013 2.3589287
51.570137 18.396105 2.6620164
51.95108 18.423616 2.1025994
50.353027 17.892746 1.8666854
51.454765 18.241827 2.8100231
51.564789 18.288126 2.6802073
51.578835 18.295267 2.5618844
51.551994 18.303827 2.7319624
50.77422 18.002937 2.2695928
51.474342 18.270611 2.3564923
51.478111 18.275969 2.1652908
50.76722 18.008932 1.8631203
51.898582 18.461054 2.078136
51.471001 18.293238 2.566457
52.188435 18.571001 2.2733564
51.561024 18.392757 3.2319782
51.561745 18.305391 2.4560628
49.973907 17.701612 2.2710533
51.576729 18.37854 3.042239
51.475933 18.361273 2.556875
52.068859 18.494787 2.6569252
50.38562 17.962845 2.6524174
50.090729 17.768152 2.5530126
50.675613 17.978079 2.2663841
50.672009 17.978432 2.3601809
53.107048 18.946293 2.2261021
51.704666 18.47533 3.1799598
50.517662 18.092365 2.470722
50.099846 17.796787 2.6395679
51.571419 18.388884 2.5626075
50.632378 17.934059 2.0827014
52.621677 18.792444 1.9031509
51.795067 18.471912 2.1891108
50.375015 17.884611 2.4512036
51.772335 18.470442 2.2960863
50.378773 17.876598 2.352241
51.265831 18.279325 2.6510639
51.279106 18.29797 2.9783156
51.760303 18.473059 2.9572656
51.778198 18.475719 2.5545256
51.789139 18.474567 2.4599688
52.442268 18.700472 2.363131
49.997814 17.779758 2.0029335
50.757504 18.067738 1.7736667
51.576286 18.381729 2.4637718
51.767994 18.38372 2.2600696
51.472324 18.28652 2.455565
51.270565 18.296051 3.0412784
51.77356 18.381968 2.1599944
50.386185 17.881563 1.9555511
51.990654 18.596424 3.0605922
52.469864 18.65988 1.9745278
51.982979 18.561443 2.5679021
51.995979 18.572628 3.1536577
51.914047 18.548649 2.9585617
51.684563 18.355864 1.9718217
51.988132 18.579123 2.8291228
52.87804 18.803823 1.9607186
53.370277 18.977369 2.265599
51.177521 18.170631 1.9603095
50.08432 17.770725 2.1600735
51.798241 18.342854 2.1167305
50.104309 17.850676 2.5275314
49.769405 17.618307 2.0563905
50.115986 17.858091 2.4771996
50.375378 17.875093 2.2665579
50.084251 17.770014 2.2599638
50.381371 17.885498 2.5495214
50.408092 17.974478 2.7136457
49.807182 17.659756 2.120811
50.379272 17.863064 2.072407
51.583611 18.314873 1.9854296
49.820023 17.654102 2.0558608
50.0858 17.771143 2.4482689
50.668873 17.982367 2.4552872
51.774918 18.468536 2.3760817
50.656452 17.936066 2.4671431
49.766003 17.616701 2.1740465
50.664719 17.965439 2.0683832
50.673569 17.978659 2.5530682
50.66489 18.064096 2.5834494
51.846096 18.554077 2.6359456
49.670094 17.693165 2.2560031
49.987183 17.723331 2.885072
51.939274 18.581787 3.287466
51.966213 18.511978 2.8590863
52.459423 18.676407 2.2653177
51.266251 18.285002 2.8512964
49.760044 17.606781 1.9836695
53.081795 18.873032 1.9657935
51.474678 18.277225 2.2676611
50.087864 17.771362 2.359988
53.167809 18.904806 1.9557427
50.761482 18.082314 2.3720405
51.974426 18.538849 3.1693254
51.975773 18.57476 2.9463253
50.78212 18.060001 2.2555211
49.969852 17.698175 2.360018
49.969368 17.682549 2.6574817
49.975239 17.70116 2.1682029
51.579475 18.382566 2.2645237
52.431 18.651905 1.8614376
52.179237 18.573549 2.3564813
52.471077 18.669516 2.1556787
50.796555 18.081203 2.1720824
52.070034 18.58201 2.7481654
52.187019 18.622498 2.9426131
52.062859 18.567808 2.27215
52.157734 18.607178 2.847791
51.880482 18.40897 2.5637951
51.0639 18.181118 2.3631444
52.07291 18.580311 2.5646794
50.974113 18.172455 2.5624757
51.171135 18.184055 2.6627548
51.866455 18.410793 2.3561785
51.180309 18.168022 2.360033
51.176941 18.165369 2.1595228
51.605427 18.243877 2.2789009
51.978413 18.47584 2.3617623
51.974033 18.46483 2.1616123
51.174423 18.200529 2.5577877
50.560989 17.917274 2.0608552
51.47625 18.31218 2.9392369
53.174778 18.911762 1.8740077
51.502029 18.271954 1.8864831
52.216843 18.563665 1.899363
50.968292 18.208984 2.8633089
52.301586 18.543478 1.9568183
50.288288 17.885141 2.3734276
52.093754 18.558456 2.0706432
52.102093 18.556541 2.1700764
52.075531 18.586531 2.6633587
51.827263 18.379103 2.7354529
51.682957 18.471506 2.870229
51.572216 18.305283 2.1629145
51.181656 18.177744 2.078932
51.541798 18.352694 1.9156247
51.206352 18.189623 1.768023
51.175583 18.168741 2.2628758
51.560936 18.237648 2.4246528
51.558056 18.307119 2.0717373
50.674442 18.059221 2.4739566
51.651043 18.328671 2.2623615
51.563766 18.298313 1.8857547
51.973587 18.526205 3.0561783
50.304432 17.857441 2.175504
50.098774 17.777571 1.8745089
51.468536 18.284389 1.9601763
52.07407 18.56848 2.3674848
52.19038 18.628181 3.3477259
52.24081 18.536392 2.1617134
50.885456 18.151703 2.3288801
52.202927 18.669708 2.5777841
51.879589 18.486748 2.3676128
52.256607 18.534477 2.0466127
52.260506 18.598679 2.9878078
51.16964 18.18564 2.4515107
52.032017 18.434208 2.1848731
51.081478 18.166235 2.2565639
51.090099 18.156206 2.0791476
50.776672 17.994822 2.5506814
51.888889 18.562128 2.7533488
51.795719 18.552675 3.1370196
51.873528 18.421972 1.9706377
51.737083 18.337906 2.6710782
50.979607 18.178911 2.6734645
50.984489 18.178263 2.7485821
51.819645 18.546221 2.7031817
51.869473 18.416569 2.1618302
51.686481 18.379002 2.3587577
51.653843 18.406025 2.6723351
50.979645 18.180389 2.9672377
50.978157 18.181467 2.4700835
52.281563 18.586535 1.9635746
52.067486 18.491022 1.9769071
52.070213 18.493551 2.2590356
52.275974 18.57955 2.2616343
51.68084 18.387526 2.4626172
52.061642 18.49272 2.1592653
50.956417 18.07548 2.5648458
52.088451 18.583948 3.205452
50.972294 18.08036 2.6591873
50.977299 18.084616 2.4594643
50.583965 17.956676 2.0730779
51.682331 18.364298 2.0623789
51.634315 18.49032 2.0134976
50.565563 17.921711 2.2731614
52.184551 18.569159 2.165309
51.768154 18.391932 2.0696089
52.361275 18.526142 2.3948021
51.673599 18.31904 1.9816746
51.524998 18.178217 2.0962639
52.373825 18.606672 2.2678697
51.477058 18.286589 2.6595433
53.288776 18.974785 2.5553222
49.873917 17.671808 2.0696895
51.688602 18.364977 2.1606121
51.668858 18.396822 2.5656564
50.529503 17.973042 1.8559324
50.974117 18.085014 2.7489626
50.172539 17.857613 1.894644
50.881065 18.068371 2.0643818
51.464962 18.289171 2.7431438
51.093361 18.122097 1.8718364
50.864502 18.054314 1.8665731
51.368683 18.225914 1.9721906
50.473766 17.889961 2.4600239
50.88501 18.06566 2.1606882
51.584724 18.453247 2.6343832
50.471138 17.893532 2.1617532
50.849518 18.032314 1.9681004
51.871204 18.506554 2.7683241
51.876568 18.502737 2.677165
51.906372 18.474167 2.1476068
51.871269 18.492786 2.4529226
51.864342 18.487993 2.5616436
51.663677 18.327702 2.3582585
51.860332 18.415415 2.0632074
51.875771 18.452414 1.9560114
50.662502 18.049507 2.3545403
52.074394 18.492994 2.0634518
51.738491 18.343493 2.3550706
50.610794 18.046314 2.544138
52.274487 18.583412 2.56339
51.659016 18.330091 2.1668651
51.674244 18.320517 2.5818591
52.270161 18.582106 2.3538346
49.877541 17.667969 2.4626961
52.246616 18.530277 2.559993
52.061253 18.492088 2.7419508
50.566872 17.917225 2.5506999
51.570744 18.305534 2.2613547
50.726669 17.936966 2.261085
51.660561 18.325165 2.6740713
51.447735 18.230707 2.3457096
51.548645 18.298786 1.8006973
51.720318 18.337923 2.2727747
50.563457 17.913736 1.9662108
50.471828 17.882948 2.5610025
51.468178 18.367193 2.6535468
51.634159 18.314743 2.7267919
52.166161 18.619446 2.7496047
50.464355 17.967651 2.4544947
50.899658 18.164425 2.7375913
50.894333 18.157534 2.6617281
51.485008 18.362862 2.461951
51.778633 18.47024 2.770504
51.763496 18.481644 2.6614599
52.165337 18.597551 2.5721939
50.96764 18.083614 2.3569286
50.986755 18.149691 2.3681743
50.966843 18.081453 2.1606994
50.562817 17.920872 2.4550006
50.580433 17.976761 2.3642628
51.452831 18.227253 2.5644064
51.428902 18.20397 1.858555
50.159401 17.869497 2.5517645
51.574886 18.306093 2.3610644
50.678143 17.940189 1.9676414
51.874741 18.411768 2.6652937
52.174126 18.6017 2.4571304
53.284733 18.965254 2.3564463
51.2043 18.274925 3.0808434
51.486389 18.367228 2.9742634
51.83474 18.475887 3.2050567
50.633469 17.92963 2.6587117
50.818779 18.146177 2.6078057
51.623615 18.324537 2.8221691
52.345474 18.633232 2.6481872
52.327625 18.629606 2.9175692
52.341396 18.627993 2.8990147
50.992409 18.17971 2.2592139
52.350315 18.640476 3.0403111
52.170727 18.602108 2.64885
51.683395 18.466703 2.7517588
52.156742 18.602501 3.0556574
50.467094 17.89183 2.266721
50.488914 17.888622 1.9442552
50.914227 18.061365 1.7643936
50.962257 18.097893 2.8592153
52.361835 18.605904 1.9527228
51.772442 18.398943 2.5621886
51.965771 18.507408 2.6620371
49.675823 17.602655 1.938169
50.970707 18.081955 1.8782864
52.367516 18.669481 1.8872304
51.259071 18.196424 1.8696643
51.271938 18.193445 2.2672145
51.264091 18.193123 2.3557909
52.357403 18.593208 2.4392424
52.252808 18.609673 2.6469872
51.675316 18.369831 2.2585258
51.386555 18.259676 2.2519083
50.073341 17.75721 1.9722881
50.272877 17.816654 2.0661976
50.447701 17.837204 2.1871948
52.251945 18.614044 2.8607609
52.018139 18.518894 2.9786046
51.972439 18.477333 2.4536009
52.280823 18.600927 2.4596949
52.152546 18.540634 2.9668858
52.071259 18.498892 2.4468148
50.631687 17.938919 2.7421355
52.371517 18.67638 2.4583979
52.160797 18.519857 2.3513834
52.361507 18.66431 2.3482313
52.352905 18.602642 2.5734813
52.247688 18.630854 2.7807481
52.06049 18.592598 2.9512181
51.873234 18.49255 2.8372748
51.773205 18.389679 2.3565972
52.273926 18.682047 2.7619808
51.795174 18.465885 3.0515537
51.578876 18.40439 2.9870434
51.362156 18.30485 2.938561
50.426754 17.845325 2.6390793
52.276779 18.677465 3.0259473
50.468704 17.983709 2.5538328
52.099606 18.603882 3.075393
51.955265 18.5007 2.758007
51.873589 18.519459 3.2415953
51.770935 18.436157 2.9476237
51.374474 18.304749 2.553247
51.443832 18.32229 3.0553374
51.371063 18.312592 3.0507014
50.877029 18.076361 2.3693666
50.783829 18.095982 2.7560644
50.867493 18.098122 2.8497009
52.254559 18.529713 2.2700636
52.248924 18.638382 3.0715504
51.972946 18.493031 2.5680373
51.474789 18.371122 2.7474103
51.370235 18.312593 2.6517551
51.26701 18.18932 2.4550555
51.253548 18.223587 2.8699167
52.27578 18.682978 2.8598454
51.781891 18.487305 2.8646965
50.606659 18.062706 2.4415147
51.868038 18.50098 2.9605803
51.750546 18.401852 2.8473945
51.268318 18.181917 2.6631885
51.08144 18.211929 2.6647124
51.147682 18.220385 2.8663406
51.059963 18.173994 2.8377521
51.276447 18.286697 2.5635204
51.077671 18.188215 2.4658101
51.073162 18.211668 2.7538321
51.159576 18.212366 2.7625873
50.881104 18.090927 2.4589949
50.869499 18.110676 2.6594007
50.79166 18.113283 2.8484516
51.361576 18.3071 2.849227
51.398632 18.353016 2.6291015
51.401661 18.359474 3.0709782
51.474598 18.391937 2.8601799
51.083618 18.210421 2.9714127
52.062225 18.581823 2.8560717
51.653069 18.453514 2.9363317
51.176605 18.284395 2.9427023
51.19009 18.259897 2.5470557
51.178711 18.267738 2.7765613
51.492695 18.346031 2.0968261
51.608963 18.448444 2.7582119
51.186043 18.264015 2.843576
51.185452 18.26495 2.6439552
49.877563 17.670437 2.1633141
52.27758 18.671896 2.6705213
52.259773 18.684807 2.9503429
52.098488 18.603119 3.3145838
51.771423 18.380747 2.6718805
51.737976 18.461365 3.1756067
51.479378 18.377787 3.0723519
52.275841 18.668468 2.5591233
51.377029 18.31584 2.7549996
51.292507 18.298615 3.1516101
51.073425 18.195583 2.5575674
50.766598 18.095697 2.6574714
50.773991 18.090656 2.4591365
50.870842 18.107063 2.7448609
50.699989 18.019577 2.8441143
52.218643 18.648449 2.6654623
52.263512 18.667147 2.4748874
51.980793 18.565937 2.7654381
51.9888 18.562628 2.3684778
50.565155 18.015163 2.5637374
50.501648 18.006836 2.7355235
51.482357 18.370251 2.3680782
51.675735 18.464962 2.651238
52.104042 18.658943 2.7629719
52.17028 18.668648 3.0487723
51.680447 18.457607 2.5517039
51.704384 18.449337 2.3689113
50.623436 18.098272 2.8613484
51.968822 18.562462 2.6721592
51.987141 18.579298 2.4576175
52.171741 18.684423 2.7414143
50.272102 17.805441 2.742373
52.187824 18.659994 2.8522499
51.074242 18.261597 2.6841388
51.18343 18.263893 2.4876919
51.325851 18.362616 2.766048
51.385666 18.387081 2.5722613
51.555912 18.453814 3.0557208
51.596169 18.464508 2.8528399
52.313629 18.687376 2.3664563
50.816563 18.165407 2.8038287
50.848656 18.176657 2.609798
50.880264 18.173126 2.4309759
50.881508 18.179161 2.8511598
51.374615 18.385908 2.9954181
50.566586 18.014603 2.8582599
50.567532 18.012964 2.6529145
50.772549 18.089348 2.5670202
52.257347 18.519047 2.4525125
51.275887 18.280491 2.472168
51.260841 18.139557 2.3364084
50.861591 18.094906 2.5557189
50.662766 17.990826 2.6573279
50.380207 17.959347 2.5573463
51.375347 18.291658 2.4643402
50.885696 18.068342 2.2610602
50.971142 18.080204 2.262589
51.381771 18.275721 2.3562732
50.422665 17.843201 2.4354439
52.368874 18.667591 2.2566257
50.184917 17.877111 2.4517381
50.280537 17.904491 2.4603133
50.372585 17.951199 2.4832344
50.270977 17.916637 2.549026
51.162792 18.225555 3.0289516
50.167961 17.881796 2.6556773
50.458004 17.98274 2.6255457
50.617897 18.055475 2.6402366
51.383633 18.351591 2.8662405
50.35482 17.946314 2.2503862
50.572948 17.991854 2.4708724
52.27174 18.57316 2.160372
51.281361 18.268326 2.355531
50.430378 17.837418 2.3043301
50.470673 17.962088 2.2921093
50.167946 17.783524 2.1668019
50.170437 17.779678 2.2660992
50.195267 17.864737 2.2524376
50.28653 17.873686 2.2658851
50.478249 17.974005 2.3648376
51.566311 18.369932 2.1680441
50.974033 18.089722 2.0760572
50.582428 17.970467 2.2639034
50.589104 17.969925 2.1597021
52.201248 18.646503 2.4375455
51.393726 18.353764 2.3790128
51.690338 18.455791 2.4517031
49.994011 17.808947 2.5475731
50.181076 17.862331 2.3778856
51.179962 18.249332 2.3506279
51.97739 18.46656 2.2550187
51.301559 18.267143 2.3036213
52.017864 18.554478 2.1950769
50.293861 17.891277 2.7584014
50.668961 17.981026 2.7385578
50.868721 18.029076 2.2693405
50.485802 17.960806 2.1525514
53.17873 18.964903 2.2778754
50.169872 17.775299 2.4629383
50.173584 17.780121 2.3615587
53.202179 18.980389 2.5691342
53.279335 18.967825 2.163311
53.285694 18.969065 2.4350047
50.996159 18.165096 2.2101326
51.190517 18.24579 2.2783699
49.959808 17.789465 2.5030403
50.011784 17.797464 2.3424344
50.409454 17.954115 2.3717446
50.463631 17.979126 2.8709393
50.79232 18.105099 2.9834211
50.309029 17.933289 2.6621885
50.570053 18.017113 2.7453861
49.996777 17.751802 2.1633773
51.268967 18.197821 2.0836406
53.196014 18.985729 2.3838673
53.12957 18.953032 2.137682
51.755302 18.397364 2.7413054
51.277382 18.264797 2.184696
50.848289 18.03623 2.056319
53.291046 18.965206 1.9678239
52.382957 18.65097 2.2033615
51.390865 18.267405 2.0696926
51.373062 18.25943 2.160933
51.268421 18.190695 2.161998
51.40773 18.271297 1.9670267
53.178364 18.964151 2.0867307
53.284763 18.960781 2.2618146
53.20377 18.985126 2.4688377
53.374783 18.987301 2.4401629
50.016376 17.811323 1.8198967
