# .PCD v0.7 - Point Cloud Data file format
VERSION 0.7
FIELDS x y z
SIZE 4 4 4
TYPE F F F
COUNT 1 1 1
WIDTH 1530
HEIGHT 1
VIEWPOINT 0 0 0 1 0 0 0
POINTS 1530
DATA ascii
7.5260067 1.8313745 -1.7989691
7.5998764 2.1519942 2.1012399
7.3791456 2.2457161 -0.94842356
7.7851906 2.0468378 -1.2734402
7.9597168 1.8973624 2.0550375
7.5119181 1.9625134 -2.4347548
7.8705263 1.7274693 -2.6883392
7.5347381 1.9329716 -2.0448394
7.9288192 1.5449038 -2.2977262
7.2782502 1.8717549 -2.1677909
7.5176592 1.9673861 -2.2330375
7.8804064 1.6188914 -2.4133635
7.4013662 1.915159 -2.2393687
7.9293365 1.7914981 -0.62677073
7.7067013 1.9364848 -1.8556526
7.5414023 1.9602206 -2.3324132
7.8071828 1.6261169 -0.25146848
7.6929827 1.8367647 1.0611892
7.8493061 1.6744658 -2.2222037
7.5117512 1.9508622 -2.1184273
7.2837677 1.8671137 -2.2526934
7.6139269 1.9768465 -0.14523779
7.9196334 1.504689 -1.9537719
7.6074867 2.0697095 -2.0141151
7.8495173 1.6393679 -2.6636503
7.7742028 1.8553718 -2.6208036
7.7050691 1.821602 -0.92077005
7.6294079 1.8390946 -1.9373708
7.9062023 1.6177104 -2.7653573
7.4028268 1.9022422 -2.0473309
7.7447629 2.0489926 -2.0793648
7.6754274 1.9810852 -2.2284493
7.8958702 1.4424269 0.48256996
7.9117084 1.4311285 0.21602891
7.4818888 1.9199548 -2.1151569
7.6102562 2.0817225 -0.04151256
7.5320148 2.0627072 1.1117067
7.9466157 1.558295 3.172096
8.1223955 1.5747095 0.40662926
7.9189029 1.4093219 1.7390575
7.5903201 2.0667984 -0.20794217
7.6781836 2.1183269 2.6235323
7.7980437 1.613063 -1.4511929
7.60113 2.0553203 0.20530321
7.629899 2.0165489 3.7286596
7.9166245 1.639938 2.9750834
7.946919 1.6751208 3.6034389
7.9903827 1.4935031 2.9780438
8.0435925 1.524579 3.3471112
7.8052115 1.9427056 3.1875074
8.0932455 1.5097301 3.1501048
7.9138713 1.604568 3.1352792
7.9078956 1.6901585 3.125138
7.7039552 2.1049783 3.5290878
7.2102137 1.9376451 3.8064754
7.8416739 1.7877346 3.9396269
7.9099565 1.6534263 3.2836907
7.9781942 1.7834657 4.1854749
7.8050947 1.8682606 4.140738
7.3437195 1.8287857 3.2298918
7.462389 1.8333797 3.2622981
7.9837656 1.5904307 3.3598437
7.7988977 1.914969 3.2606006
7.9150429 1.5883702 3.2559972
7.6912074 1.8315603 1.3697493
7.7676349 1.5764875 1.7838635
7.7632146 1.8923373 -2.1585178
7.461731 1.887813 -2.2328374
7.9869576 1.5170178 -2.4206324
7.9017434 1.6194289 -2.1415465
7.5199618 1.9631256 -0.26565209
7.9004679 1.6925927 -2.3487997
7.5938125 2.1891274 0.68094122
7.9616818 1.8150961 -2.6485195
7.9323249 1.7682238 -1.4272363
7.8955297 1.4344813 1.527499
8.034296 1.6956477 -1.2390153
7.5799541 1.9187146 -1.970453
7.970788 1.581085 -2.0369213
7.9785452 1.6117811 3.6640193
7.9572191 1.7318615 -2.6262779
8.0266027 1.589063 0.48948663
7.4440861 1.899533 -2.0276482
7.9371119 1.8006936 -2.1650176
7.8855762 1.7162306 -1.9423664
7.944324 1.7663504 -1.3715711
7.9557285 1.6843802 -0.62193745
8.029541 1.648589 -1.7446188
7.9606671 1.8872515 -1.127632
7.9578171 1.6854705 -0.033310942
7.9880238 1.49424 2.5487502
7.9413261 1.7888618 -1.8232363
7.9367256 1.9110359 -1.7392402
7.9366665 1.7503357 -0.97065294
7.9590435 1.690441 -2.0370786
7.8904181 1.4391069 0.87563205
7.7145095 1.8156021 1.6790085
7.7644539 1.622983 0.87182689
7.5587664 1.808236 1.6669068
7.9567418 1.6800709 -0.53371608
7.9308481 1.8152912 -1.6180327
7.6600995 1.9191833 -1.7289321
7.9452295 1.762017 0.57028604
7.4824896 1.8271443 -1.7323496
7.9494133 1.6911135 -1.2443287
7.9557872 1.8058786 -1.7559432
7.7900214 1.6022179 0.53273833
7.581224 1.9622667 0.13357492
7.9231853 1.7597413 -0.87775731
7.9039407 1.5176353 -0.13121368
7.9778719 1.5050434 -2.0453894
7.8569574 1.8983221 -1.9463747
7.5445485 1.8318545 2.1523664
7.8116794 1.7168503 0.76182055
7.909255 1.6107051 -1.90908
7.902276 1.4266915 1.4633012
7.9043155 1.5149443 0.16706719
7.6646876 1.9872488 -2.0343237
7.9094863 1.4359622 0.75131464
7.897738 1.5105622 -0.24079397
7.902586 1.3774407 1.3022506
7.9055743 1.4240704 0.59249318
7.8944139 1.5139984 0.76802486
7.8934975 1.4256067 1.1724992
7.7860928 1.6811205 1.7770144
7.9604211 1.5868831 -1.7275411
7.8132086 1.7134236 1.4525973
8.0679464 1.5874472 0.2427021
7.9339714 1.7886982 0.26542896
7.9513159 1.6814802 0.24246715
7.9300337 1.7986405 0.47678894
7.9608984 1.8712593 -1.0339745
7.8992743 1.4959559 0.65991855
7.799902 1.6105705 1.2397158
7.871377 1.8871896 -1.8542655
7.85147 1.8799502 -1.7339257
7.9684472 1.5964333 -1.8402026
7.9495807 1.6869575 -1.8437594
7.9416857 1.7865841 -0.73330998
7.9479141 1.6856118 -1.0393406
7.9025736 1.498916 0.97132856
7.8710151 1.7945267 -1.6258225
7.7929392 1.8123993 0.86236858
7.94944 1.6893523 -1.1332667
7.9601579 1.8033185 -1.037375
7.8493958 1.9081372 -0.74290764
7.9516525 1.6820847 -1.6419121
7.9005656 1.418563 1.3570869
7.8979964 1.5132073 0.35470259
7.8019662 1.8085121 0.46846986
7.9045043 1.5038955 0.55944091
7.7982721 1.809808 0.75982076
7.9488969 1.6817051 -1.5427514
7.8790259 1.7981745 -1.9488984
7.9400945 1.6798346 -0.93701148
7.9435749 1.6786808 -1.4279231
7.9439478 1.6973013 -1.3497952
7.9498458 1.6786882 -0.76241678
7.8541641 1.8934382 -1.2372113
7.8489771 1.8837535 -1.4316139
7.5798674 1.9571269 0.45938849
7.5770683 1.9781237 0.062582746
7.9367356 1.679249 -0.8562296
7.8930821 1.6026117 1.6514641
7.847775 1.8884547 -1.5407602
7.7945833 1.7293193 1.8601706
7.7890763 1.8149921 1.2639363
7.7936177 1.8111142 0.55467921
7.7920232 1.8065027 0.96382517
7.9602842 1.5901108 -1.1384923
7.9949594 1.3349442 0.046276245
7.8760004 1.8868616 2.9697802
7.9847708 1.5031561 2.266387
7.9934893 1.3364062 0.75620347
8.0445175 1.3903772 0.16438408
7.651948 1.8106527 1.1530417
8.0483227 1.3959303 0.57404912
7.6410213 1.8135762 1.2713538
7.5384364 1.8075678 -1.4157983
8.043416 1.3093965 0.68696666
8.0472136 1.2992842 1.1544012
8.0555592 1.3162236 0.46510905
8.0435429 1.3964157 0.060957409
7.635282 1.7899628 0.62268275
7.5566092 1.8197763 -1.5642529
7.9068303 1.4981724 0.048148353
7.5847144 1.9757521 0.64820451
7.7836571 1.8949189 -1.5376292
7.7262521 2.0684907 0.9968847
7.58635 1.9567091 -1.0413853
7.7940264 1.8132129 -1.5260288
7.5647016 1.8206676 -1.124115
8.015152 1.3346115 0.64612007
7.9492002 1.6837783 0.66919708
8.0606041 1.3166623 1.065289
8.0684557 1.2834606 0.7267015
7.6585126 1.8075818 -1.2503492
7.5714731 1.810771 -1.6283863
7.574512 1.9732215 1.3469508
7.5920367 1.9879397 -0.24587408
8.1007576 1.7710104 -1.5402329
7.9595838 1.5870273 -1.4387137
7.7924147 1.7094318 -1.3302202
7.8071942 1.7117698 -0.72337222
7.4879479 1.9859971 -1.4311868
7.8999853 1.433333 -1.3958464
7.8073182 1.7090132 -1.1446126
7.8063269 1.6927779 -1.2520493
7.8129039 1.7299365 -1.0129039
7.9003267 1.5079329 -0.93903804
7.8995719 1.6024611 -1.6205826
7.9032822 1.5270106 -1.229079
7.4740114 1.9949213 -1.3421595
7.905798 1.513904 -0.82053423
7.538363 1.8230882 -1.0332288
7.8890676 1.5149029 -1.1242489
7.7964129 1.8081782 -0.040116493
7.5760436 1.8266411 -0.95401227
7.9693155 1.6703862 0.75214356
7.9200888 1.4972098 -1.4240454
7.7963333 1.8027089 -0.93321609
7.7934957 1.8076385 -1.3276217
7.9550514 1.5864094 -1.0492977
7.8454123 1.8883342 -0.045523461
7.9346342 1.6963972 -1.7046437
7.9024396 1.5135559 -1.0389175
7.7841988 1.9116704 -1.6421916
7.5836501 1.9581114 -1.3266965
7.3831587 1.8800384 -1.2331908
7.5941153 1.9588952 -1.2457341
7.456151 1.9910474 -1.6166433
7.464601 1.9910542 -1.5325266
7.9033213 1.5303993 -1.5411408
7.9623117 1.5920866 -1.3508474
8.053586 1.3880484 2.0492604
7.7980795 1.8070279 -0.44453946
7.9330463 1.663806 1.3395892
7.8045011 1.7274542 -0.42053708
7.9059329 1.5149386 -0.032946348
7.7006307 1.804472 1.7550397
7.62959 2.0535474 2.2804167
7.8813543 1.8113935 2.764091
7.800416 1.8031279 0.1639646
7.5703087 2.1040967 2.7681906
7.8077374 1.7144036 0.056327939
7.6676178 2.0621781 2.547843
7.8055124 1.7134678 -0.64224416
7.7981687 1.7049774 1.054446
7.8919072 1.6006926 0.76297951
7.8824916 1.6052489 0.96236289
7.6990008 1.7340708 1.6689715
7.8928032 1.5993377 0.86479121
7.5837579 2.0992169 2.4594071
7.8931108 1.6021876 0.36816257
7.9866781 1.4146048 1.0544026
7.7928829 1.8111826 0.058051296
7.6895781 1.9768094 -0.53766412
7.8008676 1.8042167 -0.33673677
7.7995424 1.8077213 -0.83323902
7.8387265 1.8720349 0.77171648
7.9914656 1.4120563 0.9635995
7.9322076 1.5792772 -0.33956257
7.8908415 1.5900263 -1.7430562
7.86202 1.6948893 -0.93902421
8.0401011 1.3991303 0.35848868
7.5597053 1.91123 -1.7328514
7.9483342 1.5881796 -0.83406246
7.9851437 1.413074 0.55937582
7.7943335 1.7186451 0.47604159
7.8890424 1.704441 -1.8268592
7.8699274 1.7087944 -1.428919
7.9895086 1.413273 1.3614486
7.9858365 1.4138845 0.66226566
7.8673902 1.6927139 -1.1366575
7.6705661 1.9195173 -1.5315001
7.8000607 1.8105117 -0.53907132
7.5865521 1.9775707 -1.1474874
7.6832147 1.9903404 -1.8343552
7.5712891 1.9719008 -1.4324872
8.0314131 1.808562 -1.848029
8.0306568 1.3910513 1.1683843
7.8965383 1.6142385 -1.8421324
7.816905 1.7387857 -1.8505614
7.7821436 1.9022954 -1.8354446
7.6885042 1.971987 -0.24117641
7.5825238 1.9697536 -1.6340517
7.5612612 1.8958145 -1.8465263
7.8022256 2.0460734 1.9613807
8.0298958 1.3998606 0.66949868
8.0410128 1.3971339 -0.03779912
7.8961177 1.6048342 -0.038725521
8.0442219 1.4666222 1.6686064
7.8543072 1.7807057 -1.0331105
8.0543213 1.477628 1.5589998
7.9565086 1.5913827 -1.2331904
7.9471593 1.5932933 -0.74022496
7.5510521 1.8309824 1.564225
7.8847899 1.6938659 -1.5281334
7.8463182 1.7911441 -0.74166071
7.6793056 1.9840298 -1.5357909
7.9594364 1.587593 -0.9414348
7.9821124 1.4639972 3.3420916
7.9900112 1.4150562 1.2637707
7.985106 1.4157592 0.86538345
7.8675346 1.6991578 -1.2438662
7.8959832 1.6911535 -1.7344034
7.7934446 1.8149025 -1.2440819
7.958169 1.7837877 3.1788771
7.9722447 1.8612521 3.0601978
8.0372982 1.5958958 0.1101633
7.9280987 1.8081497 3.4346728
8.0378265 1.3928823 0.74854285
8.0464592 1.393532 0.95987403
7.990798 1.4125159 1.1599909
7.9770684 1.4951258 1.8553452
8.032546 1.3998578 1.053893
7.8895683 1.805696 2.6649785
7.9875183 1.4117886 0.35773051
7.8748398 1.6954386 0.36530894
7.9475918 1.6841754 0.063769795
7.8913689 1.6043499 0.25656071
7.8702888 1.6943192 0.6657123
7.973012 1.4854294 1.6576285
7.8466864 1.7903783 0.65465015
7.8777776 1.8016526 2.4620607
7.7936206 1.8045181 1.4600539
7.891048 1.6051323 -0.43633252
7.7926755 1.8065861 1.3558104
7.7975621 1.8074026 -0.13781993
7.8845668 1.6031258 1.3598621
7.939846 1.5797079 0.45969969
7.9692688 1.4941248 1.5602818
7.8853931 1.6960335 1.6626636
7.872961 1.7025242 1.3615675
7.9424453 1.5819647 -0.53451747
7.9331412 1.681167 0.3636871
7.8498182 1.8994409 -0.14635912
7.6913781 2.0822151 -0.4654336
7.973053 1.493927 1.7565589
7.8638849 1.7927415 1.96071
7.986268 1.4142811 0.46134543
7.9870844 1.4170996 -0.14156668
7.987114 1.4107082 0.16460191
7.8457427 1.7887487 -0.64121515
7.8525758 1.7893459 0.86266798
7.8477116 1.7819819 -0.2370621
7.8620672 1.8969671 2.7635496
8.0355558 1.3977826 0.27014977
7.888772 1.5977919 -0.94420916
7.9370761 1.5825762 -0.43249476
8.0349007 1.4010842 1.2573609
7.9700856 1.48691 1.1621133
7.8519464 1.7942089 1.167879
7.9492278 1.5936468 1.8629229
7.8537989 1.7874067 -0.93744028
8.0426712 1.4007674 0.86184376
7.8666787 1.6928999 -0.53403831
7.8569517 1.7854538 -0.83852613
7.6803107 1.9819899 -1.4375761
7.9643588 1.4900082 1.2595363
7.8846045 1.6972077 1.7664005
7.986743 1.5018784 -1.640491
7.8738751 1.6970739 0.86071151
7.8328376 1.8803653 1.0679532
7.8435636 1.7938081 -0.44409275
7.9394464 1.5790958 0.36170107
7.9719048 1.4881891 1.3609077
7.9659262 1.4889545 1.0588179
8.0461054 1.3976027 0.46287584
7.9867082 1.4158039 0.76032829
7.8759995 1.6969105 1.0572653
7.9362617 1.6838382 1.5577542
7.9619923 1.4937751 0.36352605
7.9343452 1.5781702 -0.23238344
8.0414562 1.4857506 1.7802817
7.9633441 1.4960697 -0.038215969
7.8860636 1.6045072 -0.63549429
8.0632458 1.4759687 0.76832646
7.8387094 1.8889792 1.7723615
7.8418941 1.7908915 -0.53777313
7.9388013 1.5769221 0.058217648
7.7782202 1.9151669 -1.743369
7.946167 1.5927392 1.6681192
7.939877 1.586908 1.0531911
7.9584661 1.4939206 0.45831195
7.8460188 1.793123 0.75705349
7.8750868 1.7005364 1.1576484
7.8831248 1.5972567 -1.0433459
7.9705119 1.4888877 1.4584854
7.8913026 1.6030115 0.16403052
7.864819 1.6936508 -1.0409312
7.8900194 1.6012079 -0.54044753
7.8478179 1.7899622 0.057005744
7.5663972 1.8227179 1.9681034
7.7963605 1.7151035 1.6789578
7.957016 1.4892981 -0.34105963
7.8582129 1.7902381 1.4521152
8.03473 1.4002903 1.367038
7.9376998 1.5880553 0.65984583
8.0475702 1.4053347 2.455919
7.8741193 1.6966977 1.2618048
7.9461684 1.5922698 1.2610921
7.8715897 1.6908356 -1.3370359
7.795126 1.8066657 -0.64067191
7.9429502 1.6798794 1.4703125
7.9600139 1.489969 0.15924507
7.9464436 1.5949894 0.86411297
7.9615254 1.488629 0.96046883
7.9483147 1.5911232 1.566174
7.8414202 1.8815856 1.5446682
7.8255973 2.0165431 -2.0363669
7.8658929 1.798682 1.8662324
7.9593911 1.4907104 0.56167209
7.9429488 1.6799002 1.1614844
7.8001928 1.8120152 0.26399976
7.902853 1.517671 -0.33733913
7.7903948 1.7967629 -1.0296332
7.9411807 1.6895714 1.6554928
7.9440179 1.684299 1.2642808
7.5626798 1.9553866 -1.6975887
7.869874 1.696247 0.56212294
7.77285 1.9089537 -1.4316256
7.8920131 1.5978563 -0.8290695
7.8862214 1.6139739 -1.4404577
7.86972 1.694366 -0.039318964
8.0305605 1.4685938 1.2633451
7.8469791 1.7854369 0.55965799
7.7962632 1.7979105 -1.133431
7.8449459 1.8832122 1.1561881
7.8745918 1.6977601 0.46071881
7.8458099 1.8965167 1.8760036
7.8496408 1.7874259 0.96205699
7.5470257 1.8284349 0.97636276
7.8784437 1.6947064 1.4534248
7.5691209 1.8138846 2.0524018
7.9607501 1.4863155 0.66299993
7.8645082 1.6952819 -0.73895949
7.9347653 1.5873739 0.76549029
7.8626056 1.69152 -0.63733357
7.8488827 1.7937793 1.0590172
7.8435364 1.7869232 -0.34457049
7.9864898 1.4126562 0.066896558
7.9581285 1.4879687 0.25902733
7.8730884 1.6948205 0.061309572
7.7943325 1.8019785 -0.73889667
7.8606224 1.7980593 1.5669538
7.8704367 1.6929227 0.16040653
7.5465717 2.068619 1.9822788
7.859592 1.7944815 1.7602574
7.8570433 1.7983246 1.3704867
7.9513769 1.5993199 2.0520725
7.951921 1.6790293 1.0710427
7.9974046 1.4123168 1.7604709
7.8455334 1.7904543 0.26229903
7.8951716 1.7122614 2.4549766
7.8662944 1.6962297 -0.23671515
7.9398913 1.5786576 0.55997092
7.8602829 1.7885636 1.6565124
7.9611712 1.5443823 -2.2290535
7.954803 1.5871756 1.7586136
7.8672366 1.6973324 0.26292792
7.7889309 1.79528 1.7609683
7.7948956 1.7055682 -0.2535542
7.8733478 1.7918894 2.2552536
7.8973799 1.6044793 0.45641017
7.9071531 1.423527 -1.0242919
7.8652196 1.698034 -0.43851086
7.9420528 1.5930696 1.1556455
7.9588933 1.4890465 -0.13861027
7.8350005 1.8817806 0.864461
7.867949 1.692331 -0.13816206
7.8357682 1.8654423 0.95398217
7.9365582 1.5747054 0.16664763
7.863081 1.7949668 -1.3416203
7.9521656 1.5904726 1.4604678
7.8441048 1.7916808 -0.03656067
7.5838447 2.0922043 2.2599814
7.8487587 1.8907064 2.2535391
7.8828702 1.6994424 1.5673299
7.8777208 1.6962289 0.96307695
7.7954669 1.8078347 0.67265779
7.7771125 1.8036318 1.8570968
7.6884618 1.9746429 -0.84681004
7.663672 1.9726065 -1.6320132
7.6853619 1.9719661 -0.44998899
7.8830309 1.6865274 -1.6267743
7.4765477 1.9006656 -1.6360708
7.89568 1.6036791 0.059443709
7.9511533 1.5880071 -2.2458251
7.843935 1.7929039 0.36341155
7.9280052 1.7285228 3.7799449
7.9804773 1.8120227 -2.5728352
7.8535795 1.7949274 1.2572142
7.8516264 1.8954729 2.0602696
7.8426232 1.7937086 0.45945475
7.8708081 1.6945618 -0.34019214
7.935308 1.6652142 0.9655261
8.0480881 1.4734628 0.56783926
7.9659243 1.6999272 0.15444288
7.8881035 1.7071966 1.9588467
7.9445996 1.581549 -0.637752
7.9448757 1.6696225 0.56452972
7.8363914 1.8859117 0.66235584
7.8357811 1.8868644 1.4601693
7.9479609 1.6847079 1.8496579
7.8445449 1.7888483 0.15790778
7.9444904 1.5881072 0.96061313
7.871871 1.6913843 0.75912201
7.8595133 1.8935198 -1.6210829
7.5772066 1.9664408 -2.136446
7.8680029 1.5041499 -2.1324139
7.8531961 1.4024465 -1.3225751
7.4461837 1.889218 -1.7242947
7.3704596 1.9030523 -2.1148832
7.6825423 1.9800498 -1.3363919
7.9432116 1.5879633 1.3568879
7.7932196 1.8121338 0.35568047
7.9952426 1.4137247 1.8548998
7.8808589 1.7047757 1.8608528
7.7723289 1.9024792 2.1593351
7.6758351 1.9781117 -1.9306238
7.4711432 1.8964283 -1.9520226
7.3759475 1.8907791 -1.9525254
7.958303 1.7664484 1.8626956
7.7797422 1.9079121 1.8594218
7.8368311 1.8913512 1.2590148
7.8455472 1.8931565 2.1589165
7.5469575 1.8331962 1.3660684
7.8673153 1.6953483 -0.84030449
8.0048666 1.6354674 -2.733577
7.8937783 1.7064149 2.3629766
7.6639791 1.9280419 -1.6395556
7.9018321 1.4983624 -1.3313528
7.6692591 1.818791 0.44037831
7.576076 1.9723299 1.2723162
7.8417373 1.4954965 -1.7910497
7.7857652 1.8010302 1.6725245
7.4721513 1.8894653 -1.4386196
7.8902345 1.6991341 2.1597159
7.886879 1.7056898 2.0670338
7.8736978 1.3991604 -1.4898851
7.560833 1.9713615 -1.5413804
7.9471812 1.6884722 1.9610221
7.8471055 2.0826697 1.8788067
7.8027806 1.6967304 1.1598067
7.7816162 1.5799943 1.8262776
7.9356046 1.7602167 1.9439735
7.4772148 1.8826704 -1.1485353
7.5673194 1.8218483 -1.246911
7.4716687 1.8865563 -1.2415707
8.0373802 1.6705627 -1.5413214
7.7884097 1.3743898 -1.4021832
7.7991967 1.7148687 0.95508975
7.7994118 1.6949363 1.2529027
8.0438318 1.452857 1.975989
7.6316843 1.8022776 1.8907359
7.5702066 1.905655 -1.5327792
7.8032198 1.7236738 0.2496684
7.6238012 1.8324581 1.9791039
7.7703853 1.5970861 0.78998566
8.04673 1.4601552 2.0814204
7.9583201 1.6906621 2.0703859
7.9550972 1.7671674 2.0585539
7.8125758 1.7120405 0.83909845
7.7591915 2.0672317 2.2761979
7.5698938 1.8916074 -1.3302647
7.4708748 1.8876154 -1.3420987
7.7598467 2.0510039 1.5795434
7.9262738 1.7743037 3.5735323
7.8457537 1.8978812 1.9552923
7.8002048 1.5951416 1.1251466
7.9609308 1.6934386 2.1620796
8.0962095 1.2436191 2.2830741
7.8570538 1.7837881 -1.1337315
7.792151 1.7951821 -1.4381025
7.8565917 1.7953612 -2.0311961
7.8656192 1.792221 -1.4356713
7.8715219 1.7989151 -1.824687
7.8057952 1.7889177 -2.0231316
8.0023022 1.4237289 2.0551155
7.8722091 1.788633 -1.5350482
7.8673849 1.7898668 -1.7403766
7.8567243 1.7862898 -1.2389756
7.9582434 2.023941 -1.3269644
7.9029889 1.5994507 2.3653665
7.781776 1.7025118 1.9701953
7.9999361 1.4264449 2.1581206
7.7740059 2.0589418 -1.645173
7.8852439 1.6222034 1.8808818
7.9961829 1.4148582 1.4579245
8.0525627 2.0619423 1.9512051
8.00284 1.4183713 2.2354569
7.9511137 2.0042233 2.4450817
7.9397464 1.5828671 0.26226351
8.0553942 2.0453629 1.9490533
7.9703445 2.0650282 2.9864421
7.9576492 1.4896065 0.056320406
7.9227171 1.8260789 3.8853076
8.0355244 1.4506423 0.93692547
7.8951998 1.6050417 2.1638165
7.9919868 1.334709 1.8864257
7.7410374 2.0592206 -1.8609949
7.882915 1.6044556 1.9524416
7.9351387 2.0258796 1.6666896
8.1731606 1.4647893 1.9546676
7.7986321 1.8352363 2.0740528
7.6620531 1.8223248 2.0677822
7.8868871 1.6056494 2.0523071
7.8951674 1.6018188 2.4746277
7.7824745 1.8162671 2.1647198
7.960947 2.0298035 2.154547
7.7811971 1.9767718 -1.8281655
7.6397834 1.8417677 2.2423418
7.9640508 2.0606396 2.7842939
8.0240765 1.4685966 1.0883951
7.7810822 1.7006681 2.0827808
7.9375935 2.0492971 3.0711555
7.7765341 1.9812858 -1.7454712
7.786097 1.8278797 2.558265
7.6738944 1.8361225 2.3429534
7.9503284 2.0263925 2.0638409
7.8176789 1.8210957 2.711484
7.7762985 1.8131449 2.2709265
7.8463707 1.9669374 2.3561389
7.7555566 1.9890532 -2.0304623
7.8398705 1.8850261 0.36276764
8.1017981 1.8400261 3.4351125
7.7431364 2.0585027 3.3501735
7.7886925 1.7818784 -2.4453471
7.2709522 1.8669752 3.465462
8.0183754 1.5438389 -2.697952
7.8936377 1.4980704 0.46140671
7.8271499 2.0632155 2.8798892
7.8386769 1.8762746 1.3684303
7.786263 1.9181942 2.8490987
7.884891 2.0603585 2.6314387
7.7965503 1.7417964 2.4125409
7.8921003 1.6021456 1.0573659
7.7499185 2.080241 3.4710016
7.6509743 2.0111554 3.4772694
7.7913408 1.8202341 -1.6410418
8.0623798 1.3296809 1.3401277
7.6443634 1.7272832 2.2116513
7.7954459 1.6975403 2.2594197
7.7837987 1.7151393 2.6196501
7.6923966 2.0003653 3.3552556
8.0400972 1.4623343 2.2577238
7.6684613 1.9151882 2.4693043
7.6220813 2.0541284 2.467447
7.8663149 2.0645859 2.9573646
7.9962096 1.4118899 1.5552659
7.9795427 1.4956135 1.9540176
7.8337979 2.012212 3.056237
7.9010797 1.5026931 1.0534022
7.8525395 1.8968751 2.5633214
7.3257766 1.84247 3.409451
7.9319487 1.7679937 2.9562135
7.89326 1.4961685 0.8658222
7.9371014 1.7530216 3.0460844
7.9479198 1.6000139 2.9655979
7.9665966 1.5489924 3.0513282
7.3565307 1.9041256 3.8469267
7.8515339 1.9951199 2.8533647
7.5503497 1.8265175 -0.036521353
7.7687182 2.0034423 3.2479067
7.4776392 1.9148462 3.0553243
7.3369656 1.8322996 3.0749266
7.6777735 1.8924941 2.9640317
7.8379817 1.9732966 1.5673678
7.9422994 1.683655 -0.31760558
7.5765371 1.9674218 3.476831
7.4774919 1.8914717 3.4554291
7.3958654 1.8861513 3.3819921
7.2939544 1.8184707 3.3663528
7.7674937 1.9937891 2.6595557
7.851335 1.9744027 1.7692218
7.6825404 1.9886994 3.0442209
7.6524148 2.0071645 3.2556243
7.5612402 1.9297218 3.2771001
7.7963853 1.3612483 -1.4991624
7.77492 1.9094272 1.3650243
7.8572621 1.8993995 2.6600277
7.9292011 2.0609279 1.8670139
7.5676289 1.8295243 2.2618802
7.895534 1.7250637 2.6383405
7.9811373 1.4904777 2.1681793
7.8916783 1.7141094 2.261687
8.0416822 1.3078862 0.060872324
7.9597945 1.4935541 -0.73079807
7.2815442 1.8295915 3.4685223
7.6756239 1.9913665 -2.1260529
7.7361956 2.0528562 -1.1822274
8.0354338 1.3973866 1.7559721
7.940824 1.7603829 -1.1348369
7.6669674 1.9181523 2.2527802
7.9352612 1.8655396 -1.250962
7.8920946 1.5976799 1.4691226
7.6657076 1.9139562 -0.13616884
7.6853046 1.9140189 -2.0339801
7.6278391 1.8994905 -2.1429491
8.0291214 1.6087303 -1.1799339
7.9071355 1.4193465 0.17658834
8.0361423 1.4220591 3.3959186
7.9566922 1.5871308 -1.5372826
7.9632831 1.70135 3.0397663
8.0255985 1.4072636 2.9922626
7.5732627 1.8880583 -0.33587626
7.9642973 1.7075862 2.5462031
7.7669201 1.9871547 -1.5374169
7.7690158 1.9078416 2.6561053
7.8911986 1.6000111 0.65865856
7.6660547 1.9108577 2.5607176
8.0024405 1.4096069 2.5749934
7.8535852 1.9614885 -1.2315384
7.7690148 1.9117639 1.5576888
7.7718229 1.9037679 -1.1361639
7.882946 1.8016039 2.5628252
7.6876464 1.9715081 0.069927685
8.0839682 1.4266804 2.6589019
7.9316258 1.4284229 -1.7906225
7.1251588 1.7758855 3.6860814
7.6404471 1.8431062 2.9206221
7.6859331 1.9760826 0.35356393
7.9856381 1.4108588 0.26356414
7.7961731 1.7212447 -0.13162349
7.8063231 1.6997613 -0.93988818
7.779356 1.9137876 1.6558938
7.773067 1.9179432 1.9627765
7.567965 1.8325301 0.066050403
7.7713461 1.9037607 -1.0394268
7.7729301 1.908272 -0.83164293
7.5849342 2.0891027 2.3620923
7.7986698 1.6280882 1.4833127
7.7682896 1.9166052 1.0615948
7.9633522 1.4892699 -0.93347955
7.96381 1.4903053 -1.1464008
7.9909177 1.2993802 2.3158123
7.862298 1.9042501 2.8672719
7.77565 1.9043047 2.5631566
7.694994 1.9618564 0.95925581
7.9758358 1.3238437 0.2020157
7.7822495 1.5927426 1.5762239
7.6863766 1.9757218 -1.1417335
7.6912575 1.9693714 0.25808328
7.6872206 1.9789188 0.16680606
8.014061 1.4431617 2.4511619
8.0466461 1.3240917 0.16944534
8.067874 1.3123794 0.58495247
7.835999 1.8953438 0.063115507
7.8830924 1.6027839 1.2625095
7.9544754 1.7070215 2.9757521
7.6822829 1.9745618 -0.93572062
7.7659206 1.9826074 -1.6285311
7.7706523 1.9059045 -0.74075997
7.8403811 1.9782358 -1.3237349
7.8488374 1.8950574 -0.63289088
7.9656701 1.5914176 -1.639635
7.7840023 1.8063351 2.446902
7.9821477 1.5079708 -1.9436084
7.8829565 1.6071965 -1.2381781
7.5716963 1.8923223 1.2598234
7.7709298 1.9133538 0.86107439
7.7724175 1.9083221 0.9622727
7.7755075 1.9067949 1.4614812
7.7792835 1.9023066 2.0594282
7.9947882 1.4233513 1.6606314
7.847332 1.6367064 -2.3517811
7.6926799 1.9689995 -0.641738
7.6982307 1.9728779 -0.74023664
7.9568315 1.5892828 1.9634757
7.9499359 1.5874046 2.1529436
7.6673231 1.9068778 -1.4348419
7.5727792 1.8952284 -0.73493779
7.7731915 1.816641 2.3679345
7.8487806 1.9741364 -0.83892834
7.5591421 1.8306959 0.8489936
7.9191155 1.5336624 2.3960555
7.778739 1.6795347 2.3469706
7.7780061 1.9198178 2.3601525
7.8478622 1.9862512 1.1690004
7.8409271 1.8946689 0.25375819
8.025465 1.5038248 2.5749013
7.6741195 1.9766604 -1.2428422
7.9512277 1.6722646 0.88088602
7.8461952 1.9819413 -0.13551895
7.8427215 1.9824677 1.8601558
7.8908334 1.5016844 1.3757235
7.765563 1.9825139 2.3652115
7.6667738 1.92077 1.7604277
7.5487895 1.8295312 0.27140886
7.600183 1.9839151 2.3515923
7.6453176 2.0853281 2.3621135
7.9852004 1.3276887 1.6444074
7.9388547 1.6897842 -0.21659382
7.5739727 1.8907161 -0.83572608
7.8483982 1.8952667 -1.3435591
7.5586381 1.8283861 0.56025183
7.5558329 1.8248483 -0.53025621
7.0671549 1.7199545 3.41711
7.6685982 1.9134943 1.6566803
7.888752 1.5229487 2.1731527
7.8388906 1.9772081 -0.63638908
8.0743923 1.4274127 2.8497982
7.69521 1.9658133 1.359709
7.6687832 1.9785444 2.6488051
7.5594339 1.8334397 0.77441454
7.768621 1.9692549 0.95940882
7.7744589 1.9795766 2.4635139
7.6699691 1.9814743 2.4625633
7.7586646 1.9638655 -0.43687937
7.7759795 1.9093251 -0.43761373
7.6707292 1.9839628 2.7599862
7.6721783 1.9120719 -0.74030626
7.8591089 1.5038731 1.9384232
7.6950922 1.9692018 0.56754792
7.7663832 1.9710766 -1.035956
7.7839365 2.0514841 3.0531282
7.5721412 1.9844898 1.972808
7.882225 1.510998 1.5520808
7.7701674 1.9705435 1.1612982
7.6962304 1.9678689 0.66039526
7.9065566 1.522548 1.8325748
7.8872342 1.4982344 1.6369494
8.0893097 1.3023312 2.3666718
7.0840812 1.7135906 3.5654242
7.5414257 1.8193264 -0.44157678
7.5824327 1.9922042 3.1560965
7.8773189 1.5057535 1.7601924
7.5797119 1.8916447 1.5614375
7.5666966 1.8135594 -0.8337999
7.9269109 2.0609481 -1.4405721
7.7703886 1.9694552 1.2598047
7.5638433 1.8991765 -1.4271678
7.5585575 1.9278237 3.1590679
7.5477004 1.8277434 -0.3387754
7.7685223 1.9785389 2.1645858
7.9102025 1.5259438 2.0717516
7.8310938 1.9831055 -0.935664
7.6748586 1.9149978 -1.0432547
7.574194 1.8918303 -0.4333334
7.8571634 1.9713145 -1.430588
7.8908997 1.6063007 1.1643742
7.7921891 1.9050028 2.9634635
7.6660094 1.9124323 -0.83402616
7.6567245 1.9248316 2.3666108
7.8990369 1.6303003 -2.0318906
7.9638052 1.5985782 -1.9382845
7.7601843 1.9674627 -0.53303105
7.6662316 1.9151373 0.059953842
7.8614221 2.0037453 0.45775101
7.6738276 1.969225 2.0640187
7.969851 1.7051075 2.3597066
7.7696548 1.9737946 1.3608922
7.6811671 1.9706662 0.4672325
8.0455751 1.4864417 0.16424641
8.1513872 2.1046777 2.1120329
7.8377137 1.9045147 -0.55052286
7.8427849 1.9747264 -0.73950523
7.6791315 1.9829156 2.851114
7.6707568 1.9179029 2.061547
7.6645741 1.9717977 2.5647562
7.6657658 1.9166683 0.36367297
7.687716 1.9682457 1.4601486
7.7741437 1.9770513 1.9625905
7.6717224 1.9155179 -0.23809716
7.7610946 1.9680402 -1.1384385
7.7701235 1.9659472 0.46293676
7.6832447 1.9670607 1.5663741
7.5698819 1.8935387 1.6609812
7.6685367 1.9185641 0.76268876
7.573597 1.88656 0.56550539
7.7626877 1.9760159 -1.2345549
7.5686564 1.8834099 -0.03663142
7.8722115 1.6314858 3.8995039
7.6912112 1.9686378 1.6627784
7.7695899 1.9723095 1.4623654
7.6677227 1.9163188 0.15959018
7.7695985 1.9635178 0.35882857
7.5681586 1.8822246 0.060544256
7.6707473 1.9118453 -0.5342049
7.8424625 1.9819409 1.2555043
8.0618906 1.3264523 -0.038579483
7.5740271 1.8901843 1.0576305
7.9525704 1.596159 2.2593791
7.6942005 1.9637938 1.0643247
7.6867142 1.9646404 1.1698548
7.6608515 1.9184518 1.4624075
7.7668648 1.969286 1.0603756
7.6728206 1.9089822 -0.9372192
7.5692358 1.885618 -0.23728868
7.6707439 1.9122893 -0.037367728
7.6957088 1.9682866 0.76300538
7.573843 1.9013646 -1.1375592
8.0573969 1.4805527 0.89557064
7.4602633 1.8211859 -1.3307718
7.7792091 1.9737031 1.7600684
7.764812 1.9682511 0.76123977
7.6694145 1.9191759 1.5579761
7.7581544 1.9673116 -0.63711238
7.8361564 1.8838656 -0.23974694
7.7746716 1.9830682 2.2564356
8.0561094 1.3337723 1.950403
7.7631769 1.9753582 -1.3360046
7.6083088 1.9591047 2.0708323
7.8029528 1.5883336 1.0616037
7.7707214 1.9778625 1.8587589
7.8984041 1.5972719 2.559094
7.5824528 1.9749138 2.1739452
7.6692348 1.9181848 0.5624842
7.573885 1.9057871 1.7601074
8.0448618 1.3902272 1.8552381
7.7591991 1.9670256 -0.83792692
7.8859572 1.5918463 -1.140625
7.6677713 1.9102162 -0.43581134
7.6719699 1.9121362 -0.33685812
7.8798022 1.6004145 1.7538803
7.892911 1.604211 -0.34301397
7.9557471 1.7821697 -1.2547876
7.889524 1.5963444 2.2689681
7.6910491 1.9622222 0.86337662
7.887485 1.5936791 1.5681249
7.8318458 1.9577308 -1.1329862
7.6827126 1.9677762 1.7622623
7.8405938 1.9742731 1.653621
7.5541558 1.832086 -0.13330933
7.8144054 1.80734 2.688751
7.6682634 1.9200461 0.95881855
7.4817924 1.8804839 -0.94272554
8.0457506 1.3387694 2.4537227
8.0634937 1.2892061 2.6005855
7.8119926 1.7308688 2.5646272
7.6733584 1.9170178 -1.3337755
7.6680536 1.9159492 0.25974613
7.665421 1.9172242 1.1598097
7.6712971 1.920512 0.66150463
7.677155 1.9690354 1.9599347
7.7676234 1.9169046 1.7591531
7.5507913 1.8227402 -0.63304913
7.5716953 1.8836287 -0.13786927
7.7764378 1.9759868 2.058846
7.9853525 1.51401 2.8817902
7.9547291 1.6863996 -0.14155297
7.6724987 1.9108214 -1.1350427
7.7688322 1.9652275 0.56448853
7.6690545 1.9208878 1.0584745
7.7691917 1.9089403 -0.64218158
7.6690106 1.9116316 -0.63684821
7.7939525 1.8106829 -0.24106829
7.8506861 1.8917921 -0.83699077
7.8465934 1.9852469 0.66668874
7.8187776 1.7561407 3.0516911
7.7853632 1.6937683 1.3567004
7.8448563 1.975051 2.2527504
7.8538914 1.975108 -1.0479702
7.6655169 1.9190779 0.86098164
7.9620862 1.4888048 0.86567289
7.7674012 1.908756 -0.93908012
7.8410988 1.8859258 -0.94066179
7.8928514 1.5990394 -0.24242987
7.687542 1.9729002 -1.036525
7.6652331 1.9193003 1.3600076
7.6690254 1.9072046 1.963927
7.6693683 1.9125754 1.8578984
7.678019 1.9746643 2.1678586
7.7669673 1.9127795 1.1588769
7.45435 1.8952214 2.5574951
7.5713511 1.8990115 1.857838
7.4531131 1.8975984 2.7544014
7.7728353 1.9714847 1.5602049
7.9295177 1.6897024 -0.43954661
7.5723248 1.8987674 1.9639666
7.6753645 1.9737338 2.2568121
7.7681799 1.9136022 0.76256621
7.8361936 1.9763265 0.95901179
7.6713147 1.909462 -1.2456001
7.874279 1.7949173 2.159101
7.8377981 1.8865606 0.47140208
7.9856453 1.4157487 -0.042526547
7.5712843 1.8869137 -0.53779334
7.5945363 1.9464737 -1.9344265
7.6306067 2.1969626 -0.66690308
8.0670376 1.4680921 0.24216849
7.7989635 1.7841781 1.9638374
7.8526201 1.8919299 2.3631537
7.6784925 1.9743028 2.3628826
7.76121 1.9673162 -0.73729092
7.9110761 1.5924588 -2.504185
7.7736988 1.9724308 1.6628263
7.5714383 1.884501 0.25923362
7.5734997 1.8901591 1.1602688
7.5708408 1.896336 -1.0400814
7.6638198 1.9114445 2.168237
7.5715556 1.8883839 0.46021107
7.5729928 1.8875979 0.36681309
7.5526414 1.8334872 -0.22900024
7.569943 1.8856218 0.16068442
7.8924556 1.6017272 -1.5280548
8.0558376 1.4880922 2.1548617
7.8932524 1.603196 -0.13790445
7.571795 1.887777 0.65845484
7.8854032 1.6017214 -1.3392581
8.0475101 1.4930596 0.45647845
7.5782671 1.8919216 -0.6383791
7.8466434 1.8958886 0.15970676
7.9952326 1.5160851 2.6446671
7.988564 1.5123479 2.7501371
7.8395905 1.8924708 0.56541759
7.5567112 1.8298099 0.16411351
7.5772386 1.899875 -1.2394588
7.9415126 1.6871737 1.7711842
7.7746644 1.931142 2.7631311
7.771059 1.9070656 -1.3318571
7.8441982 1.8955147 -1.1312488
7.5774961 1.8927764 1.362831
7.9640179 1.4877334 0.76106423
7.5744424 1.8874904 0.95958751
7.5677791 1.8897926 1.4636433
7.6632948 1.9048307 2.6560638
7.6673837 1.9219412 1.258064
7.5729117 1.9176598 -1.6287889
7.8573236 1.9967417 2.7582068
8.0430775 1.4748738 1.4535109
7.7631245 1.9684966 -0.23592883
7.5685029 1.8872887 0.76305878
7.5711417 1.8887399 0.86267638
7.8897552 1.6026126 -0.72824085
7.6597481 1.8197944 0.5514738
7.6795249 1.9693274 1.8647649
7.7727213 1.9039942 -1.2373924
7.6624508 1.9823117 3.1688685
7.9959388 1.2257302 2.3563116
7.9509015 1.7084348 2.7596626
8.0324116 1.4624836 0.34727967
8.040081 1.440945 2.7356873
7.5918331 2.1145484 2.1723695
8.0371323 2.0670214 2.6755118
7.6944547 1.9619944 1.2657126
7.3684554 1.8700002 2.9637344
8.0652561 1.4946922 2.8341722
7.5852146 1.9752712 2.9692509
7.7643938 1.9633833 -0.13767515
8.1007395 1.2855173 2.2758107
8.0396099 1.4725446 2.4526176
7.5694528 1.8896821 -0.94063455
8.04144 1.4692082 2.3576
7.6835794 1.9786583 -0.13367911
7.8646564 1.9018354 -1.0409542
7.7712255 1.9079336 -0.5389877
8.0492678 1.4847823 2.6655326
8.0568237 1.5131378 3.0344515
7.9192305 1.5142201 3.3798244
7.7795663 1.9080753 2.456758
7.1764712 1.7924356 3.2620471
8.0232735 1.5247912 2.7752407
7.3717012 1.8810403 3.1542358
7.5660129 1.9076313 2.2627416
8.0403595 1.5042155 2.9565918
7.5424147 1.8330469 1.4502215
7.8705502 1.6979722 2.877177
7.7674294 1.9712651 -0.94005108
7.6870809 1.9722915 -0.035211395
7.9065437 1.5067717 0.25354162
7.9623208 1.7066232 2.4492271
7.8965831 1.7206426 2.7623892
7.8916631 1.6053852 0.56194103
7.8458524 1.9647479 -1.5099779
7.8591309 1.6827958 2.9626634
8.0262823 1.6035974 2.6512146
7.691483 1.9708195 -0.34492666
7.8402061 1.9720155 -1.9278338
7.7652612 1.9790915 -1.4342489
7.578486 2.1019254 2.6699905
7.8537722 1.980896 -1.6247886
7.8428364 1.7831129 -0.13600241
7.9790716 1.4169474 -0.93632644
7.4777007 1.8759154 -1.0350307
7.9003 1.4200993 0.98470306
7.8957953 1.7060018 2.5573666
7.8454885 1.9541388 -1.7402375
8.0416555 1.4034501 2.2731948
8.0520782 1.4734774 -2.5402565
7.6700449 1.9185613 0.4631061
7.9838247 1.5061719 2.365381
7.7689977 1.9935476 -1.9376916
7.5853472 1.9581616 1.4632539
7.8466206 1.9621522 -1.8593463
7.8026276 1.7115617 1.5735166
8.0523548 1.4874067 0.05051323
7.8362541 2.0222154 -2.1198959
7.9610314 1.5917875 2.5469801
7.779994 1.7126451 0.56163573
7.9434752 1.5830524 -0.034457438
8.0443239 1.4053042 1.9686806
7.9595304 1.594246 2.4724023
7.9690127 1.4975778 -1.5439934
7.974978 1.4944556 -1.435589
7.9452763 1.7891695 2.1859486
7.7505083 2.0598691 -1.3595839
7.9527044 1.7080567 2.8639293
7.5639749 1.8979167 2.7655764
7.6929865 1.7249025 2.5894785
7.7672744 1.6331589 0.11687333
7.559865 1.8137758 0.3620089
7.7695332 2.0685344 -1.4155803
7.5380917 1.9445763 3.019845
7.7608247 1.9766016 2.5725961
7.9051218 1.5157816 1.4686275
7.5710545 1.9087398 2.5636792
7.9153857 2.1008713 0.70107853
7.8890023 2.0653248 1.064103
7.8816938 2.0902925 2.2998898
7.7537904 2.0512924 1.4350791
7.5218673 1.8815953 2.8899214
7.5731854 1.9882026 0.97595453
7.5903354 1.9978667 2.2538822
7.5668378 1.9050747 2.3757892
7.5648742 1.9774107 1.1801814
7.8480158 1.9913194 2.5680833
7.1173935 1.7697531 3.4337726
7.169714 1.812463 3.4565902
7.3777442 1.8920033 3.0583048
7.1148911 1.7847773 3.4027503
7.1774645 1.8523664 3.8511581
7.0487552 1.7676654 3.7887976
7.4558334 1.9046966 3.1545339
7.1176457 1.8200808 3.8526664
7.960516 1.6920214 -1.9190669
7.4821644 1.9008569 2.9720831
7.9331574 1.7747399 2.8653035
7.8742447 1.8020351 2.3620481
7.8548923 1.8913833 2.4585173
7.6756592 1.9369137 3.0299404
7.5982904 1.9688238 3.0364118
7.930758 2.0540924 2.6673331
7.5980802 2.0116372 2.5490892
7.2747245 1.7908281 3.2539089
7.8974447 1.5107886 1.1551964
7.5821366 1.9848058 2.7636139
7.955308 1.7023233 2.6567354
7.9035888 1.4950128 1.2785074
7.593205 1.9994105 2.4645593
7.575263 1.8965591 2.4620371
7.2586331 1.8291119 3.1687891
7.2794871 1.8629631 3.0700428
7.9578943 1.6216195 3.9706933
7.9592514 1.6568141 -2.131561
7.5601358 1.8138976 1.2723918
7.5744467 1.9700803 2.8944962
7.1203823 1.7912931 3.5784857
7.4489837 1.9094399 3.2427702
7.5477395 1.981975 3.2735918
7.3128815 1.8540471 3.1991997
7.1552691 1.8651891 3.6941381
7.5725927 1.9204984 2.9562809
7.6729393 1.9842924 2.9585326
7.8403878 1.9701229 2.1594658
7.8406892 1.9753466 2.9508858
7.797369 1.6796459 2.2001216
7.5945935 1.9738749 2.6644123
7.9642854 1.7826495 2.2625766
7.5443854 1.8206238 0.46578535
7.096458 1.774289 3.2706044
7.9727497 1.6064128 2.6552782
7.9364166 1.7780287 2.3687177
7.8405957 1.9720429 2.6679683
7.6590147 1.9100729 2.759712
7.842391 1.9759935 2.4591277
7.9572597 1.7580969 2.4346294
7.7531757 2.0026343 3.0433819
7.7668452 1.9906557 2.7731013
7.9682207 1.6979864 2.2651711
7.9570036 1.7759614 2.7718062
7.584343 1.9816947 1.8595983
7.6672435 1.971562 -1.7407786
8.0466681 1.4014866 2.1619656
7.9556317 1.7647209 2.6392207
7.9743795 1.603617 2.8645859
8.0408993 1.407724 2.367938
8.0521851 1.7735821 -0.70089877
7.9844136 2.0323796 -0.047182105
7.5691533 1.9188828 2.6655869
7.4676208 1.8964137 -1.5263615
7.9553866 1.5974203 2.3514056
7.9784513 1.4934036 2.0599475
7.8438239 1.98709 1.4516742
8.0629492 1.4171606 2.5403407
7.9602089 1.4931165 -0.23848589
7.9332967 1.4349906 2.8036604
7.983799 1.8959047 2.1156383
7.9298701 1.7751107 -1.5617899
7.9678726 1.4966195 -0.83804375
7.9923525 1.4905083 -1.7273781
7.6867566 2.1484749 -1.1690897
8.1223192 1.350423 2.7203207
7.9651756 2.0021369 -0.61908054
7.9672961 2.0141287 0.23925309
7.541059 1.8331788 0.65897119
7.9757013 1.9874427 -0.80766517
7.9103556 2.0582566 0.7428717
7.9883914 1.5022464 -1.8419895
8.0642805 1.5774782 -2.4133723
7.5620904 1.8104337 1.8639168
7.9398303 2.0293965 1.7484701
7.8465338 1.9808903 2.066725
7.9611468 1.4895762 -0.63592643
7.6220779 2.1494703 -0.52766842
8.0281687 1.6061345 -1.5119483
7.7746453 2.018971 3.158534
7.3506122 1.865461 3.2462585
8.1887951 1.4704453 0.52676237
7.7773709 1.988589 2.9640136
7.9978542 1.4150378 2.3568301
7.6752524 1.8340417 -0.44424778
8.0445995 1.3306884 1.4608006
7.5471005 1.827601 1.0685227
7.7842002 1.9128082 2.2628787
7.6593723 2.1769795 -0.45941511
7.5662379 1.8186417 1.7716018
7.4889193 1.7957261 2.9558101
7.5845141 2.0955572 2.5512846
8.034214 1.3915998 1.4499612
7.9329576 1.579204 -0.13620296
7.9608192 1.4946042 -1.0374188
8.0313778 1.5606813 -2.1652904
7.8061032 1.7148649 -0.0061393944
7.8060269 1.7175486 -0.34781444
7.9719143 1.5021249 2.4599831
7.9803562 1.4976215 3.1712537
8.0024405 1.4985803 3.0250711
7.638792 2.1025236 2.1721442
7.9547005 1.822184 -2.3721941
7.5435653 1.7936351 -1.3377012
7.9710021 1.6049902 3.5828032
7.9427433 1.7139015 -2.5289345
7.9733205 1.6114374 4.1440611
7.9586535 1.6976367 -2.350636
7.5728898 1.9887979 1.6439625
7.8050609 1.5071201 1.7665093
7.9356365 1.8101882 -0.55353385
7.9454036 1.6992934 0.4686895
7.9211979 1.8128843 0.38866094
8.0697269 1.4783441 0.67047697
7.9905138 1.9909854 -1.5044876
8.0925217 1.6397077 0.9431442
8.0016985 1.9326693 2.7302649
8.0394621 1.5703418 1.5708637
8.0276709 1.6426749 0.6853953
8.0486813 1.4870925 1.1626099
7.6683598 1.8118478 -0.64126861
8.0335922 1.6717354 0.30837852
8.0495167 1.5488793 1.2128085
7.5851049 1.9672908 1.5534209
7.4926615 1.9690531 1.5411112
7.4791284 1.969009 1.3472651
7.5013103 1.9474313 1.2340189
7.6217537 1.8434101 -0.58133423
7.9474707 1.7860483 1.6870832
7.8091397 1.5862647 1.3758827
7.7874155 1.7076187 0.67722702
7.935791 1.7636721 1.7769263
7.8830862 1.7099551 -2.1415534
7.7295313 2.0604091 -0.83409846
8.0405273 1.5524424 1.4695314
7.5896549 1.992893 -0.65830088
7.572588 2.0963037 -0.45395166
7.5069523 2.0015006 -0.75101513
7.5746002 1.9784557 1.7614144
7.6708164 2.1246872 -1.0143628
7.6540885 2.0874538 -0.11920782
7.694488 2.0834894 -1.153019
7.6747055 1.9016037 -1.9256372
7.8075042 1.6998488 -0.84586728
7.8109417 1.6289175 -0.91534054
7.4933777 1.8398747 -2.0220621
7.35992 1.8063684 -2.010783
7.5809941 2.0852525 -1.3459115
7.5636768 2.057379 -0.96265632
7.8861108 1.6862148 -2.4555082
7.8787093 1.7974772 3.0536644
7.6393957 2.126538 -1.3969877
7.900857 1.788065 3.7487195
7.9033675 1.8054693 3.16906
7.504508 1.9522192 2.9357686
7.9284611 1.852303 2.2860777
7.9297829 1.8898982 -1.4822247
8.0386295 1.4924529 1.3769823
7.9346495 1.756212 -0.052599534
8.024231 1.7061641 -2.3932269
7.9353113 1.9212198 -0.81728083
7.6518407 1.8260227 -0.84551859
7.8950481 1.4329653 1.6747816
7.9528642 1.8659452 -0.5815388
7.9981675 1.9384246 -1.6681049
7.8796129 1.806203 2.9650028
7.8745818 2.0636876 1.7899988
7.8715887 1.4376818 2.7057753
7.6593285 1.7754412 2.8106072
7.8665328 1.7622414 3.3452511
7.8936663 1.6172918 2.7361667
7.6376452 2.0127568 3.6461635
7.5145745 2.0147381 3.6381848
7.7729611 1.8399533 3.3132961
7.3925705 1.9614295 3.1925075
7.2153115 1.8925914 3.4233434
7.3341537 1.9580317 3.4517248
7.5869694 2.0236773 3.5183141
7.8610973 1.885543 3.0573559
7.906322 1.5737305 2.8557596
7.6519365 2.0210397 -2.4385509
7.8664231 1.7975842 3.244627
7.8145485 1.838275 -1.930514
7.29743 1.9043316 3.7781768
7.3148537 1.8754811 3.3615112
7.4397693 1.9150714 3.3766975
7.5702763 1.9752253 3.3908577
7.9555755 1.7206702 3.4557478
7.8792477 1.91343 -2.5510812
7.9675064 1.6913371 4.0770135
7.9936481 1.8009769 -2.4254382
7.4140773 1.9111407 3.4694016
7.9374876 1.7604241 3.9352353
7.9498987 1.8963261 -2.6055202
7.2926526 1.8703244 3.9097621
7.5961471 2.0653555 -2.3051684
7.9063034 1.8833635 4.0211897
7.8726301 1.8009623 -2.2480164
7.2559776 1.891075 3.5701525
7.3792424 1.9358115 3.5872478
7.5022116 1.9829381 3.6040325
7.9734898 1.5626355 -2.507766
8.013217 1.5415871 3.7366619
7.5042191 1.9573945 3.0786619
7.9934206 1.5036609 3.237155
7.9441767 1.7815177 3.2561078
7.4438295 1.9472128 3.269779
7.9462361 1.5975177 2.7828643
8.0426655 1.5051382 3.4322326
8.0176344 1.5516822 4.0240021
8.0262337 1.5772699 0.84107196
7.4726601 1.8046069 2.5736828
8.0531721 1.5665317 0.60622561
8.0288687 1.7816433 3.3822391
7.8726006 1.6896064 3.0659769
8.0029945 1.5334569 3.626225
7.7678285 1.9196302 3.046891
7.6954536 2.0880351 -0.56065732
7.8068461 1.7337755 -1.4784279
7.6334991 1.7977695 0.22138387
7.7822037 1.9107943 -2.4353268
7.787221 1.8200753 -2.2299509
7.9011512 1.6053389 2.6465044
7.3888497 1.8308728 -2.1664729
7.8853607 1.8952132 3.1682882
7.3308764 1.8007948 -1.9598633
7.6703424 2.0857189 1.3683534
7.6380987 2.0891814 1.2935019
7.6450257 2.0680902 1.0513577
7.7040524 2.0931873 1.1689152
7.5978818 2.1047587 1.5431293
7.5886273 1.9565361 -0.9106133
7.7091103 1.8088869 -0.78198636
7.6042261 1.9965943 -0.517232
7.58571 1.9535465 0.27265978
7.884243 1.795969 2.8619657
7.5893593 1.992156 1.0512058
7.8160076 1.6244831 -0.63742501
7.4801998 1.9594433 -1.2590563
7.8077102 1.7119064 -0.55950618
7.8113813 1.7154676 0.16965419
7.9741268 1.7098413 3.1990733
7.4503813 1.8354311 2.6292124
7.6875157 1.9264841 3.1835134
7.8581028 1.8900663 3.2472084
7.6556516 1.8959091 2.8580129
7.465641 1.8133568 2.8806107
7.8513441 1.9759845 3.1547937
7.9685717 1.6974634 3.2643571
8.078064 1.4449418 3.5440495
8.0199814 1.342162 1.1127113
8.0104752 1.3436116 0.45093119
8.045928 1.3008844 0.34341353
7.7288198 2.0589094 0.27740118
7.7300959 2.0538564 -0.10082372
7.732842 2.04844 0.64112389
7.7345147 2.0510314 1.318692
7.6636467 2.0760415 -0.62323034
7.6682854 2.0897126 0.56309688
7.6624551 2.0828485 -0.9677099
7.680542 2.0680659 -0.25237408
7.6884727 2.0666323 1.5985982
7.5659256 1.9838614 0.83828819
7.5723038 1.999711 -0.44610432
7.6857839 2.0940084 0.77416515
7.6738362 2.0807929 0.36526996
7.6678443 2.0998912 1.4611179
8.0196476 1.3324246 1.2894381
8.0477285 1.3130987 0.83661711
7.6822014 2.0758631 1.9723122
7.7284031 2.0462863 0.031475261
7.7017145 1.7999591 3.074939
7.5848975 1.9828824 -0.32078102
7.6718431 2.0767438 0.65963286
7.6863441 2.1193514 0.2057284
7.6636052 2.1018178 0.05477754
7.6771522 2.0865631 1.7304336
7.7426553 2.0777211 -0.24862194
7.4951239 2.0595558 -0.23128343
7.6888371 2.1002095 -0.86143321
7.579277 2.2015224 -0.87551415
7.580483 1.9967067 -1.8146456
7.6953878 2.0641479 -0.73948985
7.6959138 2.1175992 -0.29036331
7.6778126 2.0754657 0.83253658
7.5885916 1.9656906 -0.73702538
7.6170397 2.1663923 0.72394466
7.5469975 2.157192 -0.92809039
7.3342562 2.0955174 1.3078557
7.4899073 1.9969273 1.4668061
7.6068063 2.1013007 -1.5854164
7.5639544 1.9222169 -2.3561962
7.87463 1.9064189 -2.1283772
8.0182848 1.319386 1.1004092
7.779089 1.9121002 -1.9361323
7.5753341 2.116472 -0.85470563
7.9037728 1.804244 4.0853553
7.867589 1.6780963 -2.0498719
7.7682748 1.9990051 -2.1287792
7.8680377 1.7910738 -2.1361139
7.4767199 1.8708689 -1.8188578
7.9591465 1.7322664 -2.7061722
7.8626223 1.7964177 -2.64434
7.9842901 1.6173011 -2.6545982
8.0409822 1.5304519 -2.6839561
7.7972679 1.7060735 0.38433662
7.9150248 1.4278605 0.33056584
7.6825514 2.0872517 -2.3363819
7.4804921 2.0021768 -2.3309016
7.8209 1.9790199 -2.277956
7.8785734 1.8227681 -2.3297937
7.851696 1.8969722 -2.3347881
7.9738808 1.5886964 -2.35361
7.6261406 1.9203072 -2.2691212
7.3958058 1.8396777 -2.2651296
7.8443823 1.9066008 -2.2183082
7.9379649 1.7620927 0.10215765
7.6426849 2.0574226 -1.899941
7.9905114 1.513539 -2.1382232
7.8709116 1.8921572 -2.0266852
7.6749573 2.001086 -2.3690701
7.6959782 2.0828896 -1.2215887
7.580977 2.0919881 -0.10404892
7.5672941 2.07623 -1.2292628
7.8137865 1.6117874 -1.3321047
7.6790843 1.8386726 0.9373067
7.7986875 1.5174224 -0.26285201
7.3199363 1.8105565 -2.1495509
7.5584917 1.9166477 -2.142236
7.448895 1.7840105 -2.1149156
8.0767307 1.2296396 0.85006189
7.4425411 1.8917005 -2.3337963
7.2699733 1.8051497 -2.3048406
7.9311967 1.8595279 -2.0306814
7.5252719 1.8342227 -2.0087698
7.968513 1.7652391 -2.0263381
7.9530196 1.6186996 -2.1188257
8.1504936 1.4606791 -2.6466093
8.089777 1.564914 -2.6305876
8.0458813 1.694294 -2.6120329
7.9470844 1.7197683 -2.4556508
7.3924465 1.7860827 -2.3447874
7.9436197 1.7644221 -1.9438323
7.8730354 1.8128934 -2.5353668
7.7900476 1.9185786 -2.3449399
7.432622 1.7912233 -2.3011224
7.8197775 1.6404786 -1.0645312
7.7927766 1.6427779 0.34091312
7.5600352 1.7398372 0.54212409
7.7352748 1.8040254 -1.8801243
7.5736675 2.1010015 -2.3964891
7.763833 1.7574919 -2.3582201
7.5010552 1.9522545 -1.1587402
8.0711718 1.3168657 1.261309
7.8023982 1.6094038 0.48339298
7.8165731 1.5995338 -0.7362051
7.6042213 1.9623058 -0.80620861
7.5811367 1.9970958 -0.048161205
7.8180962 1.5049229 0.13872391
7.8414288 1.8829811 -2.4346108
8.2399321 1.4660634 0.48330042
7.9936743 1.6221941 3.467701
7.3909569 1.8032042 3.1753817
7.9733615 1.6329353 3.2575035
7.935596 1.852604 2.5873103
7.8196583 1.5829122 -0.82607317
7.4652958 2.0233719 -1.6958373
7.6757722 2.054935 0.25160202
7.6574874 2.1456797 0.31429058
7.6849465 2.0718381 1.6830926
7.7370372 2.0577435 0.56445175
7.6785831 2.0528305 1.9041699
7.6776567 2.0540617 2.0474527
7.6156273 2.1444075 -0.54250062
7.6635613 2.1454964 -1.82987
7.6895609 2.102031 -1.521542
7.6170788 2.1687253 0.37239158
7.7563748 1.9011753 -2.031857
7.6913338 2.1479428 -1.9550501
8.0325184 1.5014857 -2.3286936
7.7958393 1.9092617 -2.2532816
7.7854414 1.7921381 -1.7556252
7.4662838 2.0760477 1.3515668
7.5407991 2.0608208 -0.35321009
7.5885954 2.0732393 0.33158034
7.5714707 1.9567411 -2.0238469
7.9963737 1.5016642 -2.4986625
7.9695754 1.5881948 -2.4543817
7.5925732 1.9925771 -2.4501061
7.8984966 1.7852755 -2.44172
7.5564203 1.9244264 -2.4550836
7.7648849 1.9062603 -2.512455
7.4637685 1.8440218 -1.8315554
7.5670705 2.0080624 0.4076837
7.7783065 1.67083 -2.6222103
7.578896 2.0753815 0.21628381
7.8464489 1.4942893 -2.2796454
7.7865348 1.6219971 -2.2786689
7.601275 2.0668485 1.8421119
7.7730026 1.6807103 -2.1046796
7.5050211 2.091095 1.2196016
7.6201024 2.0600743 1.0315146
