# .PCD v0.7 - Point Cloud Data file format
VERSION 0.7
FIELDS x y z
SIZE 4 4 4
TYPE F F F
COUNT 1 1 1
WIDTH 1611
HEIGHT 1
VIEWPOINT 0 0 0 1 0 0 0
POINTS 1611
DATA ascii
5.6953931 23.121387 2.1943426
5.5068092 23.621632 2.3618643
5.1959882 24.405035 2.4706757
4.7816267 26.381744 2.6741788
5.3795199 24.605442 2.1372135
5.844439 23.486382 2.1602745
6.3884912 21.884293 2.1451111
4.9380288 25.980143 2.5750611
4.7236724 26.549459 2.0643239
6.2790804 21.698997 2.1737742
6.4905977 21.105532 2.262588
5.99547 22.321655 2.374969
5.9775438 22.493101 2.3565323
5.7947273 22.899845 2.3782525
5.2058921 24.427069 2.254961
4.4179893 26.343515 2.2465796
5.7473936 23.698944 2.1641788
5.8606062 22.776482 2.6430275
5.1863489 24.611872 2.1749246
4.4804616 26.393227 2.1699793
5.5940738 23.404093 2.2606633
5.5729656 23.497023 2.2660651
5.2643328 24.392679 2.1644533
4.9117785 25.213923 2.2559409
4.8932643 25.305887 2.2637019
4.8703747 25.393484 2.2627842
4.7064033 25.721888 2.3699815
4.2758083 26.987499 2.15993
4.4903626 26.130939 2.4993262
4.5621352 26.889982 2.1534569
5.1690593 25.200989 2.1633971
6.0781488 22.786201 2.0730553
5.7533545 23.084581 2.0758805
5.7785745 23.593164 2.2649784
5.6604719 23.386486 2.2658834
5.3891506 24.005718 2.2579479
5.0931363 24.805443 2.1662307
4.9954515 25.002577 2.2682166
4.800549 25.507458 2.3681927
4.7044058 25.725307 2.2430873
6.0849681 22.197931 2.2574828
6.0828648 22.200205 2.1704361
6.001194 22.298523 2.16908
5.9730897 22.399126 2.167892
5.8969793 22.613003 2.1654081
5.2657323 24.893486 2.1563444
5.7468457 23.785978 2.1528533
4.0767484 28.003006 2.1697643
5.126298 25.462584 2.1363864
5.9704657 22.988859 2.1561067
5.6527953 23.38986 2.464905
5.6515222 23.394144 2.1647379
5.5587921 23.600079 2.2691219
5.3915434 23.926895 2.3599589
5.1618085 24.697361 2.2665737
6.2103877 21.716328 2.2216427
5.8630733 22.799421 2.3541901
5.803534 22.816555 2.3669443
5.7096338 23.111399 2.2523119
5.6078787 23.324772 2.1939001
5.4759331 23.793858 2.3593168
5.3694444 24.098364 2.261049
5.0576243 24.898071 2.3620605
4.7991724 25.504145 2.2675769
4.5022006 26.306355 2.3599582
3.7860968 28.285269 2.2563839
5.9453349 23.634142 2.079061
6.6751909 21.823835 2.1032784
6.0821424 22.879694 2.1541681
5.3197389 24.017506 2.1622996
5.746347 23.286989 2.0747514
4.8685079 25.796246 2.5534391
4.037745 28.460524 2.0350823
6.4779921 22.288586 2.0641186
4.3958869 26.384277 1.8806082
5.5759773 23.580673 2.0573959
6.4735475 21.701464 2.1733575
6.374886 21.904907 2.2610304
5.958631 23.090448 2.2685101
5.4807878 24.401472 2.5556498
5.1675858 25.104507 2.1679218
5.0825143 25.293344 2.3585188
4.5717068 26.596762 2.2799995
3.9732618 28.072342 2.3671167
3.9660549 28.079908 2.0722427
5.7833786 24.03624 2.0367174
6.4135346 22.354601 2.0499575
6.3486118 21.995846 2.2683444
5.1869721 24.87727 2.0710797
4.5606484 26.384102 2.1671743
4.4824634 26.791561 2.23911
4.2414598 27.849077 2.1205215
4.5363359 27.157248 2.1220133
4.8413029 26.315552 2.1231027
5.696362 24.170401 2.1322153
6.3221827 22.554356 2.1504054
6.3059163 21.513132 2.2723603
4.7508478 26.378845 2.1298187
6.1699362 22.387135 2.1510873
5.5462284 23.788576 2.1768699
5.1777968 24.878389 2.3748498
5.0411596 25.073881 2.1661792
4.3983226 27.098419 2.1638672
5.1568694 25.406677 2.0583053
6.3479619 21.679293 2.1674237
6.3427749 21.682337 2.3830733
6.37709 21.810909 2.1498227
5.4586411 23.998274 2.0746403
5.1426964 24.77902 2.1631727
5.1654058 24.893806 2.1647019
4.9698992 26.045998 2.1440263
6.7427979 21.398748 2.1752717
4.4408455 26.744894 2.6702354
3.945467 27.988131 2.4659057
4.0827045 27.48889 2.1707461
5.8833394 23.103691 2.1623914
5.3585758 24.196779 2.2664418
6.632019 21.09837 2.2049644
4.5707965 26.181099 2.1644754
4.5258336 27.170233 2.0939767
5.8597841 23.806538 2.1128261
5.1565185 25.002573 2.2400565
5.7600331 23.287287 2.1745501
6.4594154 21.693338 2.3609757
6.5670514 21.090229 2.653285
4.7674236 26.475327 2.085242
5.1720929 25.478361 2.0986495
5.6623321 24.179207 2.071084
5.0523067 24.990068 2.3667576
5.562417 23.786688 2.4584548
5.4509082 23.982225 2.2741032
5.6654334 23.619225 2.1862197
6.4340687 21.57592 2.2476273
4.487268 26.292877 2.065716
5.9423695 22.689951 2.3582504
5.8713431 22.979355 2.0876215
5.9006958 23.098354 2.2830706
6.0477862 22.605923 2.1661751
4.5684934 26.972847 2.0481727
3.9392068 27.991884 2.3693407
4.0242138 27.77696 2.274554
3.9444072 27.974342 2.2691741
3.8725131 28.122501 2.0855787
4.4335117 26.763956 2.1940269
6.0629973 22.708244 2.5454254
6.0766335 22.693304 2.1566823
5.9410024 22.68257 2.5752523
5.8305359 23.096004 2.0537596
5.7606969 23.182991 2.0843146
6.6557264 21.105883 2.2960889
6.5745039 21.309275 2.2564771
3.8317487 28.189571 2.4591966
4.2786279 27.595243 2.3519473
4.7460446 26.276621 2.1610391
4.5692735 26.294025 2.1670337
5.6790543 23.594276 2.0759764
4.2283826 27.918877 2.0769451
4.5552902 27.065666 2.0447688
6.0502739 22.985401 2.0814924
6.2808714 21.511623 2.1972916
6.1526518 22.186747 2.3434238
6.1495647 22.466034 2.522233
6.0487766 22.486261 2.1689832
5.2758923 24.605608 2.0501223
5.3589683 24.41448 2.2667205
4.5523381 26.486246 2.368211
5.4585776 24.779934 2.054332
6.1455441 22.960182 2.0507352
5.9526525 22.685831 2.4582815
5.0621114 25.092108 2.4556036
4.7565064 25.78701 2.152432
4.3693089 26.977596 2.0717092
4.4495182 27.2994 2.0401537
5.5611458 23.996645 2.1605604
5.4649796 24.193321 2.3456147
5.2864299 24.712931 2.064162
5.3629298 24.489393 2.0559578
5.2564569 24.505337 2.0664916
4.7788348 25.806484 2.0727839
4.4462805 26.687965 2.1669717
4.3970122 26.814081 2.0555174
4.3571739 26.994667 2.1655326
4.0557275 27.776289 2.1759319
4.4747939 27.207468 2.070117
6.056953 23.088055 2.0528717
4.9254827 26.186687 2.0602484
4.5425158 25.993608 1.8774059
6.1892176 22.296846 2.2587826
5.8450933 22.982731 2.2672765
5.2561216 24.596596 2.174417
4.9510341 25.492273 2.2518525
4.9750538 25.494804 2.5463734
4.8454938 25.701372 2.2540259
4.690084 26.303213 2.5693741
4.3641133 26.90398 2.0827527
4.0412445 27.796915 2.3717866
4.0473423 27.685795 2.1789944
4.0540071 27.691711 2.0697756
3.9851804 27.794977 2.0556703
3.8527169 28.28924 2.273886
4.7292461 26.596642 2.2110617
5.1545773 25.461899 2.2593293
5.5488791 23.922615 2.4828119
5.6832933 23.604452 2.5836174
6.5313001 21.198469 2.3714478
6.4460735 21.294659 2.3548753
5.6492629 23.396395 2.368448
4.0407219 27.694778 2.547096
4.8637619 25.588072 2.1554949
4.1550398 27.879667 2.1521039
4.9480038 25.88269 2.1471128
6.2590103 22.485207 2.1629138
6.1557655 22.184803 2.6521244
5.3700352 24.092346 2.3648887
5.3635631 24.188692 2.1653678
4.3785095 26.697197 2.1763246
6.1428733 22.169315 2.2586434
6.0390835 22.387842 2.1710248
4.2514997 27.789639 2.1524909
5.0809655 25.65906 2.1940658
5.6350975 24.09153 2.1482794
5.18856 24.785975 2.7139039
6.3816223 21.791536 2.2461946
6.3448753 21.711708 2.4687655
4.7932119 26.307644 2.6470511
4.1670008 27.973011 2.139297
5.577775 24.39603 2.1318579
4.4643049 27.103758 2.0682433
6.430202 22.195219 2.1839106
4.0903435 27.494303 2.270865
4.0447803 27.689081 2.2563548
4.5591121 26.286966 2.2664015
6.2516956 22.079586 2.1705542
6.3352966 21.785263 2.4371352
6.2480187 21.886337 2.2553375
6.4666429 21.494007 2.2740247
6.3598404 21.683741 2.2512593
4.4744577 27.280235 2.1717196
4.8372049 26.196188 2.1507969
5.3719335 24.801357 2.1605623
4.2370114 27.735716 2.8558097
4.0508361 27.587511 2.4531751
4.0440207 27.707178 2.358243
4.0590897 27.693726 2.4525547
5.9493456 22.680698 2.2573493
6.0523028 22.485691 2.2502506
5.1539869 25.560644 2.1202135
5.5555415 23.689737 2.1798294
5.7635536 23.296675 2.2640073
6.6600742 21.003155 2.2301245
4.7958045 26.290535 2.4529598
4.2851362 27.69252 2.0601077
5.8375158 23.793318 1.9910339
4.7572842 25.697546 2.5524695
4.8665357 26.259743 2.0457747
4.9512496 25.283215 2.1539502
4.5563898 26.382872 2.0682116
5.8490992 22.996761 2.3457549
6.6422458 20.886427 2.2603805
6.5771255 21.17448 2.2613461
4.5663905 26.195351 2.0779965
4.2677846 27.792397 2.0516384
5.1893096 25.470139 1.9884281
5.8586311 22.893848 2.1663539
5.2659912 24.488892 2.1751299
5.2470102 24.718639 2.1420581
5.1559901 24.785007 2.2672243
4.5700884 26.293196 2.086704
4.5512195 26.398106 2.2667034
4.3464761 26.999294 2.3605301
4.1678724 27.299774 2.2569945
4.1437931 27.449348 2.0813956
4.1330767 27.49295 2.1639507
5.4625001 23.900867 2.0665767
4.0449452 28.416145 2.0628972
4.4222207 27.410543 2.0798469
5.7147021 22.878397 1.9792993
4.9357758 26.088806 2.0696044
6.4391408 21.393225 2.2355323
6.3496485 21.591099 2.4536591
5.555377 23.684183 2.2666347
5.5699525 23.689854 2.6604991
5.546515 23.781725 2.3758495
5.5552645 23.903906 2.5771248
5.4515529 23.999479 2.1762204
5.3495302 24.293009 2.2660959
4.2426839 27.198309 2.1682889
3.7455297 28.407078 2.444628
4.368422 27.487892 2.0754848
6.4564648 22.099522 2.1254165
6.4325161 21.533356 2.4569268
5.578022 23.773848 2.6492033
5.5478296 23.780666 2.2513168
5.5756164 23.879417 2.3708503
5.445982 24.190235 2.1267633
4.4222674 27.473484 2.0525417
5.5014763 24.651312 2.0907567
6.3850427 22.362434 2.1308303
5.4631877 24.113533 2.155093
5.389338 24.494862 2.2712772
4.3701239 26.800749 2.1791008
4.3487544 26.888424 2.1775014
4.3309836 26.999722 2.2678056
4.2520924 27.275518 2.2272227
4.2529621 27.286785 2.1855879
4.9262619 25.986942 2.1678588
3.9719152 28.493217 2.128144
4.353416 27.505211 2.1640654
5.3514805 24.893028 2.1639106
6.1387582 22.86816 2.2294757
6.1176929 22.384905 2.7715585
6.0444579 22.387186 2.2650118
5.2634749 24.590002 2.2581892
4.3463516 26.8909 2.2640808
4.0694714 28.094162 2.1491673
5.0235925 25.772171 2.2641854
5.6400394 24.088333 2.2597103
6.5602274 21.694447 2.3732519
6.3480196 21.597286 2.5710778
4.950211 25.194456 2.3592858
4.8662949 25.397051 2.456974
4.5590382 26.380728 2.3595757
3.8458285 28.195133 2.2697444
5.5500798 24.00168 2.0490651
4.0444627 28.2773 2.1839058
4.4395504 27.214483 2.1708832
5.6304145 24.237911 2.2403407
6.5968256 21.773155 2.2825315
5.5752773 23.69833 2.7537715
5.4646921 24.114319 2.2611165
5.3713069 24.082195 2.6369302
5.5491447 23.688261 2.3548946
5.4642043 23.883547 2.2698386
4.3570538 26.794411 2.4514189
4.0226088 28.428579 2.2148533
4.4382019 27.344414 2.2474105
6.6351776 21.677917 2.3966081
4.5538507 25.993999 1.9512196
4.3614616 26.787676 2.3619266
5.6379824 23.617435 2.8647118
5.6038218 23.709459 2.8411522
5.5493207 23.865854 2.7700396
4.8575859 25.663048 2.5563724
5.5485401 23.690125 2.4627244
5.448082 23.984312 2.3584666
5.4554477 24.085505 2.3561521
6.1345367 22.90373 2.3545737
4.5467954 26.391338 2.4561682
4.2730947 26.994053 2.5550752
4.1419425 27.488989 2.3519752
5.0491562 24.987162 2.2580819
6.0245957 22.604494 2.8583889
6.0441966 22.383835 2.4574573
5.9530368 22.592579 2.3697286
6.0609961 22.391836 2.8767595
4.8951263 24.901258 1.9657648
4.2722783 27.763397 2.2893188
6.1248999 22.925947 2.5301952
4.3451533 26.91337 2.8174593
5.2869244 24.473198 2.8075716
5.4617138 23.989731 2.9328768
5.4430523 23.991747 2.4590158
5.2434683 24.492657 2.3562598
6.2744832 21.77581 2.7429163
4.7452698 26.474998 2.3769584
4.5570683 25.986448 1.7544346
4.3281198 27.01207 2.824198
4.2260342 27.278162 2.7353308
5.4879141 23.990141 2.7464843
5.4582009 24.064224 2.7428312
5.2544909 24.395824 2.6536822
4.1758757 27.297256 2.3608265
4.3787799 27.378277 2.1696653
4.9575238 25.967754 2.2566636
5.7399893 23.981152 2.2502265
3.9351313 28.001093 2.0816514
3.971344 27.908447 2.0334847
4.592937 25.997885 2.0753779
5.9740067 22.883888 2.0812459
5.7919588 23.462887 2.0486305
5.0394506 25.196583 2.7502735
4.4864421 26.597574 2.7387018
4.2818217 27.002783 2.2695479
4.2489414 27.189781 2.2577178
5.3228326 25.05307 2.1981261
6.3441753 22.262442 2.2846117
4.9376464 25.974447 2.4379857
5.3532023 24.183802 2.5551662
5.3738136 24.208761 2.7421803
5.6717634 23.490513 2.8615205
4.871336 25.409784 2.8273451
5.4398031 24.685556 2.3764212
6.7494259 21.207016 2.4555175
5.9892445 22.798046 2.1656227
4.028801 28.423576 2.158519
5.2570653 25.090187 2.2768276
6.4396105 22.155296 2.367367
4.6815434 25.705412 2.0462854
5.9601479 22.805254 2.0623593
5.5172801 23.532188 2.1326439
5.3524499 24.289742 2.6658902
5.3404412 24.380209 2.8324747
4.6659918 26.091288 2.545397
5.3487682 24.303364 2.8577991
4.5399733 26.974836 2.2670925
5.2328696 25.191895 2.3143015
6.3323021 22.433313 2.4074895
5.9781952 22.789234 2.2624958
5.4977617 23.498678 2.0485554
4.360611 26.783518 2.6611633
4.3775578 26.798296 2.2616787
5.2633772 24.487524 2.6653557
6.194407 22.173693 2.9376285
6.1511259 22.178837 2.4595089
5.0317488 25.683956 2.3504851
6.0358658 23.072994 2.3884258
5.622016 24.180294 2.3793731
4.3805699 26.871155 2.7679381
4.2740993 26.9932 2.3614912
5.0780287 25.033087 2.8418281
5.9540548 22.59199 2.4516315
5.9645281 22.701889 2.9310615
5.9269867 22.634394 2.9382637
4.7523494 26.395161 2.2549884
5.6230936 24.283998 2.2462151
5.8455391 23.584377 2.0546544
4.8519135 25.619614 2.7446275
4.8461547 25.496769 2.3585668
4.440443 27.307587 2.3594294
6.3502936 22.35218 2.4809012
4.5504212 26.49321 2.2726064
4.27352 26.994789 2.6489117
4.268991 27.087233 2.4550166
5.1225233 24.950617 2.8503482
5.0575886 24.98214 2.4569149
5.1538754 24.787952 2.467968
5.2576375 24.487049 2.5649731
5.2219086 24.578085 2.9492218
3.7401989 28.369282 2.5611625
4.7122483 25.458841 2.226356
5.1396947 25.406431 2.3690524
6.2582688 22.498859 2.4664264
4.2462363 27.200546 2.3673506
4.4595194 26.501896 2.5605335
5.1485567 24.782352 2.5578709
5.1579075 24.826532 2.9380066
5.1252489 24.915762 2.9162781
5.1432276 24.707453 2.5597341
5.1632943 24.733501 2.9567444
4.5428042 26.293734 2.6622932
5.6409078 23.467415 3.1546319
4.9262137 25.343864 2.8491621
3.7742045 28.388401 2.1938813
4.7733188 26.393263 2.3569934
4.6563511 25.991344 2.5644765
5.8472681 22.97069 2.4893641
6.3987231 22.007549 2.1584139
5.6536226 24.093601 2.5534484
4.4138069 26.418941 2.1530857
5.6763825 23.588278 2.3606453
5.5772152 23.792734 2.535593
5.5471725 23.686798 2.5399601
5.6475468 23.467272 3.0786154
3.9644339 27.893238 2.1793373
3.9440992 27.985569 2.1636057
4.5711141 26.265388 2.9156713
4.5466757 26.379126 2.8655596
5.6500759 23.392292 2.6426411
4.5798454 26.896927 2.377908
5.672482 23.900322 2.1604707
4.4770536 26.489717 2.3681228
4.6340723 26.133884 2.8605607
4.7641768 25.800919 2.9432337
5.8035436 23.088665 3.0181534
4.825202 26.32382 2.355752
4.2409096 27.59437 2.2511206
6.2395906 21.897547 2.5296552
3.9553831 28.458754 2.3459787
6.5610065 21.680336 2.5694263
5.6476092 23.580366 2.4676259
5.6356745 23.590706 2.7967241
4.8467178 25.660141 2.8661013
5.0502582 25.098799 2.9860716
5.5793123 24.092928 2.2644396
6.5571499 21.699562 2.6649609
4.8779387 25.381525 3.0205066
5.5596919 23.903122 2.1505179
5.5963097 23.647984 2.9729524
4.9285936 25.290388 3.0127769
5.1408949 24.789339 2.6351986
5.0543208 24.976719 3.0708945
5.0515876 24.991648 2.5556149
3.845134 28.266108 2.3323152
4.4880419 27.097666 2.5489085
4.8551197 25.498863 2.6440992
6.5171285 21.885963 2.763483
5.5587115 23.885773 2.2521093
4.3607397 27.285418 2.2561538
5.8446159 23.568695 2.1541266
5.5127959 23.5383 2.2381127
4.6545277 25.995317 2.7500215
5.1707535 25.295073 2.4426029
5.5186858 23.525501 2.5828593
4.5598621 26.298332 2.55125
4.6721601 26.030104 2.8572767
4.8666959 25.613783 2.949847
6.1387148 22.817192 2.2449384
5.0706844 25.588778 2.4473403
5.8334188 23.570135 2.2766178
5.294373 24.423443 2.9897652
5.3296947 24.321848 2.9889705
5.3721104 24.112926 2.7520204
4.9838929 25.09778 2.2728674
4.4698544 27.207411 2.3630371
4.7623363 25.780104 2.8839905
4.8572826 25.59333 2.6672492
4.8766394 25.458467 2.9277139
4.9540849 25.281935 2.6573875
5.0131235 25.106781 2.9640298
5.0634489 24.984768 2.7592978
5.0512614 24.954296 2.9740396
5.9123802 22.375469 1.9683101
4.048357 28.289015 2.4380493
4.5276175 26.147089 3.0392702
4.2462068 27.186954 2.6790552
4.2700505 27.18454 2.0868318
5.8577094 23.501595 2.3460004
5.8763933 23.523857 2.8442521
5.8678503 23.490772 2.5559552
5.0469298 25.180336 2.2531183
4.3370237 26.972406 1.6524503
5.028636 25.684654 2.8845296
5.9655857 22.980942 2.2607656
5.8376989 23.583658 2.7399633
5.919692 23.320284 2.7257652
5.7690372 23.489235 2.245225
5.7721033 23.369688 2.3703043
3.8576047 28.192606 2.3608375
6.1761351 22.536259 2.154489
5.9820466 22.900007 2.4514863
5.8476682 23.570414 2.6513138
5.2213988 25.274637 2.5380113
4.2470484 26.882292 1.9533569
5.988934 22.898716 2.168273
5.7923942 23.529203 2.1552882
4.047328 27.598154 2.6340275
3.9432878 27.695824 1.9506539
5.6604519 23.991936 2.5431592
5.4667134 24.4937 2.4681895
5.2523065 25.092487 2.4597769
5.8318686 23.587971 2.3611319
5.7137933 23.268402 2.8621449
5.8336825 23.578684 2.5602081
6.6501837 21.402359 2.5519781
5.4826012 24.50996 2.6506898
4.7592835 25.783855 2.5580428
4.2932653 26.684963 1.8762151
5.0681086 25.095032 2.360461
4.6879025 26.492382 2.6399541
5.872715 23.302786 2.3594987
4.1841187 27.694839 2.4408205
6.5959806 21.495647 2.7692842
5.973196 22.495634 2.1629801
5.5335155 24.237181 2.6275587
4.4396782 27.19138 2.2919443
5.9367766 23.132969 2.7148728
4.7747927 26.382801 2.4553213
5.2888455 25.00285 2.6469367
5.9917598 22.397568 2.3555624
5.9537568 22.366032 1.8448505
5.274466 24.294651 2.055243
5.9702268 22.500629 2.4570019
6.254385 21.870987 2.6634111
4.5669231 26.691559 2.3606403
4.1621118 27.015377 3.0162807
4.4547892 26.602524 2.8390245
6.4969497 21.479389 2.7653813
4.9893618 25.59338 2.1500993
5.7658896 23.46966 2.7820747
5.6744938 23.514103 2.7620029
4.0862913 27.997669 2.7640929
3.9923809 27.69515 2.25594
6.2893581 21.595297 2.2646413
6.3528605 22.178646 2.0765235
3.8611026 28.206154 2.6248074
4.5933194 26.820379 2.547106
5.8390069 22.591461 3.0442333
5.8804531 22.593626 2.5487845
5.966291 22.495155 2.5403819
6.3312926 22.538841 2.0570164
5.7056971 23.669867 2.1825354
5.7660298 23.602493 2.5557361
4.8709273 25.183357 2.0751424
4.0982814 27.903877 2.2555749
5.4708376 23.991018 2.5605936
4.1777363 27.304161 1.8670945
4.394074 26.598124 2.362251
4.2246041 27.852186 2.4919767
6.7027345 21.20447 2.149755
4.9836159 25.611029 2.2617917
4.6836705 25.895391 2.0820889
4.9563789 25.897303 2.0686924
4.3551974 27.484299 2.3528147
5.783205 22.998417 2.1653304
6.0760131 22.193806 2.4576616
4.0567212 27.479576 2.682739
4.4430795 26.569668 2.6611421
5.7734537 22.993641 2.4545627
4.7461548 26.123819 2.7916324
5.1791005 25.104486 2.5654101
5.5295429 23.557781 2.8163946
5.801311 22.811392 2.2645721
4.0891495 28.078701 2.7765603
5.3626499 24.795755 2.6586168
5.7205381 22.965189 3.2539246
5.757462 22.877069 2.9516318
5.8206296 22.930794 2.7165711
5.9584274 22.686882 2.6560531
5.1702056 25.093899 2.6545327
5.7935925 22.793736 2.6554868
5.782855 22.789532 2.8542793
5.0694914 25.295259 2.5582151
6.0658278 22.19652 2.5548661
4.6421747 26.208588 2.539556
5.7649899 22.991173 2.5573769
6.6900768 21.094419 2.4418445
5.85324 23.064182 2.7187066
5.5725007 23.304569 2.9477146
5.8414478 23.084679 2.6490419
5.7268462 23.165035 2.9581416
5.5951037 23.305279 2.8537815
6.280848 21.583595 2.7466249
4.4526811 26.596869 2.5594459
4.8891406 25.829681 2.1438646
5.774384 23.304996 2.376802
4.1248446 27.048931 3.2240393
4.2338791 27.867558 2.2524033
6.0947618 22.014767 2.5680373
5.1963239 24.407261 2.5634956
5.0110898 24.826759 2.5988796
5.3550739 23.993629 3.0437346
5.3879862 23.997065 2.4545727
4.3901024 27.399923 2.5430107
4.0524082 27.586033 2.5596347
5.7509351 23.00598 2.6625092
4.9831629 25.506741 2.6527448
4.9378834 25.009359 3.1387482
5.6503258 23.182205 3.0588467
5.672565 23.204502 2.5572152
5.7898417 22.699724 2.6044905
5.552062 23.981789 2.262635
5.7298932 23.04834 3.1663067
5.6842637 23.09919 2.6634064
5.2739735 24.201767 2.6618927
6.0843964 22.901287 2.6579063
4.6986494 25.635586 2.5520363
5.8471403 22.869081 2.6542561
5.8615794 22.816595 3.1722312
5.8230839 22.889977 3.1567817
5.2591143 24.193851 2.853205
4.3678241 26.696274 2.4560404
5.1789107 25.2955 2.568207
4.5479813 26.791039 2.2554722
6.461761 21.884596 2.1594458
5.253952 24.191505 2.9448504
5.2749333 24.099352 3.0679905
5.7956691 23.384926 2.5871952
5.8048921 23.415615 2.099494
4.6854324 26.389072 2.3584902
5.1794815 24.995304 2.455775
6.1788683 22.278843 2.7497919
3.9106667 27.800926 2.3654599
4.887177 25.300964 2.4553809
5.4293079 23.680183 3.0750618
4.3568735 27.203714 2.2544467
5.2736521 24.692165 2.3551741
4.2624111 27.277004 2.3665359
5.1481609 25.284637 2.282351
5.759378 22.899954 2.8598859
5.7722058 22.999763 2.3585129
4.5759859 26.875999 2.4537606
5.2209249 25.390114 2.1202755
4.5084863 26.816572 2.0866311
4.7797203 25.896074 2.663352
4.7553325 25.978691 2.4459145
4.1428351 27.105062 2.09108
6.0535321 22.49404 2.4409821
5.6585293 23.186005 2.8739457
4.989192 25.049641 1.9863575
6.362236 22.200218 2.1630955
6.4689283 21.594137 2.6548254
5.7867427 23.319221 2.6445367
4.4162512 26.21118 3.002527
6.4855914 21.593733 2.5737042
5.161541 24.512869 2.7506018
4.1593494 26.889229 3.1514044
5.78267 22.694229 2.0436628
3.9117506 27.717175 2.0533149
3.871707 28.155912 2.5726006
4.0600543 27.778126 2.5617003
6.3446245 21.944916 2.6470871
4.8956685 25.084063 1.954488
5.4227533 23.662117 3.2299581
4.2086911 26.919641 2.8580174
4.9951425 24.820589 2.851166
6.4505849 21.701099 2.5450587
3.9557447 28.368132 2.3811283
4.8567748 25.574093 2.5424922
6.5581713 21.383965 2.5650001
5.2080631 24.323582 3.0377305
4.2643719 26.994545 2.4515634
4.647903 26.193789 2.3609862
4.3277597 26.685936 2.0976868
6.5306101 21.801395 2.3897905
4.6276994 26.170471 2.7477236
4.8302436 25.305374 2.927115
4.3131475 26.603594 2.9056685
4.8569989 25.484016 2.2608194
6.5979958 21.397484 2.3540485
4.1619124 27.309774 2.6645181
3.7762306 28.292976 2.3638461
6.1484628 22.202177 2.5529757
6.1854343 22.298002 2.3605833
4.2071605 27.11187 2.258564
4.058609 27.586382 2.3598082
6.5520821 21.168734 2.1927023
4.6535759 26.098154 2.459516
6.1695089 22.395208 2.4452331
4.3170691 26.640041 2.5408657
4.8590589 25.481684 2.0636044
4.0991697 27.922974 2.722774
6.353343 21.285585 3.0571847
6.3288999 22.262581 2.1993144
4.3433375 26.993095 2.5528445
6.5661373 21.402241 2.6511047
4.5612345 26.19615 2.4664171
4.278471 27.09276 2.569278
6.3574643 21.289852 2.808399
5.2699623 24.084091 2.9411058
5.6735377 23.291601 2.0733297
5.6419249 23.603371 2.656991
4.7543082 25.684608 2.6512592
3.7467947 28.284899 2.6676729
5.3055902 23.998983 3.0783238
5.0494738 25.609238 2.2782459
5.2893777 24.111008 2.5723076
5.3015857 24.094704 2.6411023
4.2066517 26.915527 1.9736247
4.8455281 25.261139 3.0567532
5.8276863 23.577654 2.4618604
5.4529562 23.689665 2.8774762
4.7699313 25.69142 2.4621215
5.3032708 23.924421 3.2070441
5.9111748 22.413906 3.0527294
5.2990332 24.041517 2.8758087
5.9063816 22.410357 2.8688543
4.7681003 26.09166 2.4562631
3.9266822 28.480938 2.2586648
6.5022659 21.625648 2.463609
5.7577467 23.872849 2.1411691
4.6846538 26.398113 2.1455441
6.4042969 22.131012 2.8702877
4.1539197 27.89571 2.3647959
5.3506074 24.506973 2.6659009
4.5648751 26.98621 2.1703427
4.7537313 25.896545 2.2561913
4.7935147 25.40884 2.9406426
5.398489 23.816389 2.761183
5.6999393 22.995041 2.5753253
5.4808383 23.79278 2.2653563
4.7991447 25.389111 2.8465128
5.3419805 23.954548 3.1589191
6.072566 21.993286 2.8518896
5.3699493 24.481419 2.5467093
4.3790817 26.98838 2.7509677
6.1922865 22.269815 2.6514368
6.361537 22.000914 2.3569756
4.8850927 25.084375 2.067347
5.8517494 22.590313 3.1433909
5.5190973 23.41254 2.881048
4.2583585 27.094383 2.3540347
6.374588 22.077656 2.4394813
4.0968471 27.291813 2.2772772
5.5750284 23.995863 2.4442194
4.9759874 25.792246 2.3566387
4.2888584 26.714289 2.9501908
4.4060764 26.295124 3.0843468
5.298842 24.101557 2.7717843
5.9509048 22.999638 2.3516576
4.444448 26.689964 1.5193236
5.6631246 23.302069 2.4619608
4.0641575 27.885483 2.5766978
4.6525483 25.805546 2.7674799
5.9776883 22.806536 2.5636139
6.4905734 21.795124 2.1588945
4.1653037 27.3857 2.5343144
4.2996445 27.413967 2.2649627
6.3601809 22.172997 2.4691176
4.3761401 26.602551 2.1658928
4.183639 27.20146 2.2768412
4.1528492 27.382322 2.260536
4.3768935 26.594946 2.5605242
5.8912048 23.006041 2.6478534
5.0528316 25.1866 2.5719118
5.8424344 22.679237 2.8670356
4.0361738 28.1199 2.5628889
4.3839631 27.386795 2.3650041
3.8922889 27.989574 2.1776705
4.2237201 27.916296 1.9339423
4.1470685 28.085239 2.0665054
3.8829296 28.408636 2.2444143
5.4506931 24.311558 2.7067733
5.0992827 25.405773 2.4727178
4.8523569 25.289177 2.8636713
4.2618456 27.584938 2.1607194
4.9608021 25.879948 2.6530647
6.1878896 22.287462 2.5569942
5.3772144 24.395838 2.5669641
4.2520418 27.188286 2.5466268
4.4694948 26.572498 2.0454769
4.35919 26.597017 2.0664136
5.2932386 24.011009 2.7362425
4.1485219 27.387199 2.1669874
4.7615023 25.892019 2.4429393
5.7783151 23.396585 2.1690788
6.4093428 21.043797 3.353704
6.3873448 22.084639 2.544724
4.9512463 25.288937 2.4638412
6.0649934 22.896923 2.3486433
5.4326968 23.684757 2.9598246
5.0090842 24.829121 2.694447
4.1376138 27.817032 2.4522402
3.7464802 28.390898 2.6795559
5.07166 24.893068 2.5598905
5.7418027 22.880804 1.9765093
4.7029805 25.536177 3.161309
3.7582989 28.195503 2.6443455
6.4827123 21.792664 2.379343
4.5482421 26.812759 2.345741
6.1865439 22.292929 2.1763625
6.571744 21.595867 2.4603126
3.9838977 28.005316 2.646528
6.178709 21.70031 2.8801768
6.0647845 22.205679 2.7402837
6.2059894 22.295063 2.440048
6.2670903 22.282495 2.4515257
5.8928661 23.095842 2.547358
4.6685748 26.604811 2.6600275
5.6685319 23.295248 2.2649262
4.1058803 27.902924 2.3587861
5.1411715 24.492439 2.8389659
6.0689168 22.026619 2.9487164
4.5537319 26.386982 2.7379956
5.9717164 22.378363 1.9915721
5.6760068 23.296324 2.1751792
4.7894692 25.590981 2.271112
5.7756882 22.876848 3.2286561
3.8650141 27.909691 2.0628488
4.8628292 25.681791 2.450856
4.7856798 25.602823 2.1676655
5.6013994 23.328444 2.3590279
5.1769671 25.203962 2.4488497
4.8486438 25.698151 2.7294643
5.8946214 22.489109 2.7756991
4.1613073 27.488922 2.6554396
5.0877032 25.507746 2.4689007
5.7593913 22.889671 2.0427969
4.1422524 27.49033 2.26985
5.77209 23.700954 2.4523106
5.9774914 22.877285 2.5942464
6.1757731 22.589298 2.4655945
5.8500214 22.480391 3.2663417
5.8600879 23.295504 2.2754314
6.152894 22.407623 2.7499156
4.6770639 26.315792 2.2494574
5.9266076 23.286728 2.1380281
4.5325603 26.480177 2.1810057
5.3760271 24.498676 2.168885
4.6560268 26.094612 2.7803526
6.1549077 22.214758 2.1637266
5.2818213 25.001209 2.3615546
4.5694981 26.680897 2.0769713
5.7707148 23.506207 2.3504481
5.0137501 24.778843 2.7875121
6.1556334 21.780296 3.0237331
6.28371 21.383566 3.1722178
5.387332 24.694065 2.5674026
4.5885944 26.585316 2.5600235
4.1403942 27.236015 2.054244
4.1860857 27.194389 2.3662739
4.6712084 26.278931 2.4565468
5.7569256 23.471466 2.7013214
4.755126 25.890409 2.7680929
5.8838201 22.606829 2.6477354
6.1532207 22.683933 2.3608379
6.5329514 21.427742 2.4316428
5.4556775 23.917646 2.7735343
5.5632334 23.586237 2.3674359
5.1886392 24.399443 2.770972
5.8669477 22.594629 2.7635231
6.0694818 22.778725 2.4467702
5.0643969 25.102751 2.5701923
4.3012276 26.661852 3.0347621
5.3792572 23.997004 2.5588248
4.1494765 27.174515 1.9575677
4.199975 27.384619 1.9562485
3.6835983 28.404369 2.567662
4.8639774 25.599497 2.3597798
4.3865457 26.600037 2.4542973
6.3649158 22.075624 2.2536926
4.1421123 27.268688 2.0045753
4.3352642 26.593363 1.9002217
5.0560303 25.208771 2.3766978
4.6560469 26.590269 2.156671
4.2675352 27.668041 2.4322977
4.2394671 27.703773 2.2603388
4.0793042 27.527094 1.757461
5.797029 23.396353 2.258991
6.1968818 21.536388 2.9606583
4.3006239 26.713501 2.6665432
5.0565023 25.38418 2.3617418
4.1910539 27.173843 1.5498548
4.8687429 25.883354 2.4490538
5.5728612 23.986059 2.3633709
5.9796929 22.897785 2.2636571
6.3525405 22.190058 2.3816297
4.3790503 26.485743 2.9348016
4.2705479 27.699007 2.1727848
6.1886401 22.393827 2.3680451
3.7565608 28.385929 2.2573028
4.3512969 26.600447 2.775347
5.6923089 23.00416 2.6804516
5.0634217 25.379173 2.5609307
4.6397996 26.191525 2.4518218
6.0415416 22.708525 2.4689324
5.9767761 22.793083 2.6462274
4.547771 26.481775 2.4599967
5.0567827 25.290018 2.451427
5.368309 24.398441 2.4675508
4.3824859 27.392267 2.065975
4.115222 27.192453 2.0239027
5.897675 22.390192 2.9419978
4.091732 27.125185 3.1477392
3.9629405 28.064674 2.454525
5.9965034 23.072044 2.6275086
5.8784738 22.978138 2.5607271
6.2418528 21.590744 2.9651923
5.4594297 24.395315 2.6399691
5.9698758 22.404198 2.0638211
4.3353877 26.989122 2.4662783
5.6665759 23.989613 2.3453825
4.3879175 26.842508 2.7334809
5.4537387 24.300795 2.8524849
5.4813004 24.307224 2.362546
4.9572802 24.966885 3.0694592
5.7701249 23.863392 2.0562098
4.3918853 27.379919 2.2742424
4.6605902 26.088882 2.3644063
4.3777947 27.115629 2.3637688
4.3495231 27.097553 2.7733099
5.0457788 25.907253 2.0878277
5.3788052 23.801876 2.9970436
5.0446191 24.885426 2.7370315
5.4269042 24.332487 2.7548726
4.8627124 25.598495 2.271951
5.3824692 23.835579 2.6632082
4.6478982 26.268091 2.3583019
5.2430077 24.177385 3.1379268
5.6843891 23.88966 2.3453629
5.0851641 25.276497 2.2643723
4.5721326 25.943043 3.0690861
6.3922367 21.711586 2.6590736
4.4605589 26.785015 2.3577325
5.6904874 22.993624 2.9504099
5.6024966 23.405384 2.4671202
5.3075829 23.999069 2.9535475
5.7795253 23.391047 2.4647985
6.0562057 23.044704 2.7299058
3.7666683 28.170895 1.9476695
5.3436308 24.892693 2.6737144
4.2480736 27.507423 2.4385378
3.9561796 28.294466 2.5681572
5.0616932 25.102842 2.2680054
6.0216899 23.146879 2.4191976
4.871768 25.899912 2.5667024
4.1397033 28.079348 2.480674
5.2703552 24.585838 2.7667043
4.8761153 26.098751 2.5470805
4.6748824 25.701431 2.7531173
3.9079177 27.793217 2.5617533
6.1461897 21.780359 2.9591069
5.3705006 24.860813 2.7189445
5.2817254 23.993891 2.0414617
4.7700758 26.195215 2.1679041
5.1614037 25.279016 2.6491373
5.9613137 23.189306 2.5566065
5.9683161 23.203747 2.3767292
5.8845577 23.189325 2.3766084
5.8794584 23.189539 2.4558423
5.9686446 23.478659 2.0259056
4.0795145 27.299015 2.7594821
3.8780894 27.780027 2.8693449
3.7322679 28.389885 2.7276425
4.9530334 25.201813 3.0417576
5.8717365 23.199936 2.1592319
6.0589652 23.229591 2.0840101
5.878664 23.194695 2.2481823
5.688024 23.816458 2.1687145
6.1549907 22.088295 2.0658598
5.9695468 23.470222 2.1537857
5.757977 22.902687 2.7593763
5.5973425 23.13937 3.1487017
4.2930555 27.417227 2.0603316
6.6196318 21.85907 2.1371796
3.8984871 27.803305 2.6511884
5.955811 22.286402 2.9636562
4.4905934 26.208738 2.7652063
6.4527736 21.785107 2.5381432
5.2559886 24.186533 3.0597544
5.2215276 25.170401 2.2572579
5.2630343 24.612774 2.646059
6.648376 21.295385 2.5715618
4.3502984 26.608358 1.9681699
4.9667215 24.978151 2.9641929
4.8560119 26.371998 2.0937154
4.7655859 26.19607 2.4396634
5.280889 24.220303 2.1543744
4.8719745 25.794659 2.4632511
5.5458484 24.391266 2.4552441
5.6925735 22.985847 3.0709796
6.2902794 22.019068 2.5697851
4.4505057 26.934387 2.5973701
6.256691 21.978863 2.1566148
6.030333 22.116701 3.254384
5.3952551 23.713316 3.0618482
4.5006776 26.195248 2.470521
5.5545516 24.295547 2.3484869
3.7996707 28.079355 2.2726026
5.3428411 24.796844 2.2664592
6.4449406 21.108868 3.0004065
5.0614328 24.694332 2.9572444
5.3035688 24.210707 2.3614964
6.2249537 21.975269 2.2825065
4.9889445 25.257099 2.7321062
5.2750368 25.192276 2.0617304
5.3312001 24.885775 2.2879059
5.6996093 23.013121 2.7795172
5.3723836 24.092493 2.1719728
4.8029199 25.222486 2.0929124
5.392067 24.699049 2.4651294
4.9051003 25.024837 2.89116
4.1891623 26.993904 2.7792048
6.0639663 22.990442 2.6487291
5.6883941 22.997335 2.858331
4.9003816 25.013515 2.9752841
5.3662062 24.092096 2.4517913
5.280158 24.172071 2.7634563
6.1091371 22.603048 2.3687973
5.7362614 22.984711 3.0554972
6.0636821 22.670801 2.7158151
6.1533804 22.000418 2.6575
4.9090471 25.002348 3.0580187
5.7563434 22.785074 3.1280851
4.5531421 26.800337 2.0704679
5.4819846 24.407547 2.0697818
3.891247 27.906717 2.3628802
5.2679749 24.585304 2.5691957
5.2661781 24.588703 2.3720365
5.3321667 24.88743 2.460223
5.0291529 25.169706 2.1652367
4.9926634 24.79491 3.0479093
6.1684084 21.680901 3.1513143
5.3317127 24.888788 2.3656406
6.0537171 22.181469 2.9389689
6.5704365 21.578135 2.5436168
4.9509997 25.192204 2.2687221
6.0525141 22.290709 2.6720521
3.8741446 27.889595 2.6497078
5.5478663 24.301859 2.5333645
6.1337895 21.798243 3.3239744
6.1152592 21.803274 3.1508942
4.0863285 27.812069 2.7304354
5.29252 24.868639 2.7688079
5.7762928 22.996571 2.0476913
4.7161331 25.505201 2.9110038
5.534893 23.368578 3.2272391
5.7625198 23.376259 2.6543183
4.7512989 25.891174 2.5383959
6.0515623 22.987408 2.4470952
5.8819065 22.704273 2.4600759
4.9444113 25.203472 2.0709786
6.2652936 21.964659 2.3493419
5.9357848 22.393179 3.2857082
5.2889285 24.920752 2.4486814
6.4479742 22.108942 2.4886622
5.3825312 24.404755 2.1577225
5.2699914 24.892569 2.2590921
5.4789362 24.196787 2.2829709
5.3742809 24.601597 2.36973
5.6701984 23.287086 2.3698828
5.7542491 23.185789 2.6529393
6.5011549 20.873962 2.2553525
3.871294 28.088373 2.2760935
3.9018772 28.386862 2.5934443
6.0818005 22.589268 2.4668314
5.1020536 24.475758 3.2845557
4.35642 27.28141 2.3748431
6.4880075 21.099461 2.1740069
4.9748626 25.370373 2.6555233
6.0825806 22.599442 2.5444992
4.0735564 27.500294 2.3601835
3.7491789 28.213772 2.9429252
4.8539791 25.643139 2.1018751
5.3572764 24.282381 2.1507323
5.0583644 25.610023 2.0659297
4.4304643 26.694178 1.4110069
4.1613407 28.065403 2.1758456
4.1227274 28.054153 2.2897923
5.5184703 23.408035 3.2329154
4.9977522 24.822994 2.9667714
4.0057645 27.360741 3.2060249
5.764195 23.306259 2.562089
6.3405881 21.689199 2.5368433
6.2911239 21.600643 2.3624182
5.6847792 23.698238 2.3492229
5.8513923 22.884014 2.554297
3.9166 28.409189 2.3417392
6.0412865 22.196194 2.868546
5.395031 24.881584 2.0503111
3.7580326 28.160374 2.8722262
5.3858743 24.701195 2.3698888
4.9549017 25.89999 2.4627345
5.182116 24.788721 2.0570898
4.7803111 26.108173 2.2737026
4.3412876 26.669231 1.9653659
4.0852971 27.398315 2.4582863
4.5930138 25.996965 2.5647049
5.8182402 23.71183 2.8484728
4.4650965 26.989454 2.4485567
4.8999057 25.381311 2.9705813
4.8719816 25.511091 2.8826978
5.3384185 24.885998 2.5671556
4.6024036 26.014103 2.3484192
5.1643066 24.86776 2.5379817
6.2833657 21.598572 2.6521835
5.4134402 23.843706 2.4496455
6.225904 22.557367 2.4916091
4.2834592 27.384481 2.465028
4.8350973 26.215439 2.4766471
6.219171 21.50835 3.2612417
3.8963201 27.907417 2.2619901
5.2889023 24.911322 2.3485084
5.294909 24.209208 2.5558207
5.2643294 24.902431 2.564724
5.6763835 23.801622 2.2535212
5.2602167 24.399797 2.5572257
5.8737531 23.191269 2.5444605
4.4750476 26.186043 2.8421116
5.4691973 24.28351 2.4699757
5.9812288 23.19187 2.4508202
6.3569055 21.913746 2.473284
5.2452545 24.48955 2.2545824
6.1636047 21.986006 2.3642018
6.3632097 21.211956 3.0459402
4.6652055 26.705112 2.2488441
6.2730694 22.086178 2.3286407
6.0949578 21.985809 2.6527057
6.4853725 21.098076 2.3613648
4.9701018 25.185123 2.8737493
4.7012 25.692688 2.6528714
4.7646236 26.295282 2.270952
3.9780426 27.503794 3.0482841
5.7885208 23.196587 2.7525702
4.6696634 25.896688 2.3648205
4.653419 26.201197 2.1728616
4.0015488 27.500732 2.7614479
3.953918 28.17761 2.633472
6.1641092 21.999495 2.4575658
6.6836748 21.003826 2.6527181
4.9478369 25.386707 2.1874762
6.1656871 21.992144 2.2701643
4.0028868 27.424307 2.8449657
3.6934581 28.078939 3.075392
3.9854801 28.192585 2.2457719
5.6062579 23.3118 2.5625811
5.3799019 24.766766 2.4839678
4.107482 27.916969 2.1833537
4.4544549 26.69507 2.5400937
6.2787471 21.620049 2.1648118
5.3214216 24.958515 2.502032
6.1713014 21.815958 2.7691543
6.1540475 22.0828 2.2503214
5.2851086 24.606808 2.82162
5.3657875 24.589113 2.4523799
5.1464095 24.485863 2.9558871
6.2948508 21.606985 2.4617248
5.2588892 24.688307 2.5633028
5.7587223 23.070137 2.9427202
3.8785448 27.993155 2.4476788
5.2847266 24.107492 2.8481686
3.9756415 27.590803 2.8511057
5.5390444 23.387823 3.1592569
3.9368165 27.785915 2.7692676
5.1981678 24.301949 2.9458218
6.4259653 22.078503 2.5969861
5.4931822 24.291361 2.2620633
5.9775844 22.968416 2.7371991
4.706193 25.60607 2.4877527
4.9685988 25.18541 2.7394874
5.6846781 23.003397 2.0581696
4.6128654 25.827724 2.0656536
4.58253 26.097441 2.4577413
5.9474688 23.002157 2.5418684
6.1206608 21.896221 2.821187
4.8975558 25.004454 3.1573997
4.064002 27.710453 2.648211
6.2828164 22.296467 2.3712277
5.5571828 24.28476 2.2772019
5.8299427 23.651709 2.7309706
5.2044787 24.410555 2.3593059
3.7330954 28.278223 1.9761277
5.9646158 23.184078 2.2649651
4.0068431 27.411053 2.9783792
5.5429826 24.394987 2.6846497
4.079381 27.195204 3.0268764
5.561121 23.48782 2.7559206
5.611043 23.216061 2.7719777
6.4360294 22.003756 2.1512089
4.6438704 26.704544 2.1421151
4.0651379 27.494976 2.4612651
4.8741126 26.082531 2.1685998
5.2759466 24.598804 2.4426274
6.5324521 21.505882 2.6565671
5.3745127 24.597319 2.2640619
4.3583708 26.693218 2.6623507
3.7093465 28.230345 2.81106
4.5594139 26.602459 2.6711149
4.1770411 27.202894 2.1768308
3.9872327 27.300953 3.1113691
4.6245818 25.677502 3.252037
6.2929425 22.10252 2.0856001
5.6513867 23.100361 3.0665848
5.9759803 22.794306 2.7922113
5.7579403 23.18861 2.266886
6.4750719 21.79735 2.4454741
4.4227428 27.351315 2.4239061
6.168139 21.686831 3.2137566
4.6690626 26.605877 2.5620084
4.2021828 27.623344 2.126987
5.9719682 23.006599 2.4807007
5.9856114 22.305702 2.6492453
3.9788208 27.495867 2.9648259
5.2809691 24.879492 2.6602573
4.141921 27.900515 2.2693982
4.9665089 25.195755 2.6626582
5.5910859 23.319374 2.6716633
4.585691 26.690855 2.4360704
6.6577325 20.873615 2.4794765
4.8404222 25.471691 2.7784598
5.6592126 23.485306 2.4493282
4.9371653 25.148785 2.9113028
6.135407 22.08839 2.6583986
4.1251059 28.085993 2.3971083
4.9450259 25.285191 2.2577999
6.2269092 22.55752 2.6705241
6.4199123 21.038969 3.0597997
3.9853196 27.523838 2.4513187
5.5682697 23.515442 2.5546567
5.539391 24.371382 2.3633261
3.9525263 28.291731 2.6208177
4.6704254 25.897465 2.4579175
5.9227772 23.461571 2.7736287
4.2970924 27.617878 2.9695773
5.0602722 24.870958 2.8642087
4.7502275 25.346703 3.2482519
5.6453514 23.482901 2.3687382
6.2016764 21.710794 2.6751375
4.8311338 26.360708 2.1741395
3.7974975 28.027653 2.6226668
4.9287429 25.492887 2.2019801
6.4439793 21.87991 2.2672687
3.9177129 27.697941 1.8522696
6.3566127 22.088011 2.3757515
4.3500528 26.781832 2.8402872
4.1571217 27.388355 2.3501244
4.7844329 25.413567 1.9657594
5.3534775 24.793409 2.3512809
4.1047559 27.133648 3.0281494
5.1708841 25.225794 2.6541326
5.7251143 23.171112 2.5306778
6.1804781 21.703192 2.0476727
5.6507921 23.491493 2.250056
6.2093706 21.723528 2.5280106
4.862093 25.483793 2.5712564
4.1029134 27.914724 2.4899406
5.8798108 23.296309 2.1569724
6.4524279 21.800762 2.6900856
6.0756803 22.704203 2.37801
4.269443 27.477236 1.9554152
5.4360914 23.77689 2.9450626
6.2412024 22.179352 2.6396179
4.8644743 26.083933 2.373441
4.5523472 26.192629 2.5502539
6.2489271 22.183556 2.3619361
4.3585596 26.797241 2.571851
5.2697921 24.308268 2.5574436
6.1663799 22.082785 2.5624046
5.2808099 24.296587 2.3632514
4.8913612 25.770937 2.3658123
3.869941 28.180859 2.0662336
3.9939177 27.511459 2.839046
4.5387754 26.395348 2.6421945
5.2642112 24.787092 2.5559361
4.6990767 25.710173 2.4660072
4.4602199 26.395334 2.6558681
4.954721 25.294565 2.5589702
5.6732702 23.700109 2.5590124
6.2077937 22.01685 3.0311344
5.7483335 23.196663 2.4665101
6.1959038 21.702883 2.7655849
3.9513106 27.486914 3.1449471
4.3467426 26.558304 2.9473367
3.8571007 28.095369 2.4645841
5.7528405 23.089136 2.3677027
3.8857963 27.708542 3.0520058
4.8892889 25.301647 2.3685043
5.6995602 23.108664 2.5489163
5.2678723 24.671358 2.6447651
5.7578392 23.384954 2.7338583
6.1870399 21.671499 3.1111369
5.7718182 23.100046 2.2636297
4.0041008 27.378407 3.2268634
4.9518495 25.288074 2.3791711
5.4805322 23.532413 3.2533622
4.160985 27.684566 2.5302236
3.9662056 28.089453 2.2572107
5.5594621 24.302958 2.4652529
5.8576741 22.593666 2.8638816
5.4671464 24.313583 2.1632142
4.5853796 26.095139 2.282542
4.0102572 27.44241 2.5391483
4.0399842 27.450874 2.8217478
4.09061 27.398153 2.3596787
5.3066397 24.113132 2.4710851
6.3600197 21.903639 2.3808041
3.7668214 28.004339 2.9527807
6.0366402 22.029518 3.2288427
5.3539667 24.766243 2.0503242
5.2529993 24.394238 2.8891592
4.0353718 27.262798 3.2539465
4.5683279 26.094681 2.5622146
3.9733553 27.583076 2.7616947
5.044919 25.7924 2.1349134
3.8228278 27.994961 2.8469648
5.1626744 25.085056 2.4488773
6.1649275 21.985363 2.5605595
6.1620102 22.090139 2.3633966
4.5610294 26.099009 2.6621709
6.3763685 22.081625 2.0620005
4.0556202 27.187868 3.2552752
6.2924604 22.187868 2.4653478
6.2572565 22.188868 2.2701225
5.5914044 23.196465 3.1482341
6.1747289 21.806889 2.6779673
4.9617515 25.870552 2.5613806
4.1732526 27.785999 2.1693637
5.0836124 24.80323 2.4558187
4.8921204 25.094742 3.058702
6.5164156 21.322512 2.7620099
5.4575748 23.896742 2.3587985
4.8052397 25.413113 2.6569915
4.7091751 25.602371 2.7320986
6.2927608 22.271809 2.5669847
4.0624547 27.298763 2.8678167
4.5856791 26.580162 2.3543432
6.5535393 21.904341 2.2638988
5.3745308 23.901798 2.8536708
6.2941499 21.598093 2.5483012
4.5713863 26.094225 2.1755848
5.0925732 25.210815 2.6669071
4.0570083 28.086229 2.3438263
6.2771349 22.092749 2.2752008
4.5507097 26.487022 2.5639389
3.8712904 28.096304 2.1695213
5.6602225 23.181917 2.7515914
4.7048664 25.575001 2.6636558
5.2574835 24.698017 2.4520788
4.8680706 26.213432 2.0663488
6.3721228 22.084112 2.1485481
5.5534239 23.488281 3.0431488
5.7650833 23.286732 2.4465907
4.6660247 25.875471 2.8467851
3.6913741 28.316603 2.8412905
4.2760892 26.801929 2.8344944
6.2834415 21.987 2.636209
5.9942522 23.201591 2.6561689
4.4595046 26.508556 2.1757436
3.9874864 27.521296 2.6661932
4.9590416 25.288872 2.9372683
4.4111967 27.396364 1.9876744
6.2644234 21.964109 2.4358263
5.676898 23.789095 2.3653111
4.3812327 26.697559 1.6288954
5.7467861 23.790077 2.3693135
6.0099626 23.184637 2.8164597
5.7001143 23.80411 2.5611107
6.5731125 21.277935 2.3719845
6.2048874 21.802557 2.4721227
6.4968095 20.886169 2.4452703
5.3671579 24.802757 2.554704
5.455997 23.892481 2.1724663
4.0034323 27.506336 2.5487781
5.7491679 23.187311 2.3511004
6.2409682 21.55205 3.0183752
5.7575879 23.505713 2.5677705
6.1742206 21.730574 1.9919615
5.6287251 23.172848 3.1503944
4.9823437 25.700848 2.3607709
3.7438567 28.086739 2.9513702
4.3874331 26.695312 2.2651856
4.8473334 25.912973 2.6397321
3.848175 28.10812 2.6660056
6.0821266 22.098482 2.564353
4.8154798 25.290379 2.6506524
5.4855795 23.515579 3.157711
4.3909025 26.601053 2.2742696
3.6953962 28.310143 2.7502813
6.2366834 22.191919 2.5929546
6.285615 22.196455 2.1460559
3.7997208 28.102098 2.4601347
4.8455033 26.309202 2.2783086
5.6722898 23.205038 2.667284
4.1483226 28.069782 2.5916722
4.3187623 27.591179 2.8318124
6.50425 20.897884 3.2054052
4.006516 28.196774 2.4362316
5.1880856 25.008022 2.17682
6.555809 21.26758 2.5674925
6.4259286 22.072227 2.6566486
4.0008955 27.518766 2.3680997
5.8610148 22.796122 2.2699566
4.3536949 26.973091 2.6375902
4.5783 25.996826 2.6675541
3.9670775 27.687958 2.6588233
6.1504488 22.088068 2.4593134
4.5712066 26.717258 2.5610716
3.8659453 27.724045 3.1421728
4.468617 26.493088 2.2629333
4.4486723 26.775227 2.4401319
4.9791794 25.10029 2.1800644
4.9747367 25.379526 2.5480301
6.3723412 22.012054 2.5575252
6.0594411 23.016052 2.5681081
5.6496277 23.800756 2.4417446
5.4781489 24.40173 2.4485986
4.3484421 26.68293 2.7576728
6.2542472 22.099207 2.6663685
3.6745417 28.38591 2.6572804
5.7570753 23.197151 2.1649671
4.3683195 26.595158 2.6580637
4.3402481 27.276964 2.4633105
4.8859873 25.894197 2.3621001
4.5541334 26.08379 2.8409274
5.5841141 23.488211 2.4563553
4.255765 27.458885 2.580982
4.74157 25.986511 2.623632
5.6610537 23.827595 2.0766242
4.4495497 26.685787 2.4479899
4.5345941 26.045534 3.0249062
6.147943 22.679302 2.8258457
5.0542984 24.704466 2.8620768
3.9017818 27.797768 2.4854078
6.3633757 22.202377 2.5468173
5.6010427 23.308002 2.7743707
4.5598259 26.101665 2.9515195
5.6129413 23.143749 3.0860698
6.5907226 21.282684 2.4400492
6.4923277 20.911646 2.6766376
6.6488028 21.192974 2.6190982
5.4052162 23.73324 2.7541842
5.7501607 23.103151 2.5609262
5.0095239 24.911367 2.2850826
5.7596521 23.156607 2.846874
6.6418371 21.214066 2.5657806
4.9376302 25.904221 2.2583199
5.3662901 24.386852 2.3491309
3.8621447 27.914972 2.7526693
4.1809063 27.571018 2.4572532
5.8614488 23.178997 2.718617
5.1256361 24.571642 2.8497062
5.3939867 24.608192 2.5639205
4.3786101 26.486639 2.8645396
6.0497646 22.993446 2.3408952
5.8540764 23.186314 2.6622052
3.9656653 27.796009 2.3599312
4.4337263 26.380066 2.8719754
5.2487373 24.684219 2.7519357
5.8544126 23.26716 2.6166286
4.2657337 27.504944 2.0733514
5.4438953 23.780687 2.8336253
5.4767351 24.310663 2.0629663
6.1583157 22.506069 2.4604864
5.5620818 24.080767 2.4531033
4.6850047 26.408215 2.2549851
4.3699145 26.69906 2.3671272
4.2090535 27.018356 2.4587421
6.1101422 21.84226 2.9060495
5.7273722 23.109722 2.7718627
5.3465753 24.274811 2.3673573
6.6579847 21.190029 2.366349
6.1642914 22.498974 2.3525782
4.8879595 25.901939 2.1504118
5.7301116 23.052794 2.8894687
6.2041488 21.800905 2.3692849
6.115099 21.840649 2.7920339
4.6807871 25.715466 2.8616314
3.7060864 28.22501 2.8630149
4.2507305 27.190737 2.7402759
6.1954799 22.16501 2.7511528
5.6612849 23.490192 2.558418
5.3624077 24.410421 2.6530504
4.6625214 25.682234 2.9571226
4.1410937 27.923229 2.7261517
4.9875784 24.899408 2.7745938
4.7001934 25.535118 1.9789206
4.1945763 27.00445 2.5729311
5.6510992 23.489002 2.6672473
4.253273 27.29327 2.6417069
5.1771469 24.592649 2.4568079
4.8428049 25.822269 2.6625838
6.5231848 21.760679 2.1474476
5.7620177 23.086847 2.4626734
5.6148629 23.397808 2.17735
6.1486592 22.087181 2.1703541
6.3877048 21.979723 2.0922809
6.2554059 22.105139 2.5703049
5.4648376 23.701683 2.7570271
3.92011 28.331059 2.8182771
5.5606341 23.394501 2.9445882
5.1943316 24.493397 2.1746373
5.9497585 23.294857 2.4580889
3.9978685 27.609287 2.4637351
5.7667842 22.946943 2.7408931
4.2601004 27.489405 2.3554683
5.3061123 24.129835 2.3495491
6.0799251 21.994844 2.7791438
4.3614349 26.688654 2.5541675
6.4816532 21.192751 2.1804233
5.0406518 25.085146 2.0519021
6.2916694 22.339365 2.6808019
6.1632566 22.597809 2.5652215
6.3920412 21.820848 2.6856906
5.5239453 24.369799 2.3019021
4.2036686 26.893856 2.9756062
6.1001973 21.837921 2.9209137
6.1043234 21.937382 2.5857353
3.9954062 27.355616 3.0357099
5.6553378 23.193701 2.9515121
4.263319 27.504868 2.2687685
5.6557617 23.507381 2.074914
4.0034542 27.296841 3.2560828
4.9746804 24.993708 2.6660998
6.0977502 21.911001 2.7520642
4.2912159 27.602903 1.9776369
4.2929292 27.374352 1.9553515
6.179636 21.694397 2.9660234
4.9687862 25.701412 2.1473374
5.476634 24.196358 2.457546
6.0763912 22.814848 2.3638563
5.8719492 23.092361 2.4630392
5.326129 23.877581 3.1455636
5.6622939 23.09169 3.1623542
4.8500824 25.483885 2.4592729
4.1852641 27.001961 2.8600061
5.8537583 22.558472 3.3030932
5.4809299 24.301529 2.5727525
6.5418134 21.4923 2.3785012
4.6782875 26.494942 2.0769625
4.2489791 27.268585 2.4723039
5.9111695 22.430441 2.7574651
3.9606652 27.884136 2.2701585
5.0515728 24.633909 3.1778674
3.6933069 28.182268 2.9654348
5.263905 24.804161 2.4610434
4.4413977 26.923592 2.6527932
4.3525796 26.890223 2.3647873
5.4597764 24.186581 2.5609648
4.0095048 27.412289 2.7294796
4.298573 27.406637 2.554409
4.6303697 26.412926 2.8130815
6.1010709 22.107365 2.3634181
5.9581523 22.317137 2.8691778
4.766026 26.197124 2.55424
4.8579617 25.677284 2.3548844
6.4705195 21.485142 2.6534145
5.0563812 24.57309 3.298197
5.5828061 23.29549 3.1566803
6.0963397 21.906961 2.6964157
4.2885828 26.707598 2.7624886
6.4387817 22.057602 2.7801437
5.3025961 23.936354 3.3563805
5.6895046 23.691059 2.4385471
4.0137286 27.440887 2.4921079
6.3923039 21.812019 2.365551
6.223475 22.255817 2.7413168
5.4774237 23.804335 2.1788993
4.6550741 25.996866 2.3595169
3.9079909 27.698826 1.9532245
5.3480344 24.187792 2.4531298
4.9892621 25.000021 2.5573018
5.711957 22.926672 2.6607931
