# .PCD v0.7 - Point Cloud Data file format
VERSION 0.7
FIELDS x y z
SIZE 4 4 4
TYPE F F F
COUNT 1 1 1
WIDTH 1582
HEIGHT 1
VIEWPOINT 0 0 0 1 0 0 0
POINTS 1582
DATA ascii
26.159311 28.188339 -1.7165734
28.606054 28.86541 2.3470304
26.568171 28.466427 -1.241307
25.981869 28.28706 2.6678638
26.719461 28.661566 3.3370471
25.953091 27.734262 -1.9408753
26.200233 27.614998 -1.7293539
26.057186 28.191902 0.15782492
28.457417 28.779383 1.7693639
26.167931 27.796404 -1.133489
26.392838 28.222313 -0.85685664
25.998526 28.259697 2.2107248
26.271263 28.409376 3.070394
26.171078 28.20785 -1.5409346
26.196083 27.803175 1.259169
27.589693 28.467812 2.343318
27.074453 28.207718 2.6642509
26.153927 27.888699 -1.0398996
26.090027 27.814665 0.97285843
26.201799 27.701252 0.25765124
26.061769 28.094198 -1.3367851
26.089916 28.378981 1.7904402
26.226433 27.999216 -2.0212879
27.353985 28.427105 1.4648824
26.373394 28.358564 0.76547557
26.387493 28.372255 0.86714751
26.177347 28.269712 -0.63395888
26.200504 27.622326 -1.1386141
26.463655 28.31225 -0.73751926
26.361458 28.215353 -0.363662
26.045132 28.106037 -2.0262141
26.769194 28.493641 2.5649333
26.146975 27.987728 -1.1275015
26.115269 27.891392 -2.8515344
26.463194 28.287954 -1.5343812
25.998428 28.13269 -2.0209916
26.30262 28.388716 -0.70794892
26.082878 27.889315 1.2794135
25.99423 28.11688 -1.4254669
26.442562 28.419809 -2.3315697
26.07082 28.197844 1.659384
26.208548 27.610977 -2.0592732
26.552555 28.492968 2.6498597
26.143839 28.081337 -0.42786953
26.160511 27.889275 -0.13957882
26.068672 28.191395 1.1609004
26.1912 27.801733 1.4649079
26.203518 27.69857 -0.035234429
25.855976 28.210281 1.9690417
26.071609 28.195417 1.5633429
25.99593 28.119709 1.7564266
26.191591 27.796476 0.56199592
26.118908 27.827896 -1.0520241
26.575197 28.470707 2.0501628
26.378607 28.365971 1.0616791
26.476933 28.390017 -1.1331369
26.223827 27.99868 -1.7313521
26.003345 28.096283 1.2632953
26.204721 27.692398 -0.23158051
26.276257 28.384821 0.048426114
25.99276 28.18152 -1.442755
26.097614 28.00971 0.1600918
26.075457 28.259403 1.4572338
26.291227 28.210443 -2.265218
26.171103 28.047241 -3.2901618
27.668171 28.475744 2.5557332
26.338982 28.401608 3.0646458
26.149784 27.894447 -0.84002042
26.069826 28.190168 0.85846847
25.951487 28.019308 -2.4774446
26.658152 28.410406 2.3627551
26.185402 28.399208 2.4706705
27.021097 28.773846 2.5773573
26.274952 28.370008 0.56056452
28.565256 28.794161 2.063267
26.061531 27.804535 -2.4280667
26.090467 28.261745 1.2576456
25.990646 28.122105 -2.3587999
26.099426 28.000395 1.263266
27.676636 28.547874 1.6824152
25.847248 27.961615 -1.6394463
26.098446 28.004915 0.062293887
28.561989 28.810501 1.7533461
27.849873 28.828766 2.2543194
26.139048 28.351664 -0.11158752
27.286661 28.502638 1.7574401
28.495365 28.771326 1.8809553
25.996664 28.260424 -0.63024807
26.475449 28.373905 0.36766669
26.160971 28.49272 -1.674736
26.770227 28.585932 2.8608031
25.842474 27.917326 -1.742344
28.271288 28.998434 1.8791512
26.371323 28.361931 -0.64923567
28.654922 29.118889 1.7507114
26.043865 28.084003 -2.3308601
26.180662 27.799725 -0.33958799
25.986135 28.096062 1.6602975
26.25786 28.223845 -0.15061519
26.262003 28.563231 0.17636926
27.28088 28.501053 1.8586969
26.456902 28.323124 0.45354229
28.371494 29.070139 2.0618265
26.369814 28.306166 1.8578088
25.912735 28.222353 -1.3427352
26.382389 28.362316 -0.4342576
26.268925 28.284069 0.76022702
26.38636 28.364429 0.46290699
26.267321 28.304842 -1.4442177
26.373644 28.367239 -1.3547859
26.376896 28.366568 1.7572308
26.180679 27.798124 -0.43864328
25.996975 28.121162 -1.3266797
26.0804 28.273409 1.9672555
26.013594 27.92606 1.0966682
27.076595 28.608089 2.6654141
26.534292 28.495451 3.0721741
28.328146 28.641138 2.3652306
26.496658 28.462778 -1.7497023
26.277044 28.291489 -0.62975007
26.248064 27.698606 -1.7443285
26.001665 28.080791 -2.2017326
28.167858 29.119627 3.0691364
26.139284 28.103252 2.1474342
26.193237 27.605139 -1.9551284
26.178675 28.276716 1.8611996
26.155334 27.884684 -1.6370113
26.162508 27.894464 0.65634447
28.763536 28.958418 1.5427252
27.607821 28.780424 2.835772
26.569626 28.47909 1.4640417
26.104839 27.921967 -0.32921135
25.995062 28.104734 -1.7320048
26.371609 28.374249 -1.7461501
26.204357 27.703569 -0.13993709
26.09201 28.258099 -0.74226898
27.159416 28.316196 1.8663744
26.362385 28.311705 -0.14206862
27.279921 28.498367 1.6572567
25.990437 28.260201 2.7412007
26.100758 28.266851 0.96094173
26.072334 28.26981 -1.8440038
26.122673 28.098986 2.6440673
25.997471 28.148724 -2.3463163
26.103909 27.913774 -0.53965884
26.123108 28.042427 -2.4234431
26.105944 27.90802 1.8517764
26.072712 28.196556 1.061286
26.370111 28.30854 1.4561914
26.185568 27.800749 0.26169708
27.848301 29.007469 3.0284543
26.161097 27.890745 -0.039950106
26.17049 28.193333 -1.8411759
26.273384 28.288881 0.26066288
26.188215 27.705507 -2.1230862
26.069326 28.193712 1.7606294
27.170418 28.619293 2.4547524
26.2682 28.28871 0.6616146
26.137653 28.088333 1.2686847
26.370262 28.397587 2.7692244
26.070297 28.101147 2.1570466
26.372997 28.372866 -1.6322793
26.363651 28.307285 -0.74307483
28.968683 29.398396 2.7722304
28.402605 29.173363 2.6893651
28.068489 28.901905 1.7868741
26.144278 28.083775 -0.045589935
26.077515 28.099642 1.8587462
26.282925 28.342972 -2.5620832
28.386793 29.232498 3.2180231
28.962978 28.991049 2.0524111
26.06152 28.189016 0.55717474
29.378109 29.099033 1.8883761
27.276716 28.30055 2.5562923
26.000105 28.09099 -1.9289483
26.188971 27.799234 0.6578387
26.605711 28.546482 3.0689225
26.11433 27.824762 -0.94787073
26.092793 28.015717 0.96438229
26.161236 28.21007 1.7606254
26.505085 28.469158 0.60438609
26.139252 28.081833 1.4667672
26.379454 28.377539 0.26826063
27.8011 28.945568 2.6615672
26.370853 28.230438 0.25299343
26.158926 27.890829 -0.53814423
26.098827 28.008789 0.26369348
26.145813 27.890768 2.3553882
26.003851 28.174137 -1.1436779
26.372065 28.304174 2.0501359
26.093307 28.013382 0.35959184
25.993237 28.101782 1.8670243
26.240229 27.791985 -1.5298994
25.992626 28.282469 3.1686449
26.151123 28.097813 -0.34447107
28.550226 29.123055 2.0641062
26.253115 27.687271 -1.4463867
25.970179 27.903217 -1.1129696
26.099459 27.914555 -0.14513218
25.994541 27.988897 -3.0318828
26.078043 28.0987 0.56445682
26.18594 27.79841 1.6591926
27.077236 28.215261 2.5547249
28.563995 29.114021 1.9598604
26.07266 27.998116 -1.5376223
26.000505 28.132404 1.3885291
26.635027 28.459845 -2.7871206
26.957977 28.241375 1.8003299
27.362297 28.317936 2.6605043
26.415453 28.492085 2.6946273
26.142033 28.087519 -0.64025009
25.993223 28.186689 2.1736586
26.068775 28.190538 0.96231288
26.174448 27.892073 2.0585518
26.087385 27.831764 -0.76316047
26.377626 28.372646 -0.94103402
26.281147 28.365137 1.649039
25.994741 28.268421 2.8927844
26.020399 28.106632 -2.408685
26.007484 28.113689 -1.1395543
27.282726 28.594799 2.1506617
26.13588 28.493547 0.82422554
28.36475 29.031555 2.1576807
27.365463 28.683807 2.1658399
26.257853 27.67672 -1.1377527
25.999584 28.100367 1.952608
26.159876 27.893574 -0.24350791
26.18965 27.688457 -2.0180957
26.280394 28.36235 1.7478611
26.147232 27.881092 -1.1334491
26.184351 27.772835 -2.7331088
26.1866 28.360987 -1.6044618
27.181133 28.640852 2.655726
26.272253 28.2899 1.1604711
26.388634 28.372528 0.6702137
27.851961 29.036644 3.2814939
28.314953 28.75037 2.47048
26.171438 28.108215 -2.0226068
26.39447 28.391209 -2.0177708
26.143572 28.000271 -2.826617
26.151066 27.982708 -0.54197252
26.051497 28.078749 -2.6212864
27.850315 28.989849 2.7669771
26.826069 28.442564 2.0122674
26.774776 28.518373 2.7647731
26.242378 28.135944 1.8722433
26.605816 28.59071 3.3018546
26.16058 27.891424 -0.73833781
27.870466 28.5867 1.7610862
26.071945 28.099258 -0.039179191
26.669714 28.41572 2.2633018
26.094484 27.987686 -3.3370032
26.164989 27.895714 0.36629522
26.246967 27.894402 1.8615938
25.993692 28.084087 2.1706913
26.007193 28.107525 0.16552897
26.165089 28.311638 3.0700955
26.351025 27.712601 -2.3397195
28.877651 29.291666 2.4572549
26.393843 28.499933 3.0501373
26.07126 28.282295 2.4651973
26.170549 27.900616 1.6683532
27.158005 28.617889 2.5608819
26.255587 27.680239 -1.2387319
27.362663 28.596972 2.0644636
26.281296 28.357597 0.36551571
26.132362 28.078365 0.86979663
27.290058 28.665497 2.1695516
26.070904 28.095854 -0.74312472
26.166876 27.883713 2.6655681
26.360222 28.589354 -2.0848007
26.15736 28.376184 3.1621349
26.151136 28.214359 -1.9283292
26.080023 28.104397 1.9651415
26.213747 27.96405 -3.2888169
26.100887 28.273136 -0.33023673
26.19315 27.801296 0.76111066
26.177311 27.892803 1.5621978
26.266386 27.608814 -2.0460327
26.062115 28.193026 2.2481897
27.746429 28.967567 3.0768471
28.334412 29.026339 2.3614235
26.2465 27.990967 0.44999826
28.26037 29.02302 2.2659216
26.374279 28.369694 1.3605968
26.158588 27.893509 -0.64075011
28.265692 29.026136 2.3489919
26.400719 28.367765 -0.24436669
26.069813 28.09495 -0.83811408
26.164104 28.191408 2.3553669
26.172359 28.197193 2.2427993
27.65535 28.426172 2.4533904
26.101034 27.910625 2.2570095
26.735268 28.529276 2.8441641
26.005161 28.141579 -3.2226772
26.247684 27.779856 1.0637295
26.497663 28.268509 -2.1255341
26.162735 28.199377 2.5578938
26.090218 27.90251 2.3555315
28.754377 29.309704 2.9423294
26.148951 27.88937 -1.3340741
26.222738 28.07004 1.8015944
26.091148 28.00358 -0.53572226
27.362864 28.590282 1.8528465
26.172394 28.374458 2.8476985
25.796762 28.002939 -1.8041399
26.076403 27.903606 -1.7280903
26.080891 28.181416 2.3563614
26.194775 28.2708 -0.24398305
26.247581 27.782938 0.76058894
29.382784 29.083611 1.7539499
26.150852 28.21723 -0.13577451
28.060463 28.966036 1.9881132
26.481451 28.374184 0.86251634
26.488041 28.57699 0.79426324
26.149982 27.986444 0.064307392
25.909744 28.291939 -1.2763724
26.474388 28.379021 -0.84041673
26.579451 28.464117 1.5712892
26.330606 27.677116 -2.4475546
26.476477 28.377813 -0.73472565
26.011702 27.952551 -1.8898206
26.175014 27.904291 1.962158
26.469833 28.317921 2.6653774
27.62105 28.865612 1.9017676
27.862526 29.068073 2.8821826
27.144676 28.233723 2.1003647
26.165201 27.802895 -2.2425721
26.463808 28.329445 2.4755213
26.002323 28.185186 -0.13702534
26.295475 28.446436 0.42945018
26.003328 28.196573 0.76068681
26.159336 28.217953 0.36787593
26.00514 28.19397 1.158955
26.01466 28.097761 -2.1279347
26.001747 28.189926 0.15918235
25.970572 28.100334 -2.930815
26.24131 27.888992 2.0809288
26.246429 27.786455 1.2574085
28.371651 29.082714 2.349607
28.464218 28.730545 2.4606109
26.002062 28.12112 -1.2412834
26.48793 28.489891 0.43633443
27.972515 28.899279 1.8721412
26.481091 28.373837 0.16203262
26.251465 27.777748 0.16122168
26.135744 28.449203 0.15763046
26.008137 28.20595 0.95595461
27.16893 28.670919 2.0731857
26.138437 28.077818 1.6699344
26.246826 27.788994 0.26018924
26.194807 27.693964 1.3536201
26.258442 28.223989 -0.33866474
26.474081 28.408592 -2.6637282
28.257215 28.706709 1.9691058
26.167429 28.562399 -1.6520023
28.356358 29.25716 3.0276155
26.057308 28.089884 -3.204206
26.253038 28.231251 1.6746225
26.060925 28.190502 -0.23728383
26.284798 28.386902 1.1754459
29.381521 29.087328 2.063895
25.999584 28.124022 -0.86473048
27.729565 28.966568 2.5609655
27.063009 28.600883 2.5555942
26.006468 28.177608 -0.24320364
29.333385 29.032686 2.4851465
26.169325 28.37793 1.0571593
26.188166 27.806707 1.3558162
25.985846 28.271696 1.5402758
26.48542 28.481607 0.35057184
26.472546 28.369776 -0.4388096
28.284004 29.065138 2.1574609
26.151081 28.091661 -1.3366632
26.478733 28.478588 -1.1550746
28.260664 29.106838 2.7514355
26.241865 27.787472 -2.9242089
26.364851 28.308016 0.86200356
25.986164 28.077147 -2.643203
26.155386 27.891968 -0.94033277
26.144249 28.083933 0.069177687
26.00573 28.18886 1.0607932
25.984295 28.031353 -0.82977778
25.862576 28.243464 2.3669584
28.603014 28.728662 2.7775021
26.073839 28.291243 2.3654263
26.434696 28.64323 -1.9850608
26.234453 28.289829 3.064821
27.57641 28.780098 2.0606222
27.570732 28.729576 1.9587834
28.351265 29.19804 2.950053
27.871475 29.002468 2.8395426
26.103745 28.279715 -0.13185306
26.556818 28.333733 -2.2642534
29.37084 29.095036 2.5597448
26.084866 28.274036 -1.5380324
26.146889 28.096569 -0.73452002
26.458055 28.411501 -2.103755
26.197266 27.882896 -2.9205804
26.496532 28.453329 -0.41009155
26.008545 28.190014 0.25913042
26.008474 28.181009 -0.044345792
26.145132 27.986536 -0.040777951
26.27968 28.395006 0.7555269
26.267029 28.293695 -2.2260501
26.466026 28.326181 -1.7735783
26.142523 27.911428 -2.0535591
26.10677 27.735367 -1.7298471
26.374901 28.214605 -0.93040204
26.476994 28.473413 2.6529646
27.547585 28.705492 1.8570702
28.886997 29.45982 3.3405509
26.150003 27.995266 1.4614948
26.165661 28.203154 2.0572944
25.987272 28.289871 2.4654727
25.906237 28.273073 2.584573
26.452126 28.236809 -1.0395038
26.465349 28.288502 -1.9442731
26.170504 28.391279 2.6568782
25.959751 27.778088 -1.8364073
26.462055 28.310131 -0.35050255
26.172987 27.823631 -2.9070618
26.186817 27.699455 -1.6395317
27.321011 28.840931 3.2675219
26.089643 28.29348 -2.0152426
26.278915 28.371914 1.550411
26.066797 28.303499 3.0718317
28.25861 28.706114 1.7569571
26.211109 28.359926 0.60357451
26.08766 28.102257 1.2640404
27.133726 28.679281 1.9090121
26.170143 27.798231 -1.3358623
26.55537 28.423782 -2.3756418
26.676006 28.513466 2.8480985
28.270281 29.081108 2.5699556
26.47747 28.369112 0.26428869
26.169544 27.896708 2.1626565
26.544092 28.385889 -2.7882144
26.0748 28.285763 2.8557339
26.245518 28.315075 -2.0520256
25.855068 28.233892 2.4772894
26.250906 27.898577 0.34401113
26.47661 28.375227 -0.53746766
28.110571 28.64217 1.6760684
26.090736 27.904732 -1.3274574
27.360809 28.324871 2.4557869
25.999784 28.191143 1.9501581
26.150314 28.110291 -1.950708
26.457489 28.326931 0.15761636
26.093706 28.010674 0.45586967
26.137289 28.083271 0.56892282
26.17849 27.799501 -0.53735113
26.198402 27.690641 -0.93963027
26.894688 28.259121 1.7546855
28.56753 28.787163 2.4555492
26.200214 28.372276 0.45109892
26.462624 28.314442 -1.0403883
28.219851 28.750191 1.9228725
26.201786 27.68861 -0.74311978
26.002501 28.172407 -0.73949438
26.10281 27.813208 -1.321429
28.286564 29.082588 2.4611216
25.969748 28.27247 1.1529397
27.378803 28.381357 2.1621902
26.004993 28.100567 2.0454557
27.605671 28.864492 2.5955064
26.091496 28.007238 -0.23013109
26.165771 27.895264 0.46227103
26.47514 28.418554 2.7648635
26.465155 28.318542 1.8604174
26.149559 28.400881 0.84108335
26.364265 28.233719 -1.2706926
26.388569 28.3645 -0.84217882
26.970089 28.203611 1.8655244
26.48052 28.379978 1.3642281
26.279821 28.357283 -0.22771132
26.477821 28.4779 0.86103195
26.010122 28.203817 1.4633416
29.459135 29.116852 2.3630769
26.172003 27.894775 0.96096063
26.096954 28.007357 0.56019956
26.579615 28.475094 1.3583207
26.287563 27.594744 -2.1211603
26.084599 27.896486 -2.5343885
26.061319 28.091543 -1.727964
26.148859 27.984236 0.1633621
26.004847 28.177431 -0.64851099
26.002052 28.179426 1.658783
26.466801 28.399576 -1.6440886
26.051991 28.453169 -2.1057673
26.173538 27.793264 -0.83570468
27.691412 28.872356 1.7427995
26.131088 27.935879 -2.6344709
28.270407 29.084633 2.6603425
26.06546 28.111702 2.6545558
26.258682 28.365599 -0.41718358
26.163864 28.406406 1.4798666
26.089184 27.999086 -0.44049668
26.208475 27.693188 0.35858858
28.844948 29.227699 2.1586998
26.267519 28.360224 -0.64976758
26.242771 27.777042 -1.1324047
28.149353 28.630245 1.7852879
27.82901 29.001612 3.1222086
25.964741 28.104923 -2.8376613
27.845913 28.937462 2.7217674
26.057873 28.463274 -1.2832254
26.199749 28.390923 1.3702133
26.594215 28.547907 2.9313409
26.249964 27.779015 0.56453091
26.578424 28.469259 1.8676692
29.356138 29.113796 1.548058
25.966223 28.156969 -2.4850459
26.164465 27.896267 0.5602349
25.996981 28.191795 1.5596009
28.225445 29.227448 3.4496403
26.173618 28.316196 2.7644336
26.164076 27.793129 -1.5341576
26.472134 28.471767 -1.9051758
26.360596 28.309017 1.6609107
26.441057 28.218719 -1.4465916
26.204571 27.683664 -0.33516625
28.288294 28.793634 2.1232064
27.183495 28.857693 3.4327197
26.009512 28.012577 -0.58677542
26.004551 28.117722 -0.73359996
26.372824 27.666656 -2.1448891
26.203114 27.70113 0.85822552
26.298277 28.554222 3.2757845
26.002775 28.112223 -0.53612852
27.369553 28.753469 2.252609
26.388277 28.358519 0.95687658
26.291235 28.363579 1.8516078
26.266815 28.325579 -1.6286945
26.09185 28.006641 1.0644269
27.37112 28.377794 2.0604506
29.067028 29.329107 2.3524604
28.487738 28.846748 1.8367114
26.260324 27.620619 -1.235195
26.465818 28.405884 2.3660984
26.286766 28.381859 -0.34303936
29.369579 29.511003 2.6619179
26.388359 28.463623 0.86833704
26.183258 28.307577 2.3699968
26.08201 28.09947 1.0634849
26.305265 28.398558 0.44198692
25.986479 28.082338 2.2628171
26.476461 28.485596 -1.5109084
26.386847 28.364248 -0.53399098
26.19375 27.8029 1.5585041
25.852186 28.091919 -1.7819469
26.004034 28.197525 0.56193978
26.251183 28.383749 1.0424604
26.006859 28.19771 0.36679763
26.477598 28.373764 -0.14605597
28.580431 28.816067 1.9744513
26.173498 28.265287 -0.039711762
26.367153 28.306488 -0.63732708
27.386564 28.823086 2.9602058
28.471777 29.101818 2.065943
26.183355 27.794289 -2.4232733
27.866302 29.095764 3.3756883
26.384535 28.362799 1.1541822
27.36681 28.682112 1.953548
28.072565 28.972366 2.2575166
26.004259 28.1994 0.65860271
26.175102 27.89333 1.0680176
26.146877 27.988054 1.0710477
26.17285 27.788639 -1.8324423
26.163309 27.894617 0.25928745
26.146654 27.983261 -0.34247336
26.000149 28.114651 -1.5300357
26.252529 28.379387 2.4720554
26.072338 28.09651 2.3656697
25.998749 28.192961 1.3609208
26.151342 27.981768 -0.73879898
28.668743 28.815239 2.5563672
25.867308 27.981976 -1.1742573
25.855698 28.008726 1.7774265
26.246891 28.375568 1.2492204
26.150536 27.986494 1.2631426
26.267202 27.614937 -1.5367874
26.509148 28.47131 -0.52315485
26.163881 27.780464 -1.9320645
26.259878 28.218599 -0.041653544
25.998817 28.17293 -1.3395675
26.46579 28.309334 -0.23917563
26.566195 28.472414 2.2653246
27.363443 28.757139 2.5697269
26.364405 28.307911 1.1606588
26.207497 27.53108 -2.1171312
26.007351 27.990952 -2.8120265
26.277731 28.386356 -0.032608457
26.173054 27.893814 2.450381
26.179199 27.894653 1.2637596
26.005646 28.175749 -0.5335198
26.065554 28.098406 2.4630852
26.577719 28.394545 1.4620992
27.395203 28.361048 2.455169
26.239424 27.788845 -2.2450073
26.271856 28.321508 -1.9449037
29.079559 28.947371 2.8861399
26.186552 27.803324 1.0610303
27.377037 28.749819 2.4908941
26.45252 28.320944 -0.047575284
26.248333 27.804445 -2.5784955
27.868834 29.054224 2.9196193
26.013058 28.174835 2.3507762
26.148409 27.892059 -1.4295887
26.577881 28.47481 2.3616941
26.434559 28.213106 -2.1454172
27.38488 28.815254 2.865052
25.994095 28.111145 0.84038478
27.572067 28.774286 2.2699349
26.021709 28.18334 3.3201005
26.176521 27.89456 1.4597522
26.080364 28.102097 1.7587855
26.377066 28.373762 1.4501377
26.386469 28.363466 0.38038373
26.00736 28.105927 0.4600119
25.988598 28.096418 2.6427734
26.159706 27.801163 -2.1445482
26.003841 28.179104 -0.44151375
26.146235 28.08901 1.5656751
27.069681 28.215996 2.4605734
29.062134 29.007362 1.7027712
26.167423 27.881956 -3.0680315
26.000008 28.074636 0.98516035
26.874985 28.548656 2.0636182
27.265232 28.314558 2.060246
26.098469 28.269636 1.0680058
26.090673 28.000483 -0.73643041
29.062538 28.998964 1.7441857
26.366861 28.309908 -0.34352127
26.019577 28.035881 -1.6710733
26.193752 27.808577 1.1628711
25.958012 28.008118 -1.1677388
28.748678 28.811022 2.0625806
26.462427 28.492241 1.4520246
28.57029 28.787651 2.3695385
26.081757 27.886099 -2.6279902
25.998873 28.180416 -0.33616883
26.367058 28.31052 0.75577968
26.362568 28.311172 -0.83992881
26.479225 28.384256 1.8554299
27.036564 28.129837 2.7012749
26.423832 28.475113 1.1733721
26.223072 28.086227 -1.5494088
26.287493 28.384537 0.87352169
26.061333 28.193584 2.8532646
26.751421 28.437721 2.454937
26.139442 28.09424 1.8608183
26.174818 28.321526 -2.630662
27.886784 29.05534 3.064805
26.036339 28.41609 -2.0215683
29.457777 29.116833 1.9489067
27.371092 28.799067 2.76594
26.072247 28.195061 2.5695896
27.395521 28.769114 2.0912836
26.693739 28.624672 3.416079
26.195621 27.711573 0.96159542
26.496214 28.473114 1.5700505
25.987398 28.131483 -0.35613272
26.184912 28.383327 2.7568581
25.951206 27.77854 -1.7501752
26.092524 27.900583 -1.8357838
29.164122 29.468699 2.6683278
28.476171 29.093109 1.966694
27.37991 28.78684 2.6586194
26.575787 28.403461 2.1584253
26.458794 28.324165 -0.43890458
26.778105 28.475313 2.1689966
26.475756 28.37574 -0.63927829
26.475761 28.382612 -1.0361592
26.184786 28.393827 2.1701639
25.971912 27.768509 -1.5677718
26.164669 28.197737 2.1629412
26.060833 28.385828 -2.1186757
26.347267 28.355879 3.2362361
26.239418 27.877981 -0.55975312
29.272022 29.405493 2.1660583
27.07408 28.604509 2.7849154
26.059027 28.188437 -1.1403502
26.367262 28.315802 0.36011836
26.247734 27.886246 1.1620556
27.200151 28.581982 1.8644447
27.272533 28.215488 2.7282796
26.256395 27.779301 0.060495555
26.369083 28.400196 2.361233
25.965508 28.305511 -0.016224053
26.080471 28.100266 0.45769641
26.079153 28.099678 0.65610576
26.083361 28.102514 0.95190966
26.245867 28.083115 0.24775584
27.067867 28.595821 2.4600656
26.378361 28.357561 0.56325638
26.080673 28.100174 0.35851884
27.200869 28.401165 1.6742542
26.368135 28.318302 0.46107233
26.159664 27.893164 -0.33693317
26.159004 27.890293 -0.437572
26.107044 27.922871 0.069923535
27.569584 28.876173 2.6825206
26.152756 27.992233 1.5555254
26.255863 28.213554 -0.44807959
28.184731 28.789988 1.8725234
25.984917 28.120762 -1.6383092
26.141268 27.993172 0.5637331
26.193758 27.799583 0.46294895
28.285679 28.767635 1.8544278
27.364647 28.704798 2.4557931
26.476332 28.368895 0.65689844
26.383734 28.361137 -1.0316652
26.167204 27.788029 -1.7294002
27.353197 28.812359 3.0477574
26.246767 27.77998 -1.4327935
26.006384 28.129086 -0.24249996
27.534344 28.341263 2.4956074
27.872694 28.882685 2.0591719
26.371784 28.382011 1.8540878
26.182585 28.270199 0.46000189
25.960796 28.111061 0.7456007
25.910137 28.264702 0.86587882
26.248188 27.892834 1.9857507
26.273947 27.59779 -1.7326325
26.48185 28.382936 1.2558148
26.248735 28.217165 -1.1343678
26.000784 28.085531 2.3670201
26.370972 28.366514 1.5648088
26.399818 28.47863 0.65464711
26.176315 27.801838 -2.3397455
25.978504 28.099091 2.4648688
26.26626 27.623009 -2.3408005
27.279955 28.586315 2.0487685
26.163258 27.795286 -1.4375923
26.187626 27.802418 0.064443879
26.462328 28.239443 -2.3827326
26.476952 28.407307 2.6633635
28.569717 28.790398 2.552948
26.768639 28.47543 -0.27140799
26.140087 28.081076 1.167452
26.182592 28.273235 0.26453805
26.575354 28.476416 1.6708208
26.09227 27.901041 -2.3524635
26.106283 27.818096 -1.5328342
26.094261 28.269203 -0.8414855
26.186644 27.799942 -0.13752571
26.135386 28.083057 1.0619096
26.136112 28.079428 1.3547114
26.170504 27.898329 0.75528973
26.468832 28.429018 3.0615697
26.099924 27.820921 -1.7370658
26.47439 28.477055 0.68473834
26.173927 28.268625 -0.54630643
26.187635 28.393822 2.3523839
26.183458 28.272015 1.6562879
27.64967 28.425505 2.0641539
26.137222 28.073786 0.95777261
26.585142 28.472874 1.7595923
26.104012 27.815231 -1.4294965
26.146084 28.463854 1.0374601
26.142811 28.102119 0.24891213
26.46044 28.322876 -0.1359006
26.255112 27.995731 -1.0331043
26.153511 27.888245 -3.3067636
26.144804 27.987955 0.45575169
26.150467 28.36504 0.92923123
27.287075 28.507725 1.9539325
27.911766 28.950787 2.4376469
26.09474 28.002056 -3.0461891
27.99366 28.971189 2.3513269
26.110573 27.777021 -2.9192686
26.09882 27.79644 0.29183465
26.365833 28.216034 -0.5094614
28.773872 29.277029 2.167661
27.76646 28.994865 2.8522789
26.186907 28.179558 -2.2354107
27.907019 28.948215 2.3867445
26.099518 28.267519 0.36467871
26.178293 28.30055 2.1678491
26.474493 28.473179 2.0548646
28.484255 28.776297 2.5572457
26.075129 28.099348 0.15618713
26.060461 28.109755 2.5569069
26.27323 28.091957 0.050853793
26.564581 28.462301 -0.63824922
26.140913 27.987242 -0.23238716
26.138586 28.087128 -0.2231666
27.794889 28.560696 2.1685073
28.966211 29.415331 2.9495084
26.248192 27.785419 -0.93945295
26.14217 27.988092 0.36012217
28.369095 28.708353 2.4520991
26.270157 27.918926 -0.73038101
28.371714 28.715748 2.2585618
28.581806 28.791279 1.8617688
26.144796 27.99485 -0.43949172
26.153137 28.208138 0.25939733
27.777641 28.419044 2.0168123
26.244713 28.444685 0.30182865
27.873093 28.970585 2.6608129
27.947029 28.619028 1.7473593
27.865421 28.877422 1.963258
26.163134 27.894205 0.059462886
26.161179 27.888147 2.2560544
28.617331 29.255341 2.1530321
27.870804 28.51264 2.4603643
26.243469 27.777058 0.95892501
26.089096 28.072735 -3.1029124
26.06295 28.089575 -2.9317644
26.221853 27.99667 -1.8388671
26.475464 28.404692 -1.7379906
26.261162 28.190971 -1.7147045
25.995914 27.939795 -0.81688732
28.388962 28.702772 2.7696514
26.113964 27.917223 1.0467839
26.291252 28.208588 -1.9622142
26.287613 27.713007 -2.0306323
25.985672 28.200804 3.1534295
26.166107 28.220102 -1.3435727
28.479588 28.763865 2.4492102
26.178333 27.908085 -2.7352104
26.090012 27.894127 -2.2701113
27.872602 28.886042 2.2620966
27.476719 28.889156 2.8404019
26.006506 28.183334 -0.93984914
26.266254 28.220987 1.7597492
27.475012 28.909996 3.2634125
26.163555 27.810383 -2.548496
26.201529 28.18952 -2.5348818
26.171587 28.27319 -1.1424856
26.060589 28.191797 -0.040168248
26.460005 28.321173 0.056604404
26.237694 27.92104 -1.0480645
26.018261 28.257362 -1.8413309
25.999025 28.06827 0.65154076
27.538252 28.278469 2.1382463
26.136564 28.360695 -2.1439605
26.374695 28.388748 2.9687798
26.130096 28.170527 3.0689642
26.256672 28.304005 2.1570718
28.26273 29.056297 1.9828682
26.142107 28.365324 1.6339254
28.511482 29.130339 2.7684829
26.103731 27.772976 -2.0393429
28.877226 29.283287 2.5685024
26.282543 28.400982 -2.1049097
27.378706 28.690447 2.7661259
25.991905 28.121426 -0.95694709
26.053488 28.207136 -1.8449529
26.179163 27.712635 -2.3339088
26.171188 27.793478 -1.0415643
26.16592 27.793526 -1.2362951
26.171326 27.796543 -0.93965691
28.253748 29.124804 2.9830167
26.095417 27.826036 0.82746136
28.454561 28.810772 1.6432924
27.82626 28.772287 1.6942822
26.084877 28.103991 1.5629386
26.269463 28.291784 0.45950484
26.294783 28.394571 -0.92783296
27.887377 28.952028 2.0755208
27.931158 28.97785 2.034095
25.990187 27.715281 -1.8262693
27.871063 28.984646 2.5708475
26.249151 27.782993 -0.038505632
27.859125 28.873482 1.8700241
27.767908 28.97653 2.9668221
26.158207 28.223164 -0.038983818
28.348278 29.111071 2.6467314
28.96549 29.40486 2.8851213
26.381102 28.359957 1.6690673
27.632433 28.585415 1.7544966
26.563997 28.416777 2.5680206
28.469301 28.768988 2.3594801
26.251945 27.787617 -1.3348829
28.168119 28.623848 2.1681402
28.250706 29.120993 2.8427498
25.993097 28.193146 2.7649374
27.788084 28.726902 1.8944099
26.158062 28.21607 -0.54350996
28.35779 29.029764 2.2658954
26.153397 28.097691 -0.12884633
26.086649 28.259211 1.1523097
26.281393 28.067921 -0.041015919
26.151947 27.99206 1.1571828
26.148169 27.977198 -1.0416869
27.553627 28.50174 1.5808105
28.250889 29.010311 2.4641097
26.154474 27.895088 -1.7379355
25.915194 28.285435 1.8133105
26.128967 28.097591 2.7206466
28.361675 29.029039 2.054584
25.99774 28.005339 -1.4497892
26.238508 27.998924 -2.7302384
28.477909 28.769348 2.2687793
26.472172 28.506048 3.0599964
26.140074 27.988108 -2.3433385
26.475809 28.46352 2.3733542
26.295641 28.362009 -1.2432811
27.553745 28.433689 1.6994163
29.067266 28.984968 2.4550107
26.057442 28.194506 -1.5357003
26.146069 27.877495 -1.9399216
28.381794 28.702488 2.6635857
27.870907 29.008251 2.9718013
26.15329 27.891033 -2.2454882
28.568832 28.793964 2.2753487
28.541693 28.743172 2.3855309
26.276005 28.300375 -1.2387317
26.242813 28.333603 -2.3767323
26.098061 28.008614 0.86366743
28.528887 28.782597 2.7470412
26.24087 27.877712 1.5649648
26.343473 28.40659 -2.347398
26.259853 27.880192 -1.2348667
26.464056 28.40906 3.3357122
26.468668 28.416607 -2.779295
28.476135 29.132622 2.6554813
27.573292 28.784101 2.5587728
26.258211 27.62373 -1.3388754
26.23369 27.886127 -1.1395133
26.14847 27.986134 0.26191962
26.482447 28.47612 1.3376803
26.333174 28.234325 -0.1274254
28.363981 29.104034 2.7669096
26.150059 28.088839 1.7638584
28.58602 28.86467 1.9701495
26.205086 27.69986 1.4515839
26.07082 28.46294 -1.1115265
26.141979 27.882124 -2.1328797
26.143951 27.992296 0.95849442
26.481529 28.482317 1.8493159
27.273752 28.780458 2.8644376
26.183392 27.675964 -2.9400401
27.96574 28.916002 2.3531923
25.856777 27.897793 -1.8227707
25.988987 27.789555 0.22864704
26.177198 28.353374 0.74433696
26.199657 27.711227 -2.8241289
28.912445 28.907881 1.6484071
26.008953 28.269081 3.0983133
26.47928 28.374102 0.76719189
27.284538 28.42503 1.5568665
27.786999 29.021721 3.2459095
26.08577 28.264648 1.3608637
26.252945 28.317043 -1.736246
27.876146 29.099449 3.4194243
26.270334 28.288301 1.0644321
26.262478 27.61652 -1.4388736
25.992035 28.290207 3.2458138
25.965256 28.015522 0.54695654
26.154957 28.572071 1.0525968
26.253551 28.10358 -1.7356997
26.244638 27.783913 0.36436275
26.149599 27.902967 -1.5442414
26.154282 27.901409 -1.8326217
26.375935 28.387897 -2.1202495
27.788099 29.004639 3.202338
26.071939 28.104485 2.2542756
28.366211 28.69701 1.7609442
27.588747 28.456163 2.4396429
26.08346 27.831524 -0.45353305
26.181473 27.697895 -2.2332025
26.13925 28.122705 2.5371006
27.89325 29.066734 3.2400427
28.270966 28.688072 2.7436545
28.977102 28.974123 1.9837118
26.467743 28.310596 -0.533234
26.369257 28.314064 0.66591614
26.364595 28.306593 1.7582601
28.37624 28.69323 1.7058649
25.979385 27.731644 -1.6333622
26.268908 28.291853 1.7579865
26.250584 28.363541 -1.3398914
26.329336 28.230114 1.4700519
27.682838 28.463217 2.4539814
26.551298 28.563423 3.1426721
26.19315 27.795177 0.35863605
26.050074 28.105087 2.7482646
28.243311 28.640383 2.5468602
26.872513 28.463867 1.8918767
26.247715 27.782053 0.45507982
26.161179 28.2188 1.4626642
26.19581 27.807552 -2.8499784
26.824968 28.351358 1.8152882
26.557438 28.471502 2.5780115
27.165232 28.317234 1.7883193
26.13842 28.085316 0.75964403
28.602587 28.846209 2.2766395
28.580627 28.801105 2.6532867
27.65847 28.43148 2.5479872
26.260332 28.306664 2.058286
26.176388 27.897612 1.1643205
26.241014 28.224049 -1.9921589
26.455711 28.316374 0.26450321
26.095024 27.776695 2.540355
26.975512 28.657928 2.7360969
27.773035 28.972395 2.7492247
28.565229 28.878521 1.752614
27.873726 28.885586 2.1732624
26.181173 28.27092 0.55141371
27.867901 28.887995 2.353724
28.241549 28.59882 2.616518
26.083942 28.256464 0.27302861
26.380955 28.214167 -0.64070332
26.271343 28.286335 0.066358842
26.076666 28.268318 1.8577486
27.769699 28.499805 2.1609325
26.476398 28.379194 1.4576308
26.246685 27.684954 -1.6376491
26.266354 28.367172 -1.5516685
26.477659 28.380444 1.1563213
26.085983 28.099493 1.1569051
28.482609 29.164362 2.1656778
26.075912 28.353704 2.7671618
26.371164 28.311388 0.25992602
26.177254 27.797861 -0.64031482
26.280176 28.372303 1.4639717
26.167688 27.901869 0.8637675
26.161383 27.894979 0.16444312
26.13699 28.081753 0.15722142
28.60964 28.865341 2.1432774
28.455235 28.727072 2.2666993
26.099726 28.252123 -0.64579248
26.07196 28.263416 1.7653618
26.578951 28.496536 2.9436731
26.150354 27.813 -2.6069026
26.450279 28.220966 -0.87424409
26.14341 27.988226 0.86646265
26.194712 27.805582 0.86464441
26.185247 27.796612 0.15309459
26.193178 28.4788 1.3183967
26.133871 28.480984 1.1574937
26.473026 28.308737 -0.93968594
25.980234 27.722502 -1.6974112
28.689539 29.258202 2.4461091
26.457699 28.317856 -1.2371403
26.020149 27.723923 -1.9396582
26.470404 28.418608 2.9537377
26.371235 28.309576 1.5653347
26.396639 28.367208 -0.34489766
26.183718 28.272282 0.86418712
27.773111 28.489269 2.4565194
28.373547 28.721279 2.0591357
26.174101 28.277105 1.4588555
26.083019 28.267597 0.86317784
27.176647 28.684563 2.6433272
25.878227 27.971989 -1.831699
26.186069 27.939383 -3.1666679
28.289722 29.063126 2.2684901
26.148884 27.997625 -1.4384588
28.871128 29.275848 2.3547211
26.572235 28.423532 2.6727326
26.000662 28.04896 0.34624654
26.076986 28.283709 2.6607404
26.281303 28.374273 2.6563931
28.370245 28.724319 1.8760082
26.092482 28.007383 1.1642267
27.728266 28.442568 2.1441472
26.288784 28.3701 1.9645075
26.083624 28.265038 1.5514444
26.194929 27.686678 -1.1354795
28.273119 29.010414 1.966718
26.26977 28.369902 2.2651443
26.140724 28.083706 0.4675777
26.375637 28.509726 1.2420692
26.16271 28.381403 0.67655033
26.053022 28.199696 2.9650626
26.177431 27.697115 -1.732946
26.086237 28.267086 1.6564649
26.275896 27.762629 -1.6362327
27.663565 28.678345 1.7576597
26.475454 28.377977 0.55729187
27.063887 28.180656 2.7554681
26.460915 28.286091 -1.6448824
26.240889 28.187901 2.4333136
28.354774 28.698559 1.9569712
26.09317 28.249384 -0.029118588
26.102001 27.912647 -0.84158295
26.631157 28.553146 1.8237886
26.094376 28.271996 0.56067669
26.241703 27.783909 -0.13785303
26.398323 28.474293 2.4564683
26.472879 28.473417 2.7463877
26.99227 28.559895 2.1736031
26.183031 28.203972 -2.315716
26.147097 27.984911 -0.14870721
26.164066 28.199524 -1.4358205
27.770441 28.654015 2.1540773
27.968901 28.876366 1.7081409
26.420761 28.237967 -0.071062259
26.355747 28.215797 -0.23372458
26.263376 28.280453 -0.044917759
26.50157 28.545576 3.3780847
28.072319 28.918131 1.8870347
27.360031 28.504749 1.8551615
28.583628 28.87458 2.0437677
26.467594 28.323551 -1.1381131
26.135752 28.098219 2.364222
29.070896 28.993011 2.1687961
26.487453 28.387537 -0.93554085
26.360346 28.309208 -0.9391343
26.180984 27.793289 -0.738873
28.843447 29.233034 2.4554603
27.162683 28.305487 1.5456374
26.298428 27.695854 -2.4385433
27.656654 28.428614 2.3716047
27.37055 28.586628 2.1467748
29.353502 29.070257 1.6243633
28.266031 28.679262 2.4609745
27.716139 28.845987 2.0680883
28.352781 29.020679 1.9714302
27.359516 28.591774 1.9559025
26.144806 27.982012 0.66431749
25.970987 28.183289 -2.7668338
26.186659 27.799925 -0.23235598
26.14662 27.987106 0.76695085
28.285175 28.679014 2.6628234
28.663115 28.906731 1.866745
26.146915 27.985003 -0.62877285
26.370264 28.476744 2.9817476
26.14694 28.080839 0.3580035
26.141052 28.075611 0.66144699
26.257088 27.995064 -3.2434976
28.267427 28.685673 2.2666311
29.372637 29.462803 1.9574854
26.010147 28.234472 -2.1091623
28.441866 28.754574 2.7267673
27.27198 28.794468 2.947619
27.872349 28.908735 2.5710325
28.264891 29.022129 2.1657171
27.880516 28.902941 2.4600124
27.691658 28.409523 2.6963081
28.267956 28.684681 2.5537093
26.57732 28.492008 2.7665133
26.149 28.308767 2.9486644
26.262159 27.795557 -1.9546932
26.355042 27.604132 -2.0279231
26.539762 28.410013 -2.5214894
27.356758 28.325954 2.1728354
27.358234 28.325747 2.3578615
27.650969 28.717367 1.9352827
26.58651 28.561743 -0.35277003
27.38517 28.869633 3.270355
28.881372 29.278038 1.9717728
25.989363 28.275864 2.2742794
26.074776 28.281744 -1.9171335
26.008112 28.30476 0.16835414
26.255796 28.371401 -2.349514
28.260601 29.016123 2.0582986
26.268978 28.221064 0.2610282
27.285042 28.430504 1.4537635
27.239214 28.232777 2.4593163
28.475679 29.167791 2.4568291
26.468498 28.409437 -1.8244535
27.363939 28.323648 2.263557
27.355539 28.331373 2.0784063
27.166359 28.238153 2.4496472
28.967649 29.303223 2.3611827
26.178219 28.274887 1.556488
27.855341 28.812868 2.065022
27.177593 28.279621 2.1676853
26.367102 27.792246 -2.0976632
26.572611 28.463867 -0.74516064
26.365181 28.227024 -1.0547845
29.266489 29.475449 2.1488764
26.365189 28.311232 -0.2408656
28.669487 29.18206 2.0610845
29.074265 29.066525 2.0863328
26.220697 28.463535 1.3682842
26.26543 28.214869 -1.0318264
26.127211 28.027359 -2.1143594
26.278606 28.20694 -0.72816765
26.350855 28.240814 0.47477177
26.245304 28.205906 0.57351649
26.061049 28.39542 1.3810271
28.426714 28.69393 1.7894312
26.354586 28.232479 -0.042838737
27.049328 28.733128 3.2220237
27.071135 28.580952 2.2596493
27.060677 28.572151 2.1590886
27.066673 28.608669 2.8364937
28.481585 29.096226 1.8505008
26.232462 27.906008 -2.0279746
26.265291 28.214399 0.14851239
29.071344 28.994648 1.9743025
28.983274 28.963594 2.4504652
28.972538 29.284801 1.967582
26.574919 28.394352 1.8596505
27.282675 28.583645 1.9600942
29.073452 28.982286 2.3600402
28.781239 29.269646 2.3683929
26.360626 28.310921 1.2619983
26.005285 28.176641 2.2714627
28.367794 29.091633 2.4555886
28.462891 29.11451 2.4614747
26.367582 28.315283 0.066790797
26.293964 27.685753 -2.3307869
26.463459 28.404043 2.457768
26.23695 27.886391 -0.24223065
29.03904 28.927219 2.5717709
27.283043 28.667509 1.87442
25.992439 28.201689 2.4726491
26.96386 28.195362 2.2659788
26.356182 28.312683 -1.5406523
26.274872 28.287266 0.36586013
26.249672 28.201555 -1.5501828
26.475895 28.375933 1.562389
26.479456 28.372505 0.072620071
26.256241 27.68931 -2.2286816
26.004902 27.789886 -1.9015949
26.169788 28.385777 2.5532994
28.474634 29.114965 2.5676785
28.45681 28.734287 2.1722343
26.365343 28.315052 0.56245846
26.243782 28.311071 2.4585226
26.464214 28.323977 1.2686945
25.986422 28.193703 2.9578094
28.470873 29.108593 2.2621849
28.28487 29.070715 2.358989
25.970327 28.19026 3.0618455
28.381889 29.14238 2.8596675
26.475554 28.397987 -1.5390681
26.169363 28.219036 1.5637521
25.968475 28.115314 3.0612056
28.769102 29.383089 3.1522834
28.276522 29.18532 2.9941869
28.478065 28.718424 1.8715377
26.24622 27.918997 -1.5447865
26.156603 28.222282 0.86577773
26.457684 28.324165 1.3594662
26.332342 28.216419 -1.7487111
28.289473 29.177238 2.7838397
27.266153 28.611712 2.262264
26.371719 28.19973 -2.1588159
26.361004 28.230406 -1.3533999
26.264429 28.161999 -2.1608911
26.478352 28.413528 2.555902
26.36845 28.316351 -0.038732063
25.984304 28.103254 2.5490377
26.099842 28.251417 0.44538072
27.260452 28.611782 2.3504527
25.987427 28.128807 2.8618915
27.187857 28.635515 2.757309
25.976845 28.159607 -2.2084544
27.854189 28.817797 1.9567666
26.174957 27.862234 2.5658431
26.666019 28.488417 2.6391213
25.995184 28.204754 2.6689217
27.087393 28.256565 2.4562159
26.246521 28.309843 2.5602562
26.351702 28.322453 -1.8598589
28.985926 28.985655 2.5794334
26.365421 28.31168 1.0602572
26.381163 28.221628 -2.0843356
26.156769 28.1008 -2.1117616
29.067652 28.978058 2.5542006
26.230934 27.913536 -0.92684639
26.636122 28.509233 -0.82305479
28.971958 29.300095 2.2606387
26.248064 27.899374 -0.62463278
26.222172 27.952044 0.56879169
26.233358 28.011932 -1.3594921
28.966352 29.392548 2.669394
26.363468 28.31402 1.3600107
25.969891 28.007685 2.6482439
29.089708 29.07642 2.4523787
26.166668 28.217508 2.4645095
27.717964 28.846523 2.293721
26.372654 28.24958 -2.21275
29.060394 29.312672 1.9710573
28.127422 28.805763 2.0740409
26.528931 28.46409 -2.4034252
26.258488 27.699316 -2.5379386
27.771687 28.491158 2.3594654
26.158638 28.362812 0.37314636
26.250147 27.990585 0.35281888
26.383297 28.293036 -1.947616
28.397795 28.775099 2.2486672
26.667933 28.507858 2.7475777
26.869757 28.50231 2.05147
26.387997 28.455406 0.94570303
26.572126 28.467159 -0.92321813
27.860561 28.517387 2.2555206
27.757555 28.574484 2.0584207
26.631092 28.620411 1.554148
26.534573 28.486635 -2.1235263
26.402624 28.451744 -2.1050317
26.359581 28.487246 0.31135014
26.333092 28.452272 -1.2960718
26.148348 28.353933 -1.7037866
26.107403 28.368759 1.8802588
26.552094 28.473497 -1.3296008
27.462128 28.760702 2.0571921
26.61706 28.613489 1.9587252
26.351595 28.211781 -1.7997566
28.692314 28.867949 2.271966
27.062235 28.219471 2.3577359
26.460403 28.321972 1.4691021
28.966347 29.310877 2.450875
28.385124 28.775879 2.5561955
26.242287 28.2285 2.2427092
26.195572 27.603472 0.47691864
26.094156 27.792791 0.53661299
27.366032 28.41592 1.5565857
26.351866 28.214752 -0.72315693
26.346165 28.231638 0.95501077
26.284742 28.366034 -1.9479462
26.239996 27.988159 0.057569645
27.273157 28.685431 2.4539616
26.683399 28.589128 -0.23806864
26.331129 28.449581 0.13187423
26.403334 28.452293 0.74942493
28.965458 28.9233 2.2614734
27.364365 28.516949 2.1618457
26.366133 28.374908 3.1839156
26.148378 28.319174 3.146127
28.497158 28.717295 2.0473042
26.472685 28.408834 2.8284199
27.099838 28.763248 3.2255163
27.727333 28.908386 2.8559434
27.76429 28.904198 2.6520476
27.583527 28.890842 2.765476
28.963787 28.916714 2.0858769
27.792461 28.507942 1.7744869
28.546635 28.728239 2.4500542
26.458733 28.324488 1.0568755
27.278046 28.514727 2.0538349
26.221577 27.820271 -1.8735702
26.259104 28.209866 0.44485357
27.058426 28.782835 3.4071584
27.351673 28.513216 2.0691421
28.563131 29.224495 2.8462384
26.111099 28.350977 3.3636029
26.261129 28.212376 0.380191
26.234875 28.228935 0.67584205
26.160614 28.366501 3.0882928
27.442408 28.586569 1.6689054
29.296547 29.537968 3.069052
29.299051 29.556368 3.0408208
27.455873 28.580484 2.0869253
28.069843 28.975809 2.3506005
26.365725 28.309965 -1.2367283
26.117014 27.690689 -1.541353
26.683495 28.457859 1.989579
27.374542 28.368277 2.2647319
29.292454 29.594761 3.2339416
26.458593 28.322479 1.5583565
29.26086 29.519489 2.838397
28.473167 28.777386 2.159081
28.485481 28.769085 2.6599696
27.378979 28.389648 1.7600132
26.777761 28.478397 2.3682256
28.56049 28.796288 1.6531392
26.103554 27.802933 -1.6564655
28.573339 29.118793 1.8686602
27.181215 28.682566 2.5832911
26.140602 27.906359 -2.3702478
26.966618 28.247875 2.3588018
26.050169 28.37611 1.1537781
26.186584 27.9126 -3.2772925
27.217464 28.348305 1.9619851
27.19429 28.37602 1.835603
26.35313 28.235931 1.7567499
26.250696 28.228052 1.3656991
26.948891 28.139193 2.4987049
26.357958 28.23629 1.8535366
27.482491 28.414415 1.5668561
26.246664 28.227325 1.9541851
29.053621 29.066135 1.76685
28.789433 28.837162 1.5614226
28.465733 29.109545 2.3484674
27.35342 28.40527 1.6756029
27.439939 28.501862 1.6595656
26.253763 28.23543 1.1695304
27.149303 28.227819 2.1715212
27.171822 28.740139 3.1346657
26.569746 28.459766 -1.4365886
27.973303 28.603781 1.853761
26.171469 28.298128 -1.742187
26.564508 28.465128 -2.9370899
26.656157 28.455654 -2.3280432
27.878468 28.583351 1.9643589
26.576771 28.45903 -2.3627179
26.259119 28.219862 1.5520484
26.248024 27.765736 -2.7595785
28.889683 29.265123 2.0608151
26.386339 28.381685 -1.5397972
26.009188 28.088305 -1.8403054
27.996109 28.654919 2.0451169
28.378204 28.629169 1.8039218
28.492815 28.733147 1.9443467
26.570101 28.459002 -1.5290751
28.060059 28.776115 1.7133702
26.468742 28.433735 -2.9085462
26.246666 28.226231 2.0555878
27.354967 28.401035 1.864604
26.175901 28.296291 -1.8358101
28.772411 28.886679 1.8780859
29.173559 29.095612 1.7729932
28.978987 29.290056 1.8588259
26.574196 28.40995 -2.6657465
26.555969 28.45377 -2.7749994
28.86224 28.897976 1.7655569
28.650547 28.810448 1.8500062
28.984741 29.363371 2.1586523
26.196642 27.702847 -2.7560656
26.969137 28.188499 2.5540593
26.124699 28.022888 -2.6571057
29.066132 28.991058 2.0808349
27.669079 28.805624 2.2707596
27.792213 28.883924 2.5629642
28.854832 29.234211 2.3519285
27.196529 28.401159 1.5888259
27.756403 28.832848 2.4511571
27.272554 28.408199 1.9636861
27.197706 28.359221 2.1477211
27.276459 28.408453 1.6601554
28.690489 28.881258 2.6285226
29.277056 29.068909 2.4556053
29.076618 28.98311 2.2602491
28.963718 28.919521 2.66484
27.277952 28.416845 1.7609916
27.984755 28.661385 1.859481
27.783482 28.561127 2.3301971
27.992514 28.669949 2.2906654
27.174849 28.272438 2.4472051
27.860065 28.82756 2.1574888
28.956982 28.924639 2.5576482
28.454815 28.729427 2.362792
29.051704 29.324684 2.6470108
28.17985 28.670719 2.5452096
26.775597 28.494144 2.6607456
28.893167 29.315058 1.7797801
27.206081 28.770941 2.8848488
26.361425 28.21748 -1.4444376
27.659262 28.894329 2.7692652
27.217569 28.511257 1.6758233
26.354576 28.225094 -1.1226466
26.265547 28.226671 1.0578009
26.153902 28.232931 2.8984725
27.258787 28.394613 2.3652301
28.687365 28.853661 2.7626741
27.277649 28.39325 2.065191
26.203978 27.623049 0.74067241
26.879669 28.611095 2.658957
28.201435 29.156067 2.8272703
27.273932 28.684198 2.5591664
29.275801 29.070868 2.6366475
27.771673 28.505564 1.9571383
27.259758 28.719761 2.9611874
26.43821 28.240086 0.1372893
26.868816 28.592836 2.8354576
26.07193 27.808964 -0.21574232
27.147963 28.749266 2.7332594
26.242378 28.310284 2.952915
27.00206 28.270838 1.8705705
28.457335 28.725904 2.5680056
27.171606 28.778103 2.9700098
27.155336 28.774263 3.2365811
27.167732 28.750183 2.6735144
26.086742 28.352547 3.2470222
28.458071 29.204241 2.7799613
28.48037 29.289268 3.3755667
26.872658 28.501419 2.2742443
27.263769 28.690735 2.6552708
28.241926 29.173105 3.3238425
26.074413 28.348951 3.098048
26.462757 28.487604 2.8515382
28.460077 29.266348 3.1425252
28.571142 29.190573 2.5652204
28.580547 29.299557 3.1699576
28.559074 29.259647 2.5394311
28.679369 29.301359 2.8568916
28.674479 29.31329 3.1670704
28.672327 29.266064 2.5759692
28.747488 29.326866 2.8787954
28.863686 29.365959 2.5742717
28.858034 29.419741 3.1675069
26.263329 28.464294 -1.6470474
27.277094 28.668184 2.3518009
27.26103 28.735415 2.8588059
26.146858 28.384336 3.2663479
29.031975 28.934219 2.3485887
28.981316 28.969271 2.2660913
28.968779 29.308994 2.5630565
28.971518 29.292637 2.0689116
28.984596 29.371515 2.5645478
28.983257 29.05394 2.0620065
29.274546 29.066385 1.9575597
29.063461 29.320259 2.0618291
26.880375 28.568754 2.3894081
28.04273 28.930176 2.257443
29.065893 29.359684 2.0819144
29.179047 29.061954 2.4688954
27.840435 28.43372 2.5789266
28.166067 29.099295 2.8547177
28.194246 29.074152 2.3659837
28.273155 29.16256 2.8508847
29.264143 29.517614 2.7607174
28.062414 28.917517 1.9666976
27.449125 28.590137 1.8545978
28.057619 29.075102 2.9744542
28.182436 29.060295 2.458719
28.178766 29.075895 2.6482902
27.775816 28.493587 2.5602148
26.288944 28.469099 -1.7099606
27.772661 28.492651 2.2585132
26.10981 27.739168 1.5603193
27.585308 28.917429 2.938848
28.775154 28.877098 2.3609726
26.868689 28.551525 2.2667356
27.454058 28.586685 2.1320329
25.852057 27.965837 -1.7109867
28.000765 28.955727 2.2586451
28.077301 28.997627 2.5683093
28.079659 29.022278 2.8204503
28.164297 28.998486 2.262975
28.168718 29.067062 2.5715151
28.475636 29.170973 2.5691676
28.48579 29.158825 2.2458017
28.583483 29.162212 2.2684917
28.574205 29.279106 2.863904
28.665527 29.188009 2.2651002
27.769993 28.479324 2.6410294
26.8717 28.506779 2.351886
27.082912 28.269171 2.1751275
27.119076 28.320049 1.5905573
27.258884 28.693218 2.7555406
27.482529 28.868294 2.5320349
27.85466 28.826715 1.8674877
27.443403 28.567974 1.5760684
29.106533 29.474428 2.5743725
29.171825 29.485596 2.0628169
29.163845 29.472813 2.5749478
29.271744 29.485083 2.5675206
29.270502 29.480648 2.0793347
29.298975 29.565945 2.5944026
29.309677 29.5562 2.0583308
29.362549 29.572676 2.5897551
27.732878 28.542805 1.59833
26.019543 27.934872 0.77846807
28.076536 29.083572 2.7703731
28.165655 29.104963 2.7660546
28.186462 29.063147 2.2439876
29.01145 29.346207 2.2335019
28.084547 28.971615 2.0724218
28.36467 29.166664 2.5773039
28.481764 29.166069 2.3679798
28.585821 29.167263 2.0614953
28.57729 29.173706 2.3543448
28.664907 29.214684 2.6393192
28.675879 29.25345 2.3633454
28.793552 29.265375 2.0806217
28.76128 29.298674 2.6539443
28.903601 29.358681 2.3717072
26.2372 28.233761 2.3694801
27.170191 28.286861 2.0686994
28.171087 28.992645 2.0645831
28.207893 29.062969 2.1099384
28.477949 29.185034 2.6503942
28.70208 29.256569 2.157074
28.677235 29.279268 2.6603289
28.879929 29.269547 2.1626549
28.859343 29.301767 2.6453032
28.880106 29.370514 2.6675048
28.99077 29.365412 2.3774841
29.077553 29.372726 2.1729991
29.07793 29.369965 2.3577073
29.06353 29.415827 2.6686807
29.174675 29.4508 2.4545493
29.214165 29.463671 2.1546161
29.279345 29.464603 2.4669838
29.376814 29.482567 2.4517949
29.388842 29.465868 2.173125
29.467415 29.580385 2.6561656
27.995075 28.952103 2.1659214
27.971905 28.989086 2.6480076
28.1709 29.00275 2.3466592
28.576561 29.180483 2.4613836
28.672983 29.186083 2.1646736
