# .PCD v0.7 - Point Cloud Data file format
VERSION 0.7
FIELDS x y z
SIZE 4 4 4
TYPE F F F
COUNT 1 1 1
WIDTH 879
HEIGHT 1
VIEWPOINT 0 0 0 1 0 0 0
POINTS 879
DATA ascii
4.8427587 10.119497 -1.8108612
4.6520181 10.450472 -1.7595179
4.9960542 9.8552589 -2.4451797
4.8512301 10.109713 1.2272227
4.6045027 10.282788 -2.4556732
4.9554601 9.6798153 -0.93842167
4.7424221 10.215671 1.1875707
4.8319526 10.163975 0.080480501
4.7577271 10.319899 0.60013384
4.7351012 10.282118 0.13714384
4.5721874 10.334818 -2.3006885
4.8531246 9.8715477 -0.92891335
4.609901 10.297284 -2.1287975
4.6939173 10.032105 -2.287271
4.7433748 9.7587214 -2.013613
4.5628295 10.12078 -2.1161366
4.8520975 10.016644 -1.2507843
4.5147262 10.223369 -1.532656
4.6016808 9.9729061 -2.1148078
4.8552256 9.6087542 -0.99777514
4.3750615 10.720363 0.33666837
4.4373322 10.733444 0.37173781
4.6165795 10.002167 1.8340952
4.7718568 9.6936722 -0.93288922
4.6654539 9.8395443 -2.5214701
4.7645597 9.5903215 -0.84065789
4.6355143 10.378418 -1.8278224
4.6586962 10.389863 -2.0452957
4.9378457 9.6722031 -0.74093938
4.6006527 10.12084 0.85822409
4.6817446 10.403255 -2.1126101
4.8536768 9.8610964 -2.0050621
4.6443987 10.375269 -1.6478314
4.8400068 9.8173485 -1.1368589
4.7729125 9.705554 -0.83496267
4.6139455 10.122978 -0.1232764
4.6100936 10.110689 0.57657415
4.6171436 10.024488 1.4259033
4.6037931 10.115183 0.95200855
4.5716591 10.388384 -1.9210676
4.6022062 10.100376 1.2806802
4.6120162 10.123806 1.3466485
4.6015382 10.012769 2.1148031
4.6072683 10.128867 2.1785686
4.7387924 10.21401 1.4812999
4.5961137 10.108193 1.6815844
4.8405528 9.8211679 -1.2564975
4.7711835 9.6043091 -0.65394336
4.8833084 9.5119505 -1.0198635
4.7404261 10.089807 -1.3382919
4.6373649 10.372337 -1.5337019
4.6010637 10.112423 1.4519467
4.606163 10.097975 1.553313
4.7328105 10.156543 1.8358847
4.5947657 10.200544 1.26244
4.6090555 10.123178 1.1738127
4.8341069 9.8161497 -1.4487746
4.8638992 9.8115063 -1.9646409
4.6424966 10.367883 -1.7383547
4.6269517 10.40532 -1.9433198
4.5878267 10.321238 -1.8320575
4.7857151 9.9022455 -1.8334264
4.7796922 9.7239246 -1.3289806
4.6082263 10.024076 -1.3358917
4.6091576 10.115666 -0.62584555
4.6060729 10.115188 -0.53984201
4.6118078 10.040392 -0.81975442
4.7013617 9.9108992 -0.13849005
4.603313 10.115256 0.15236002
4.6142902 10.128274 0.34013835
4.7400718 10.084102 -1.2389488
4.5572786 10.485723 0.16014472
4.6980901 9.9115438 0.65735966
4.6007943 10.205824 0.66530281
4.6019144 10.108072 0.66803992
4.5976615 10.018102 0.42364132
4.6029196 10.110035 0.76240999
4.6117373 10.106587 -0.026298435
4.702127 9.902072 0.36631292
4.5594115 10.138031 -1.4451079
4.5152297 10.201043 0.044087909
4.5880227 10.206117 1.0632712
4.6032724 10.110766 -0.24179421
4.5926986 10.131633 0.038642295
4.6009483 10.093374 1.0375921
4.5982528 10.040992 0.013443681
4.6147799 9.9932594 -0.16282585
4.7028432 9.912282 0.45686778
4.7481809 9.610487 -1.0447191
4.6241746 10.488034 0.060826745
4.5902052 10.197683 1.4641346
4.7225814 10.178008 0.0033432511
4.5983829 10.20944 0.9603194
4.5898252 10.187652 1.5649406
4.6015601 10.205654 0.35766813
4.5691438 10.389987 -1.7397579
4.599154 10.280554 -2.2223077
4.6030755 10.188915 -1.6467443
4.788198 9.8978815 -1.7375041
4.6039472 10.310177 -2.0564249
4.7437797 10.257492 1.5237069
4.8977075 9.589798 -0.83172381
4.7312989 10.07466 -0.13886136
5.453907 10.713398 -0.13583674
5.5299106 10.768507 -0.98741883
5.3478146 10.711644 0.14570352
5.4834733 10.931984 -0.50137919
5.4805012 10.836344 -0.55539531
5.4934726 10.753035 -0.84738749
5.357779 10.718627 0.050500683
5.3275137 10.774819 0.12149116
5.2274432 10.710368 0.10753013
5.4597402 10.806453 -1.0091215
5.3416324 10.749028 -0.84750313
5.2918482 10.870613 0.043441217
5.3564606 10.867414 -1.116863
5.3221827 10.889869 -0.82790446
4.9761324 10.947835 -1.2588946
5.3277903 10.929386 -1.0355091
4.9663472 11.017583 -1.348152
4.862206 11.073605 0.09320505
5.0413389 11.343027 -0.17155424
4.9372368 11.576533 -0.20654005
4.9271793 11.502761 -0.21330294
4.472085 11.346379 -0.36828387
4.4497857 11.575924 0.013605447
4.5646505 10.488432 -1.1268579
4.5752835 10.524615 -1.7404246
4.7730608 9.8154516 -1.3347002
5.578866 10.745775 -0.77289277
5.5327826 10.747793 -0.8431825
4.6849084 9.9903221 -1.6559258
4.6965485 9.7940855 -0.93792391
4.7590065 10.086562 0.36969057
4.6807413 10.100904 -1.2351383
4.588367 10.207879 -1.1348585
4.7672672 9.9947548 -1.7394304
4.8498468 10.01781 -0.7301091
4.8425155 10.109468 -0.72749519
4.6920671 10.117874 -1.9341133
4.7253652 10.161787 0.7429598
4.6589785 10.189686 -0.84047121
5.3151331 10.717787 -1.0260375
4.6888471 10.105231 -1.5462786
4.9349599 9.6759682 -0.64131528
4.7563066 9.9943619 2.2633944
4.7666836 9.7080135 -0.62531424
4.693059 9.9105511 -0.54303914
4.9334822 11.09286 -0.49681202
4.7395067 10.088058 0.67696726
4.6532159 10.187691 -0.63450247
4.5703144 10.386111 -1.5331327
4.747004 10.075671 0.46682307
4.7244854 10.066305 0.86144817
4.7423224 9.9856863 -0.042380907
4.769968 9.9984045 -1.9441036
4.7416816 10.082517 1.0577056
4.7229109 10.090034 0.9595325
4.741539 9.9838543 -0.23151065
4.6498346 10.194633 -0.43446299
5.2339044 10.612831 -0.15936768
4.7248778 10.151278 2.0354807
4.7629623 9.9950113 -1.5395046
4.7646408 9.9885893 -1.6359979
4.6519446 10.185863 -0.34171897
5.5665975 10.68136 -0.70207238
5.3754692 10.750129 -1.0365901
4.7521238 9.892664 -0.43773389
4.7322021 10.087989 1.8577144
4.7533412 9.8894405 -0.13506128
4.6013703 10.21223 0.56366497
4.5985188 10.205754 0.46212184
4.7208104 10.323525 -1.7670797
5.3786345 10.627357 -0.14400189
4.6027331 10.102894 -0.32522008
4.5952535 10.212605 -0.2421682
4.7402 10.0845 1.4570079
4.6920757 10.001956 -0.93829954
4.586822 10.20489 -0.43988636
4.5976272 10.201273 -0.9437629
4.753376 9.8881969 -0.23420466
4.738626 9.994277 1.2629761
4.6652045 10.197132 1.5589397
4.9603047 11.077146 -1.1448789
4.7050371 9.8996401 0.0684985
4.5946622 10.119924 -1.1398664
4.7741513 9.8916302 -1.1344441
4.7613244 9.8863869 -0.83729029
4.7545438 9.9926643 1.6554184
4.5930843 10.207533 -0.043780841
4.7397594 9.9847517 0.65892869
4.7779531 9.888504 -1.2374564
4.7546229 9.8917027 -0.33588189
4.7373748 9.9794397 0.16393925
4.7626944 10.206093 2.2574711
4.7418828 9.9832172 -0.54062951
4.7785497 9.8861914 -1.3360136
4.6846128 10.103982 1.7602876
4.6537542 10.192579 -0.73925543
4.8919806 9.6988087 -0.73342538
4.6587148 10.191876 -0.93570656
4.7689209 9.8932352 -1.0405319
4.7546358 9.888689 0.35981473
4.679656 10.098286 -0.92980218
4.7603064 9.8879204 0.56251132
4.732954 10.087926 1.369648
4.6402273 10.278106 1.5627679
4.7374868 10.073153 1.6619477
4.7297659 10.089838 1.9610196
4.825655 10.127544 -0.44209328
4.6468496 10.193535 0.56112599
4.6555033 10.187211 0.96273088
4.7484083 9.9883385 1.7560564
4.7398109 9.9858694 0.86075616
4.7317362 10.076405 1.7593526
4.6502252 10.192761 -0.13333555
4.7427506 9.9826307 0.55854744
4.7382903 9.9840574 1.1680716
4.5959754 10.197577 -0.53827262
4.5859499 10.212929 -1.0461208
4.7757154 9.6762676 -1.0457537
4.743886 9.9790411 0.96423966
4.6775889 10.094965 -1.0406963
4.7549238 9.8943892 0.061329674
4.6390662 10.280628 1.4573447
4.7416053 9.9800444 0.7563653
4.737494 9.9792128 0.3577733
4.9033155 9.5917826 -0.63372815
5.2163224 10.750155 -0.15411578
4.5856514 10.303985 -1.6406461
4.8222828 10.061783 1.0347729
4.7751389 9.8062801 -1.2328568
4.6773448 10.096605 1.566081
4.6987433 9.8963289 -1.0523492
4.5857863 10.385983 -1.8338748
4.7699385 9.9935436 -1.8392431
4.687407 10.105624 -1.6409534
4.6767082 10.19997 -1.5376502
4.6958642 9.902997 0.76154864
4.6590328 10.194863 -1.0348579
4.6553874 10.193939 1.3585385
4.7605624 9.6016102 -0.73588437
4.7890224 9.6025448 -0.52496141
4.8805275 9.6844196 -0.33758366
4.6667614 10.191607 1.6574632
4.7849998 9.6937122 -0.73368448
4.5935516 10.201952 0.26425216
4.5793166 10.027477 -1.7806439
4.6510782 10.19666 1.2557887
4.6000857 10.217007 0.76707089
4.8542385 9.8074198 -1.8484483
4.8837638 9.6882029 -0.63255113
4.9079247 9.4839497 -1.228694
4.8873568 9.5941448 -0.92818058
4.8835793 11.574385 -0.29149014
4.8867817 9.5901222 -0.73300731
4.5820231 10.385755 -1.6373657
4.6372819 10.281224 1.6548495
4.5843391 10.309989 -1.5238314
4.6768603 10.100719 1.3620806
4.6843915 10.095734 1.8580142
4.6895685 9.9970665 1.4654479
4.8939428 9.5058689 -0.91789842
4.6107817 10.024227 0.82776928
4.5853696 10.208142 -0.83433354
4.611187 10.036752 0.78867561
4.7504635 9.993742 1.9623305
4.736764 10.165066 1.9605696
4.6405668 10.28021 1.3619869
4.7347155 10.089918 1.1573467
4.7799044 9.6874285 -0.43798417
4.7506742 9.9961147 1.8565979
4.5863357 10.002681 1.7675649
4.6439734 10.280762 0.66305625
4.5743985 9.9941311 1.6773403
4.7872672 9.5951824 -0.93815368
4.6661501 10.193916 1.7586558
4.6074038 10.107392 0.47086152
4.8964591 9.4987154 -0.84493792
4.7737594 9.6938715 -0.34520057
4.6820807 9.7947359 -2.1573963
4.9034629 9.5013361 -0.7371251
4.9549665 9.5913658 -1.1361656
4.6040964 10.104593 1.7976274
4.6069117 9.9847631 2.0095913
4.837996 10.431561 0.063791424
4.7487078 10.403759 -0.36043376
4.7730656 10.411527 0.32870638
4.7620559 10.416303 0.44880602
4.7625957 10.41188 -0.25137648
4.9511323 9.5884819 -0.8435536
4.7631149 10.423086 0.53065336
4.740653 10.410844 -0.17446837
4.6637087 10.193995 1.8610895
4.7388015 10.163668 1.6384516
4.7223339 10.427616 0.30787528
4.9469981 9.5786524 -0.73195517
4.7665205 10.420189 0.15532717
4.7666326 10.410626 1.3996987
4.7650714 10.417905 0.84252459
4.7417421 10.260335 0.74961889
4.9386892 9.6751881 -0.44443458
4.7703667 10.192146 -0.8314898
4.6969509 9.9082937 -0.23953809
4.6672859 10.196935 1.9602288
4.7315798 10.304054 -0.53342938
4.8501 9.8740463 -1.337162
4.845355 9.881609 -1.9431798
4.8330765 9.8143539 -1.3375325
5.0556006 11.21636 -0.47674349
4.6889277 9.9887476 1.6579485
4.6914186 10.002769 1.3650739
4.683639 10.186111 -2.1218033
4.7714887 9.7235546 -1.1341299
4.9827285 11.028912 -1.1560776
4.6528082 10.298522 -1.5357194
4.6714892 10.187992 2.1586931
4.6389399 10.374916 -1.1466969
4.6482863 10.383692 0.96797609
4.6460314 10.38031 -0.732961
4.6520758 10.398627 0.76321238
4.5930781 10.20014 -0.33132312
4.5795026 10.199626 -1.4595851
4.8549147 9.9845943 -0.54289007
4.6637478 10.394371 1.0511221
4.9623623 9.5921974 -1.0297627
4.6451964 10.392611 -0.85299999
4.6881461 9.9977121 0.96205509
4.7356381 10.163527 1.556187
4.645678 10.37028 -1.4130989
4.7417307 10.421095 0.95951962
4.6458912 10.390554 -0.44046929
4.6919427 9.9931116 0.85897756
4.6422272 10.397367 -1.2300791
4.6925597 9.9992352 0.76039684
4.5800657 10.305642 -1.0368577
4.6435089 10.375686 -1.3400967
4.6353798 10.287843 1.2619319
4.6686621 10.09683 0.86427671
4.605649 10.217753 -1.2448335
4.9307666 9.6702814 -0.34699413
4.8431005 9.8703442 -1.1525271
4.7573352 9.8865232 0.86308825
4.5817361 10.310255 -1.3381414
4.8557129 9.872963 -0.43579617
4.7599244 9.8852873 0.9594937
4.5804281 10.307636 -1.1382517
4.6470261 10.385822 -0.13670577
4.6480846 10.391745 -1.0328255
4.7363691 10.191144 -1.5360165
4.6959081 9.9100304 0.15673961
4.6527429 10.397564 -0.33895728
4.6567044 10.382657 -0.034415588
4.6384153 10.386871 -0.23948082
4.7525525 9.9886265 2.0501778
4.7435708 9.9835529 -0.63642317
4.7391977 9.9855766 -0.43235651
4.572969 10.375488 0.35989821
4.5697536 10.376054 -0.036036268
4.7260942 10.16967 1.3601378
4.7550941 9.9862242 2.1561913
4.5719948 10.475199 -1.2262913
4.575788 10.375381 0.46149278
4.5704017 10.374974 0.16241817
4.5777626 10.379214 -1.1432173
4.7718167 9.5903969 -0.23115152
4.6432228 10.385875 0.25995728
4.6682935 10.384998 0.37938461
4.6846676 10.198893 -1.8341562
5.4269252 10.692419 -1.3016448
4.8568449 9.8088064 -0.95086342
4.8564301 9.7690516 -0.13015528
4.7652063 9.8114815 -0.03720108
4.862649 9.796773 -0.6279273
4.7366056 9.9813576 -0.33817366
5.3803163 10.712511 -1.3199413
4.7809286 10.411707 0.073574968
4.5776868 10.304313 -0.73736268
4.7782502 10.442553 1.1661816
4.7603388 10.406872 1.2446377
4.7619896 10.188237 -0.1399537
4.8808002 11.262529 -1.1270508
4.7640553 9.997695 -1.4374788
4.6999207 10.005608 -1.1395179
5.068758 10.694329 -0.20114574
4.6529264 10.383217 0.16042738
5.4721689 10.689011 -1.0015044
4.6422086 10.295753 -1.0402043
4.6735964 10.201009 -1.7358284
4.7611017 10.2025 -1.7279965
4.6520605 10.293756 -1.3420049
4.5990424 10.200547 1.1570079
4.7017684 10.025204 -2.0193629
4.577095 10.381966 -1.3370728
4.5951791 10.21079 -0.73664659
4.6887269 10.00414 -1.3313872
4.781631 9.8964605 -1.5325259
4.7967014 11.38112 -0.237717
4.9112844 11.263783 -0.48851687
4.5413222 11.325303 -0.36033022
4.7384181 10.076639 0.73844212
4.756393 10.00028 2.3668592
4.6496339 10.384146 0.069671527
4.6954412 9.8996277 -0.038363673
5.1795554 10.705525 -0.16148932
4.940114 9.5885019 -0.44136849
4.7693348 10.424591 1.4513071
4.6942492 10.100535 2.1551108
4.76931 9.813055 0.06568408
4.7436218 10.092428 -1.5427182
4.6727047 10.097227 -0.63810563
4.7613239 9.8861618 1.0555331
4.7737532 9.812952 0.56134599
4.6879439 9.997941 1.1598752
4.7973247 10.299164 -1.0928578
4.7568598 9.8122492 -0.53803152
4.6346598 10.277892 0.86477989
4.7743349 9.8143215 0.65785682
4.475481 11.597442 -0.039335281
4.637897 10.27854 0.56436682
4.676229 10.094273 -0.33936626
4.6723785 10.093239 -0.43387958
4.6932411 10.191504 -2.3729103
5.2528024 10.736764 -1.3404135
4.746768 10.204439 -0.40996906
4.5722055 10.375713 0.26118734
4.7425351 9.9885283 -0.74092364
4.6816292 10.098598 1.6599642
4.8213892 11.399055 -0.23350558
4.500236 11.753259 -0.037174772
4.6749759 10.089553 1.2611543
4.7590866 9.8897667 0.76042634
4.5717263 10.374409 -0.13328101
4.936615 9.6737041 -1.1204138
4.8872428 9.6800919 -0.43801457
4.5764537 10.383213 -1.2376331
4.6402531 10.285983 0.15148182
4.6711302 10.097901 0.45898718
4.6363964 10.281829 1.050088
4.6765451 10.096896 -0.24028516
4.6704206 10.098486 -0.73537761
4.6921139 10.094183 -1.8205477
4.7306418 10.061834 1.2684423
5.2943425 10.890927 -1.0926685
4.6985502 9.9090557 0.56628376
4.9008417 9.5988989 -0.53380448
4.7719278 9.8125429 0.46550763
4.8761473 9.6127701 -0.24483217
4.7636728 9.8947201 -0.93554252
5.4386649 10.778527 -1.3182617
4.7609906 9.9903831 -1.2366368
4.6338339 10.291598 0.94668144
4.6704736 10.096034 0.066766217
4.6453886 10.193497 0.36116165
4.6973019 9.8975077 -0.44299465
4.6500859 10.192494 0.060872812
4.8757868 9.6957827 -0.23918593
4.7765803 9.6988764 -0.22471724
4.5814781 10.304215 0.060363706
4.7538013 9.8876896 0.46258554
4.6733208 10.092631 0.56696171
4.7457213 9.9847946 1.0569788
4.6958323 10.002368 0.16278589
4.6903267 9.9996595 -0.33672959
4.6723003 10.095673 0.35571408
4.6598711 10.294663 -1.9514738
4.7686353 9.8084278 -0.73548472
4.8529549 9.9500408 -1.9482119
4.6470876 10.189572 -0.041600443
4.6480293 10.189956 0.46106717
4.8466029 9.7948265 -0.7400564
4.8289194 9.9835587 -2.0425129
4.7518911 9.9901381 -1.1412594
4.5799508 10.306141 0.65853179
4.6717496 10.097767 0.65746164
4.7373466 10.082713 2.0527303
4.6370454 10.283721 0.35225007
4.7093878 10.029317 -1.7425694
4.6506886 10.30096 -2.2516019
4.6576018 10.289412 -1.6422892
4.6905379 10.003693 -0.83320272
4.6786904 10.186242 -2.0419075
4.7839556 10.074409 -2.7921181
4.6419945 10.279705 0.467051
4.6905565 10.004647 -1.2287911
4.8305979 9.8062296 -1.0539199
4.6656952 10.286777 -1.8323379
4.6865773 10.107229 2.3693786
4.6406851 10.280581 0.26262698
4.6748433 10.114421 -2.2468016
4.7335944 10.096313 1.5543203
4.6905198 9.9960051 1.7566621
4.6493864 10.192822 -0.24209079
4.677155 10.207071 -1.6370212
4.9376073 9.5886946 -0.5378806
4.7708554 9.8145475 0.36477318
4.6374288 10.287553 0.068339646
4.7789221 9.8973217 -2.1380796
4.693295 10.000703 0.5615871
4.8563976 11.046458 -1.112663
4.6461353 10.188303 0.25863153
4.5746827 10.305667 -0.53867996
4.691998 9.9982119 0.46395358
4.7276821 10.190378 -1.6277856
4.6441841 10.190947 0.16456631
4.5937791 10.200845 -0.64114928
4.7008939 9.9839096 2.0560095
4.6776915 10.102988 -0.84031165
4.8829026 9.5996828 -0.13721111
4.6430287 10.29216 -0.93322402
4.6385655 10.27998 -0.042433105
4.7682552 9.8068151 -0.63279849
4.6597438 10.292217 -1.7371299
4.689321 10.008709 -0.74157298
4.6818466 10.320507 -2.4605062
4.7439923 9.9900417 1.362206
4.5817823 10.30532 0.16267738
4.5795999 10.308838 0.25938976
5.4638391 10.63331 -0.13517468
4.7510095 9.9885406 -0.94251436
4.5790205 10.3083 -0.038961433
4.6904702 10.104694 -1.7474174
4.577024 10.310246 -1.2357386
4.6914926 10.005314 -0.24189872
4.6732183 10.092405 -0.041019201
4.9510703 9.5981665 -0.33407784
4.6648073 10.296733 -2.0378952
4.6726046 10.095291 -0.14019178
4.6965957 9.91294 0.26124194
4.7681656 9.8075705 -0.83841562
4.6374984 10.287586 -0.14078395
4.6447186 10.193386 0.66273826
4.6942129 10.007854 1.856546
4.6595592 10.125667 2.4465449
4.7767501 9.8040056 -1.0329685
4.7883396 9.9032049 -2.0454955
4.7475109 9.9883299 -0.84122711
4.7727394 9.808485 -0.94020832
4.7371125 9.9825954 0.45973369
4.6466208 9.9993954 -2.5404098
4.8311105 11.502563 -0.3049103
4.6697183 10.101079 0.16260821
4.5874691 10.198663 -1.530247
4.704864 10.008216 -1.5296288
4.7335978 10.095553 -0.33232817
4.6903548 9.9952173 -0.6391257
4.6732831 10.192197 -1.3319764
4.695406 10.004666 0.26335549
4.8706694 9.987277 -1.7712061
4.7568207 9.8875322 0.66114068
4.6769094 10.094052 1.4644966
4.7378221 10.093616 -1.0254169
4.5713305 10.375108 0.059743434
4.7575665 9.9847383 2.4512844
4.6944885 10.002813 -0.13690241
4.9041195 11.200069 -1.0964903
4.741631 9.9838781 -0.1420311
4.7399845 10.245677 -1.1917713
4.5799627 10.307389 -0.6377126
4.7731905 9.81355 0.75974935
4.8324347 9.8816681 -1.4358779
4.6544113 10.380677 -0.5277251
4.842463 9.8525066 -0.54565012
4.6994791 9.9696541 -1.9428583
4.704051 9.9144764 -1.1437197
4.6941609 10.002567 -0.039096754
4.649158 10.379673 0.55832481
5.4617195 10.780474 -1.1559476
4.6903615 10.101566 2.0585368
4.6918044 10.116147 -2.1516285
4.7147422 10.012116 -2.1250358
4.6967316 10.002919 0.35865793
4.7326102 10.170803 -1.8266513
4.6898794 10.004867 -0.44340739
4.6925974 10.104408 -2.4173253
5.1774588 10.636477 -0.16742723
4.6898665 10.004149 0.059826009
4.6919513 10.003387 0.65769386
4.9827051 9.4707003 -1.2367804
4.7339878 10.18246 -2.0114841
4.7833452 9.5829258 -1.132771
4.695962 10.101598 2.2590702
4.5792041 10.304222 0.86574942
4.5737872 10.38414 -1.4353573
4.700201 9.9072924 -0.33185413
4.6495018 10.19013 0.86308372
4.6515288 10.300343 -1.4335864
4.6697345 10.098946 0.76481438
4.6740007 10.095516 0.26411185
4.6717501 10.096068 -0.5402233
4.7387152 9.9798574 0.26256832
4.6580219 10.388783 0.66301465
4.6646962 10.300382 -2.3507352
4.8203006 11.160141 0.097340524
4.7674751 10.417165 0.7482003
4.6460562 10.400855 1.1560799
5.2133045 10.806243 -1.065887
4.6579614 10.192937 1.4562132
4.6497626 10.192291 -0.53925699
4.5787358 10.309644 -1.4349843
4.6870055 10.192363 -1.9461663
4.8377309 9.8260393 -0.83606201
4.8605833 9.6940155 0.66969663
4.8833952 9.6862249 -0.54076695
4.8622527 9.779747 -0.44916826
4.6915951 10.106679 1.9639659
4.6472182 10.292598 -2.1198933
4.8647871 9.7836514 -0.33753869
4.5482588 10.566276 0.082087368
4.693068 10.002952 -0.53682238
4.7594895 9.891654 -0.74236006
4.7604666 9.8108358 -0.43842947
4.8975825 9.6094551 -0.44174466
4.8882513 9.6118574 -0.33959985
4.8247967 9.9600191 -1.8471868
4.5675025 10.470013 -1.4368051
4.7482581 9.9847193 1.5633067
4.7246304 10.209144 -0.61740273
4.7481375 10.101815 -0.53845924
4.7457581 10.222769 -0.53040767
4.7474279 10.222542 -0.38108444
4.7108164 10.447616 -1.1151128
4.6817102 10.012304 1.9546555
4.7343073 10.087566 -0.23505427
4.7006278 9.9981918 2.2545438
4.639637 10.281703 -0.54681772
4.6469054 10.290872 -1.1401265
4.6869636 10.008718 2.1528192
4.6419573 10.283488 -0.44449675
4.8854814 11.225976 -0.49327761
4.6794133 10.004486 1.5582772
4.7922068 10.4791 -0.040834595
4.6553988 10.1849 1.1652544
4.5850744 10.313722 -1.7391472
4.7937384 9.8895483 -1.4380271
4.6505942 10.189464 1.0611682
4.7406235 10.090888 -1.4431713
4.9800515 11.418438 -0.17062251
4.7454653 10.094708 -1.6398714
4.5803914 11.660612 -0.02092845
4.6404004 10.389175 -0.92250019
5.5007968 10.759905 -1.2861775
4.6716456 10.095649 1.1598649
4.6443686 10.381486 0.87341571
4.9571109 9.6752529 -1.3543563
4.7612758 10.215642 1.2243247
4.6390886 10.290812 -0.63356256
4.6356273 10.300199 -0.8428511
4.6495337 10.292664 -1.2470251
4.5976205 10.205247 0.059489906
4.6500134 10.188031 0.75811929
4.582406 10.303959 0.55521405
4.7616544 9.8856373 -0.64090323
4.6492262 10.382289 -0.64092904
4.7398305 9.9753103 0.066640757
4.6897097 10.00172 1.0648837
4.6699581 10.186423 -1.2343357
4.5965815 10.207754 0.85504353
4.8061891 10.447584 0.33102852
5.4726567 10.721957 -1.096411
4.6733313 10.092206 0.96069556
4.7412653 10.105471 0.25616822
4.6723728 10.206597 -2.2497618
4.5887413 11.690295 0.042164188
4.929739 9.6899958 -0.54062551
4.8389816 10.190559 -1.4258062
4.6617146 10.19913 -1.1361673
4.745069 9.9859409 1.4613086
4.8313289 9.8679514 -1.2539043
4.6749115 10.095098 1.0568497
4.6144757 10.11501 1.943905
4.690671 10.00444 -1.0389059
4.6445818 10.293216 -0.34203935
4.7778778 9.8046408 -1.1496708
4.6788263 10.1011 -1.1347302
4.5833545 10.30378 0.46279749
4.7345963 10.069057 -0.64641839
4.7330003 10.069276 -0.83368635
4.744122 10.084843 -0.75831831
4.7843804 9.7131815 -0.53660917
4.6479964 10.286481 -0.74403256
4.7268505 10.275477 -1.9526819
4.8158154 10.44936 1.2620918
4.8509045 9.8821507 -1.83672
4.7553205 10.09964 -1.9307631
4.8585954 10.873923 -0.27460793
4.8346586 9.8701315 -1.5263047
4.7523599 9.9906588 -1.3370321
4.9132695 9.4340734 -1.341251
4.5956225 10.213388 -0.13588145
4.6351271 10.284479 -0.25090399
4.7512732 10.081847 -0.44338524
4.8249135 9.9273825 -0.21481222
4.6977692 10.181438 -2.4449909
4.5948744 10.211562 0.16633326
4.7568097 9.8904352 -0.53776979
4.7376952 10.075039 -0.93571246
4.9423647 9.5839758 -0.63526279
4.6797261 10.202821 2.2625926
4.8429661 9.8986874 -2.1019382
4.745194 10.295422 -1.4397259
4.8567519 9.9731932 -1.4721669
4.7507625 9.8906536 -0.044453043
4.660924 10.197679 2.0545018
4.6958132 9.9820356 -1.4540746
4.7485032 10.091506 -1.8477772
4.6806169 10.004537 1.2640024
4.7555552 10.093291 -2.0284824
4.7354312 10.08019 -1.1354569
4.571806 10.211287 -1.3342559
4.6775389 10.006042 2.3650801
4.6629467 10.018307 2.5344992
4.6815329 10.017391 2.4869566
4.6761498 10.192203 -1.4291666
4.6568022 10.385111 0.4619728
4.7673607 9.9923801 -2.0454736
4.7481184 10.090354 -1.7404575
4.7354779 10.450915 -1.126452
4.7460132 10.083383 0.55837566
4.7901049 10.418481 -0.51917219
4.7849026 10.465403 -0.84500676
4.8697586 9.7823429 -0.53571373
4.7632041 10.432684 -0.48217064
4.8152947 10.870748 -0.2796945
4.6893921 10.098332 -1.4329193
4.7497272 10.480996 -0.28557065
4.7747273 9.8008871 -1.4474188
4.6777997 10.101113 -1.3355105
4.7512541 9.9903612 -1.042953
4.6014609 10.112475 -0.94793975
4.7294145 10.186418 -1.9585048
4.7373996 10.08765 0.15642659
4.7349634 10.199814 0.1543133
4.7400646 10.077515 -0.047542468
4.8660898 10.003573 -0.61100817
4.7558422 10.184803 0.54736876
4.7391982 10.301886 -0.24897148
4.7364297 10.077486 2.2699773
4.7587485 10.205256 2.195704
4.728744 10.168829 -0.20288703
4.8646145 9.9025326 -0.81815779
4.893816 10.104989 -1.7048573
4.8509226 10.162238 -1.1240647
4.774704 10.346711 -1.084496
4.831944 10.124004 0.33780622
4.7526779 10.297428 0.63761091
4.8277597 10.032849 1.2140269
4.763442 10.095209 0.042209383
4.7494206 10.315549 0.31181145
4.7251287 10.159669 -0.72037411
4.6094298 10.113445 -0.45852208
4.6054969 10.102884 0.2802951
4.5828433 10.03737 1.5418037
4.7329669 10.165009 -1.0617079
4.77145 10.152874 -1.1670117
4.7636395 10.191564 0.44135943
4.8888206 9.716321 -1.539214
4.613812 10.043409 -0.19434452
4.5946798 10.039646 1.2141792
4.733171 10.166521 0.22681774
4.7430253 10.160999 -1.4334908
4.7374115 10.176225 -1.3597455
4.6073494 10.223875 -1.7480533
4.7355247 10.203687 1.0631753
4.8334851 10.001967 -1.5632346
4.8537965 10.0773 -0.7897231
4.8464584 10.189458 -1.6987807
4.758215 10.31053 -0.78160542
4.7524199 10.352436 -1.6868788
4.8221755 10.185553 0.13032676
4.8246412 10.152952 -0.67036921
4.8648019 10.04885 -1.4894794
4.9503016 9.7834911 -0.46083492
4.752512 10.31806 -0.41473204
4.8311367 9.9554501 -0.82420862
4.5200825 10.139248 0.29554039
4.7340322 10.086546 2.159564
4.6433306 10.365565 -2.5406098
4.6009669 10.124809 -0.73429739
4.872756 9.6857929 -1.2532043
4.8552384 9.7104836 0.44051254
4.8761454 9.6845131 -1.1410737
4.7400508 10.087131 2.4697466
4.6096253 10.112037 -0.83893096
4.6868033 10.020027 -1.811051
4.6639338 9.8963461 -2.3611097
4.8347673 9.9614153 1.3660922
4.7069368 10.112713 -2.0375237
4.8875027 9.5994558 -1.1133052
4.7923427 9.9875917 -2.431232
4.7576513 10.177923 -2.1296098
4.8254738 9.9766703 1.4684825
4.7316957 10.185245 2.3616838
4.6108518 10.030356 0.51879758
4.5946589 10.098992 -1.2241864
4.7251272 10.278947 -2.04544
4.5881424 10.013228 0.40117389
4.7206998 10.178815 0.65838408
4.8709903 9.6941404 -1.4435129
4.7322636 10.072818 2.3525486
4.8687577 9.6966877 -1.0402439
4.6178637 10.042044 -0.58598256
4.6159363 10.038207 -0.62346697
4.6177187 9.9892292 -0.41969681
4.5461545 10.482959 0.24801776
4.7868567 9.7987194 -1.8306047
4.7915878 9.9067144 -1.9361134
4.5996833 10.296976 -1.9437076
4.5010276 10.59667 0.064402565
4.6675529 9.816431 -2.0374355
4.9545336 9.6515408 -1.2830665
4.5342522 10.583295 0.14802907
4.8671341 9.6884003 -0.94849372
4.5991201 9.9831333 0.28463694
4.5462961 10.576773 -1.0150901
5.0759735 9.6451855 -1.0223687
4.5398455 10.621586 -0.007077693
4.745512 10.071527 -2.1323888
4.8873153 9.5107203 -1.1455195
4.8822074 9.688839 -0.84361637
4.7830138 9.820302 -1.9512267
4.7256141 10.254776 -2.4503596
4.6023808 10.408458 -2.422024
4.7467794 10.157288 -2.4300964
4.7924829 10.073277 -2.5226324
4.6377058 10.415529 -2.4658799
4.749094 10.161585 -2.5149593
4.7203379 10.247782 -2.5064042
4.8274255 9.9806461 -2.5745194
4.6738348 10.276069 -2.5554519
4.5794435 10.427649 -2.5278733
4.771184 10.105929 -2.6096764
4.863513 9.9479465 -2.6497774
4.7640533 10.025919 -2.6211581
4.7426987 10.078102 -2.2391777
4.8081446 9.8968019 -2.216311
4.7785373 9.9734144 -2.2236321
4.8423405 9.9729719 -2.1990967
4.7680793 9.9941511 -2.1485476
4.8372064 9.8801556 -2.2298994
4.6454382 10.402637 -2.344537
4.75385 10.102178 -2.4223182
4.8370643 9.8891897 -2.436286
4.6364031 10.370501 -2.26142
4.7450824 10.092846 -2.3177071
4.8300533 9.9467001 -2.3789706
4.7753711 10.034133 -2.3573709
4.9491944 9.6940784 -1.0583751
4.7681932 10.191913 -2.8699126
4.6934967 10.287024 -2.8365173
4.7245865 10.253537 -2.1242535
4.8441734 9.8078775 -2.2364836
4.7905016 9.9936638 -2.5053897
4.8289142 9.882206 -2.3199797
4.7442455 10.191241 -2.2495866
4.8097925 9.9191771 -2.3580353
4.6584158 10.473396 -2.1194081
4.9055681 9.8054886 -2.3371382
4.8999867 9.6111021 -1.2082762
4.9721465 9.6012621 -1.3390529
4.5557199 10.08166 -2.2068014
4.6024389 10.064948 -2.5077024
4.6880417 9.9927416 -2.3391516
4.612906 10.126755 -2.3130136
4.5641537 10.238862 -2.289515
4.846137 9.8302364 -2.5006447
4.842638 9.821105 -2.0715947
4.8328099 9.7056017 -2.1225376
4.7906165 9.8182735 -2.1046803
4.5938759 10.40481 -2.3265898
4.8578439 9.7561483 -2.09022
4.7397366 10.186874 -2.7545586
4.6865373 10.293518 -2.7096746
4.8501649 9.8155479 -2.4409792
4.8127942 9.8511047 -2.5335093
4.8231721 9.9194584 -2.5446312
4.7127447 10.153514 -2.5910923
4.7896137 9.8926315 -2.4387491
4.6885767 10.181631 -2.5546737
