# .PCD v0.7 - Point Cloud Data file format
VERSION 0.7
FIELDS x y z
SIZE 4 4 4
TYPE F F F
COUNT 1 1 1
WIDTH 966
HEIGHT 1
VIEWPOINT 0 0 0 1 0 0 0
POINTS 966
DATA ascii
28.929161 47.762184 -1.3044397
28.394089 47.505875 0.76454836
28.557013 47.847588 -1.3207166
28.954794 48.006172 -1.4522976
29.156612 48.248455 -0.56497914
28.92733 48.025642 -0.45672131
28.305386 47.52166 0.31236342
28.312765 47.541088 0.78846431
28.77767 47.874298 -2.0453787
28.528233 47.645069 -1.4705665
28.446764 47.717979 -2.5715575
28.522732 47.779392 -2.5551391
28.638941 47.817959 -2.5338988
28.591194 47.7537 -2.4448566
28.669872 47.805416 -2.4398623
28.376339 47.671623 -2.3413529
28.450714 47.699039 -2.3299203
28.379999 47.655346 -2.4125476
28.527042 47.644405 -1.5202037
28.59495 47.636906 -1.8534195
28.373444 47.602676 -2.3548412
28.96191 48.042458 -0.56866342
28.978586 48.166916 -0.23670533
28.52709 47.881779 -1.199301
28.460306 47.630894 0.058194913
29.066845 48.180573 -0.82060897
28.779949 47.874836 -0.43822297
28.736217 47.734074 -0.55968887
28.466661 47.715672 1.4613137
28.475548 47.952709 0.68323886
28.459454 47.627579 0.17140462
28.575274 47.780735 -0.83790034
28.550518 47.859344 -1.1187104
28.457468 47.624191 -0.13481416
28.580721 47.786343 -0.93849516
28.551399 47.720203 -0.43986541
28.469685 47.87352 0.59759605
28.483683 47.867321 0.19083591
28.48683 47.767307 -0.53795385
28.562016 47.724922 -0.3325682
28.601849 47.85479 -1.4362526
28.671879 47.872841 0.96441501
28.579405 47.766403 -1.9229275
28.666183 47.723301 1.6424472
28.586683 47.866497 1.2616482
28.678839 47.871365 1.0579838
28.777449 47.873173 0.16125676
29.294258 48.117146 -1.9184204
29.156139 48.126987 -0.25325429
28.849604 47.812721 -1.5387442
28.927736 47.845005 -0.46745899
28.547754 47.722889 0.54171604
28.840004 47.810406 -1.0518513
29.369091 48.134266 -1.8232372
29.362511 48.11438 -1.4584649
28.486586 47.773483 1.9546996
28.529049 47.72649 -2.8262227
29.245676 48.136768 -0.68534458
28.361797 47.607727 -0.44510534
28.695217 47.901684 -1.9275953
28.561962 47.715843 0.66839069
28.425842 47.615742 1.0254519
28.551107 47.724888 0.38179034
28.453571 47.619648 0.67494857
28.565393 47.726612 0.064773411
28.76199 47.783119 -2.3960876
28.474129 47.595951 0.55295181
28.367598 47.775463 -1.2288663
29.053318 48.033733 -1.04989
28.556288 47.719151 -0.25184736
28.778091 47.768414 -2.8315172
28.77754 47.872154 -0.84258962
28.692652 47.863247 -0.53961951
28.863564 47.78698 -2.217335
28.562981 47.721344 -0.8479647
28.851688 47.816223 -0.74016047
28.460102 47.722153 1.0591406
28.678705 47.795872 -1.9339582
28.840082 47.88419 -0.64268625
28.76301 47.823868 0.16470112
28.841373 47.817028 0.45516437
28.567432 47.728859 0.46230224
28.839813 47.807922 -1.3351125
28.834206 47.80621 0.066773467
28.461515 47.72097 -0.34116039
28.465036 47.71925 0.96147281
28.463629 47.719013 -0.23531488
28.842976 47.823654 -0.95064259
28.764267 47.822025 0.36416376
28.844156 47.831726 1.0543345
28.861319 47.824066 -0.044635467
28.559805 47.716331 -0.032951482
28.744862 47.739342 -0.74708033
28.446739 47.60569 -0.72753704
28.844763 47.821159 0.85225534
28.661732 47.80547 1.3610045
28.673441 47.812397 0.058760501
28.458494 47.722824 0.86879683
28.555786 47.72876 0.15546773
28.445415 47.630123 1.2278817
28.571474 47.696423 -2.0656669
28.843809 47.806679 0.56457293
28.836769 47.727234 0.074614003
28.460583 47.610962 -1.2270149
28.574203 47.613846 -1.6485784
28.651432 47.696564 -0.35967562
28.444523 47.538486 -1.9048307
28.373049 47.490112 -0.91597962
28.748894 47.714489 -2.2412615
28.762928 47.718578 0.18216734
28.520899 47.585663 -1.3678269
28.389984 47.536522 -0.84408206
28.383926 47.532646 0.47369289
28.361143 47.464733 -2.0107908
28.464132 47.591557 0.7747553
28.576176 47.643517 1.0149339
28.451801 47.59124 1.3709397
28.364128 47.464924 -2.3988833
28.843767 47.823845 -1.7349863
28.772963 47.718822 -0.34202901
28.377956 47.592987 -2.2582753
28.37464 47.767952 1.4585832
29.092772 48.090599 -1.2244927
28.536673 47.961086 -0.56060171
28.476894 47.777729 1.0584083
28.480663 47.905819 -1.4448434
28.583675 47.783821 -1.5422302
28.556656 47.862156 -0.82920086
28.663666 47.714798 -0.55875796
28.579569 47.879326 -0.53125006
28.666103 47.806858 1.4555564
28.371189 47.692585 -1.1416199
28.365833 47.690632 -1.2337066
28.433676 47.596458 0.99511546
28.370974 47.788067 -0.55305541
28.363064 47.522034 0.23559111
28.515984 47.878822 0.95750678
28.590433 47.537693 0.44652507
28.56735 47.791321 0.95894462
28.761982 47.795082 -1.9280494
28.572725 47.782158 -0.23366304
28.573465 47.870911 -0.036654077
28.665176 47.802128 -0.84006476
28.672701 47.787865 -1.2375969
28.480335 47.69231 -2.1409168
28.465605 47.688869 -1.6414832
28.767429 47.822803 -0.040767927
28.423716 47.584713 -2.7286005
28.759584 47.824223 0.56506711
28.562757 47.714466 -0.54592681
28.458595 47.721161 1.1635766
28.768627 47.805733 -1.6359659
28.851482 47.723785 1.4253612
28.361139 47.610321 -1.7237843
28.779453 47.880867 0.56108576
28.353878 47.622242 -0.94417346
28.455582 47.591255 0.90664524
28.661911 47.660259 1.2937001
28.845264 47.72438 -0.54876363
28.843462 47.98658 -1.2366583
28.375109 47.763931 0.95840096
28.641211 47.733051 1.0819618
29.253542 48.109932 -1.5349953
28.648781 47.723843 -0.82170349
29.186407 48.116417 -1.5002205
29.236374 48.128235 -1.0368996
28.376862 47.764965 0.85615057
28.445059 47.541073 -1.2560537
28.343218 47.634171 1.1670439
28.556194 47.719231 1.3570423
28.659769 47.705311 -2.0386665
28.648746 47.709789 0.55477011
28.679401 47.88044 1.3609347
28.834274 47.827801 -0.24898
28.855755 47.993359 -0.63365549
28.838697 47.883575 0.9645173
28.76899 47.826069 0.46016377
28.648714 47.700123 -1.8481628
28.780354 47.877766 0.062661767
28.569508 47.544273 1.1513788
28.566814 47.716702 0.95651019
28.370722 47.624172 1.4813324
28.355497 47.61274 0.45685557
28.374001 47.628338 0.85917407
28.675276 47.794411 -1.4362843
28.393385 47.856186 1.2836094
28.46072 47.720364 0.45812097
28.744671 47.849388 -2.2128026
28.66609 47.81506 0.95781791
28.365112 47.700272 1.2597567
28.757277 47.822357 0.96503079
29.050554 48.114323 -1.3443592
28.463078 47.69434 -1.732615
28.714437 47.62999 -2.1380723
28.779743 47.73241 -1.9174966
29.563053 48.106129 -1.3397787
28.36755 47.617668 1.3573264
29.084084 47.841545 -0.52882624
29.284426 48.185375 -0.93184602
28.356659 47.617573 -0.63721526
28.665192 47.806702 -0.54073745
29.300234 48.124611 -0.93080372
28.445627 47.496742 0.73990357
28.365913 47.700546 0.55980825
28.566753 47.725311 0.26747724
28.572042 47.790039 1.1613209
28.354153 47.622948 -1.0324552
28.842039 47.882381 0.84913069
28.599024 47.760593 -2.3082197
28.575714 47.873688 1.3699607
28.600935 47.856369 0.27449128
28.767431 47.815018 -0.73729879
28.368263 47.703274 0.66637748
29.568523 48.174088 -1.4349537
28.664352 47.803589 1.564883
29.264597 48.108852 -1.4547937
29.263247 48.125149 -1.2384708
29.273491 48.131622 -0.83735943
28.473509 47.781101 1.3652151
29.176147 48.193756 -0.74291176
28.36824 47.697906 1.5633743
28.362663 47.615276 -0.54304242
28.574514 47.782345 0.16036627
28.368876 47.696503 -0.33865139
28.847469 47.885826 -0.53446758
28.427879 47.52174 -0.1284897
28.366285 47.694584 -0.23551835
28.46459 47.715576 -0.53546017
28.670568 47.804321 -1.1343001
28.671856 47.814629 1.1603277
28.366604 47.699619 0.36273497
28.366894 47.693729 -0.54153681
28.356731 47.612701 -1.1398532
28.67234 47.810955 1.2606897
29.078306 47.834808 -0.96296984
28.569723 47.783436 -0.038582016
28.756424 47.829914 0.26396564
29.340219 48.197582 -0.95132381
29.238682 48.114094 -0.49783626
28.3596 47.608879 -1.6409936
28.377974 47.766586 -0.94743156
28.342525 47.529915 0.058351099
28.682219 47.871948 0.55996531
28.670374 47.815041 0.65891838
28.846056 47.816162 0.77280635
28.561193 47.705296 -1.6421853
28.346478 47.62027 -0.14915082
28.362587 47.695984 -0.040691551
29.266348 48.097237 -1.3282344
29.27812 48.098568 -1.6418482
28.376537 47.661781 -2.2289634
28.856615 47.816055 1.2556225
28.673717 47.812668 0.16163667
29.282917 48.111732 -1.7496803
28.76157 47.821724 -0.53967279
28.666122 47.808815 0.86195737
28.381891 47.768944 -0.8357808
28.67893 47.721947 -2.23118
28.562876 47.711998 -1.2471794
28.574934 47.781605 -0.6357466
28.432449 47.536018 0.93624437
28.36565 47.698517 -0.73587769
28.353764 47.61768 -0.74576473
28.389799 47.776783 0.46650732
28.353765 47.61702 -1.326069
28.691633 47.875393 0.44884479
28.788843 47.740845 -0.43431756
28.346992 47.612072 0.15867175
28.548677 47.640236 -0.1419881
28.668512 47.81348 0.7614094
28.344746 47.620224 -0.036577292
28.84515 47.807854 -1.2429368
28.559614 47.718266 -1.3331196
28.343584 47.610363 0.75513852
28.468994 47.710873 -0.84193647
29.570093 48.228142 -1.8423203
28.569605 47.779213 -0.73483199
28.441345 47.608849 -1.8201847
29.367943 48.273998 -1.3361951
28.572447 47.708038 -1.5301675
28.558231 47.721027 1.1742884
28.483995 47.76207 0.058086593
28.350609 47.623543 0.35632798
28.661039 47.725071 -0.94060814
28.551609 47.633488 -2.0942662
29.042131 48.121464 -0.24446574
28.669779 47.812771 0.26111284
28.578335 47.788963 1.7578605
28.346319 47.619045 -0.22537869
28.659327 47.724518 -1.3412344
28.352091 47.608356 0.26001012
28.4753 47.694775 -2.0599906
28.368597 47.692673 -0.43578088
28.357363 47.621445 -1.2464932
28.671339 47.809399 -0.14191388
28.484718 47.763504 -0.03948506
28.48876 47.763699 -0.22686009
28.345892 47.613682 1.2691156
28.779522 47.878094 0.45972633
28.559738 47.714897 -1.1378951
28.347191 47.617165 0.54785848
28.764156 47.802883 -1.7360166
28.668295 47.806644 -0.34188512
28.369316 47.697426 0.064654306
28.48007 47.767475 -0.14010453
28.762337 47.821915 1.6530893
28.347116 47.623001 0.06048381
28.770039 47.775974 -2.3238134
28.40004 47.777576 -1.8527981
28.880508 48.097088 -0.23525254
28.366667 47.631729 1.5577784
28.581886 47.879265 0.66290867
28.457916 47.722668 0.65922028
28.593864 47.857182 -0.73241174
28.843052 47.733006 -0.65085483
28.765373 47.821476 1.0561404
28.762241 47.786316 -2.0314589
28.842764 47.819218 -0.33878013
28.55492 47.722355 1.0772448
28.769274 47.814518 -1.137123
28.76651 47.82114 0.65844822
28.388048 47.501003 -0.75078094
28.763445 47.820232 0.86445767
28.494705 47.89518 1.3728477
28.837858 47.885132 0.061549973
28.762703 47.826412 0.75665045
28.369888 47.765446 -0.14153872
28.368319 47.700134 1.3583181
28.664499 47.732407 0.45898691
28.462606 47.71595 1.2608761
28.85594 47.806438 -2.6649985
28.559887 47.891716 -1.0650514
28.66485 47.811066 0.36615387
28.666632 47.801205 1.7619519
28.484755 47.856251 -1.924987
28.766922 47.818333 -0.63586587
28.848339 47.820988 1.1760448
28.755783 47.819016 1.4614005
28.840036 47.820824 -0.84533328
28.766455 47.816151 -0.8448329
28.669609 47.808304 -0.038476057
28.763319 47.821941 -0.2404726
28.840145 47.816406 -0.437112
28.760731 47.817249 -1.0405333
28.660538 47.803238 1.6589358
28.833889 47.822479 -0.13600683
28.466423 47.719276 1.5647193
28.370268 47.608654 0.94794953
28.73551 47.683781 -0.119404
28.64789 47.712452 1.4693272
28.500179 47.886806 0.64393079
28.375671 47.762966 -0.031681366
28.372107 47.765717 -0.7485866
28.473162 47.78635 1.6622411
28.490934 47.501152 1.1502655
28.778797 47.877365 -0.23652227
28.750061 47.698433 -2.962774
28.734072 47.730492 1.1234621
29.27416 48.198444 -1.7245215
28.563248 47.727764 0.87685269
28.356359 47.625725 -0.83419442
28.880447 47.658421 0.93497479
28.687162 47.86927 -0.4372316
28.765245 47.810295 -1.2366112
28.889301 47.697491 0.66786891
28.857431 47.82148 -1.1381218
28.369352 47.701038 1.4571248
28.766739 47.811211 -1.3389975
28.472218 47.704514 -0.9358927
28.683228 47.866833 0.65977067
28.763014 47.809719 -1.4413669
28.662855 47.722797 0.14661321
28.64757 47.729977 -0.22266532
28.353825 47.606609 0.64891225
28.765854 47.799667 -1.8441912
28.768681 47.87965 -1.4350528
28.467838 47.702911 -1.2371382
28.381056 47.780663 1.1624587
28.379585 47.771671 0.76469684
28.649433 47.733986 0.37628329
28.391571 47.762051 0.057472054
28.471607 47.68816 -1.9425789
28.356104 47.615719 1.0517828
28.757071 47.821407 1.1726376
28.438982 47.585598 0.38456243
28.573229 47.781586 -0.33338314
28.460415 47.506226 0.23997553
28.846031 47.812904 -0.53498405
28.762009 47.824078 -0.14005361
28.666426 47.810268 0.55777812
28.445704 47.628311 0.47783905
28.389259 47.765842 0.25583234
28.48188 47.770336 0.75632852
28.969772 47.803562 -1.4508152
28.562918 47.710781 -1.4334034
28.464041 47.713779 -0.44684064
28.847494 47.813587 0.95920748
28.66839 47.804836 -0.23914467
28.458721 47.7248 0.2657204
28.463022 47.716984 1.6621332
28.368437 47.687626 -0.9345575
28.669964 47.794811 -1.0444243
28.667309 47.813988 0.45732343
28.370066 47.693451 -0.14042923
28.68675 47.870087 0.75715786
28.464392 47.699532 -1.3402902
28.573303 47.789825 1.5597078
28.593441 47.559288 -0.081772298
28.539352 47.605705 -0.69292128
28.372038 47.688965 -1.4428201
28.569841 47.792423 1.2599984
28.459402 47.596001 -0.25082827
28.475687 47.772636 0.85554945
28.841181 47.881264 0.5653494
28.571119 47.792557 1.6549494
28.572311 47.789864 1.4568464
28.567709 47.789585 1.8548565
28.691971 47.88092 -1.0363208
28.36886 47.693672 -0.63505626
28.542915 47.601593 0.33394527
28.47406 47.778976 1.2627394
28.594818 47.871742 0.54910451
28.38065 47.8717 1.3661339
28.476582 47.782658 1.8547143
28.670137 47.812054 1.0602653
28.600927 47.860355 1.0602632
28.460648 47.717312 0.36005554
29.245253 48.254425 -0.75601703
28.376293 47.770134 0.36272103
28.778568 47.735371 -0.94642258
28.366377 47.536182 -1.6833572
28.353601 47.518532 0.92586142
28.368002 47.504745 0.65834033
29.259521 48.128162 -0.76395118
28.57065 47.869007 0.84953302
28.674343 47.809082 -0.73693889
28.379028 47.765038 0.55395526
28.367859 47.703033 0.76111358
28.702242 48.001877 -0.21113954
28.488407 47.897827 1.444273
28.378525 47.769779 -0.23807357
28.466681 47.702374 -1.0391217
28.583801 47.865467 1.1654801
28.680685 47.879005 1.1592174
28.696892 47.865536 0.37026659
28.668873 47.80685 -0.43755364
28.67156 47.805748 -0.63873136
28.66865 47.726593 0.76983476
28.570696 47.788544 0.56067431
28.57008 47.788643 0.76051545
28.565945 47.785034 0.66042262
28.573259 47.870544 0.16308062
28.571417 47.790596 0.062048491
28.757181 47.705738 0.77418923
28.783903 47.700497 0.62886459
28.691732 47.8703 -0.32647067
29.106728 48.207207 -1.7132843
28.57061 47.785954 0.36415884
28.41991 47.847534 1.8194277
28.440956 47.638107 -0.93358052
28.827593 47.738464 0.88232589
28.467857 47.625973 -1.6553637
28.47179 47.698277 -1.5357852
28.573595 47.786907 0.46080977
28.366144 47.699368 0.26394761
28.367023 47.69046 -1.0375561
28.366335 47.700592 0.46314725
28.459232 47.619038 -1.3196452
29.092594 48.016563 -0.97203529
28.575331 47.778694 -1.4377222
28.45739 47.532661 -0.33912033
28.447805 47.866867 -0.40129486
28.633507 47.707317 0.090005845
28.683832 47.875164 -0.23391221
28.862772 47.767925 -2.8334615
28.914404 47.73151 -0.17481264
28.764818 47.69828 0.072195783
29.272779 48.134785 -1.8551447
28.866566 47.886856 -1.5416859
28.777014 47.874573 -0.33683798
28.373274 47.690201 -1.6381292
28.773542 47.873817 -0.538243
28.585966 47.780838 -1.6256301
28.573822 47.781017 -0.44651759
28.767374 47.868229 -1.6277483
28.893904 47.711246 -1.3894572
28.865742 47.730877 -0.25756684
28.764029 47.812061 -0.93265671
28.36974 47.60944 -1.9275008
28.479506 47.776264 1.1639434
28.377565 47.772091 0.16913196
28.763235 47.815636 1.3603315
28.780348 47.878937 -0.037796732
28.562634 47.620686 -0.62507534
28.47233 47.618629 -1.7250813
28.663038 47.726044 -1.7347896
28.766308 47.699593 0.5200057
28.894754 47.742706 1.6027079
28.676811 47.797638 -1.3331907
29.460142 48.142544 -1.4161104
28.754766 47.725826 -1.5607244
28.586596 47.634956 -0.48066902
28.459984 47.623955 -1.5391132
28.47788 47.775124 0.96288109
28.471481 47.690086 -1.4443861
28.683363 47.863461 0.26004323
28.674133 47.797657 -0.94281358
28.674196 47.79221 -1.5361015
28.475952 47.768829 0.66266394
28.474812 47.77916 1.7585504
28.376364 47.69165 -1.5353037
28.568745 47.780689 -1.3414359
28.477518 47.788811 1.564566
29.450548 48.200611 -1.1491758
28.470694 47.780281 1.45697
28.484955 47.774429 -0.94110179
28.462111 47.720734 0.16205212
28.462063 47.717838 -0.14138529
28.47752 47.767399 -0.83932126
28.680733 47.857433 -0.84642607
28.679121 47.871033 1.2629545
29.026482 48.039547 -0.73320681
28.770884 47.80513 -1.5378798
28.553215 47.711906 -2.5774975
28.460472 47.713646 -0.64072359
28.573008 47.782925 -0.13768186
28.838911 47.791672 -0.6582911
28.787848 47.715099 0.38259172
28.763607 47.726097 -0.6686151
28.471527 47.628532 1.4790473
28.758652 47.71077 1.4643099
28.582825 47.867554 1.6712316
28.694029 47.867558 -0.94271696
28.656366 47.719688 1.5560559
28.76638 47.739639 0.47581211
28.571156 47.783913 0.25555721
28.460377 47.608303 -0.62723893
28.433292 47.635185 -0.4313511
28.557611 47.73008 0.76990461
28.678001 47.717506 0.26262167
28.683857 47.871258 -0.63583171
28.488571 47.768829 0.35948181
28.564924 47.88755 0.45201129
28.573717 47.78511 -1.0356385
29.061066 48.115181 -0.33958608
28.464844 47.707676 -0.73894924
28.648573 47.72578 -0.7445842
29.059177 48.106419 -0.74705529
28.551922 47.720108 1.7567399
28.641621 47.731716 1.3279183
28.648693 47.723648 -0.6371454
28.483658 47.768673 0.25908628
28.566452 47.595829 -0.19977646
28.588556 47.57156 -1.1862457
28.374002 47.775333 1.3638345
28.443037 47.527008 1.2598741
28.364262 47.486416 -0.20484759
28.678558 47.600342 0.2427419
28.818996 47.644997 1.258885
28.574793 47.95055 -0.36025116
28.757067 47.818195 1.263428
28.504122 47.914234 -1.0851777
28.709585 47.962025 -0.11960533
28.543474 47.950157 0.87902856
29.053131 48.105198 -0.63684964
29.055878 48.037212 -1.4781601
29.076204 48.098221 -1.4595299
29.072536 48.121284 -0.43808475
28.661688 47.725456 0.6368643
28.754108 47.687065 -1.3322716
28.366199 47.693443 -0.83697855
29.051271 48.035538 -1.3287394
28.391233 47.535099 -1.4043238
28.675005 47.700829 -0.031830166
29.065039 48.044807 -1.2864075
28.378561 47.769985 -0.44839641
28.754719 47.741238 -1.114845
28.40439 47.846352 -1.2871032
28.340832 47.524601 -0.56159556
28.489382 47.544697 -1.5592971
28.639467 47.63879 0.3858411
28.650599 47.715385 -2.1359463
28.471949 47.773609 -1.0380995
29.261644 48.075096 -1.1098692
28.375496 47.534454 -0.47287077
28.670073 47.722263 -0.45784429
28.460909 47.71759 -0.034345616
28.577759 47.787365 -1.1338834
28.455914 47.585979 -2.9140892
28.376144 47.767277 1.260129
28.376488 47.5396 -1.5726094
28.835585 47.725582 -2.1771314
28.350815 47.497002 -0.63175762
28.337973 47.519608 -0.074489705
28.359417 47.495682 -0.12439431
29.07106 48.089413 -1.027475
28.385382 47.439781 -0.72872925
29.057663 48.103561 -0.83481425
28.336456 47.49382 -2.3268459
28.663406 47.739418 1.1597822
28.477364 47.6926 -1.829646
28.442741 47.613167 -1.431649
28.540066 47.6054 -2.2597704
28.566536 47.710575 -1.9252846
28.552961 47.727425 -0.13760442
28.453857 47.624069 -2.2287951
28.750509 47.687244 -2.6381023
28.359535 47.609062 -1.8337264
28.457134 47.719101 1.3601401
28.44726 47.624142 -1.1307483
28.368484 47.703762 1.0554856
28.573483 47.779716 -0.53687799
28.582375 47.58268 1.341404
28.681215 47.786766 -1.6371222
28.359982 47.623337 -1.4419364
28.365427 47.698811 0.15850382
28.367771 47.68594 -1.3328898
28.469065 47.635487 0.26325306
28.456282 47.693298 -2.2181625
28.565704 47.705109 -1.8388163
28.6779 47.715832 -0.17985186
28.433411 47.75518 -2.3140762
28.557386 47.721645 -0.73476821
28.565229 47.713531 -2.2542584
28.842571 47.820591 0.36011013
28.766975 47.822758 -0.33900353
28.557219 47.725525 -0.64495659
28.554863 47.725857 1.270469
28.678741 47.788391 -2.2548223
28.804958 47.827244 -2.2641678
28.477121 47.869114 1.2738084
28.566458 47.722084 -0.93987292
28.37755 47.674458 -1.8420281
28.566956 47.764324 -1.8153909
28.671476 47.878387 -1.3218572
28.757048 47.825409 1.5529869
28.994413 47.920738 -1.3229463
28.636795 47.720402 0.97937
28.839195 47.810513 1.4808694
28.799967 47.733059 1.2794473
28.656595 47.723862 0.87277782
28.365469 47.700302 0.86393112
28.798151 47.719601 0.88993526
28.363037 47.700882 1.1635258
28.580259 47.780598 -1.2317064
28.665134 47.913326 -1.8149118
28.781155 47.876675 -0.14243487
28.690172 47.866859 -1.2375571
28.486732 47.773479 -1.2392638
28.774755 47.877808 -1.2360587
28.658375 47.718483 -1.637319
28.852156 47.88887 -1.3367972
28.682402 47.873177 -1.4409344
28.476622 47.76889 -0.63514656
28.470217 47.778381 -1.4286755
29.374399 48.208309 -1.1338153
28.466116 47.70142 -1.1348621
28.841051 47.810204 -1.6235973
28.85034 47.821678 1.352052
28.573757 47.720825 -1.0403733
28.653467 47.729473 -1.0502453
28.773104 47.71032 0.25369009
28.50149 47.912697 0.7713533
28.569874 47.762573 -1.7231413
28.751444 47.739407 -1.6356248
29.163877 48.026226 -0.95260733
28.514317 47.850681 -0.20349595
29.087893 48.143368 -1.5964063
28.58847 47.872673 0.94697833
28.583971 47.872776 -0.4196595
29.082064 48.113255 -1.5122268
28.568146 47.790314 1.361577
28.59852 47.858086 -0.62410593
29.165955 48.115482 -1.2517078
28.810656 47.721924 0.91191548
28.524752 47.964973 0.067770533
28.484018 47.86002 0.8287881
28.834076 47.735973 -0.01438465
28.673916 47.870499 0.86075729
28.666546 47.670113 -2.878711
28.575956 47.853489 -1.5290051
28.780478 47.881523 0.66211849
28.674644 47.728046 -1.4356154
28.669857 47.721947 -1.5488189
28.551987 47.857094 0.046962127
28.849791 47.805771 -1.8248947
28.766684 47.723888 -1.8508798
28.660789 47.725204 -1.247139
29.4578 48.104919 -2.0217075
29.127823 47.987446 -1.4876928
28.383293 47.764679 0.67237431
28.46286 47.873932 0.35728639
28.485929 47.768631 0.15372692
28.578077 47.897671 -0.34026003
28.96627 47.989719 -1.2712339
28.483534 47.766468 -0.33248326
28.688032 47.868874 -0.13679704
28.649658 47.787643 -2.1269426
28.595989 47.87159 0.36148521
28.596457 47.87328 0.76189709
28.615782 47.82394 -2.2183778
28.574312 47.792034 0.85956925
28.482304 47.768082 -0.43432963
28.582214 47.63945 -1.2458686
28.564007 47.862141 -2.216929
28.746851 47.725479 -1.2508817
28.672007 47.714207 -1.9256498
28.673994 47.790222 -1.8410233
28.498014 47.867493 1.1815783
28.556839 47.705345 -2.345329
28.682398 47.772846 -2.3190734
29.170916 48.103561 -1.7202504
28.840883 47.880074 0.16218801
28.452833 47.61422 -2.1205912
28.799633 47.737373 -2.1477404
29.144701 48.172043 -0.45684105
29.16246 48.103298 -1.3346922
29.44619 48.115784 -1.9488125
28.574575 47.704498 -1.7350069
29.364025 48.11042 -1.745025
28.375748 47.678993 -1.737985
28.846228 47.886375 -1.1389194
28.84552 47.889027 -0.93755674
29.374489 48.205074 -1.6484019
28.38052 47.677837 -1.9451035
28.485769 47.780506 -1.3343577
28.576124 47.867016 1.7620655
29.171047 48.189011 -1.334528
28.675756 47.784508 -2.0485692
29.1772 48.197231 -1.4479747
29.364267 48.185665 -1.9298811
29.198416 48.195717 -1.527251
29.190979 48.111481 -1.4417627
29.270548 48.191097 -1.6290002
28.767504 47.790047 -2.1278334
29.358784 48.196247 -1.5414324
28.781593 47.875954 -1.034439
28.460575 47.909374 0.060161293
28.481184 47.772469 -1.1397815
28.513233 47.855839 -0.31835395
28.618341 47.877796 -1.7393677
29.21554 48.208427 -1.7436122
28.446159 47.618153 1.1264007
29.366234 48.188007 -1.7331995
29.266335 48.188103 -1.4370302
29.264997 48.196022 -1.533875
28.555483 47.713783 1.4453959
28.673939 47.799995 -1.7474058
29.456005 48.200752 -1.7368869
29.163565 48.112186 -1.0499315
28.512888 47.752323 -1.9514935
29.154018 48.182236 -2.0210447
28.973347 47.709572 0.046189196
29.372894 48.203064 -1.8537396
29.152115 48.106525 -1.1393681
28.685621 47.868809 -0.73113817
28.777454 47.87862 -0.73392344
29.196671 48.204681 -1.6124123
28.697371 47.876022 -1.1413295
29.07412 48.105179 -1.1302378
28.844509 47.887726 -0.73540246
29.239761 48.200653 -1.2420496
29.451792 48.2052 -1.535158
29.126514 48.10812 -0.84319997
29.164658 48.182255 -1.054697
28.490469 47.769814 -1.7349073
28.836264 47.886822 -0.34072667
28.571182 47.763748 -2.0340784
28.851265 47.980404 -0.7508263
29.163404 48.182903 -1.1386873
28.775587 47.879734 -1.3338425
28.771877 47.874893 -1.7264446
28.983414 48.099964 -0.93158692
29.274109 48.267845 -1.4305432
29.361143 48.193142 -1.4360802
29.453039 48.212379 -1.6441586
29.154247 48.094131 -0.94367814
28.843758 47.880241 -0.24163577
29.289398 48.195488 -1.1435879
29.067858 48.090405 -0.93246788
28.779942 47.880417 -0.63656759
28.855846 47.985474 -0.83930069
29.272717 48.195644 -1.335461
28.842554 47.876938 -1.0408958
28.774193 47.874603 -1.8334455
29.466118 48.19912 -1.8460801
28.838455 47.880543 -0.036646772
28.777119 47.879906 -1.1350356
28.463465 47.84832 -1.7035834
28.955715 47.886013 -0.34721476
28.778967 47.878929 -0.93992716
29.086758 48.176041 -0.93764347
28.768064 47.873535 -1.5434685
29.457708 48.284019 -1.5430211
28.93906 47.99424 -0.34110951
28.844166 47.886086 -0.44007844
29.361195 48.199219 -1.0462396
29.289228 48.213116 -1.0310622
28.843512 47.884411 -0.14085279
28.468344 47.764652 -1.5290836
28.668259 47.702007 -2.7083945
28.760897 47.824093 -0.4370456
29.168261 48.212414 -0.84189737
28.569906 47.792694 1.0609132
28.906286 47.719105 0.79859722
29.139221 48.207321 -0.36385667
28.437862 47.88493 0.45770073
28.961849 48.109917 -0.43998548
29.157675 48.130951 -0.62642264
28.850574 47.814602 -1.4335746
28.857958 47.883598 -1.4327282
29.178354 48.116905 -0.31449327
28.760185 47.740173 -0.85526341
28.982586 48.108898 -1.1429453
28.581057 47.862015 1.4566567
28.380835 47.758038 -0.64721364
28.843792 47.986256 -0.56320983
28.88538 48.086227 -0.42932028
29.158085 48.180172 -0.55432308
28.497677 47.765491 -1.6356922
28.958981 47.94516 -0.56830865
28.457445 47.62569 -1.9202088
28.605427 47.647633 -2.8946059
28.830317 47.742874 -2.8556528
28.531134 47.613266 -2.9032342
28.753431 47.711449 -2.8579767
28.413292 47.556721 -3.0293634
28.527719 47.597229 -3.006048
28.63485 47.66267 -2.9864557
28.481693 47.765461 0.55919135
28.540747 47.605755 -2.7107038
28.644653 47.644989 -2.6957982
28.358961 47.619175 -1.531274
28.970001 48.01202 -0.9472754
28.855547 47.807285 -2.0414157
28.464199 47.622307 -2.4323936
28.569334 47.699394 -2.4224312
28.663696 47.722332 -2.3555522
28.830496 47.776817 -2.3337729
28.740574 47.736141 -1.4436307
28.752831 47.726051 -2.0402329
28.845831 47.886253 -0.83817136
28.777714 47.707748 -2.7592881
28.93059 47.899384 -0.2093211
28.856894 47.993553 -1.0378497
28.60239 47.78138 -2.1123555
28.855064 47.885307 -1.627423
28.520823 47.623722 1.4225123
28.840263 47.993298 -0.9373616
28.881603 48.097385 -0.73391438
28.949301 47.796364 -2.0215256
28.995153 47.911427 -0.74291474
28.507641 47.751629 -1.8572698
28.636463 47.733948 -2.4106946
28.547718 47.627644 -2.4055083
29.000763 47.968765 -0.14444768
28.489094 47.860764 1.0701387
28.583176 47.891541 -0.91701972
28.581617 47.865894 1.5562381
28.849796 47.985508 -0.24900322
29.19154 48.131119 -0.74771488
29.020058 47.92268 -0.95597476
29.153969 48.133278 -0.55121839
28.585983 47.885292 -0.13336493
28.849146 47.893517 -1.2325438
28.961176 48.11496 -0.24836655
28.857456 48.016045 -0.34215683
28.992416 47.798264 -0.51710749
28.952538 47.796387 0.49343809
28.771767 47.726997 0.0035834219
28.509018 47.860474 -0.94237411
28.93055 47.852051 -0.61593878
29.007248 47.822498 -1.5361619
28.703756 47.866306 -1.5171949
28.964962 48.101181 -0.63849467
29.165745 48.208054 -0.93398964
29.012501 47.838123 -1.0947223
28.972824 47.838757 -1.0562072
28.961004 48.106445 -0.34014946
28.884659 48.087742 -0.33932972
28.967056 48.10397 -0.53445584
28.471327 47.765369 -0.73908412
29.15918 48.190933 -0.6459527
28.972027 48.101269 -0.7414726
28.977072 48.11055 -0.13363062
28.461956 47.863068 -0.66509616
28.464676 47.859764 -0.14232881
28.850014 48.080292 -1.1277177
29.384451 48.2118 -1.2326324
29.266148 48.184681 -0.84029305
28.378754 47.751793 -1.1411879
29.455326 48.212875 -1.0281612
29.138054 48.121288 -0.45751983
29.360117 48.10585 -1.5383137
29.339251 48.140259 -1.0571368
29.469149 48.169598 -1.4211839
29.452801 48.211376 -1.2379212
28.947355 48.026665 -0.25612164
29.249857 48.182552 -0.74822825
29.363718 48.259296 -1.0458091
28.464169 47.718002 0.061007481
29.49024 48.195961 -1.3297265
28.649651 47.730923 -1.1296585
29.323517 48.1362 -0.82056969
28.960474 48.009167 -0.64414358
29.246389 48.185059 -0.67969012
29.332609 48.143887 -0.94251084
28.454533 47.720978 0.55908781
29.360239 48.22015 -1.3496311
29.076429 48.186756 -0.73097104
28.442814 47.628353 -1.0146664
28.373455 47.755646 -1.0295482
28.924889 47.888962 -0.43195361
28.454802 47.720093 0.76093638
29.320347 48.083767 -1.2731599
29.177353 48.001389 -1.1494366
29.145172 48.039337 -1.0382272
29.36507 48.10009 -1.3532057
29.168898 48.197433 -1.2377673
29.368708 48.104145 -1.6414256
28.927376 47.990299 -1.0357049
28.962542 48.012199 -0.85516572
28.927376 47.998581 -1.1411911
28.977186 48.098618 -0.83909577
28.526453 47.635323 -1.9501231
28.970514 48.103416 -1.0486133
29.397417 48.127861 -2.0055923
29.399426 48.077103 -1.9074053
29.112995 48.173912 -1.2938622
28.955948 48.013462 -0.72280568
29.073633 48.17786 -1.1199826
29.070808 48.178902 -1.2236049
28.575239 47.698025 -2.138783
28.859676 48.006584 -0.42934176
28.38619 47.66888 -2.0251238
29.065844 48.177883 -1.0383128
28.713215 47.851543 -1.7376552
29.027411 47.922806 -1.3363103
28.967077 48.163387 -0.44558242
29.069553 48.181168 -0.4516407
28.978476 48.167492 -0.54120684
29.092003 48.199188 -0.62991333
29.480583 48.091011 -1.5435519
28.781361 47.744034 -0.24421145
28.379641 47.761517 -0.3512798
28.86319 47.799408 -2.1510007
28.500225 47.633045 -2.0489087
28.854565 47.803082 -1.9541433
28.95384 47.991348 -1.3014814
28.950243 47.86367 -1.1837475
28.960161 47.850719 -1.5107919
28.931223 47.887081 -0.85472012
28.390089 47.771866 -1.4144622
28.936869 47.831135 -1.7048507
28.672592 47.866894 -1.668314
28.775587 47.997478 -0.14316578
28.368481 47.677521 -2.1508999
28.37608 47.540997 -1.892482
28.363691 47.70158 0.95812279
28.760145 47.720142 -1.7018124
28.437748 47.714413 -2.43856
28.947147 47.818527 0.063987732
28.777849 47.99271 -0.23476525
28.475504 47.619453 -0.053521063
29.445053 48.122997 -1.7392664
28.864641 47.98764 -1.1369916
