# .PCD v0.7 - Point Cloud Data file format
VERSION 0.7
FIELDS x y z
SIZE 4 4 4
TYPE F F F
COUNT 1 1 1
WIDTH 666
HEIGHT 1
VIEWPOINT 0 0 0 1 0 0 0
POINTS 666
DATA ascii
34.539577 23.40447 -2.1065476
34.111359 23.720427 0.26440924
34.243904 23.525579 -2.1155117
34.368988 23.255224 -2.0615835
34.769878 23.538622 -2.1945121
34.372894 23.411163 0.031841293
34.598957 23.49045 -2.298254
34.62011 23.423553 -2.5567005
34.251278 23.731426 0.10542478
34.692669 23.557053 -2.0494359
34.225006 23.714912 -0.0044626333
34.151371 23.789515 0.31199658
34.259735 23.689331 -0.33182007
34.50584 23.506681 -0.080221176
34.667877 23.482819 0.12223894
34.443508 23.479437 0.16159675
34.141308 23.590982 -1.5355742
34.77301 23.439358 -0.61791509
34.748848 23.439209 -0.86384004
34.240025 23.664507 -1.2525365
34.227467 23.582489 -0.94271034
34.260906 23.377468 -0.24442084
34.254532 23.375393 -1.6339828
34.093136 23.798704 -0.63719755
34.247952 23.412191 -1.9231759
34.081856 23.7997 -0.93696058
34.25663 23.381927 -0.53468722
34.562572 23.418987 -1.0433669
34.096893 23.497488 0.019290993
34.091091 23.903194 -0.14737792
34.102081 23.511314 -1.5349764
34.578415 23.399435 -2.0517745
34.392464 23.359755 -1.8326188
34.701973 23.488119 -1.9195186
34.266018 23.324448 -1.0379708
34.521133 23.423788 -2.1935301
34.675491 23.479986 -1.7274642
34.170601 23.596174 -0.73873514
34.639359 23.430534 -0.74137145
34.192375 23.394302 -1.0436487
34.685802 23.517202 -2.1292839
34.18045 23.498568 -0.63768882
34.260479 23.37862 -0.63780433
34.26635 23.329752 -0.63956279
34.369423 23.372131 -0.63984007
34.67831 23.475166 -0.63881665
34.641773 23.433775 -0.33046591
34.592888 23.420879 -0.04449163
34.68277 23.484959 -1.8499645
34.659439 23.429474 -1.0417652
34.27335 23.320974 -1.6321878
34.179581 23.391415 -1.4328458
34.464149 23.389727 -1.9280555
34.373425 23.373144 -0.84202206
34.774139 23.506611 -1.6347731
34.56707 23.425285 -0.9411515
34.192215 23.390379 -1.1426756
34.275532 23.316378 -1.5443751
34.270882 23.323637 -1.3426397
34.655846 23.414249 -1.9277539
34.785801 23.43309 -1.2142862
34.693836 23.39971 -2.1160426
34.273159 23.325354 -1.1329492
34.439785 23.334419 -1.1325791
34.1451 23.595583 -1.631969
34.094971 23.704229 -1.2356651
34.255695 23.586138 -0.44380063
34.645172 23.434261 -0.64835221
34.761734 23.383829 -1.9211622
34.565781 23.421785 -1.1325588
34.573303 23.466763 -1.4206767
34.569164 23.417173 -1.3394461
34.67894 23.478271 -0.94097561
34.494686 23.445564 -1.394387
34.166595 23.707306 -0.25334498
34.65736 23.439907 -0.18106425
34.486294 23.394049 -1.8352386
34.075642 23.797134 -2.3184714
34.063381 23.796518 -1.6392012
34.243961 23.579266 -0.82718736
34.155655 23.497166 -1.7340645
34.074543 23.792364 -2.0554338
34.067379 23.799845 -1.5399485
34.084633 23.604176 -2.1551263
34.080498 23.714298 -2.1264606
34.072887 23.702719 -1.9589292
34.559132 23.415655 -1.5377377
34.257767 23.381239 -0.74103546
34.060497 23.814548 -1.9424498
34.081017 23.699074 -1.5377774
34.144733 23.583277 -2.0674701
34.262863 23.372564 -1.0370347
34.162945 23.596806 -1.0346134
34.068882 23.796104 -2.1222632
34.619766 23.413118 -2.3579369
34.052471 23.804617 -1.8440863
34.655926 23.438803 -0.43313748
34.658035 23.433525 -0.55318332
34.569305 23.410076 -1.6439879
34.567413 23.404293 -1.7485549
34.673637 23.481569 -1.342621
34.567223 23.427143 -0.54053122
34.562546 23.428995 -0.45511755
34.470428 23.399834 -0.73902786
34.162163 23.496531 -1.4296844
34.160313 23.497255 -1.3359662
34.683136 23.488852 -1.6408285
34.187859 23.397066 -1.2323128
34.060017 23.887419 -1.4381293
34.692577 23.427223 -2.4258559
34.776657 23.440416 -1.7031927
34.572632 23.431694 -1.9448171
34.759403 23.423098 -1.8419734
34.244476 23.334126 -1.9076836
34.409035 23.448412 -1.3557339
34.475956 23.40008 -0.035558734
34.854744 23.485258 -2.2330368
34.346481 23.315901 -1.7357255
34.097198 23.408873 -1.3537511
34.256184 23.38949 -1.7333529
34.186996 23.200691 -0.89004302
34.009892 23.844742 -2.5488522
34.782139 23.507534 -1.5416484
34.761623 23.48176 -2.0522707
34.764271 23.491537 -1.9269288
34.786495 23.436836 -1.4684008
34.758244 23.427715 -2.0165067
33.994247 23.861769 -2.5716472
34.159348 23.60585 -2.1192558
34.243176 23.603119 -1.2360283
34.548538 23.426634 -0.10912378
34.588787 23.460106 -1.2477192
34.776962 23.506575 -0.54188126
34.552761 23.428699 -0.25386763
34.452133 23.289829 -1.6614174
34.154652 23.693413 -1.0348634
34.166267 23.61051 -2.2350855
34.592335 23.45965 -1.0387684
34.055851 23.803576 -2.222059
34.677681 23.473125 -1.4321307
34.059856 23.77504 -2.5260718
34.335941 23.312643 -1.8033936
34.559612 23.424135 -0.73904264
34.447853 23.328115 -1.3255191
34.269138 23.322859 -1.2339226
34.267643 23.325754 -0.93729955
34.177456 23.51725 -2.1203518
34.249439 23.482439 -0.23258989
34.265953 23.373171 -1.1397411
34.256531 23.497355 -0.13674785
34.244518 23.485291 -0.74215245
34.57975 23.472424 -0.34186548
34.107433 23.366587 -2.1532722
34.484211 23.483963 -0.51931512
34.194668 23.483582 0.32284579
34.273895 23.377825 0.56278193
34.166523 23.708376 0.16011356
34.075363 23.714121 -2.0461562
34.139275 23.79422 -0.43993452
34.406754 23.501141 -1.8162447
34.150738 23.491961 -1.9421675
34.154129 23.694677 -0.73447394
34.130165 23.809971 0.30243772
34.140434 23.78117 0.1318191
34.101208 23.609211 -0.92906696
34.105221 23.60371 -1.0426052
34.181099 23.395336 -1.3414639
34.461475 23.401663 -2.0280285
34.106613 23.803059 0.16419861
34.152077 23.69673 -0.044812955
34.175793 23.492764 -1.0328798
34.165165 23.49511 -1.2359645
34.203903 23.397146 -0.44831586
34.105545 23.344831 -1.6273346
34.084095 23.655954 -2.5066633
34.132824 23.537415 0.47594556
34.269249 23.37711 -0.14692238
34.346626 23.319452 -1.3368293
34.157116 23.774982 -0.036972538
34.141808 23.237959 -1.4982102
34.162086 23.798845 -0.2447547
34.470966 23.400469 -0.83917457
34.771164 23.498274 -2.1182067
34.153564 23.493967 -1.8412647
34.173534 23.389492 -1.8290204
34.163277 23.595442 -1.8334581
34.17696 23.315304 -1.8439429
34.232887 23.57584 -1.5215225
34.474342 23.403152 -0.94254714
34.194511 23.393787 -0.73110533
34.162525 23.408577 -2.2357697
34.581982 23.471176 -0.54024482
34.572304 23.485653 -1.807565
34.154629 23.489902 -1.5419202
34.069443 23.801636 -1.4346749
34.157158 23.790846 -1.3393883
34.211395 23.371609 0.39921093
34.280376 23.363966 0.15617256
34.474842 23.387617 -1.5348812
34.275497 23.72732 -0.24057326
34.25555 23.656334 -2.0843565
34.281956 23.242025 -1.4562035
34.478615 23.395456 -1.4243896
34.259293 23.391176 0.041831486
34.251949 23.496477 -1.242398
34.557228 23.396774 -1.8729062
34.57737 23.463961 -0.64541179
34.069214 23.891626 -1.3393623
34.014263 23.873041 -2.4130893
34.37048 23.377518 -1.1334044
34.172588 23.659405 0.29325813
34.469421 23.397408 -0.63502979
34.482639 23.39065 -1.6465384
34.831936 23.434389 -2.0289602
34.239944 23.483086 -0.43886724
34.140934 23.783867 -0.53911114
34.472084 23.412527 -0.33662865
34.347767 23.567678 0.39018428
34.274345 23.373318 -1.3292679
34.172195 23.395889 -1.5387479
34.270401 23.37211 -1.4339701
34.259663 23.377131 -0.93429154
34.183281 23.613199 0.057589248
34.667828 23.502028 -0.22882152
34.138729 23.79138 -0.63378286
34.265633 23.373962 -1.2302157
34.247486 23.599125 -0.13658255
34.672409 23.470173 -0.54235178
34.246536 23.586714 -1.025609
34.188412 23.687361 0.092605963
34.265251 23.325607 -1.4353245
34.377079 23.372147 -1.642336
34.166279 23.692234 -0.3458432
34.634956 23.480761 -0.060182512
34.208488 23.65501 0.81224746
34.147682 23.329117 -2.1282573
34.159882 23.412563 0.45287427
34.186157 23.607689 -0.044714611
34.470829 23.397243 -1.2365439
34.396309 23.37557 -1.5519466
34.671993 23.475756 -0.84188408
34.46537 23.397743 -1.3353076
34.848049 23.479916 -2.2940607
34.155754 23.694798 -0.54251504
34.155094 23.67301 -2.1414587
34.68309 23.435135 -2.0386109
34.509258 23.336222 -2.0894728
34.002224 23.882458 -2.0380762
33.994316 23.890566 -1.6225439
34.820141 23.429457 -1.898222
34.055412 23.799316 -2.4048066
34.428837 23.34696 -2.3479834
34.191219 23.394522 -0.94191086
34.002655 23.882147 -1.7408085
34.358894 23.394501 -0.031089315
34.092731 23.802454 -0.7451455
34.156963 23.691898 -0.93952125
34.327831 23.511974 -0.81744438
34.151726 23.597872 -1.3299454
34.68578 23.498121 -2.042346
34.292877 23.481096 0.25409314
34.169952 23.398455 -2.0410333
33.998631 23.887299 -1.1439793
34.65543 23.427298 -1.6373868
34.190109 23.323032 -1.7318139
34.064812 23.892792 -1.2399474
34.43042 23.33799 -0.88981271
34.835087 23.428467 -0.71468002
34.483829 23.374302 -2.2595334
34.568001 23.555161 0.21500017
34.468765 23.400244 -1.1367518
34.668282 23.42622 -1.1362773
34.161201 23.690861 -1.3373882
34.369843 23.373583 -1.2276224
34.097874 23.621181 0.033281881
34.058975 23.614508 -0.056709792
34.468155 23.40766 -0.44136864
34.569679 23.474197 -0.24834597
34.165577 23.596472 -0.83830142
34.173306 23.382406 -1.7371517
34.174408 23.405651 -2.1176181
34.17086 23.390362 -1.6403906
34.352779 23.32453 -1.2398106
34.350365 23.330379 -1.0410491
34.163692 23.685633 -0.15005727
34.828053 23.443239 -1.3468373
34.177483 23.493803 -0.93859953
34.122421 23.611786 -2.4014618
34.641315 23.380894 -2.2343554
34.161228 23.689192 -1.4328973
34.691498 23.426968 -1.8292614
34.475418 23.380693 -1.7520918
34.111221 23.614391 -0.55639958
34.091705 23.600986 -1.8354895
34.190472 23.323301 -1.1370002
34.18071 23.494152 -0.83600557
34.661488 23.424402 -1.3333949
34.236607 23.494179 -0.35134435
34.146832 23.421566 0.64969325
34.581909 23.496742 -2.0474586
34.150246 23.590599 -1.7236046
34.676449 23.48332 -0.34164476
34.204605 23.392282 0.53486186
34.837982 23.490952 -2.0232377
34.150818 23.589048 -1.2383909
34.468559 23.402447 -1.0374211
34.669388 23.417616 -1.7519011
34.855434 23.440374 -1.650647
34.687531 23.497107 -0.15524952
34.760559 23.420593 -1.0421475
34.15427 23.592564 -1.1414446
34.275875 23.561186 -1.9640408
34.240513 23.483288 -1.0510042
34.094704 23.906521 -0.24330154
34.115128 23.405962 -1.6317105
34.165096 23.398855 -1.9300213
34.167297 23.497669 -1.1452198
34.177231 23.622108 -2.3400671
34.560432 23.42552 -0.34511903
34.271114 23.598946 -0.05640683
34.089218 23.900488 -0.44601271
34.681725 23.482199 -1.232476
34.108887 23.804743 -0.32793418
34.152828 23.691774 -0.83486736
34.648815 23.423361 -1.4388565
34.422882 23.338783 -0.28363556
34.269184 23.469311 0.56732905
34.676762 23.427017 -1.5370897
34.640404 23.416109 -1.2279495
34.190777 23.397558 -0.64293009
34.108997 23.59705 -0.63778651
34.240189 23.60545 0.2710003
34.285675 23.493979 0.46118829
34.381779 23.37882 -1.4378161
34.561359 23.590939 -0.19555554
34.184139 23.624727 -1.9073501
34.677521 23.477058 -0.44068214
34.300529 23.347252 0.50123441
34.139797 23.790401 -0.84143376
34.268944 23.367516 -1.8240852
34.256428 23.377537 -0.8378033
34.272198 23.318602 -1.7313881
34.278481 23.319233 -1.8407946
34.255901 23.380724 -1.543295
34.147171 23.787313 -1.0381954
34.073715 23.798573 -1.3383832
33.993221 23.87748 -1.8409247
34.336288 23.628695 -0.0033219003
34.378349 23.377527 -1.3354917
34.466125 23.402702 -0.5405975
34.095524 23.414154 -0.68372869
34.157398 23.812807 0.46247593
34.187389 23.591295 -0.35264668
34.421112 23.243654 -1.1253957
34.58033 23.461241 -1.3460008
34.588928 23.460236 -1.1370089
34.568558 23.425791 -0.64689529
34.20092 23.499531 -0.34860206
34.556984 23.528282 -2.1233611
34.349648 23.389408 -1.7423146
34.10162 23.809925 -0.44529659
34.753616 23.443037 -1.1353327
34.553932 23.421677 -0.839809
34.129353 23.806469 0.054180056
34.175671 23.313915 -1.9246812
34.344471 23.492535 -1.4581593
34.151333 23.690691 -1.136487
34.154453 23.79389 -1.4361442
34.159889 23.595877 0.16574094
34.00882 23.828285 -1.7455299
34.188091 23.324236 -1.4461752
34.488667 23.416094 -0.22805735
34.120033 23.250629 -2.1657388
34.06982 23.721395 -2.4284394
34.678192 23.478619 -1.5483209
34.475388 23.483727 -0.5953021
34.83437 23.439745 -1.498325
34.766136 23.493532 -1.8223411
34.244957 23.322311 -0.15031396
34.171017 23.678099 -1.9247723
34.153366 23.791431 -0.15717019
34.2019 23.324533 -0.84589279
34.690247 23.511349 -2.2065053
34.679581 23.478588 -1.1359763
34.486115 23.474144 -0.85097396
34.185051 23.325804 -1.5370946
34.189285 23.500965 -0.53753448
34.184547 23.614063 0.3672325
34.19722 23.325306 -0.9506067
34.755501 23.44162 -1.5991778
34.166378 23.490164 0.17339607
33.997684 23.882607 -1.5283087
34.096973 23.398315 -1.4906009
34.144577 23.588173 -1.4282824
34.325607 23.327127 0.42105681
34.400352 23.371572 -2.0231147
34.373573 23.374765 -0.74312806
34.377724 23.379776 -0.93725872
34.251514 23.40601 0.63757527
34.092632 23.687752 -2.3129706
34.733986 23.442049 -0.92832321
34.272018 23.328062 -0.83950019
34.138775 23.791603 -0.93938005
34.103348 23.805914 -0.25280634
34.427963 23.336147 -0.43482018
34.094421 23.802992 -0.54471236
34.099854 23.505417 -0.65915728
34.182243 23.307079 -2.0479317
34.186562 23.498257 -0.73724025
34.499397 23.455702 -0.44035834
34.08897 23.80344 -0.83989048
34.190285 23.391563 -0.83997792
34.484669 23.453979 -1.1205024
34.365181 23.375347 -1.0386138
34.447414 23.217995 -0.83645529
34.097527 23.596333 -1.6299871
34.092979 23.605352 -1.9386926
34.098591 23.623615 -2.0401723
34.444618 23.34193 -0.82282126
34.084656 23.842327 -0.14725561
34.191692 23.516787 0.55644029
34.248623 23.310034 0.35361984
34.137215 23.787992 -0.73806316
34.170494 23.606026 -0.15652785
34.153576 23.790894 -1.1369725
34.158829 23.495192 -1.6270814
34.177662 23.395378 -0.033591084
34.243862 23.584026 -1.1569307
34.241589 23.468124 -0.058649331
34.242222 23.485264 -0.93234557
34.235878 23.507721 0.12264441
34.229145 23.684399 -1.1405562
34.237862 23.486757 -0.63289344
34.236107 23.476826 -0.84025848
34.185215 23.521999 0.26440555
34.172924 23.611691 0.27851015
34.248463 23.488409 -1.4154463
34.159199 23.687685 -1.2374722
34.134956 23.78994 -1.7577518
34.254025 23.49188 -1.3375559
34.231289 23.485683 -1.8421751
34.378181 23.205818 -2.0322924
34.128868 23.749414 0.70389032
34.290497 23.399422 0.34448558
34.343571 23.333717 -0.55252522
34.171448 23.595863 -0.54467285
34.168518 23.668131 0.49465722
34.116917 23.788984 0.51174706
34.162262 23.688807 0.31795636
34.007378 23.814415 -1.4414294
34.267479 23.327122 -0.53953743
34.164661 23.485449 0.6280489
34.179279 23.595459 -0.44672996
34.136482 23.623095 0.6785866
34.158287 23.695251 -0.4429107
34.092632 23.728548 0.67806107
34.198338 23.336571 0.0057310932
34.339699 23.448818 -1.5924243
34.348942 23.414854 0.59302765
34.28294 23.563311 0.38643143
34.2523 23.671379 -0.13421103
34.258228 23.380638 -0.44116601
34.175129 23.517088 0.056758493
34.107956 23.743002 0.10117764
34.234688 23.593803 -1.3357822
34.468254 23.467449 -1.5446587
34.245155 23.587873 -0.36148593
34.101753 23.59952 -1.1419674
34.095703 23.704422 -1.036545
34.462761 23.429422 -0.1504816
34.197647 23.394503 0.14474954
34.086998 23.490891 0.49547526
34.097332 23.70701 -0.63810736
34.027451 23.743151 0.53130293
34.244476 23.484756 -0.53534031
34.173332 23.542027 -0.026093854
34.167667 23.596693 -0.63991898
34.23695 23.254141 0.51085836
34.171581 23.4911 -2.0303049
34.268723 23.466646 0.047655944
34.079659 23.797203 -1.1345127
34.203506 23.401283 -0.23958632
34.183201 23.306108 0.17018594
34.69038 23.273024 -1.1033009
34.353374 23.320732 -1.448855
34.145908 23.797314 -0.34809214
34.150288 23.79866 -1.2416894
34.469059 23.45623 -1.0538225
34.097191 23.698771 -0.93409306
34.054821 23.79678 -1.7365562
34.071091 23.624216 -2.2706828
34.088978 23.51914 -2.258781
34.112549 23.517742 -2.0355661
34.078003 23.681847 -1.8326384
34.188084 23.321384 -1.6436965
34.653957 23.432398 -0.82999051
34.108227 23.509233 -1.9447918
34.097855 23.707174 -1.1357975
34.103722 23.501175 -1.8470428
34.089817 23.695568 -1.4389122
34.153576 23.693453 -0.63596725
34.167259 23.69673 -1.530948
34.148754 23.789536 -1.5204287
34.231953 23.582733 -0.25181726
34.157097 23.705309 -1.6236277
34.079273 23.803802 -1.036498
34.222591 23.561899 -2.0240746
34.14764 23.673626 -2.024543
34.255169 23.501623 -1.9293648
34.142975 23.711353 -1.8608165
34.244827 23.476706 -1.7325134
34.144661 23.677622 -1.7528888
34.134823 23.764797 -1.6710386
34.356747 23.327456 -1.5464647
34.246822 23.503391 -1.5487785
34.145718 23.723799 -2.3998182
34.141506 23.787868 -1.8254685
34.080353 23.696722 -1.7384237
34.265282 23.333044 -0.44372049
34.075172 23.80024 -1.2417405
34.199799 23.393339 -0.33931702
34.114201 23.705198 -0.2301604
34.07827 23.801287 0.2298117
34.064819 23.777748 0.39752585
34.192097 23.278067 0.42846265
34.195423 23.49865 -0.44941866
34.176121 23.658121 -2.489198
34.586277 23.462971 -0.93767476
34.187618 23.328232 -1.3425059
34.099777 23.705038 -0.54815203
34.19878 23.328468 -0.73452157
34.203583 23.330666 -0.44762906
34.100025 23.601627 -1.3418092
34.001419 23.880955 -1.3354797
34.001709 23.880705 -1.4317036
34.191822 23.320587 -1.2375385
34.094414 23.601795 -1.5367534
34.103294 23.615105 -0.82239485
34.113136 23.530632 -0.84041113
34.097481 23.499229 -1.2330338
34.091846 23.698856 -1.3409617
34.105087 23.511549 -1.3425723
34.096008 23.503378 -1.7357304
34.110687 23.520229 -1.1299576
34.109997 23.593649 -0.73924392
34.098328 23.593452 -1.4427309
34.011414 23.825039 -1.6368234
34.080791 23.69249 -1.6293925
34.098499 23.514404 -1.6377674
34.103565 23.597368 -1.2431953
34.008244 23.888828 -1.9155877
34.092869 23.594152 -1.7394464
34.203682 23.332785 -0.64902896
34.095558 23.705517 -0.84846497
34.267651 23.328127 -0.73781037
34.098972 23.509321 -1.4587907
34.003155 23.884487 -1.2476995
34.011948 23.794769 -0.81983912
33.998169 23.817181 -1.5441533
34.245003 23.63916 -1.7140056
34.000511 23.840633 -1.9527498
34.013569 23.824697 -1.8340263
33.996349 23.633615 -2.0644698
34.004368 23.697809 -1.5425689
34.113331 23.393932 -1.2323049
34.018295 23.740826 -1.4619774
34.094791 23.505974 -0.93678796
34.233505 23.600449 -1.4131324
34.483925 23.267319 -1.5318446
34.008682 23.817276 -2.02315
34.228336 23.3708 -2.0222728
34.338966 23.42975 0.16191411
34.017113 23.817678 -1.2445779
34.185921 23.491606 -0.12082167
34.266449 23.570866 -1.6368227
34.000832 23.876297 -0.94641566
34.010689 23.781395 -0.89255285
33.990597 23.896181 -1.0414525
34.0131 23.788939 -1.3319702
34.374569 23.3771 -0.539805
34.3424 23.334467 -0.63462573
34.67725 23.477028 -1.0384007
34.580486 23.465559 -0.43756038
34.348965 23.324577 -1.6631711
34.369961 23.38801 -0.16895863
33.999714 23.893322 -0.74237227
34.637489 23.434378 -2.3031149
34.587421 23.466343 -1.5393414
34.390106 23.391191 -1.9334095
34.614571 23.496401 -1.9488982
34.375523 23.321943 -1.9349777
34.199444 23.328199 -1.0373027
34.550804 23.472027 -1.7535579
34.582451 23.48053 -1.651962
34.37048 23.380713 -0.43825817
34.359402 23.332314 -0.93914461
34.113918 23.728577 -0.38053766
34.37225 23.379932 -0.34061345
34.752983 23.296232 -1.0997914
34.376026 23.327768 -1.1430922
34.363865 23.391459 -0.24519838
34.345425 23.333199 -0.74244118
34.451202 23.329159 -1.2324951
34.665581 23.429974 -0.92699957
34.346626 23.328299 -0.84578842
34.009357 23.886576 -0.51973695
33.985001 23.905098 -0.61296284
34.100536 23.439165 -1.0696182
34.265602 23.670353 -0.42939842
34.213123 23.48361 -0.24295104
34.013485 23.821297 -0.6352663
34.328098 23.340122 -0.41227549
34.187874 23.598129 -0.2515206
34.432858 23.340479 -0.59831822
34.00071 23.805557 -1.0565335
34.672409 23.475185 -0.73828584
34.350594 23.319365 -0.33279997
34.502991 23.450558 -0.71821177
33.961887 23.834021 -1.1544952
34.109955 23.536926 -0.73269486
34.2383 23.655378 -1.4497026
34.073383 23.404631 -1.6988297
34.249165 23.496716 -1.1325036
34.847145 23.517744 -2.1264086
34.23085 23.67136 -1.5728707
34.229458 23.661217 -1.3210243
34.271866 23.481453 -1.6107372
34.583466 23.458847 -0.73751038
34.579285 23.459343 -0.84422123
33.998749 23.893929 -0.43775052
34.23732 23.691578 -1.6108907
34.161785 23.593185 -0.93692106
34.192104 23.39715 -0.53847957
34.260983 23.682432 -1.012948
34.09697 23.717653 -0.73654377
34.139515 23.781471 -1.9412199
34.480709 23.459543 -0.9417761
34.095558 23.820183 -0.025511421
34.562706 23.421093 -1.2306594
34.10627 23.706825 -0.44081312
34.250668 23.527233 0.31327552
34.192619 23.393122 -0.12869576
34.560638 23.404566 -1.4269649
34.155575 23.607254 0.72447956
34.202366 23.334133 -0.54405421
34.207905 23.240717 -1.8213613
34.09919 23.600424 -0.42932472
34.069729 23.401989 -1.48069
34.204231 23.334642 -0.28412917
34.003983 23.906757 -0.36023742
34.472866 23.463186 -0.33947864
34.486187 23.487242 -0.25619507
34.334084 23.336142 -0.22789186
34.014957 23.712538 -0.92806625
34.018246 23.61006 -1.2379913
34.066181 23.48337 -1.0150909
33.993637 23.717854 -1.3245621
34.014908 23.63059 -1.5302505
34.061195 23.73584 -2.2809417
34.487408 23.501438 -1.7150992
34.434196 23.344282 -1.8524327
34.444221 23.342693 -1.7107459
34.664574 23.529848 -2.4206769
34.54319 23.583158 -0.37023142
34.614777 23.481642 -0.1662146
34.204185 23.319672 -0.31542683
