# .PCD v0.7 - Point Cloud Data file format
VERSION 0.7
FIELDS x y z
SIZE 4 4 4
TYPE F F F
COUNT 1 1 1
WIDTH 1405
HEIGHT 1
VIEWPOINT 0 0 0 1 0 0 0
POINTS 1405
DATA ascii
14.753936 19.495552 2.2079294
13.693186 21.959007 -2.0214007
14.029937 21.153091 0.85731006
14.332341 21.03355 2.5065141
14.222538 20.925568 0.14745019
14.018591 21.142929 2.4650283
14.571724 19.879992 0.97740436
14.737593 19.66795 2.0117347
14.066737 21.120346 0.9234215
13.927682 21.468237 0.95069146
14.07622 21.273447 0.94018579
14.009599 21.111538 -0.3186169
13.813021 21.617344 -0.53505588
14.007758 21.136509 1.1013767
14.221017 20.671165 -0.15491897
14.25403 20.90126 1.0431554
14.227146 20.829739 2.426703
13.896966 21.747974 -0.86340755
13.805453 21.735857 -0.94726884
14.303165 20.24826 0.78723413
14.222416 20.487658 0.16669181
14.320522 20.466351 0.54433775
14.67997 19.272177 0.93797624
13.851224 21.896833 -1.0550855
14.49766 19.532749 0.95075321
13.993347 20.951933 0.31845805
13.997798 21.012426 2.2006404
14.091148 21.055086 0.039481673
14.305604 20.273422 0.33485824
13.99313 21.225058 2.4872785
13.83286 21.541868 2.124347
14.760197 18.948277 1.4231194
14.079696 21.049868 -0.71291929
14.049885 21.075661 -0.39297423
14.215129 20.575045 0.74645722
14.429313 19.925388 0.65484881
14.133849 21.195669 -0.40676507
13.811336 21.909031 -1.0255499
14.357096 20.457737 0.76919609
14.691414 19.502748 1.3356502
14.706347 19.481977 0.80616283
14.429571 20.077049 0.99850631
14.715487 19.420992 0.81052667
13.837378 21.806419 0.3278428
13.863912 21.501955 0.82596612
14.405683 19.887955 1.7473933
13.722919 22.284214 -1.5114357
14.241512 20.613754 -0.13075402
14.073641 21.086657 -0.14811428
14.283798 20.419361 -0.052333646
14.369548 20.305176 2.451838
14.290418 20.386868 0.067911446
13.859349 21.436134 1.6420747
14.103 20.700787 1.5555876
14.100559 20.687248 1.6157982
14.236959 20.629875 -0.047718316
13.933983 21.486496 0.088468686
14.18288 20.480118 1.5768223
14.677721 19.211136 1.0761417
13.744023 21.973 -1.6548401
13.943016 21.418802 0.065233909
14.373567 20.373924 -0.12569332
14.013556 21.039551 1.3997124
14.25572 20.579929 -0.19908758
14.442896 20.359705 -0.018421065
13.819575 21.637516 0.038978491
14.137111 20.634155 1.5529937
14.153684 20.721315 1.5692191
13.986732 21.434929 -0.054332942
14.2021 20.5131 1.4372144
13.874248 21.766569 -1.6306877
14.155039 20.692019 1.4558164
14.738727 19.201557 1.3625748
14.200273 20.60141 1.3603927
14.752833 19.614235 1.4429846
14.129625 21.105539 2.4679759
14.504564 19.815752 1.2730669
14.199862 20.526886 1.4048048
14.223098 20.92033 1.3570091
13.904272 21.390656 1.376143
14.101363 20.78742 1.3910904
14.101409 20.925297 0.25037885
14.080038 20.91654 2.1755631
14.115473 21.165356 2.6325927
14.442914 20.078289 1.843353
14.089328 21.047258 0.18092273
14.296967 20.392956 1.43785
14.108331 20.789343 2.5479999
14.442465 20.38603 0.84498441
13.796138 21.613811 0.23758487
14.383529 20.098415 1.2056565
14.084935 20.932312 0.36195767
13.816375 21.596359 0.42903465
14.077288 20.935019 1.9816315
13.945327 21.682013 -1.4375621
14.397932 20.069513 1.2517807
14.151464 20.708529 1.361324
14.382401 20.366879 0.069812417
14.309876 20.370598 -0.22016281
13.854371 21.751566 -1.9263487
14.251951 20.457413 2.2590301
14.074491 20.933922 2.3622782
14.594196 19.530691 1.1572326
14.092256 20.928038 1.5615444
13.965448 21.255753 1.2560191
14.094657 20.918501 1.3541584
14.171072 20.604536 1.4409835
14.116192 20.828545 0.39515924
14.596539 19.665722 1.8778538
13.804917 21.68325 -0.24340172
14.554815 19.812426 1.6442467
14.175352 20.711555 1.2527139
13.892373 21.485956 -0.010726646
14.486318 20.226414 0.56568074
13.679803 21.987928 -1.8256192
14.426583 20.357412 0.96557218
14.493505 19.66824 1.1617904
13.985155 20.993069 0.94317389
14.25752 20.944218 0.98118109
14.081892 20.915936 0.75385767
13.802138 21.710125 0.33073756
14.343727 20.175488 1.7059163
14.368828 20.361441 -0.03123345
14.664255 19.250299 1.4332464
13.79289 21.727579 -0.78431076
13.940777 21.675629 -1.1346352
13.555176 22.197178 -2.0272665
13.696119 21.827595 -1.4375027
13.805433 21.679163 0.17913906
14.850411 19.224417 1.4749017
13.596061 22.212738 -1.5281546
13.929013 21.666128 0.74770927
14.242282 20.952816 0.59069484
13.756736 21.896431 -1.6692092
13.952625 21.418552 -0.32517877
13.95882 21.478582 -1.8601
14.24253 20.934301 0.77512681
14.732033 19.316841 1.2729442
14.464706 19.902576 1.272258
13.778152 21.800953 0.20289189
14.256466 21.210226 2.4774563
13.757163 21.919573 -1.9228318
13.716745 21.833935 -1.8380818
13.667598 22.020153 -1.9297643
14.237499 20.949781 1.0458654
14.73155 19.661121 2.1553493
13.879503 21.510332 -0.2334296
14.268004 20.509094 1.2461681
14.242024 20.934784 2.1756275
14.224694 20.916981 1.7529082
14.459352 19.991758 1.2601595
14.475781 20.377977 2.4949155
14.177016 21.096939 2.3963556
13.919952 21.428593 -0.3293606
13.928905 21.482029 1.1579629
14.451216 20.354755 2.550602
14.240237 20.962582 2.4778666
14.38126 20.009651 1.1669633
13.665245 22.095247 -1.915259
14.734017 19.606237 1.9721538
14.728557 19.597385 2.152174
13.695606 21.932281 -1.7860311
13.963049 21.711721 -1.9341373
14.353615 20.02878 1.2339365
14.778518 19.231493 1.0675608
13.767911 21.798038 -1.7443081
14.231431 20.978115 2.3372147
14.669355 19.478859 1.1564608
14.223712 20.929037 2.2409203
14.817907 19.131245 0.99551022
14.144153 20.921263 2.2620795
13.89378 21.506683 -0.34050992
14.725942 19.631336 2.2795534
14.969375 18.838377 1.6890332
13.957684 21.361843 1.0755758
13.933705 21.501526 -0.43513232
14.003362 21.06255 1.4753554
14.268177 20.58827 1.1847367
14.702254 19.292183 1.0598196
14.26521 20.492577 -0.33804977
13.930093 21.666721 0.86370367
14.286534 20.409729 1.2619817
14.250246 20.912762 -0.054696336
14.780239 19.185488 1.146601
13.946337 21.463278 -0.23214787
13.953309 21.40819 1.1558734
14.437647 20.375681 0.68135101
13.804243 21.620481 -1.8064525
14.438892 20.360502 0.040487092
14.08799 21.178738 2.3739085
14.434557 20.114754 1.0861694
14.464013 20.217806 1.0529212
14.265009 20.496386 0.99330449
13.920119 21.449249 1.2420565
14.280776 20.403751 1.0741431
14.442939 20.305328 2.240104
14.044931 21.196297 0.96018136
13.916388 21.202997 1.3409314
14.483768 19.793516 1.4736432
14.108726 20.922817 -0.54522431
14.181471 20.808434 2.2495749
13.814927 21.646641 -1.5260651
14.159189 20.998194 2.4747577
14.242683 20.997799 2.0720513
14.432602 20.302107 0.35968685
14.222888 20.978767 2.1906369
14.106712 20.986109 0.16728136
13.801041 21.688511 -1.0208262
13.982889 21.192625 1.3581681
14.368889 20.493896 2.2106266
14.104594 20.988522 -0.74235636
13.86113 21.69549 -1.935743
13.792332 21.896763 -2.0088203
13.785581 21.61787 -1.6390704
14.232431 20.685659 1.053496
14.16161 20.927164 -0.033534031
14.099908 20.984852 -0.44436032
13.813574 21.676056 -1.932616
13.861542 21.53326 -0.50345093
14.471392 19.979986 1.1563232
13.806756 21.625038 -1.3524182
14.436276 20.314442 1.7642854
14.107963 20.984814 -0.94284689
13.800392 21.680113 -1.7347553
13.809 21.625858 -0.42028353
14.583534 19.670158 2.3621161
13.806801 21.763037 -2.0947177
14.082839 20.924126 1.4678228
13.863128 21.867056 -2.1663969
13.819557 21.940607 -2.1801114
13.870533 21.691116 -1.8342088
14.428285 20.359623 1.870034
13.839666 21.651838 -2.0292389
13.916864 21.221762 1.5872207
13.854256 21.604256 -2.0367284
14.437642 20.312897 2.0612051
13.812741 21.670301 -1.8328133
13.804356 21.672722 -1.621256
14.238394 20.982285 0.97172034
14.113379 20.928562 -0.85614222
14.469402 20.359749 2.3828485
14.098875 20.805668 1.531072
14.322699 20.479382 2.2238069
14.156338 20.929365 0.25694597
13.885395 21.421291 -0.21125181
14.239182 20.887074 2.570802
14.681876 19.764095 0.85030234
13.963244 21.49029 -1.712486
14.22891 20.980419 2.2557211
13.806116 21.597603 0.54239523
13.806351 21.667065 -1.3528646
14.43445 20.356911 1.9671861
13.807722 21.616776 -1.741366
14.591667 19.674679 2.250782
14.870766 18.974148 1.354097
14.743567 19.214489 1.2816904
13.868486 21.905487 -2.1969042
14.136661 20.790419 1.0534035
14.597808 19.600172 1.2664975
14.179277 20.728298 2.5087101
14.75351 19.362503 2.1936772
14.23167 20.511923 1.3780913
14.517252 19.775183 1.088034
14.455031 19.840858 0.76260829
14.457449 20.317957 2.5605674
14.323187 20.487816 2.3246965
13.944992 21.625292 0.46729043
13.482426 22.600315 -1.8359253
13.926308 21.763155 -0.59443164
14.156264 20.804834 1.2664809
13.960917 21.295727 1.3767419
14.20262 20.597305 1.1829178
14.251334 20.955845 0.46341091
13.802269 21.707108 -0.4084641
14.097969 20.923046 1.2719963
14.091516 20.928404 0.66401476
14.606053 19.611761 0.87352735
13.814436 21.544188 -0.71228594
14.101919 20.928133 -0.44050276
14.100401 20.923988 -0.6267612
13.587709 22.241222 -1.8363526
14.484599 19.810062 0.92649961
14.09418 20.925121 0.96765763
13.978801 21.112152 0.82252908
13.754826 22.09432 -2.1479056
13.928835 21.536623 0.39868721
14.671901 19.759691 0.80578226
13.787745 21.694151 -2.0400033
14.460135 19.890772 1.3762059
14.442012 19.872309 1.4405271
13.914636 21.443789 -0.54642445
14.5343 19.875576 1.0669942
14.277295 20.603497 0.7154057
13.993911 21.190876 1.1648037
14.250351 20.583113 1.2688053
14.194199 20.413036 1.0260525
13.81679 21.428377 0.4088324
14.005181 21.162584 -0.19864084
14.10053 20.992329 0.26327574
14.206004 20.486921 0.88410956
13.79073 21.610374 -1.4359944
13.815841 21.540476 -0.90766013
13.860209 21.541748 0.5031904
14.65959 19.527285 2.1350904
13.827337 21.512688 0.1585584
14.307281 20.197557 0.51412845
14.101462 20.923246 -0.73559523
13.801298 21.595047 -1.5418167
13.857856 21.525423 0.68629694
14.365831 20.210701 0.17576019
13.568741 22.322741 -1.7355856
14.435986 20.300014 0.86598647
13.875699 21.497822 0.37431443
13.857199 21.477909 1.0553057
13.819301 21.498165 0.483596
14.356943 20.217138 0.64736116
14.09376 20.907335 -0.047206014
14.359469 20.207504 0.92763585
13.859562 21.519047 0.78804702
14.579732 19.513832 1.6664653
14.365683 20.220942 0.28112185
14.42354 20.131071 2.3440356
14.582622 19.49584 1.7455492
14.371589 20.194128 0.76062667
14.378966 20.209034 1.8015693
14.34365 20.197712 0.86451709
13.874526 21.623219 -0.43963176
14.098923 20.984133 -0.54083377
14.527122 20.578817 0.53161722
14.590674 19.406092 2.2166617
14.514994 20.55238 0.59215897
14.498917 20.510977 0.53326935
13.955112 21.845858 -0.79270667
13.893653 21.50806 0.08032807
14.002934 21.292416 -0.13743617
14.483313 20.46644 0.76844835
14.100752 20.982796 -0.64535296
13.953651 21.381399 1.3686677
13.980834 21.301216 1.0658393
13.984547 21.298874 1.1651527
14.662677 19.513172 1.8771036
13.948776 21.820248 -0.75368774
13.784395 21.697308 0.2517606
14.234071 21.126003 0.55293727
13.854996 21.655361 -2.1064997
14.750189 19.684607 2.2650082
14.307558 20.551527 2.5228493
14.158047 21.071186 -0.9507398
13.900121 21.785856 -0.74834901
14.194156 21.092817 -0.83478683
13.676272 21.959818 -2.217073
14.155387 21.05842 -0.55137736
14.478461 20.380714 2.1719546
13.581731 22.297968 -1.832551
13.973251 21.698193 -2.1305354
14.2214 21.104099 2.2329428
13.944795 21.462221 0.83737111
14.529818 19.891195 1.201915
14.770134 19.090904 1.2778478
14.351689 21.041588 2.296299
14.846242 19.076422 1.1684639
14.69369 19.176748 1.2755958
14.681488 19.789587 1.659364
14.696118 19.141254 1.4155726
14.690088 19.760845 0.55074006
13.533626 22.295799 -2.0335333
14.464972 19.978901 1.0820034
14.570188 19.503857 0.97080922
14.595718 19.619993 0.95917422
14.606512 19.613373 0.6595068
14.603182 19.614384 0.75912154
14.599972 19.61137 0.57072747
14.191401 20.634092 1.2729704
13.875136 21.625364 -1.2400124
13.854115 21.609221 -1.9246086
13.642553 22.0989 -1.3161123
14.283383 20.489498 -0.13083649
14.659307 19.670675 2.1576262
13.559236 22.258583 -1.9263674
14.188776 20.991947 2.8598619
14.485169 20.456367 0.47759086
13.937455 21.419226 0.18482167
13.852137 21.473234 -1.06181
14.182398 20.679028 -0.28271508
14.253531 20.497864 2.5823679
14.437115 20.30378 2.4567332
14.580604 19.520985 1.9428071
14.617543 19.512722 2.1988106
14.568558 19.498554 2.4497662
14.603602 19.483557 1.5765547
14.247511 20.987705 0.85376656
13.810407 21.599747 -0.64739764
13.953117 21.821253 0.34658262
14.348321 20.2285 1.8565972
14.386441 20.239262 2.5446215
14.587299 19.671988 1.0515133
14.022152 21.284363 -0.048321564
14.343052 20.198982 1.9670556
13.795491 21.674356 -1.4568992
14.602471 19.668707 0.66566288
14.433645 20.301437 1.0465653
14.363148 20.118771 1.4717195
14.444498 20.354528 0.75582039
13.886598 21.749146 -0.93521827
14.381615 20.363247 0.85257018
14.750191 19.249283 0.94759959
14.448583 20.37005 0.34390438
14.325101 20.494547 0.96572858
14.386356 20.358135 0.14618929
13.938219 21.676626 -0.33619115
14.436279 20.298998 0.96437401
14.592876 19.895576 1.3168433
14.753508 19.609514 1.1509782
14.768925 19.262972 1.7610906
14.293837 20.367214 2.6288726
14.657678 19.615849 0.76174802
13.884104 21.683491 -0.93706977
13.883309 21.623569 0.4616003
14.298729 20.301682 1.979897
14.512119 19.707603 1.3277988
14.547089 19.805273 2.0601006
13.873242 21.485413 0.26940233
14.655117 19.663889 0.95488691
14.663349 19.522957 2.4027886
14.35272 20.201122 0.46170598
14.472696 20.033134 0.95883536
14.835501 19.080103 0.81355238
14.105271 20.975334 0.76352578
13.858727 21.509945 1.5629417
13.937592 21.171944 0.07921119
13.945448 21.62023 0.95381773
13.93571 21.627691 0.35920286
13.962877 21.784582 0.26187181
14.24061 20.965771 1.2770333
14.242701 20.688702 1.7362356
14.382154 20.357784 1.0642096
13.686825 22.183344 -1.7953353
14.654903 19.608025 2.5498641
14.447668 20.357861 0.16334078
14.439101 20.298712 0.15996651
14.56991 19.798637 1.1712096
14.010469 21.228348 -0.145744
14.669196 19.605167 2.6456962
14.387017 19.732744 2.2482188
13.933399 21.677334 -0.22503555
14.659316 19.604462 2.4585309
14.770081 19.182152 1.7650243
14.65926 19.767181 0.65394741
14.384195 20.358339 0.46510419
13.942211 21.452263 0.16025804
13.653116 22.222345 -1.6248353
13.848177 21.753151 0.25474668
14.148531 20.929371 0.85905492
14.80246 18.995998 0.87480646
13.964951 21.220789 1.547343
13.861702 21.438318 0.98224342
14.389217 20.304346 0.56575716
13.945853 21.629261 -0.54189318
14.082315 20.918573 2.6468883
14.054775 21.117056 0.87509972
13.961447 21.424604 1.868767
13.530354 22.301502 -1.2481575
14.68017 19.767502 0.31190857
14.435771 20.300074 0.26607066
14.663037 19.665855 0.7636767
14.295437 20.300064 2.5502264
14.599222 19.609993 1.4626251
14.384405 20.302515 0.76167864
13.626241 22.266951 -1.330741
14.082417 21.090633 1.166852
13.882572 21.62513 0.56108207
13.719646 21.808779 -1.3271664
14.49238 19.789072 1.3472834
14.656048 19.615047 1.1586237
14.461269 19.830137 1.6463407
14.079918 20.840481 0.17191133
14.16525 21.055643 1.961918
14.698001 19.765226 0.45853078
14.396628 20.302681 0.16367476
14.527162 19.769676 1.3551803
13.94593 21.391907 1.2495542
14.435159 20.233704 0.26336908
14.602295 19.617443 1.5624492
14.334855 20.449688 0.22335403
14.506362 19.835157 1.2054405
14.575918 19.760584 1.0131041
14.368277 20.370613 2.7752738
14.376822 20.300438 1.1611365
14.442357 20.377697 1.069389
14.593518 19.522381 0.87266994
14.385405 20.369675 2.2625158
14.088075 20.920097 0.87962836
14.356338 20.368439 2.6589756
13.600029 22.114639 -1.930594
14.052902 20.988697 2.8547137
14.372647 20.384378 2.1513631
14.368408 20.371397 2.4632771
14.178753 20.405968 2.6662118
13.938396 21.680946 -0.14839874
14.163962 20.991705 2.6668777
13.93395 21.622267 0.06023401
14.278315 20.478201 1.0532134
14.385495 20.30192 0.85964966
14.441483 20.383368 2.0640776
13.949108 21.378014 -0.13158536
13.886604 21.678345 -0.34013015
14.097683 20.985435 0.36141971
14.669383 19.752056 1.9601133
14.682762 19.409281 1.8532335
13.972326 21.377594 -0.23594373
14.364633 20.214911 0.56660259
14.514497 19.799295 1.82701
13.937686 21.674482 -0.042297568
14.436746 20.292477 0.062638246
14.395121 20.301683 0.061807945
14.10162 20.984007 -0.049397595
13.944947 21.635632 -0.74833506
14.210452 21.084047 0.69003272
14.103035 20.973564 1.0686108
14.305108 20.423626 -0.093593322
14.394516 20.300917 -0.042575363
14.596006 19.678572 0.54948986
14.297687 20.307013 2.7681704
14.156681 20.976852 0.061302878
14.701967 19.259153 1.3582813
14.300987 20.310678 1.6697222
13.937469 21.619051 -0.1402632
14.377153 20.369722 2.0603247
14.655233 19.614836 0.95505625
14.091061 20.97316 2.0707612
13.81636 21.532776 -0.62455618
13.935505 21.677423 -0.73990756
14.173389 20.977762 1.9637779
14.100561 20.978491 0.87343425
14.224849 20.934881 -0.15269822
13.886558 21.670942 0.46011317
14.155501 20.981308 0.95855296
13.893285 21.781534 0.56643713
14.237415 20.927794 0.33235288
14.657855 19.66947 1.7534976
14.091979 20.993048 0.46309832
14.152871 20.977739 0.26101092
14.253844 20.869362 0.42427731
14.710698 19.396482 1.695238
13.997008 21.772312 -2.2035179
14.148028 20.928925 2.1547143
14.58187 19.671345 1.6598657
14.686509 19.410496 1.1487241
14.089074 20.986383 1.4554632
14.430844 20.007256 1.3447778
13.963959 21.799635 0.54926789
14.168292 20.982218 1.6600908
14.961631 18.974979 0.47022733
14.200612 21.094494 0.34044546
14.153444 20.790974 1.1718031
14.156996 20.931303 0.16144492
14.453055 19.911873 1.0639714
13.938532 21.679367 -0.43384448
14.103486 20.98653 0.57361251
14.454452 19.988394 1.5901232
14.443307 20.306181 2.1561234
14.319958 20.346731 2.7884679
14.774925 19.089697 1.1672248
13.984581 21.202284 1.2543609
14.387108 20.357248 0.25145653
14.70881 19.38225 1.5640255
14.456937 20.00301 1.4965042
14.237409 20.931679 2.0520029
14.075721 21.078667 1.6509452
14.234819 21.069538 -0.63403964
14.667425 19.615465 1.9605483
14.658888 19.612293 2.2531676
14.601045 19.610888 1.1634221
14.66418 19.666618 1.4574842
14.659816 19.610962 2.0621362
14.152696 20.930788 0.76166505
14.163643 20.98114 1.3581936
14.657578 19.667103 1.1655874
13.931341 21.619905 0.16992952
13.535473 22.376247 -1.8469062
13.798393 21.758125 0.49083647
13.58251 22.188854 -1.5899987
14.465841 19.998178 1.752335
14.101089 20.978893 0.96006352
13.882856 21.676256 -0.23899812
13.890836 21.496065 0.54240298
14.660186 19.618294 1.7569002
13.784012 21.921881 -1.2356477
14.100274 20.976864 1.2657976
14.073591 21.09103 1.0540766
14.162008 20.93424 1.8558718
14.589349 19.676783 0.76392156
14.097754 20.781527 1.4576143
14.167196 20.987473 1.5656352
14.063527 21.069353 1.3550011
14.588058 19.678158 0.95651901
14.342049 20.239649 2.3244205
14.155297 20.976974 0.65981787
14.589725 19.598545 2.3639348
14.505626 19.692526 1.821532
14.662305 19.669403 1.949716
14.477084 20.02417 1.8783454
14.447969 20.367828 0.23604488
13.965111 21.174828 2.0633035
14.439829 20.311634 1.9691023
13.936492 21.683887 0.25689769
13.933108 21.748529 -1.0588204
14.088911 20.934357 2.5411744
13.938495 21.63345 -0.63632065
14.346517 20.586136 0.94720966
14.877319 18.962561 0.86348122
14.267977 20.368164 1.6823245
14.073898 21.067831 1.2520894
13.779803 21.684902 0.4466325
14.091691 20.986372 1.6596129
14.481273 19.794945 2.0283737
13.868649 21.62278 -1.6403674
14.144636 20.807354 1.390672
14.089777 20.930691 2.4489317
14.085437 20.921495 2.0494707
14.156033 20.9771 -0.038780186
14.269985 20.481834 2.1556568
13.857501 21.4916 -2.0306346
14.140372 20.798758 -0.44690004
13.927479 21.661821 0.56711853
14.077129 20.983578 2.7394161
14.662845 19.667576 0.55652308
14.67742 19.673883 2.3734014
14.176857 21.081699 -0.34275705
14.166086 20.98299 2.351984
14.105408 20.977579 0.061228387
14.898473 18.961739 1.7583785
14.100657 20.986958 -0.13774565
14.161316 21.080719 0.5617038
14.186365 21.065411 0.24533644
13.938676 21.627459 0.75503701
14.16029 20.98386 1.262141
13.933436 21.630842 -0.341373
14.162616 20.977301 -0.54023409
14.158151 20.933849 0.45518988
14.67931 19.404911 1.4403185
14.654828 19.666342 1.8660175
14.768296 19.377731 1.5260733
13.985222 21.200195 1.4647835
14.098647 20.913122 2.2572083
14.660631 19.618332 1.56563
14.371998 20.364628 0.66516405
13.692376 21.867935 -1.8972445
14.377228 20.309027 1.761036
14.181977 21.062368 -0.0494975
14.537273 19.80541 0.99579853
13.940963 21.671309 0.053932726
13.607357 22.389484 -1.6372962
14.745528 19.600498 0.83027786
14.088526 20.982601 2.5499916
14.660345 19.614738 1.8601182
14.239499 20.966997 -0.71108806
13.931282 21.667198 0.66024208
13.875608 21.627022 -0.93838096
14.665508 19.618704 1.3599117
13.73493 21.784601 -0.64894295
14.686741 19.437046 1.7421968
14.496924 19.995903 0.8201853
13.885896 21.534906 -1.8368807
14.884584 18.989374 1.5635139
13.95235 21.76545 -0.81424749
14.438169 20.310219 1.8553612
14.489498 19.911903 1.1680995
13.947942 21.63377 -1.155353
13.879111 21.623358 0.96456879
14.092304 20.928795 1.7584884
14.663514 19.619148 1.4592
13.945176 21.626451 -0.92891121
14.155037 20.976568 0.1583591
14.658908 19.613714 1.2562561
14.235323 20.929874 -0.54717362
14.64582 19.672747 2.059597
13.879922 21.62529 0.76799577
14.234534 20.98777 -0.38164109
14.152525 20.923536 1.4617068
13.937288 21.676357 -0.63222671
14.65633 19.667358 0.85929513
13.938691 21.633909 -0.83002335
13.592129 22.03804 -2.1972578
13.942652 21.623625 -0.42762041
14.663645 19.666197 1.3641899
14.44557 20.303598 2.3548491
14.948789 18.965929 0.55652893
14.08997 20.995596 1.5654004
14.186176 21.082115 0.065925121
14.060026 21.114826 2.464828
13.873524 21.624372 -1.8233691
14.300995 20.966953 -0.16330041
14.654736 19.608854 2.356931
14.088157 20.992702 1.3543073
14.465632 19.766356 2.1658838
14.168736 20.933905 -0.73920369
14.347655 20.304825 2.6597915
14.368773 20.309956 1.8547024
14.742867 19.379595 1.144859
14.080647 20.972784 2.3630099
14.392589 20.359957 1.1535957
14.677774 19.369572 1.2477694
13.910717 21.504692 -1.644182
14.666862 19.615925 1.6594963
13.859048 21.494919 -1.9227898
14.08778 20.976664 1.8677995
14.066207 20.925037 2.7982473
14.080316 20.980444 2.1602526
14.372497 20.30484 2.5667264
13.971155 21.16321 0.98838371
13.803373 21.639996 -2.0032425
14.573021 19.681751 1.7595448
13.879562 21.623535 -0.13906768
13.932392 21.484879 2.1414068
14.95018 18.896189 1.0638175
13.939577 21.678482 -0.83802962
13.978546 21.125553 1.5428863
14.66167 19.677534 2.264286
14.35912 20.303226 2.3574138
13.62603 22.258984 -1.8586409
14.660542 19.663706 0.6656208
14.03728 21.190483 1.1674497
14.317599 20.189091 2.4527409
14.383708 20.368885 0.35026577
14.661309 19.668114 1.2558185
13.805353 21.680929 -0.33461839
14.157351 20.981493 -0.34355325
14.236677 20.96587 -0.61633968
13.818316 21.657743 0.59614748
14.155201 20.977705 0.36628529
14.797926 18.984394 1.5489783
13.797586 21.806667 0.35400513
13.870534 21.683214 -1.631844
14.144742 21.058884 2.2349803
13.808991 21.534872 -1.2111896
14.666969 19.673363 2.4733763
14.176642 21.069511 0.76648009
14.656494 19.615749 2.1577787
13.885078 21.672081 0.15918778
14.164411 20.985069 1.8632585
14.38465 20.302582 0.95850861
14.665923 19.670071 1.6625291
14.100183 20.925705 1.1742442
13.899658 21.483095 -1.7444727
14.10337 20.97677 0.66675198
13.937165 21.677265 -0.54187924
14.66231 19.667515 1.0568089
14.390665 20.306211 0.35931718
14.15725 20.977364 0.56239384
13.623254 22.117661 -1.8775346
13.851319 21.513077 -0.14515018
14.222965 20.946922 -0.078584164
14.171277 20.981956 -0.93816698
14.160667 20.929102 -0.22462593
14.168473 20.979107 1.7606989
14.164081 20.989796 1.4612668
13.870756 21.620356 -1.4367825
14.65542 19.669085 1.5617725
14.232255 20.973717 0.27138305
14.163096 20.987152 2.2576849
13.994677 21.020012 1.5409541
14.152334 20.975582 0.75804347
13.884382 21.676054 -0.13989641
14.593735 19.616865 1.7636045
13.949234 21.61722 -1.633186
14.394863 20.302742 0.2671853
13.938438 21.677074 -0.93507636
13.930655 21.189198 1.626786
14.160396 20.932022 0.37052888
14.163929 21.075876 1.862705
14.391286 20.30036 0.65915275
13.879847 21.615871 -1.5408453
14.559473 19.787807 0.83879346
14.311495 20.492922 -0.056930389
13.882871 21.674389 0.057551306
14.305603 20.316866 0.43253732
14.084501 20.976294 1.9646753
14.173032 21.052788 -0.64528096
14.094784 20.965473 2.4623559
14.157268 20.977917 1.0649543
13.946762 21.263393 2.4879191
14.284791 20.370798 1.7719252
14.733831 19.380711 1.7204192
14.664889 19.507469 1.2665789
14.161563 20.996965 2.5448959
14.302318 20.305632 2.2660046
14.369998 20.305548 2.0623248
13.939924 21.677753 -1.0409906
14.94858 18.959145 1.6647853
13.990586 21.218277 1.74349
14.150681 20.920818 1.2618842
14.794059 19.092855 1.5811628
14.088046 20.971037 2.2709613
13.798946 21.515709 2.050127
14.756418 19.087046 1.4444973
14.369484 20.306721 1.96055
13.941693 21.626574 -0.053080153
14.003062 21.301046 0.26162577
14.151891 20.610493 1.6280363
14.170417 20.983562 2.159086
13.883569 21.625879 -0.039577581
14.655094 19.420986 1.0425572
14.752337 19.359783 1.6349311
14.15118 20.977604 0.86377877
13.882105 21.680845 -0.83827263
14.379308 19.97438 1.3618863
14.158953 20.984364 1.1616901
13.610914 22.291508 -1.6547413
13.886807 21.672132 0.26384124
13.883201 21.6257 0.36243093
13.876832 21.624626 -0.83755553
14.152982 21.17688 2.6407595
13.879028 21.681154 -1.1369903
13.859851 21.487864 -0.44071501
14.866968 18.829941 1.4077411
13.616334 22.034128 -1.8346533
13.877885 21.62723 -0.64091527
13.88032 21.621058 -0.23221236
13.885887 21.624434 -0.54087353
14.610071 19.757149 0.75825101
13.590714 22.016964 -2.1326048
13.866578 21.523581 1.3526943
14.097766 20.990219 -0.33002892
13.86497 21.688929 -1.7284616
13.877162 21.624853 0.86119473
13.861187 21.527575 1.8500215
13.878827 21.626257 -1.1426529
13.871146 21.620073 -1.0453454
14.15785 20.978186 0.46265864
14.751632 19.299667 1.167226
14.087101 20.981682 2.6553078
14.157461 20.974436 -0.23926899
13.545347 22.414909 -1.3687403
14.156446 20.926336 1.1532193
14.150847 20.931459 1.0527902
14.169097 20.982143 2.067672
14.160223 20.981245 -0.63835859
13.883198 21.622656 0.15410182
14.103216 20.980867 1.1624448
13.93248 21.434467 0.36445862
14.393373 20.305679 0.46065241
14.381836 20.379534 0.73924494
14.384443 20.365007 0.57124537
14.348733 20.299995 2.7640438
14.705692 19.791885 2.432924
14.22775 20.974106 -0.8312794
14.571301 19.80312 1.8786036
14.158967 20.923124 1.3561919
14.148251 20.787243 2.3190601
13.940295 21.670116 0.15742718
14.177227 20.89785 2.8551795
14.318699 20.305742 2.6547234
13.928162 21.668713 0.36801353
14.60061 19.664436 1.5687546
14.162623 20.931261 1.5532917
13.735995 22.074535 -1.992619
14.486418 20.232372 0.66594172
14.150685 20.979004 -0.13634126
14.065334 21.098156 2.6710014
13.996881 21.132769 2.6020763
14.734172 19.77249 0.76097924
14.156475 20.93145 0.064200677
14.141897 20.792559 1.8482485
14.227276 20.686445 0.58932561
13.882629 21.405832 1.5773042
14.783806 19.05611 1.3177891
14.223125 20.98777 -0.22413525
14.693238 19.76152 1.0442748
14.671721 19.476257 1.0520468
14.009648 21.200527 0.25026032
14.032139 21.434772 0.84265876
14.228726 20.963829 -0.52952915
13.884943 21.66938 0.6615265
13.988705 21.09758 2.2387185
14.306699 20.277067 1.7832875
14.367575 20.21537 2.0881684
14.085069 20.912315 1.8724349
14.339876 20.953772 -0.59032065
14.186435 20.70237 0.85988784
14.639542 19.804049 1.4019002
14.228745 20.662693 0.66001195
14.676754 19.801989 2.0496659
14.161407 20.980824 -0.73552406
14.56809 19.786602 1.5727886
14.285329 20.228745 0.99067682
14.481724 19.711117 1.4181334
14.269612 20.377031 2.1681051
14.681505 19.749372 2.2597184
14.434095 20.301935 0.75574017
14.842062 19.70945 2.2601278
13.932718 21.623629 0.55315375
14.455556 19.820271 1.5498003
14.351739 20.082119 1.3611374
14.493143 19.639606 0.9425981
14.594108 19.486839 0.65976501
14.168475 20.925817 1.6493396
14.436052 20.191151 2.3786051
14.092168 20.924398 0.44256702
14.518483 19.853807 1.9424824
14.434938 20.298336 0.46221828
14.950303 18.970745 0.63696057
14.754355 19.290462 1.0673892
14.752594 19.811678 2.2464805
13.927104 21.252544 2.1681564
14.190498 21.110765 0.47424632
13.930081 21.446823 -0.88347578
13.993131 21.092157 1.8381481
14.587447 19.67803 1.3623997
14.609402 19.661448 0.87642854
14.35244 20.237072 2.4791021
14.020694 21.82412 -2.2021914
14.088222 20.984037 1.7622324
13.885126 21.677832 -0.54128534
14.174398 20.774948 -0.098204404
13.765892 22.046278 -1.6955764
14.551601 19.780499 1.4698608
14.95413 18.962614 0.76506913
14.576558 19.780613 0.47659534
14.572717 19.80901 1.7603441
14.050968 21.173344 1.0753589
14.788144 18.983353 1.2633603
14.407459 19.914705 1.435321
14.270825 20.587709 0.9824273
14.345531 19.896185 1.6208289
14.359699 20.005869 1.4583681
14.083967 20.928101 1.662532
13.883298 21.62377 0.26644966
14.375996 20.216309 2.252408
14.227762 20.935944 -0.62364411
14.140053 20.938297 2.5642467
14.175002 21.083448 -0.41005379
14.593557 19.664379 2.0603068
14.153259 20.929688 0.96554643
13.888391 21.627758 0.062653482
14.156964 20.932953 0.66703504
14.169477 21.092253 -0.24997371
14.153548 21.090145 0.14753261
14.154962 20.919823 1.74923
13.884167 21.679518 -0.73868918
14.196087 20.799679 -0.3730213
14.166968 20.836172 0.37012044
13.929504 21.532541 -0.18787591
13.869585 21.514908 1.2758391
13.934603 21.522825 -0.037291296
13.871041 21.49444 1.4639277
14.597481 19.671923 1.4650337
13.885047 21.673845 -0.039690398
14.470934 20.470684 2.2889757
14.261825 20.670521 0.95668107
13.807112 21.70706 0.049595669
14.895576 18.888641 1.1596487
14.159817 20.928988 -0.33936751
13.883257 21.670549 0.56050187
14.382394 20.36692 1.958446
14.309613 20.282583 0.9414205
14.447733 20.197929 0.7594465
13.87447 21.824675 0.44216841
14.459607 20.241047 0.16526866
14.65696 19.613512 1.0578909
14.57564 19.511063 2.3344469
13.840423 21.497519 2.3574958
14.152488 20.931425 0.55465841
14.238282 20.656071 -0.078938887
14.352057 20.198286 2.1529279
14.38568 20.375322 2.3636897
14.296245 20.304556 1.1580569
13.859241 21.525705 1.9648081
14.597386 19.675491 2.549788
13.882848 21.626562 0.65907753
14.739468 19.717466 0.85257947
14.701399 19.299168 1.2622433
14.58536 19.503391 2.279778
14.597015 19.820518 2.2919018
14.26501 20.931974 0.83082032
14.548292 19.785116 1.2488024
14.519516 19.933023 1.8616788
13.914907 21.414963 1.2651093
13.8128 21.587109 -0.91535503
14.158841 20.97896 -0.44054407
14.007792 20.994473 1.5028176
13.959062 21.787985 -0.43622011
13.914474 21.277124 1.4751164
13.892181 21.397039 1.4439306
14.101611 20.929739 1.0700654
13.874313 21.691481 -1.4378924
13.503349 22.485424 -1.5491635
14.65486 19.762238 1.4596783
14.586097 19.677794 1.2551153
14.387118 20.08285 1.622916
13.944788 21.628132 -1.0290817
13.886636 21.669323 0.36089286
14.588709 19.676874 1.9561211
13.874253 21.683258 -1.3381987
13.933505 21.6252 0.65583462
13.931214 21.622543 0.85807443
13.93203 21.629324 0.26638758
14.241433 20.975094 0.1387198
13.864811 21.621702 -1.7288789
14.655113 19.614517 0.86021739
14.026858 21.164299 -0.16691615
14.831828 19.082729 1.0782771
14.151409 20.932261 -0.63546169
13.931641 21.299568 2.5358801
14.169797 20.927029 2.0684938
14.291009 20.310995 2.4533834
14.155622 20.91811 1.9506227
14.1855 20.922226 2.7479122
14.299991 20.3034 1.8508502
14.306396 20.296083 2.1599629
14.301423 20.305155 2.0676522
14.303701 20.308632 2.3817239
13.817721 21.634169 -1.899209
13.535534 22.399767 -1.4277836
14.160249 20.932352 2.3512082
14.149556 20.922211 2.4548094
14.257681 20.194038 2.170553
13.932258 21.66547 0.46033671
14.896342 18.903265 1.5637126
13.807118 21.521185 -1.0418935
14.173466 20.81686 -0.049650084
14.248564 20.682953 2.3916986
14.15638 20.932404 -0.43744856
14.163083 20.929495 -0.53987193
13.608431 22.074163 -1.8514321
14.585827 19.67761 2.1631975
14.084726 20.830482 0.55155885
14.278303 20.577604 2.5063469
13.90287 21.411663 1.1791506
14.300008 20.296803 1.0509843
14.099244 20.926365 0.55244446
14.001858 21.057405 1.3533512
13.999332 21.101212 1.2672738
14.097652 20.839355 1.0079062
14.148476 20.93071 -0.13935676
14.59755 19.677401 1.164693
13.878685 21.872272 -1.6397686
13.811929 21.444584 -0.71963131
13.762006 21.950693 -1.3632425
13.9011 21.386471 1.0773934
14.458755 20.205809 1.9746196
13.931781 21.677286 0.9620356
13.885659 21.678129 -0.44056058
14.288432 20.451061 0.28683779
14.158711 20.584766 2.5780029
13.904541 21.288366 1.5363295
13.898026 21.495918 -0.84297627
14.514757 19.627964 2.3483303
14.264329 20.587578 1.0375022
13.886458 21.679632 -0.63810676
13.945691 21.307016 1.4667374
14.374367 20.307871 2.263916
13.88608 21.672512 0.96050596
14.103653 20.922976 -0.33640498
14.593158 19.607603 1.6658487
13.94533 21.502848 2.0621305
14.449762 20.085327 1.1354614
13.881859 21.681435 -1.0362462
14.366628 20.307449 2.1531131
14.891382 18.897232 1.3607618
14.383171 20.367241 1.2636641
14.378428 20.360277 1.5673566
13.876416 21.623148 -0.74581826
13.873472 21.685822 -1.5328118
14.36799 20.395966 2.5742247
14.735221 19.770634 0.69511551
14.736603 19.782761 0.46996668
13.881124 21.622776 -0.33766463
14.23134 20.712196 1.5612319
13.616549 22.040855 -1.930653
14.383407 20.303118 1.0589998
14.779723 18.998798 1.3868071
14.593131 19.611515 1.870651
14.603669 19.606518 1.0566059
14.60503 19.613268 2.5790184
14.590748 19.613991 2.454335
14.366655 20.216444 1.0588582
14.588142 19.610273 1.9570632
14.592834 19.605026 2.2519896
14.447023 20.382334 0.45054793
13.738709 22.177912 -1.5177171
13.764834 22.007401 -1.5482904
13.659605 22.279991 -1.5305018
13.764936 22.08577 -1.533074
13.86528 21.771294 -1.5318571
13.805752 21.722937 -0.15148056
14.2517 20.944775 0.067103982
13.691853 22.082592 -1.6392241
13.643727 22.335867 -1.5919393
13.775773 21.977665 -1.478657
13.841696 21.8757 -1.5412289
13.823365 21.891611 -1.4605044
14.253115 20.509462 1.4928404
13.613989 22.108944 -1.4736385
13.661598 22.283171 -1.4831021
13.887677 21.772928 -1.741124
13.68577 22.196808 -1.5318911
13.743788 22.092472 -1.4499453
13.632607 22.376797 -1.5223664
13.892954 21.424774 0.065797828
13.979852 21.284758 1.570504
13.774403 21.874916 -1.4771808
13.62398 22.277256 -1.7411623
13.753787 22.204927 -1.6715844
13.768475 21.907263 -1.536744
14.375537 20.241644 0.080940619
13.762589 21.808329 -1.6180859
13.890425 21.37598 -0.0049265684
14.085945 20.90955 0.16123733
13.874975 21.50202 -1.4520653
13.673532 22.070269 -1.5297835
14.094141 20.923618 0.041029565
14.538474 19.900099 1.9841781
13.700808 21.989183 -1.5740844
14.137496 20.628012 -0.27000731
13.483551 22.491201 -1.6509023
13.686419 22.012348 -1.4100707
14.092003 20.92153 -0.27398232
14.488213 19.850788 2.2730498
13.519977 22.310619 -1.3639392
14.706304 19.221621 0.82725984
14.581873 19.765259 1.9566205
13.937124 21.441118 -0.83005232
14.434174 20.368601 2.6570871
14.210519 20.720268 -0.058207843
13.690771 21.796314 -1.5059725
13.805152 21.678463 -0.029375331
14.299188 21.091059 -0.53188604
14.218356 20.65267 -0.29770201
14.154324 20.815918 -0.23179668
14.690164 19.304867 1.1396486
14.498354 19.689072 1.7623731
14.544922 19.753004 2.1854191
14.278409 20.382309 0.66564119
13.954068 21.40494 2.0828264
14.646027 19.52932 0.69774628
14.064861 21.24328 -0.1997776
14.257502 20.664581 0.12520692
13.951799 21.282816 0.77672124
14.105439 21.078077 2.8106139
13.928051 21.486385 0.54102021
14.079283 21.067068 -0.24193105
14.054613 21.19182 -0.3384178
14.535066 19.913191 1.4422219
14.4555 20.152519 2.0853589
14.170569 20.310778 2.2039375
14.050166 21.183453 1.312281
14.538979 19.952602 0.6833331
14.056744 21.077145 0.32908899
13.977582 21.422705 1.9287469
14.388889 20.202578 0.36419463
13.945739 21.491634 1.7553356
14.05838 21.063885 0.261969
14.106176 21.120581 2.1259387
13.986457 21.372578 1.7418509
14.246588 20.491541 1.1279637
14.068062 21.160856 0.51057482
14.007711 21.272692 1.8567138
14.953349 18.907427 1.7628567
14.164982 20.765011 0.98311847
14.732367 19.600981 1.2322701
14.541012 19.874693 0.80537897
14.669417 19.768957 1.8675885
13.878996 21.771929 -2.0602221
13.861446 21.755575 -1.3072217
14.517179 19.661196 0.87695593
14.490042 19.688328 1.9239988
13.902943 21.74719 -1.8216166
14.669144 19.747435 1.5622612
14.305387 20.385622 1.5592551
14.282758 20.381521 2.0547285
13.806333 21.611658 -0.34689042
14.008382 21.032692 1.712166
13.977491 21.100611 2.3566904
14.187119 20.70422 0.75684178
14.083154 21.072159 2.047338
14.166726 21.07118 2.726943
14.088417 21.072273 1.8368819
14.097528 21.082584 2.5378489
14.056266 21.15098 2.1912303
14.096118 21.099598 2.2278922
13.996965 21.233807 2.1671445
14.172958 21.071337 2.8356721
14.078867 21.088831 2.8610466
14.130076 21.069353 2.6996555
14.523326 19.424583 2.2067425
14.901105 18.891598 1.060631
14.741045 19.642117 2.041219
14.261135 20.599613 1.7855796
14.164489 20.751736 1.4740804
13.973316 21.372162 1.6735203
13.999348 21.312902 1.782099
13.95497 21.380491 1.5622563
14.448535 20.297993 2.6571388
14.036463 21.181499 1.5733298
14.596373 19.606001 2.1624746
13.943988 21.43203 -0.52284354
14.254979 20.517202 1.63634
14.843507 19.149229 0.65488219
14.753191 19.59037 1.3703347
14.716562 19.163395 0.9206804
14.243432 20.582752 1.4394637
14.057938 21.080416 1.4600323
13.936908 21.473782 1.6720293
14.20719 20.807726 1.5457219
13.948909 21.415676 1.4743468
13.707541 21.816349 -1.7405456
14.173939 20.767973 1.6388965
13.992683 21.284283 1.6753232
14.291258 20.501966 1.5653291
13.556888 22.291512 -1.3433877
13.646281 21.986416 -1.3363934
14.55118 19.852444 1.7741481
13.899967 21.503296 1.8012483
13.684427 21.91102 -1.2567856
14.54111 19.871611 1.8685896
14.708795 19.292065 1.7088474
13.582459 22.104837 -1.353478
14.775732 19.196144 1.5981472
14.067556 21.09811 1.5747352
14.884555 18.983768 1.6475364
14.679079 19.489973 1.630248
14.747138 19.319426 1.6750482
13.630307 21.881809 -1.3490934
13.814356 21.701004 -1.225177
14.024561 21.264328 1.6483963
14.260721 20.532383 1.7475848
14.204261 20.638697 1.7336303
14.590718 19.604948 2.0573771
13.751574 21.826157 -1.5386726
14.846066 19.062862 1.5551878
14.537159 19.91498 1.590741
13.790468 21.787193 -1.36415
13.545993 22.317131 -1.4356065
14.740403 19.308783 1.5839978
14.648031 19.46974 1.5617263
14.167396 20.700342 1.6971201
13.717395 21.857508 -1.5107431
13.571539 22.211033 -1.3385794
14.052383 21.180967 1.7650189
14.856403 19.047264 1.63151
13.85475 21.504303 -1.22788
14.01794 21.109875 0.21217437
14.739193 19.699434 1.89364
14.821124 19.223423 1.8039261
14.551373 19.995153 1.803696
13.951561 21.30541 0.14928536
13.976664 21.31629 0.054446407
13.89187 21.187206 0.027998514
14.478504 19.94508 1.5394799
14.170247 20.688066 0.07072819
13.923716 21.450388 0.21906094
13.581623 22.184151 -1.409795
14.252592 20.482389 0.065670177
14.794897 19.198027 1.6665754
13.619272 21.933977 -1.223744
13.54642 22.222984 -1.269696
14.224445 20.567354 0.13406289
14.728283 19.623924 1.5565562
13.661208 22.016499 -1.275106
14.251898 20.586731 0.05614794
13.664586 22.085302 -1.3908315
14.876415 18.980089 1.0662119
14.225304 20.967266 2.5298791
14.220411 20.97106 2.7795177
13.482674 22.399273 -1.2848263
14.200462 20.509794 2.6486876
13.815948 21.592705 -1.1073303
14.178729 20.540115 0.051551517
14.309339 20.245028 0.33519316
13.893953 21.465797 -1.5236652
14.721774 19.277565 1.4842044
14.686026 19.480347 1.7530342
13.80889 21.574547 0.18819894
14.041441 21.120148 1.7571083
14.531286 19.886669 1.6906446
14.532234 19.984467 1.6840072
13.741044 21.843626 -1.1983925
14.265234 20.617491 1.6028621
13.881797 21.418924 0.28214499
14.752274 19.582327 1.7551064
13.885295 21.419819 0.18885313
13.675147 21.893131 -1.4188006
14.755316 19.506855 1.4280577
13.552531 22.338261 -1.5132453
14.735312 19.494648 2.2467344
14.800688 19.201059 0.78218597
13.817899 21.61404 -0.01692909
13.799549 21.619957 -0.80974662
13.795367 21.763948 -1.4653932
14.333204 20.072769 2.3503413
14.459651 20.04697 1.9795088
13.807097 21.607443 -0.72463298
13.785132 21.583998 -0.99482524
14.352929 19.973244 1.7273825
14.447846 20.367338 0.54774547
14.231768 21.097258 0.044434816
14.285162 21.08375 0.63521224
14.296361 21.110079 2.4061539
14.310166 20.216908 2.7225261
14.259732 20.739542 1.5089067
14.592324 19.538794 0.77432203
14.253294 20.687254 1.1842998
14.795807 18.999058 1.1518698
14.104942 21.082273 1.9590011
14.388163 20.119177 0.85349452
14.076334 21.062113 -0.072654799
14.105477 21.10305 0.77569842
14.300868 20.32922 0.17711072
13.981616 20.928261 0.87409055
13.991037 20.960274 0.80529326
13.675693 22.056728 -1.7301284
14.854584 19.070005 1.4725662
14.046165 21.232065 1.5027518
14.603841 19.884554 2.0618908
14.220022 20.659586 1.0905702
14.778827 19.246481 1.3287299
13.85216 21.775375 0.62765408
14.18804 21.081036 2.565943
14.232298 21.180527 -0.69363564
14.769251 19.285746 0.86952531
14.229238 21.169889 -0.93489778
14.831009 19.080246 1.2411221
14.19737 20.718359 1.1236748
14.319346 20.347115 0.45380962
14.002028 21.099899 0.98951864
14.243314 20.365053 2.2767367
14.520034 19.583546 1.9460405
14.285993 20.369884 0.84571439
14.298418 20.373268 0.95706171
13.863688 21.508419 2.2611675
14.678781 19.279184 0.83018672
14.650518 19.440115 0.94641209
14.306757 20.014454 1.09366
13.917946 21.344503 1.0506867
14.752192 19.084114 1.0764718
13.999458 20.871811 2.3574424
14.400793 20.098581 1.1062787
14.74544 19.129333 0.76958221
14.129145 20.820255 0.84234816
14.767799 18.985344 1.0738785
13.934266 21.445724 -0.33707935
13.869771 21.514318 0.94026488
14.122357 20.667257 2.2778249
13.934503 21.37915 0.89268911
14.189989 20.436897 2.1000085
13.898519 21.756151 -0.68226635
13.938705 21.296526 0.95981681
14.306167 20.36208 1.1369171
13.753701 21.497356 2.3751218
14.192295 20.614075 1.0936331
13.87873 21.782854 -1.4660656
14.789848 19.009771 1.6524104
14.062399 21.069965 -0.64830112
13.921508 21.314663 0.88421059
14.249172 20.754089 2.224854
14.09998 21.074554 -0.5878405
13.566128 22.100525 -2.016777
13.655899 22.182108 -1.7885916
13.781139 21.886162 -1.8479183
14.330513 20.061825 2.2862895
14.449218 19.581661 2.2008245
13.887576 21.796669 -2.2180288
13.738799 22.183788 -2.0555298
13.974502 21.692707 -2.0259521
14.131125 20.687393 0.95907772
13.899995 21.795559 -2.1465685
13.811062 21.965658 -2.1075659
14.489118 19.561886 0.8170225
13.826173 21.975035 -2.1725535
13.768591 21.78149 -0.74670577
14.298824 20.298063 0.66838086
14.283264 20.366604 1.829906
14.299438 20.352097 0.7620846
14.294666 20.332458 0.8585673
14.58855 19.524565 1.0552613
13.793473 21.793144 -0.5383718
13.822395 21.870659 -1.8795296
13.716199 21.901531 -1.643104
14.052239 21.073862 0.52874529
14.250163 20.363661 0.23511766
14.311464 20.4422 2.4783292
14.399148 20.057335 2.0616264
14.224394 20.937769 2.6958005
14.011563 21.043039 0.22207519
14.018408 21.076172 -0.97954798
14.194547 20.986917 2.7920313
13.867882 21.460434 -1.1476934
14.23776 20.547823 0.22971784
14.242146 20.601141 1.6745026
14.805376 19.117649 1.7727976
13.858624 21.47934 -0.96442807
14.145283 20.729647 0.47849464
13.816376 21.675526 -0.80355972
13.877993 21.430399 2.1333935
14.777431 19.259432 1.8202226
14.782375 19.233297 0.9051795
13.858224 21.428186 -0.13586614
14.402202 20.144163 0.62230122
14.411057 20.138519 0.32372713
13.848461 21.751019 -0.50438637
14.202956 20.938475 2.6441414
14.111487 21.0557 -0.36309284
14.135637 21.054869 -0.11222965
14.019903 21.075022 0.47985065
