# .PCD v0.7 - Point Cloud Data file format
VERSION 0.7
FIELDS x y z
SIZE 4 4 4
TYPE F F F
COUNT 1 1 1
WIDTH 919
HEIGHT 1
VIEWPOINT 0 0 0 1 0 0 0
POINTS 919
DATA ascii
33.022388 11.660672 0.92867196
33.01926 11.135494 0.65501243
33.082218 11.074956 2.2655416
33.25861 11.394296 -0.087005705
33.25943 11.365852 0.96508735
33.102852 11.061588 2.0815389
32.998787 11.459937 -2.2425098
33.062649 11.35158 -2.2745533
33.183342 11.193564 -2.2057166
33.126064 11.400812 -2.1063619
33.055328 11.472501 -2.2521634
33.097157 11.407079 -2.1284461
33.144749 11.398862 -1.9274416
33.135616 11.284125 -1.934819
33.230968 11.378332 1.5755625
33.187309 11.10768 2.4620857
33.099129 11.4221 3.0646794
32.918533 11.650985 2.4639716
33.164642 11.235889 3.0253203
33.194572 11.117293 2.653219
33.293015 11.297674 1.082733
33.253777 11.059856 2.7605548
33.220234 11.334816 3.0064027
33.333881 11.085141 3.1759856
33.190617 11.110174 2.3479059
33.143486 11.220268 3.220372
33.064838 11.511994 3.2681444
33.158485 11.133611 3.1826613
33.083267 11.392986 2.8813026
33.161087 11.184814 2.7431355
33.190704 11.10367 2.7685387
33.27441 11.328605 0.3844614
32.989449 11.51387 3.4596968
33.085091 11.230566 2.9585991
33.106522 11.213626 2.6450551
32.998165 11.251548 2.7495992
33.086067 11.143398 2.9812212
32.961151 11.465209 3.1273878
32.961468 11.442126 3.095582
33.183029 11.103447 2.2598386
33.202396 11.462327 2.9401205
33.245159 11.383387 -1.1150529
33.138397 11.364839 -0.53661603
33.175148 11.29903 -1.8399181
33.165688 11.487774 1.4092512
33.181404 11.4578 -0.81654125
33.252193 11.300596 -0.28438872
33.134449 11.541399 -2.1716568
33.161026 11.481839 -1.2444694
33.233959 11.401316 -1.2420913
33.202011 11.397676 -0.23027077
33.155396 11.494254 -0.28987083
33.259583 11.305938 -0.011285093
33.222275 11.391442 0.037783615
33.282471 11.357377 0.5671075
33.244339 11.464447 -0.35516536
33.276764 11.426509 0.45873845
33.169029 11.47951 0.30346501
33.248108 11.375017 0.14078982
33.165668 11.515369 0.17002566
33.22789 11.455306 -0.7868225
33.1922 11.429883 -0.16894284
33.147537 11.48183 -1.2911901
33.255123 11.324347 0.56278712
33.150925 11.468488 0.72385103
33.138199 11.506743 1.0043399
33.154938 11.399252 0.084768385
33.173481 11.413769 0.72937465
33.145748 11.449935 0.66941231
33.162544 11.494778 0.56096941
33.174976 11.312201 -2.0345969
32.986641 11.169037 1.9840503
33.13493 11.409191 -2.0494103
33.135181 11.358625 0.19748957
33.084541 11.202102 2.0738473
33.002968 11.426496 2.9636168
33.006004 11.664908 2.4289556
33.250523 11.080446 0.042101048
33.190834 11.019933 0.55843729
32.973751 11.516686 2.4588077
33.139622 11.181278 -0.14609544
33.049046 11.500237 1.8623245
33.143784 11.189646 -0.43415347
33.107151 11.654243 -1.1868834
33.074505 11.298021 -0.74272126
32.890285 11.388026 1.9678786
33.145641 11.186916 1.1676213
33.041283 11.574679 -0.14863193
33.028049 11.653028 0.5379982
33.034931 11.574471 0.66196191
33.21117 11.414024 1.0917786
33.146236 11.289656 0.26874503
33.043171 11.491116 -1.0395377
33.031673 11.704244 1.0935835
32.995708 11.171964 0.31471613
33.151234 11.193163 1.9591895
33.226086 11.418287 1.1007994
33.08371 11.190343 1.8577037
33.016556 11.112166 -0.16091475
32.96183 11.710883 2.3254662
32.944633 11.679407 1.6951959
33.041866 11.697211 0.36176115
33.024841 11.655459 2.5241675
33.133778 11.279556 -0.032311033
33.081047 11.299322 1.9594657
33.085281 11.302687 1.7603374
33.143257 11.18608 -0.34249038
33.135426 11.291818 0.14429374
33.087376 11.031475 -1.2422754
33.010624 11.239202 -0.7663911
33.174927 11.088547 1.4594522
33.194626 11.017441 0.95930576
33.165302 11.084595 0.86319625
33.078358 11.298965 0.56421089
33.179806 11.082562 -1.7450353
33.077835 11.296224 0.85421723
33.096115 11.018585 0.85765129
33.222221 11.074202 1.9473057
33.044388 11.488045 -0.83884645
33.194363 11.014809 1.3574674
33.194412 10.916185 1.3172964
32.979713 11.515445 2.5568707
33.057144 11.389302 0.95955765
33.191277 11.020343 1.0604736
33.23452 11.059428 2.5274117
33.162247 11.087834 0.75773549
33.192547 11.014248 0.26470926
33.191345 10.936503 1.0223001
32.978947 11.309959 1.9905881
32.971912 11.584131 2.1607239
33.276306 11.117831 1.0431341
33.064732 11.393034 1.6593817
32.99081 11.48737 2.7560313
33.166355 11.087335 0.55868292
33.146671 11.293396 -1.5496318
33.235283 11.052874 0.82127875
33.140858 11.179748 0.36328861
33.061329 11.40166 1.456744
32.976707 11.573206 1.1608111
33.044891 11.484307 1.5684429
33.162567 11.189896 -1.1394166
33.078529 11.300616 -0.038602833
33.256126 11.068493 -0.053774718
33.164284 11.086982 0.061270565
33.164883 11.087873 0.96499187
33.011047 11.309091 0.5765937
33.194637 11.019157 0.76114553
33.067955 11.393233 -0.84342027
32.977428 11.577394 1.6622136
33.068554 11.395324 -0.93808162
32.964462 11.614764 3.0667374
33.163921 11.082496 0.65923464
33.077595 11.301229 1.2640651
32.997734 11.408372 0.46487549
33.195969 11.02047 0.86360312
33.106514 11.114552 -0.44771281
33.077995 11.301843 0.75856191
33.161591 11.089602 0.26080647
33.166862 11.086786 -0.63820249
33.192093 11.013878 0.15948822
33.076275 11.297361 0.66774637
33.085678 11.29608 0.1608604
33.166992 11.085549 1.0613866
33.103535 10.987406 0.02807628
32.987232 11.588034 2.8451426
32.98045 11.571828 0.9639641
33.189995 11.014783 -0.037355311
33.086102 11.290761 0.062627241
32.994118 11.292495 -1.1188625
33.173119 10.929992 0.14866766
33.104134 11.114473 -0.93321824
33.160717 11.087898 0.16381812
33.097477 11.207157 0.15484627
33.007149 11.335387 -0.035651177
33.144753 11.194114 1.3647616
33.078487 11.29591 0.26448038
33.08532 11.300677 -1.3343952
33.093933 11.196333 -0.83827639
33.085102 11.316357 -1.630435
33.190559 11.018394 1.2549793
33.172516 11.190802 -2.0314627
33.092789 11.202171 -0.93876249
33.09346 11.315919 -2.0389454
33.188759 11.016367 0.35896832
33.180458 11.206288 -1.9402534
33.081726 11.294818 0.36712512
33.059505 11.394617 -0.73904467
33.047951 11.190729 -2.0867772
33.083637 11.109694 -1.3310024
33.090317 11.20629 -1.3249124
33.001682 11.337191 -0.80632722
33.142014 11.198594 0.96241438
33.227875 11.051094 0.96927673
33.106529 11.062455 -1.8572898
33.077583 11.304071 -1.2397245
33.140556 11.190561 0.55523729
33.09589 11.210696 -1.7182492
33.093571 11.195174 -1.8393263
32.999878 11.405141 -0.63332665
33.089905 11.205194 -0.73795587
32.988419 11.409046 -0.74121284
33.190117 11.021688 1.1589695
32.999443 11.408993 -0.84106618
33.094971 11.179974 -1.437641
32.973629 11.575205 1.7609042
33.106453 11.115253 -0.22774157
33.102779 11.122902 -0.043399595
33.09074 11.119267 -1.2304591
33.072483 11.307386 -1.0394374
33.169582 11.014465 -1.6528611
33.191364 11.012241 -0.34349012
33.105301 11.064999 -1.0574101
33.189247 11.012407 -0.23659033
33.094299 11.208547 0.85333985
33.076378 11.3018 -0.43908009
33.002449 11.31553 0.86513907
32.996891 11.415963 -0.43522453
33.080364 11.29504 -0.13895406
32.996223 11.288273 0.28854036
33.077137 11.299579 -0.93763053
32.999249 11.413651 -0.93694377
33.175362 11.099295 -1.2309093
33.105629 11.110899 -0.73994452
33.187939 11.014505 0.062649168
32.995602 11.407144 0.66205126
33.164719 11.089808 -0.037808675
33.19339 11.02105 0.66358864
33.190453 11.013099 -0.13872035
33.100357 11.110156 -0.12468673
33.097187 11.200746 -0.037989851
32.988293 11.269886 -0.34562075
32.998631 11.310029 0.75530446
33.083275 11.293318 -0.54052913
32.989571 11.407332 0.75815254
32.988785 11.308745 0.36377192
32.989567 11.413123 -0.3345854
33.102375 11.205514 -0.63931459
33.001141 11.290963 0.43951038
33.073498 11.291868 -0.83029544
32.976952 11.570305 1.0582874
33.017982 11.332695 0.92696261
33.063545 11.272318 -1.9555932
33.077286 11.295398 0.96280599
33.089146 11.298356 1.6669843
33.1637 11.356534 1.6630318
33.000988 11.413603 -0.029111624
33.062305 11.495186 -1.5374355
33.060719 11.495221 -1.435364
32.984032 11.401664 1.2619524
33.19157 11.01102 -0.43623662
33.178009 11.099844 -1.3394107
33.036865 11.571634 0.36904582
33.017796 11.132648 -1.4363499
33.032455 11.665603 1.5198206
33.085663 11.199706 0.96426415
33.112411 11.0385 1.2667027
33.094196 11.290491 -1.7453691
33.038078 11.579232 1.0650278
33.227921 11.171889 -0.72594571
33.250713 11.024916 1.9489384
33.217228 11.503906 1.0848981
32.993969 11.271505 -0.63769436
33.085274 11.302867 -1.5398668
33.095917 11.204892 0.067368224
33.103069 11.10296 0.070630454
33.089333 11.201281 -1.1393523
33.087471 11.116866 -1.1349221
33.0774 11.300633 0.46352381
33.083035 11.298905 -0.63562566
33.088501 11.380806 -1.9484628
33.085518 11.117834 1.4653469
33.083302 11.104224 1.1536517
32.97636 11.295317 0.66147703
33.164055 11.089797 -0.53887129
33.181328 11.102115 -1.5525229
33.171703 11.095341 -0.93477458
33.169548 11.099561 -1.138047
33.180859 11.092831 -1.6415079
33.080891 11.409634 -1.7373934
33.262558 11.169304 0.68173677
32.968018 11.585132 2.3617361
32.970551 11.5177 0.95955229
33.047791 11.656775 0.11969262
33.011108 11.309396 -0.43577391
32.992203 11.407297 -0.53239208
33.065571 11.493753 -1.7268718
32.997261 11.208437 1.2547095
32.980019 11.573857 1.3611652
33.062313 11.491083 -2.0432293
32.974682 11.575323 1.4619929
32.996655 11.293611 -1.8134551
33.076061 11.310783 -1.1318438
33.173294 11.087337 1.2562212
33.080582 11.200013 1.5535064
33.089325 11.204003 1.1666694
33.090096 11.214606 1.2603308
33.036091 11.495607 -0.042619295
33.15028 11.306046 2.65558
33.096199 11.197378 -1.2359439
33.042305 11.577716 -0.23899518
33.080032 11.30058 -0.33722484
33.091488 11.201801 -0.13583346
32.996426 11.327168 2.2411847
33.293961 11.170968 0.42555377
33.107841 11.40949 3.2163298
33.223473 11.245212 1.1987468
33.266819 11.281916 1.4643583
33.09375 11.19213 -1.0409598
33.003971 11.749231 1.2091165
32.974758 11.405963 1.5568777
32.981411 11.405161 1.4555433
32.973049 11.520574 1.658205
32.975243 11.565755 0.36108989
33.045208 11.58397 -0.64358902
33.049091 11.589984 -0.75327295
33.045464 11.570996 -0.33743939
33.051434 11.506537 -2.1387844
32.971928 11.517756 0.4621537
32.986416 11.331251 1.6600797
32.988712 11.40469 1.6714755
33.264938 11.273457 0.73431933
32.96991 11.662301 2.642149
33.041073 11.483964 -0.24111693
32.973297 11.515649 0.35863298
33.095306 11.025412 0.98709762
32.975632 11.673253 1.5573084
33.107159 11.1234 -0.34873602
33.243557 10.936188 0.11101846
33.04034 11.572482 1.7709867
33.003212 11.313334 -0.5379492
33.008224 11.303879 1.751829
32.986469 11.406239 1.0578643
33.088413 11.209648 0.55536205
32.975937 11.569905 0.66338265
32.97456 11.516057 0.76230586
33.243694 11.090129 2.0444579
33.105297 11.017329 0.69005227
32.965916 11.599543 2.4622052
32.9711 11.567763 0.26465547
32.875725 11.578355 2.0644016
33.125107 11.577374 1.8976071
33.065884 11.492843 -1.9151953
33.091232 11.20706 0.46076271
32.977497 11.578839 1.9559315
32.972397 11.582391 2.0632656
33.225094 11.160045 2.5533216
33.046146 11.578341 0.26354936
33.007099 11.288392 1.4424102
33.036705 11.481408 0.66294831
32.976952 11.567197 0.45912912
33.109859 11.126652 2.6979249
32.955074 11.602064 3.3573666
32.991348 11.399604 0.5637846
33.101017 11.026291 -1.6450332
33.166241 11.09142 -0.23449218
33.080879 11.018787 -1.4337102
33.08527 11.404172 -1.5283556
33.04348 11.573545 -0.85053068
33.073807 11.58238 -1.1361216
32.977745 11.514843 0.66139162
33.244701 11.310432 0.13115162
33.052383 11.391422 0.054365642
33.023178 11.667798 1.4448628
32.973724 11.51966 0.86145341
32.977077 11.584507 2.2579801
33.163841 11.091731 -0.33777812
33.074005 11.114349 -1.7317841
33.242264 11.18332 0.21838449
33.046917 11.492383 -0.94034773
32.977482 11.687866 1.910046
33.10815 11.121685 -0.84041053
32.972267 11.516916 1.1619934
32.977173 11.571018 1.2599801
32.988251 11.303284 -1.9924886
33.098915 11.209472 -0.53792667
33.039574 11.488145 -0.64117146
33.164631 11.089765 -0.43569884
33.100491 11.20565 0.36665323
32.999905 11.416924 0.062517859
33.000221 11.414757 -0.13803083
33.099991 11.013599 0.79894221
33.056744 11.574734 -0.45858192
33.003811 11.401478 -0.23112898
32.99934 11.40886 0.16747272
33.036724 11.577381 0.46407488
33.270901 11.244302 0.94756544
32.967812 11.513515 1.2608781
33.096764 11.205033 0.26352748
33.03371 11.58144 0.15920556
32.962532 11.514256 1.4603692
33.257351 11.08342 1.147367
33.032108 11.705717 2.6509714
33.253723 11.027037 2.1714866
33.047619 11.489952 -0.73464334
33.047287 11.565032 0.051815063
32.972443 11.568061 0.16057491
32.852997 11.677645 1.9619132
32.994034 11.3029 1.25844
33.039703 11.486914 0.56051135
33.096317 11.206141 -0.44172394
32.971371 11.566733 -0.039440386
33.145569 11.480275 2.4529483
32.97184 11.51847 0.56257188
32.969421 11.516066 1.0556601
33.038132 11.487059 0.26779115
33.033321 11.48153 0.062661357
32.979824 11.65376 0.86044717
33.061447 11.495627 -1.8246919
33.09309 11.107693 0.96940649
33.036636 11.483866 -0.53837067
32.986111 11.313608 0.16640453
32.976585 11.568534 0.5627954
33.043957 11.489231 0.76026034
32.974194 11.578493 1.559823
33.01445 11.646026 0.91237319
33.116425 11.039289 -1.5667468
33.172195 11.081896 1.1571224
33.19659 11.020653 1.4637096
33.067806 11.030508 -1.7523688
32.974251 11.570799 0.76217645
33.187519 10.942654 0.044859827
33.170517 11.485456 1.1277704
33.04755 11.490097 -1.1329007
33.196854 10.924377 -0.01425558
33.141487 10.978648 2.7016139
33.197834 11.026982 1.5539685
33.265671 11.195852 0.36445034
32.976383 11.518974 1.5628051
32.974709 11.506748 2.3595901
33.104462 11.143373 -1.4317853
33.25573 11.303107 1.4011191
33.094757 11.205582 -0.2283562
33.236435 11.068171 2.4186015
33.078026 11.401755 -1.4437869
33.079845 11.296752 -0.23580569
33.22086 11.169752 1.9564444
33.228153 11.188246 1.6857278
33.089439 11.027086 0.25048399
33.063416 11.030985 -1.8407686
33.103474 11.001033 1.1911622
33.092766 11.201417 0.76333892
33.101761 11.104536 1.0689946
32.979031 11.572307 0.86010253
32.998569 11.316012 1.360775
33.052452 11.389874 0.55824339
33.137875 11.18193 0.85642779
33.102558 11.111281 0.45550412
32.873924 11.575046 2.168663
33.089622 11.212183 1.7519675
33.081123 11.097431 1.2565267
33.054832 11.180523 2.7296102
32.995522 11.407606 1.1526092
33.012081 11.374365 2.7126801
33.094154 11.207337 0.65722281
33.009933 11.321707 -0.12267905
33.08815 11.198227 1.3695123
33.184902 11.037306 1.9531502
33.191944 11.01802 0.46079937
32.974621 11.513744 1.354215
33.081142 11.207565 1.6515187
32.965412 11.426509 2.5541539
33.037518 11.578527 1.3581163
33.088261 11.296666 1.3644803
33.123192 11.030097 2.5242329
33.07555 11.296433 1.0605161
32.949287 11.667752 2.7543368
32.88438 11.676049 2.0911734
33.097683 11.208598 -0.33765084
32.984718 11.656489 2.2887638
33.14333 11.190206 1.0600103
32.988918 11.238852 0.82694286
32.969887 11.567617 -0.13749897
32.961803 11.32311 2.0641112
32.975285 11.51801 0.05919515
32.972759 11.651214 1.4208475
32.9725 11.510576 1.7694325
32.992603 11.309562 -0.76225054
33.03738 11.482864 -0.43089801
33.04282 11.491969 1.3593435
32.979084 11.580338 1.8581969
32.973839 11.51327 1.8564248
32.977917 11.516328 -0.032905184
32.965611 11.378725 1.8705952
32.973824 11.569012 0.060627669
32.970905 11.517918 2.2588336
32.980404 11.514419 2.151902
32.96767 11.50775 1.9590118
33.150009 11.17571 1.4657274
33.050804 11.508512 1.9479026
33.067307 11.388526 -1.1271291
33.068554 11.498194 -1.628963
32.978024 11.517144 0.15938708
32.972187 11.588793 2.5522604
32.979198 11.51533 -0.14102627
33.020439 11.686728 0.41576457
33.277439 11.21636 1.094473
33.152134 11.309147 2.7382615
33.088795 11.198677 1.4643049
33.1008 11.101189 -0.55163562
33.040722 11.575907 1.4608067
33.044601 11.573699 1.5680945
33.040409 11.572909 2.151155
33.040375 11.481621 -0.32940012
33.042839 11.490954 0.86379474
33.077183 11.297231 1.1645807
32.978718 11.658899 1.1577539
32.975674 11.509203 0.26453939
33.024063 11.651814 0.0041398127
32.890217 11.513141 2.9268899
33.099731 11.111006 0.16081233
33.2551 11.167848 1.8924935
33.099705 11.107336 0.84978712
33.258202 11.264268 0.47187132
33.167698 11.393905 2.4479489
32.972145 11.663686 1.7649524
32.96822 11.683487 1.3627528
33.058437 11.390957 -0.44038245
33.036541 11.578814 1.1561536
33.104996 11.109646 0.25404093
32.970749 11.600177 2.948755
33.104465 11.10145 0.77008832
33.098412 11.102154 0.35803244
32.965508 11.599142 2.6587687
33.004227 11.31748 0.074970789
33.099144 11.103968 0.57943112
33.100086 11.106801 0.6519857
33.092331 11.203601 1.0626495
33.162609 11.384266 2.7460101
33.179039 11.094383 1.7600896
33.154724 11.03182 2.3099613
33.2341 11.204818 3.090976
32.899799 11.416031 2.049042
33.131771 11.585228 2.3607152
33.207977 11.038568 2.1714396
33.066223 11.398236 2.1518781
33.057339 11.389996 -0.34174651
33.084576 11.194796 2.460454
33.149071 11.188738 1.5575651
33.12431 11.485025 2.3947701
33.150913 11.394501 2.0474899
33.083275 11.307519 2.1525199
33.152275 11.299691 1.961567
33.180458 11.11569 2.5470071
33.039276 11.499928 1.2593994
33.056599 11.390419 0.76102841
32.996262 11.394783 1.9599639
33.039181 11.491133 0.1593422
33.051895 11.39389 -0.044918634
33.002373 11.262342 2.3944902
33.037468 11.482253 -0.13949963
33.187717 11.023945 1.7582736
33.077866 11.281448 -2.1301479
33.086868 11.299755 1.8587525
33.05003 11.592639 2.3561988
33.043896 11.588681 2.2692709
33.236191 11.004205 -0.23743929
33.052452 11.391015 -0.54174143
33.082077 11.301695 1.4635688
33.05201 11.394502 0.26295811
33.052139 11.507556 2.4622242
33.054256 11.392245 -0.23640965
33.042522 11.485518 0.36037856
32.97488 11.389972 1.7618085
33.05344 11.390336 -0.13934611
33.133438 11.584112 -0.0081611341
33.051544 11.396488 0.16213532
33.046516 11.498603 2.0605803
33.040997 11.486341 0.95848286
33.05426 11.505203 1.7679656
33.054787 11.392303 0.65825063
33.037781 11.57131 3.0430722
33.052776 11.498476 2.3589921
33.051239 11.393362 0.35780734
32.965466 11.615515 3.2622025
33.120541 11.571614 -0.29082415
33.120571 11.599174 -0.17545184
33.291904 11.27591 1.5436395
33.026428 11.659078 2.2768912
33.089767 11.315193 2.6677651
33.081871 11.39648 2.5633092
33.13039 11.587174 -1.2063717
33.034538 11.488783 0.45638794
33.084423 11.39502 2.7596867
33.079285 11.404884 2.6600084
33.071976 11.398252 2.9518044
33.049107 11.518417 3.1399341
33.034782 11.576756 1.2634858
33.054054 11.393295 0.85751092
32.837898 11.7795 1.9582562
33.05402 11.389787 0.45993635
33.225384 11.284416 1.6514102
33.055069 11.499773 2.6501305
33.063633 11.505354 3.0384212
33.061111 11.500112 2.8619514
33.164955 11.404602 1.5630548
33.057224 11.494612 2.7728798
33.051044 11.506938 2.5587585
33.065716 11.50178 2.9561353
33.038891 11.579473 0.56132561
33.061272 11.392169 -0.63098663
33.055107 11.493358 2.1585047
33.1492 11.410107 1.3502163
33.04541 11.490306 2.2558987
32.989632 11.409399 2.2386968
33.051014 11.59062 2.5626922
33.147869 11.528019 1.5773356
33.0956 11.092233 1.7420883
33.042477 11.493084 1.460676
32.993782 11.286908 -2.2576532
33.112206 11.177828 2.3349485
33.04026 11.565726 2.0607481
32.967476 11.596403 2.7560256
33.058807 11.576008 2.4537756
33.07328 11.389442 3.1694069
33.167404 11.350248 3.3029237
33.14175 11.182379 0.76206481
33.141396 11.207293 2.0664854
33.047527 11.57722 1.8540106
33.180195 11.089712 1.9589002
33.195415 11.021918 1.6643288
33.047428 11.488359 1.1492865
33.138996 11.188229 -0.24120858
33.256111 11.085913 2.2656484
33.113689 11.218945 2.1813447
32.980869 11.652937 2.5691888
33.090603 11.300982 1.5546601
33.091236 11.319509 2.2604911
33.092907 11.210687 1.9423523
33.081116 11.026291 0.57442313
33.018414 11.3937 2.3573866
33.090145 11.118623 1.6576982
33.099419 10.972521 1.0758631
33.179245 11.082035 1.5602961
33.061096 11.388944 1.1672255
33.176128 11.096581 2.1437082
33.097324 11.206066 2.2572722
32.970062 11.659762 3.1553881
33.083729 11.094806 1.5554781
32.9818 11.666601 3.6724176
33.101639 11.10374 1.3772815
32.97332 11.665442 2.8574586
33.038422 11.572152 0.75983101
32.959641 11.662575 3.0555353
32.976665 11.310439 1.5617497
33.147053 11.19078 1.7531823
33.071503 11.69698 2.4580216
33.027195 11.650564 2.1075404
33.121807 11.446879 -1.4169643
33.041805 11.571722 1.9576466
33.27829 11.210542 1.5490031
33.137993 11.180366 0.46485326
33.068432 11.645605 1.3791358
32.972279 11.64962 2.0580878
33.030018 11.646991 1.9481895
33.226322 11.155029 0.85786921
33.17065 11.083353 1.3643047
33.057621 11.648005 1.7267884
33.380882 11.282041 1.3841225
32.974228 11.510238 2.6576889
33.074249 11.396896 2.262959
33.071476 11.395945 1.7565259
33.056305 11.66176 0.85352904
33.042786 11.57259 1.6574714
33.080349 11.65438 1.1375308
33.138889 11.184904 0.26083565
33.167904 11.191801 2.6500907
33.064304 11.399216 1.858824
33.067528 11.412609 2.4594076
33.148087 11.30432 2.9560196
33.241798 11.06932 1.8748248
33.129089 11.464566 1.2463138
33.146053 11.280773 1.562367
33.291351 11.232657 0.14137906
33.265518 11.153489 0.081253216
33.063808 11.397395 -1.0384905
33.237999 11.089612 -0.14094405
33.076782 11.303651 2.069778
33.134129 11.366573 -1.2662483
32.998184 11.294121 1.8487198
33.068974 11.390277 1.9606862
33.01688 11.209559 1.4382312
33.096481 11.306154 -1.4357431
33.085438 11.406181 -1.632067
33.180489 11.097469 -1.444661
33.087425 11.31053 2.4627194
33.111832 11.036473 1.3189003
33.24646 11.185946 1.4863119
33.200371 11.470547 1.9108653
33.153492 11.190578 2.1473546
33.141228 11.190872 1.247432
33.152191 11.203034 1.8565886
33.151085 11.20142 2.3627536
33.17511 11.095915 -1.0422771
33.132004 11.375506 1.7502824
33.180531 11.368134 2.2723839
32.988956 11.33822 2.1432526
33.193233 11.095493 -1.8324683
33.140755 11.387957 1.8720431
33.157227 11.378448 2.3597186
33.151962 11.01722 -1.762099
33.155014 11.197906 2.5674069
33.171749 11.315708 2.3596051
33.153561 11.307721 2.8499222
33.09676 11.320481 2.3625472
33.056953 11.564887 -0.039873641
33.184654 11.395495 2.1593375
33.155151 11.17665 2.255255
33.160301 11.506207 1.978214
33.154793 11.205568 2.4619188
33.076092 11.394696 -1.3491194
33.072887 11.394432 -1.2443149
33.168861 11.192341 -1.5386446
33.163746 11.186144 -1.0464377
33.14465 11.188208 -0.73762637
33.248371 10.939458 0.21765755
33.241554 10.998902 -0.4436585
33.148956 11.28759 -0.3392261
33.137951 11.186691 -0.53894538
33.17168 11.185896 -1.2439662
33.261562 11.088507 0.15594324
33.164204 11.092008 -0.14141923
33.161888 11.514782 1.7957965
33.164059 11.084608 0.45952156
33.042259 11.49889 1.062723
33.040833 11.493208 1.6613227
33.243835 10.91836 0.56804103
33.172245 11.304709 2.2606142
33.093632 11.302573 2.7705383
33.141281 11.185927 0.05812715
32.980675 11.513364 2.0597138
33.154591 11.187956 -0.83531755
33.146275 11.188031 -0.63856828
33.074978 11.175314 -2.0928125
33.000332 11.103827 -0.78035218
33.302113 10.921365 0.8310172
33.141075 11.181343 -0.03901425
32.782814 11.72944 2.1613259
33.016937 11.130236 -1.6432396
33.170425 11.198771 -1.6337047
32.992226 11.312437 -1.7229924
33.096252 11.211227 -1.5531502
33.001392 11.28225 -1.549037
33.234367 11.085492 0.27120376
33.163311 11.089081 0.35972136
33.07436 11.398287 -1.8428595
33.179703 11.096719 2.0573711
32.865047 11.659376 2.2293658
33.229965 11.054799 2.1889677
33.010014 11.29174 -1.6644022
33.003616 11.215569 -1.7343879
33.056629 11.390895 1.060689
33.143448 11.273436 1.0465236
33.235687 11.003633 -0.33163789
33.243118 10.999903 1.0624434
33.000942 11.164767 1.5187082
33.179268 11.090293 1.6590321
32.955875 11.527941 2.828505
32.762405 11.81031 2.2608221
33.271938 11.088318 0.35420135
32.985954 11.601391 3.553905
32.762081 11.790412 2.3648367
33.25919 11.096826 0.47679102
33.239689 11.020298 1.4700514
33.162327 11.376916 0.54163325
32.954361 11.338531 -1.945619
33.1091 11.135518 -1.9483547
33.130859 11.426937 -1.6799822
33.010838 11.216086 0.69137889
33.015949 11.225052 -0.14830075
33.000851 11.195482 -2.04093
32.99136 11.300291 -0.98325038
33.234737 11.001143 -0.14242956
33.236317 11.000567 -0.035239428
33.23951 11.001801 0.061781228
33.232079 10.999537 0.1464795
33.238987 10.98958 0.2566734
33.242638 10.991648 0.36420166
33.245464 11.006006 0.75516635
33.251057 10.997653 -0.54087597
33.134808 11.190844 0.15399498
33.13636 11.283408 -0.13037831
33.239532 10.999654 0.45725745
33.240837 10.999629 0.56377935
33.128952 11.266675 0.36174732
33.140976 11.296585 -1.3461108
32.999432 11.611864 3.8464129
32.974995 11.404736 2.1524107
32.983032 11.396961 2.0645897
33.227695 11.001691 0.66695839
33.137127 11.274006 0.46270794
33.138531 11.186373 0.66660798
33.232731 11.010193 0.95928097
33.14344 11.275537 0.84553838
33.130161 11.273566 0.54829764
33.235123 11.000868 0.85229498
33.170719 11.308036 2.1606116
33.156891 11.19472 -0.93458617
33.146027 11.279302 -1.1354144
33.140423 11.279331 -0.93754768
33.13369 11.272788 -0.2336285
33.23354 11.016537 1.3587949
33.131428 11.278858 1.2677889
33.05777 11.391443 1.2620108
33.141117 11.279696 -1.2428867
33.230759 11.006123 1.259092
33.060787 11.391749 1.3615243
33.151581 11.294289 -1.453521
33.172787 11.194602 -1.4434679
33.161957 11.194992 -1.341895
33.126671 11.277762 0.076340109
33.136333 11.276709 -0.52011657
33.072906 11.391174 2.061677
33.142193 11.278084 -0.84787917
33.141705 11.28868 -0.75157458
33.151024 11.30065 -1.626446
33.130539 11.392214 -1.13327
33.144485 11.277468 -1.0537354
33.128025 11.248857 0.9291116
33.170311 11.382445 1.1421233
33.137497 11.282547 -0.43904912
33.13332 11.376793 -0.43193969
33.065239 11.392806 1.5570871
33.177059 11.337268 3.1024911
33.014767 11.162415 1.0269345
33.149204 11.297121 -1.7375888
33.139156 11.463338 -0.64866525
33.271877 11.079746 0.65650904
33.105335 10.981796 2.6977634
33.008038 11.233499 -1.0043927
33.128498 11.379081 -0.83034068
33.167023 11.391923 0.37357476
33.158249 11.290032 0.65912765
33.2663 11.079805 0.56160039
33.228161 11.067362 0.80763042
33.153423 11.383849 -0.67951578
33.148422 11.419884 -0.36074525
33.239727 11.201793 -1.6342868
33.192837 11.026186 1.8444093
33.016426 11.231058 -1.4476662
33.157963 11.191189 1.6652017
33.170395 11.482834 -0.44852123
33.181728 11.104022 1.8647295
32.997623 11.228043 -1.1432934
32.983257 11.410137 2.4748836
33.221466 11.16881 -1.4839964
33.087528 11.317036 2.9951689
33.061314 11.656083 1.2340739
33.23592 11.01913 1.5495071
33.249344 11.014014 1.8680311
33.175087 11.522392 1.4484874
33.14238 11.279308 1.7608125
33.132854 11.27808 1.1455787
33.239532 11.066257 1.5306283
33.361713 11.100003 0.49038863
33.143585 11.057608 2.8375933
33.245281 11.016343 1.6681972
33.076385 11.393651 2.3573484
32.941761 11.37448 2.8698773
32.992191 11.342461 2.5799661
33.246674 11.064813 1.762996
32.958946 11.383008 2.7011526
33.288483 10.926686 0.37711447
33.277664 11.015452 2.3315496
33.24955 11.075504 1.6678857
33.074886 11.087733 1.8469247
33.249138 11.126986 3.1598468
33.115295 11.128139 1.943433
32.969177 11.67004 3.3562121
33.082058 11.301038 2.559056
33.04166 11.57818 2.6607199
33.05291 11.329157 2.8438087
32.991032 11.677813 3.227092
33.157932 11.391443 3.1333885
33.040329 11.59884 2.7828074
33.174335 11.380532 2.8580022
33.24321 11.030444 2.3089733
33.054657 11.580958 2.9591837
33.154366 11.30339 2.0682423
33.252647 11.061289 2.3406842
33.143738 11.280669 1.8709364
33.083355 11.401492 -2.0522487
33.226311 11.032752 2.4756837
33.126579 11.274916 1.3672463
33.073021 11.205402 -1.6532001
33.163013 11.200088 -1.8337456
33.251831 11.006416 1.7670307
33.067204 11.080562 -1.6272577
33.083481 11.093811 -2.0454102
33.138962 11.278743 -0.63072127
33.087856 11.289486 -1.8578292
33.127525 11.271955 0.74818301
33.170052 11.202106 -1.7409317
33.056625 11.202823 -1.9592863
33.131325 11.275619 1.4379501
33.162098 11.421181 1.4631615
32.758816 11.812137 2.4863765
32.794022 11.710005 2.1018281
33.131771 11.290763 1.6768676
32.840118 11.723769 2.3586044
33.127815 11.387318 -1.5477228
33.12656 11.354846 -0.97090882
33.134224 11.371575 -1.4542155
33.224216 11.187414 -1.7651397
33.097683 11.119608 2.129292
33.128693 11.37167 -1.3524981
33.149757 11.51946 -1.7987275
33.229927 11.165442 -1.556412
33.126328 11.412451 -1.7468644
33.15155 11.421453 3.0284548
33.144745 11.368909 2.9778595
33.146114 11.305439 -2.1393931
33.091496 11.196589 2.8316405
33.011452 11.590069 3.1337512
33.171967 11.210542 -2.1401608
33.130943 11.380646 -0.049870998
33.183281 11.387369 0.95155346
33.33073 10.889348 0.2157125
33.155209 11.499058 3.0296848
33.031082 11.567221 2.8532622
