# .PCD v0.7 - Point Cloud Data file format
VERSION 0.7
FIELDS x y z
SIZE 4 4 4
TYPE F F F
COUNT 1 1 1
WIDTH 581
HEIGHT 1
VIEWPOINT 0 0 0 1 0 0 0
POINTS 581
DATA ascii
34.673058 50.409184 2.9536495
34.54097 50.330235 2.5023224
34.540424 50.322552 2.2658367
35.827477 50.838158 2.4007273
35.004753 50.657967 2.5123644
34.197868 50.279022 2.5340269
34.196056 50.197994 2.4728618
34.205288 50.209953 2.5642247
35.770969 50.830349 2.6137457
35.627548 50.743465 2.4736571
35.85284 50.836418 2.4583688
35.541763 50.762207 2.9098597
34.535973 50.313057 2.7980232
34.606926 50.329094 2.6463509
35.347153 50.627846 2.3911748
35.63702 50.716248 2.1890144
35.672421 50.734783 2.3813362
34.521545 50.342766 2.5782778
35.387867 50.614017 2.6526046
34.554913 50.324455 2.3661609
34.959522 50.487206 2.7400365
34.62154 50.452572 2.9271536
34.834412 50.486748 2.8514626
34.936348 50.559834 2.8471365
34.593616 50.387947 2.8505223
34.705967 50.597202 2.4265602
34.770866 50.561714 2.5552735
36.085155 51.06773 1.8320029
34.759277 50.564331 2.7999852
34.207954 50.267586 2.4531918
35.239292 50.640285 2.8592372
34.841103 50.426392 2.7416267
34.774857 50.40699 2.7829654
35.281044 50.634216 2.6424975
35.830738 50.938927 1.8098645
35.861313 50.937035 1.8302505
35.661423 50.830406 1.9996227
35.199364 50.750828 1.814608
35.498322 50.854958 1.956449
35.248985 50.730789 1.6719625
36.019611 51.046043 1.824303
35.773022 50.957321 2.0717709
35.459869 50.802284 1.6717873
36.312927 51.146721 1.8834109
35.793774 50.969952 1.9759971
34.999088 50.673756 2.3602264
35.606258 50.846241 2.3322186
35.798668 50.911499 1.7083076
35.572823 50.869263 1.9562697
35.879509 50.979237 1.7567775
36.165192 51.080727 1.8576096
36.048817 51.070309 1.7010589
35.879158 50.967468 2.1601958
35.792686 50.999664 2.3375063
35.701622 50.963333 2.3090639
35.596764 50.876122 2.276268
35.425697 50.855522 2.2245913
34.575287 50.479389 1.7678668
35.791412 50.965012 2.156441
35.781452 50.927109 1.7790618
35.578918 50.873695 2.0634916
35.651592 50.892868 1.7779495
35.582195 50.866825 1.7750386
35.672749 50.887272 1.8638706
35.37978 50.783379 1.7710214
35.870689 50.973419 2.2556984
35.577232 50.871105 2.1649528
34.582966 50.475845 2.2583785
35.682858 50.890705 2.0690389
35.389874 50.757126 2.4563658
35.719128 50.855915 2.770467
35.369743 50.761627 2.2652469
34.811016 50.547588 2.6273577
35.38472 50.761387 2.3643954
35.969761 50.975174 2.2543583
35.678089 50.863503 2.4516132
35.858944 50.904148 2.815485
34.572132 50.483456 1.9684265
35.460197 50.706158 2.6610157
36.189404 51.066799 2.3436661
36.023235 50.895283 2.8540466
35.6716 50.873466 2.3423276
34.952896 50.581696 2.7546136
34.611069 50.462574 2.6187508
35.784828 50.866962 2.7714794
35.751335 50.792171 2.8535333
36.037876 50.953209 2.8118463
35.989868 50.960667 2.7816308
35.754337 50.82901 2.5326717
35.757 50.825897 2.2822661
35.455467 50.728672 2.5592208
36.024208 50.932968 2.4551337
34.691177 50.468689 2.75001
34.982044 50.570465 2.4635274
35.739952 50.835598 2.0525992
35.657681 50.808041 2.5500345
35.749237 50.827682 2.4541802
36.177845 51.086506 2.1774657
35.866966 50.834473 2.7428777
35.872131 50.892651 2.7514443
34.261967 50.292511 2.2573473
34.572556 50.483578 1.8549374
34.569084 50.403473 2.5664907
34.27013 50.286472 2.4574342
34.952572 50.531551 2.3561201
34.777771 50.481392 2.7638469
34.868298 50.500423 2.7401788
35.481853 50.77177 2.6624639
36.164837 51.017624 2.7521682
35.469727 50.72921 2.7559595
35.482803 50.765839 2.5598793
35.75555 50.909889 1.8594564
35.872356 50.912598 2.1669183
35.978745 50.968868 2.3632326
35.864925 50.888863 2.5548451
35.186935 50.655876 2.7635922
34.564392 50.409286 2.1732895
34.773701 50.489971 2.6468725
35.669685 50.812092 2.4488065
35.749832 50.829884 2.3691967
34.564426 50.404278 2.2594328
34.677944 50.472488 2.5656261
34.864212 50.512157 2.5596938
34.97197 50.58255 2.2642982
34.966179 50.529884 2.2749774
36.174541 51.012474 2.4604273
35.463257 50.728359 2.4556975
34.569332 50.389187 2.7487972
34.574409 50.399666 2.4637125
34.870071 50.507549 2.4537833
35.372414 50.782909 1.8658452
36.318695 51.146358 2.1418741
34.276188 50.292248 2.6623621
34.564392 50.407181 2.6528752
34.571777 50.415646 2.0595367
34.86829 50.510521 2.6482854
34.976189 50.574379 2.6461828
34.976768 50.581455 2.5610161
35.53212 50.728077 2.6447616
35.566223 50.787582 2.3631842
35.570274 50.811382 2.0631192
35.666142 50.813599 2.3641329
35.654236 50.815262 2.6659689
35.661995 50.828522 2.0524101
35.778671 50.876389 2.3623185
35.86599 50.90424 2.2652998
35.98793 50.963135 2.5715275
35.97327 50.988468 1.9534297
34.975208 50.59774 1.9602292
35.559834 50.811256 1.9648221
35.659801 50.816936 2.2666898
35.736443 50.836067 1.9572513
35.76807 50.879749 2.2621202
35.772449 50.90295 1.9683243
35.783333 50.867382 2.5572588
34.672039 50.469967 2.4649472
35.778736 50.898861 2.0578287
35.870041 50.91634 2.0606358
35.864365 50.896889 2.3649936
34.210747 50.295822 2.6133537
34.274509 50.285896 2.5645003
35.575195 50.802742 2.1722934
35.8755 50.968803 1.868022
35.483971 50.772655 2.4490616
35.472092 50.790031 2.162308
35.568432 50.794197 2.4564612
35.767395 50.891556 2.1622057
35.773342 50.877579 2.4702349
35.771996 50.955334 1.8335416
35.871166 50.895554 2.4611845
36.158691 50.994724 2.6695311
36.251053 51.037083 2.3635588
35.193336 50.753902 2.0556159
35.47015 50.780888 2.2679713
35.570938 50.785351 2.5592597
35.568092 50.798946 2.2658932
35.658516 50.823273 2.1682768
34.583939 50.432018 1.7739999
34.974018 50.578217 2.3655777
35.265133 50.704624 1.9628803
35.185619 50.670109 2.549752
34.679466 50.469357 2.353662
35.261547 50.703594 2.0624824
35.251427 50.632919 2.5284216
35.17778 50.673019 2.3675165
35.172626 50.677071 2.1618066
35.162868 50.693901 1.9586308
34.952057 50.621162 1.655762
34.973595 50.580345 2.1548104
34.985546 50.658127 2.2836423
35.199566 50.753998 1.9528335
34.678165 50.479118 2.2639894
34.969044 50.610989 1.8749386
35.188011 50.675129 2.4596157
35.17754 50.684647 2.0504355
34.767143 50.570389 1.6830078
35.562836 50.714848 2.5816374
34.209099 50.193291 2.723438
35.505241 50.754436 2.7679548
36.230659 51.016003 2.8195462
34.92606 50.494648 2.8153512
34.566677 50.420788 1.9721421
34.565216 50.429718 1.8857588
34.583172 50.47744 2.1696672
36.259319 51.011719 2.779845
35.146343 50.614395 1.8659374
35.155098 50.62392 2.6525671
34.677746 50.500618 1.871478
34.207954 50.369659 2.1756659
35.543648 50.731491 2.3822362
35.546818 50.831474 1.7995529
36.173054 51.075447 1.9661757
35.963661 50.997902 1.8725771
36.282486 51.03965 2.6972778
35.393341 50.851677 2.217206
34.379616 50.375248 2.5704312
35.636009 50.798038 2.8502357
35.674797 50.88113 2.1604955
34.662483 50.413372 2.5615749
35.375797 50.780441 1.9604224
35.376743 50.756809 2.569443
35.385487 50.780628 2.0606787
35.400665 50.763313 2.6328015
35.870884 50.901867 2.6615629
35.18557 50.671459 2.6452465
35.381325 50.782948 2.1542544
35.876381 50.976067 1.9591894
35.669392 50.807495 2.7608778
34.684929 50.462978 2.6455638
35.66893 50.889278 1.9541113
35.713112 50.874634 2.6432152
34.372013 50.386436 1.9740717
34.384327 50.316525 2.7553558
35.78273 50.860481 2.8574395
35.41959 50.719349 2.8609936
35.363525 50.712849 2.1695814
35.373211 50.705734 2.4536242
34.387447 50.364506 2.6656473
35.36274 50.725857 1.9602906
35.368435 50.698269 2.6466525
34.384075 50.368404 2.4583669
35.37429 50.709476 2.7512288
35.357811 50.722969 2.0663474
34.844692 50.423332 2.3387728
35.341011 50.709183 1.8751607
35.099041 50.606247 2.8180749
35.315971 50.75552 2.6293936
35.455044 50.719978 2.2571101
34.659119 50.424736 1.8474078
36.261669 51.035378 2.4550378
35.343685 50.565434 2.8794863
34.721214 50.431961 1.8697826
35.32259 50.630348 2.5283446
34.704521 50.570724 1.9303455
35.540268 50.733356 2.9184933
34.690483 50.561729 2.2571192
35.498482 50.851788 1.7953953
35.361042 50.711163 2.2598124
34.417927 50.359409 2.8166046
34.366325 50.310093 2.4624121
35.963554 50.923702 2.4632914
35.479351 50.72271 1.9827842
36.196724 51.060108 2.471792
36.264336 51.107944 1.9667861
34.761509 50.422241 2.0885024
34.749588 50.433342 2.6645424
36.296234 51.065239 2.6811996
34.79306 50.564796 2.447253
35.746677 50.824768 2.7691364
34.462524 50.413765 1.6879605
34.927155 50.531151 1.9758102
35.858528 50.908649 1.9769236
35.499542 50.859501 2.0477748
34.57095 50.404819 2.3645515
34.901627 50.647385 1.9753269
36.038971 50.924644 2.3470852
34.382488 50.359653 2.7518547
34.88953 50.586903 1.6675252
35.367741 50.70517 2.3596594
34.378548 50.376526 2.3606386
34.364609 50.390644 1.8710525
34.316147 50.393005 2.6151943
35.073421 50.59774 2.7534738
35.468674 50.824768 1.7852066
34.356049 50.31134 2.6529496
34.789623 50.563137 1.9531509
35.482838 50.774879 2.3581927
35.461933 50.798157 2.0585849
35.280933 50.76862 2.338495
36.369072 51.097912 2.3608592
35.876175 50.968739 2.0552394
34.36068 50.398632 1.7668587
35.873402 50.956299 2.3707764
34.900375 50.431759 2.5237923
34.37421 50.384312 2.0595214
34.778858 50.556259 2.1685226
35.502445 50.859394 1.8944198
35.071671 50.59753 2.5471125
35.432598 50.644825 2.4262581
34.656845 50.409069 2.7604079
35.079647 50.638321 1.7674659
35.952785 50.90823 2.7418418
35.062843 50.603073 2.2567568
35.083839 50.655441 2.2671487
35.273487 50.697693 2.1692548
35.907223 50.959702 2.5893662
35.083954 50.658146 2.4779022
35.065075 50.59523 2.3581939
35.04467 50.530155 2.5428977
35.066902 50.594582 2.4602416
35.078907 50.67416 2.0589337
35.082909 50.650208 2.5359926
35.083706 50.668423 2.3549998
35.055672 50.539257 2.3921485
35.041336 50.522572 2.4842017
35.085285 50.676552 2.1580765
35.737518 50.960701 2.2617536
35.678616 50.869778 2.2646236
34.473076 50.473625 1.8465602
34.888771 50.573135 2.1571527
35.598701 50.797295 2.7416842
35.080742 50.67194 1.7665999
34.330227 50.332825 1.8563743
36.073124 50.980999 2.3526614
35.057899 50.528183 2.6924999
34.364838 50.314987 2.361727
35.061043 50.60186 2.6602683
35.065277 50.623257 1.9635204
34.796959 50.570923 1.7945416
35.265648 50.76041 2.1419108
34.397888 50.333473 1.9746352
34.358692 50.315277 2.157953
35.065022 50.672161 1.8548737
35.084991 50.670712 1.9581978
34.363209 50.329117 2.067565
35.474533 50.805222 1.9546533
35.17865 50.6731 2.251513
35.664658 50.867558 2.5569143
34.36454 50.309464 2.5623083
34.484364 50.456306 1.807909
34.867939 50.509476 2.3575964
34.495171 50.461048 2.1648304
34.446136 50.458839 2.3519006
34.358772 50.315727 2.2637334
34.765217 50.56617 2.2537887
35.580872 50.781067 2.6559739
35.058044 50.651257 2.6314323
36.079903 50.983021 2.7651024
35.060501 50.60622 2.1671476
34.380253 50.382317 2.1555772
36.37645 51.084412 2.6680915
34.487164 50.465149 1.9535251
34.785343 50.568748 1.8764501
35.069256 50.607319 2.0700293
34.7929 50.564728 2.3493688
34.473 50.401241 1.8551393
35.255402 50.755924 1.7840724
34.377777 50.378139 2.2542329
34.860207 50.516235 1.8718863
34.96825 50.527454 2.5598357
34.726433 50.490471 2.9005423
36.274357 51.070129 2.5564408
34.585922 50.459949 2.3500628
34.48864 50.47229 2.0660007
34.441635 50.341404 1.9059764
36.061329 51.01833 1.9596
35.279575 50.766518 2.0585923
35.295776 50.776188 1.9418941
35.301754 50.754936 2.4553919
35.274189 50.762985 1.8510629
35.303703 50.754288 2.2290273
36.049164 50.942211 2.2713788
34.863125 50.518112 2.1640203
34.773781 50.494522 2.2620277
34.872147 50.575943 2.5442111
35.169357 50.705982 1.6930922
36.266357 51.111248 1.8620906
34.861095 50.513458 2.2669334
34.774097 50.505367 2.0710075
34.752769 50.517879 1.8666267
34.768749 50.488796 2.5574915
34.774975 50.487888 2.4524238
35.623901 50.828907 1.8348053
34.766109 50.488777 2.360204
35.370018 50.702045 2.5503488
34.875057 50.584362 2.0581355
36.070576 51.029179 1.8625895
34.887577 50.558662 2.6665437
34.395508 50.459549 2.05443
34.487297 50.469414 2.2626686
34.875263 50.575077 1.9563301
34.578796 50.471775 2.4609375
34.947227 50.534229 2.6576238
34.592384 50.477097 2.0684307
34.58733 50.464146 2.5718701
34.905846 50.545658 2.7289183
36.077488 51.056034 2.1584632
34.947605 50.536797 2.0649095
34.416626 50.451057 2.1169252
34.263451 50.292511 2.3664489
35.082874 50.636986 1.8162737
34.761841 50.439892 2.1777172
34.758144 50.427677 2.3617837
34.759163 50.424934 2.2569284
34.701088 50.568176 2.0575397
34.690037 50.559109 2.1661355
35.476173 50.801739 1.8714297
35.540089 50.724739 2.182348
34.276794 50.358669 2.4703174
34.294411 50.371845 2.5625725
36.216373 51.050392 2.7224257
34.290825 50.379517 2.1611729
35.159325 50.610378 2.7508996
34.756466 50.525482 1.6814101
34.465794 50.328373 2.4661219
36.245956 51.033489 2.5485363
35.977921 50.961067 2.4674814
34.458405 50.323547 2.5482929
34.948673 50.529533 2.1530561
35.752365 50.826187 2.1595778
34.455471 50.329773 2.3662677
36.070297 51.06078 2.2713311
34.662388 50.422752 2.3633666
34.461582 50.396385 1.7545091
34.463318 50.39991 1.9742866
36.27969 51.071587 2.3490841
34.658794 50.423344 2.269489
34.282444 50.372311 2.2664175
35.961006 50.917542 2.2705736
34.474873 50.325283 2.6702287
35.238625 50.611675 2.2497261
34.190369 50.291309 2.1611402
36.160343 51.077812 1.6777873
34.655029 50.420609 2.6451042
34.43779 50.33276 1.9961164
36.258507 51.043236 1.9870484
35.157753 50.619621 1.9702489
36.047073 50.934231 2.5396388
36.180294 51.008884 2.5557394
35.248867 50.628548 2.4592862
34.274174 50.374123 2.3514216
36.171474 51.066963 1.7473358
34.95927 50.524643 2.4559252
34.430256 50.333645 2.1765323
34.441547 50.321995 2.7590883
36.276833 51.061516 2.7639868
34.423298 50.329166 2.0727608
36.080112 50.933186 2.7403688
35.256596 50.629139 2.3573608
35.256714 50.611652 2.7206979
34.267349 50.375099 2.0745137
34.282803 50.281086 2.7570832
36.067211 50.974537 2.4615896
36.067085 50.979267 2.6431124
34.453072 50.326172 2.2593267
36.067513 50.991867 2.1679647
34.756649 50.419849 2.5517719
36.168716 51.070599 2.2591066
36.052746 50.934555 2.2047246
35.994499 50.9617 2.6526995
36.166344 51.055939 2.6690469
36.170704 51.075378 2.0692298
34.672638 50.410408 2.8368556
36.127064 50.93866 2.1958239
36.25301 51.031273 2.1596854
35.564548 50.823116 1.8579177
35.551804 50.729126 2.457058
36.248222 51.029423 2.2373865
34.871223 50.57951 2.2653515
34.663696 50.498524 1.6777035
35.773148 50.883511 2.6453438
34.883575 50.589359 1.8720343
34.626144 50.439751 2.0000291
34.862839 50.514751 2.0679352
34.473545 50.388939 2.1675572
34.856613 50.536503 1.8010781
35.169697 50.616371 2.5478578
34.473621 50.386116 2.3601179
34.476048 50.380981 2.4604087
34.463318 50.386883 2.2630758
35.511429 50.884697 2.1615453
34.477108 50.390179 2.0665917
35.165878 50.621475 2.07547
36.364162 51.120155 2.1668272
34.667427 50.47504 2.1646721
35.269371 50.681114 2.364599
35.267258 50.690281 2.2578201
34.671265 50.490967 2.0508244
34.512619 50.45417 2.4682174
34.658642 50.49279 1.7705593
35.281281 50.682831 2.4579372
35.273438 50.68071 2.6630526
35.262764 50.671936 2.7648501
35.271969 50.685368 2.5500576
34.471661 50.386002 2.5549872
34.483425 50.384342 2.7472887
35.314621 50.656635 2.8365738
36.257362 51.03017 2.0549459
35.158222 50.623974 2.1658139
35.239761 50.623741 2.0952427
36.371162 51.091949 2.4603217
34.881554 50.560551 2.4743774
34.518272 50.37484 2.8307805
34.678574 50.484367 1.9691961
34.478203 50.382523 2.6603451
35.275627 50.71109 1.8675461
34.874699 50.576931 2.3454859
36.148659 51.021721 2.0663662
34.271515 50.302341 2.1660163
36.160534 51.011311 2.1559765
35.260437 50.640057 2.1677115
36.373672 51.156849 1.9569255
35.975925 50.98336 2.0697467
35.153358 50.625748 2.2602885
35.968887 50.98856 2.1647749
34.670097 50.425236 2.1705077
36.379463 51.171658 2.0527992
34.666996 50.4258 2.450083
34.638107 50.429234 2.0797243
34.850697 50.53368 1.9664943
34.6534 50.330154 2.3605232
35.450069 50.733303 2.1781361
35.0387 50.622837 1.7026733
34.471352 50.450726 2.5791323
35.322914 50.580502 2.4626772
34.769344 50.508888 1.9671069
34.768257 50.493641 2.1592796
34.415562 50.463444 2.2132864
35.959484 50.914371 2.5548298
36.159046 51.010769 2.3591878
35.97184 50.939938 1.9783698
35.962856 50.928661 2.1651685
36.031719 50.944664 2.0124068
36.200558 51.06218 2.5479102
36.152122 51.013054 2.2678311
34.28067 50.380348 1.8727846
36.070026 50.989502 2.5679185
35.977867 50.919033 2.66886
36.113628 51.046814 2.4372344
36.067898 50.98798 2.2651713
36.084492 51.060318 2.0883584
36.277035 51.077293 2.2630496
36.283852 51.067711 2.4677048
36.163128 51.021503 1.9987687
36.06601 51.002609 2.0695481
35.947399 51.049004 2.2301519
36.270973 51.097454 2.1567323
36.256878 51.093151 2.0655189
36.083088 51.067818 1.954758
36.122417 51.013168 1.7916011
36.15588 51.020782 1.8865583
36.060135 51.02462 1.7599909
36.055763 51.063549 2.3500757
35.581429 50.873352 1.8511115
36.09938 51.08255 1.7406871
35.164413 50.613316 2.4639406
35.157635 50.617981 2.3581634
34.965111 50.653748 1.6970149
35.952866 50.932034 2.0599587
34.980148 50.633011 1.7642999
35.458836 50.723564 2.3644605
35.455742 50.741314 2.0602896
35.962486 50.922832 2.3543363
34.776379 50.572422 2.058682
35.163567 50.695087 1.7669518
34.865181 50.587425 1.7825422
34.97924 50.593422 2.067857
35.963142 51.006504 1.7643253
34.748474 50.432301 2.4755621
34.901337 50.647491 2.3936622
35.147964 50.529884 2.4783821
34.949902 50.65023 2.1235578
35.266361 50.728909 1.7490282
34.983669 50.656944 1.9688884
34.976517 50.659958 2.0811005
35.357239 50.772614 1.6283491
35.082779 50.517967 2.2866511
36.24284 51.076469 1.8111583
34.750458 50.502048 1.7843645
34.997646 50.661011 1.8794448
35.163937 50.700783 1.8637346
