# .PCD v0.7 - Point Cloud Data file format
VERSION 0.7
FIELDS x y z
SIZE 4 4 4
TYPE F F F
COUNT 1 1 1
WIDTH 563
HEIGHT 1
VIEWPOINT 0 0 0 1 0 0 0
POINTS 563
DATA ascii
8.8045025 24.96303 -1.7029707
9.0562086 24.319382 -1.6075609
8.7251291 25.216265 -1.291429
8.3325043 26.045855 -1.5695868
9.3547888 23.503168 -1.5091224
9.3294258 23.467907 -1.6382064
9.1015224 24.181629 -1.5338237
9.6755085 22.613697 -1.4698834
9.6372299 22.921839 -1.4278928
9.6236486 22.728235 -1.502579
8.7060728 25.323305 -1.5238212
9.2587652 23.93129 -1.6731179
8.1685247 26.468496 -1.4313465
8.462841 25.760498 -1.6185126
8.9414539 24.40712 -1.6392828
8.5525236 25.603231 -1.4930514
9.6869984 22.612679 -1.5372086
8.7826242 25.176638 -1.4527872
8.8208933 25.192369 -1.4950056
8.6062298 25.527056 -1.6938795
8.7791691 25.189375 -1.7528543
8.6462488 25.297791 -1.6490011
7.9332891 27.075636 -1.7131995
8.7402792 25.083115 -1.7186049
8.6837749 25.410707 -1.5498031
8.557251 25.666384 -1.7265041
9.1039362 24.182011 -1.7502931
9.1693974 24.066084 -1.7329292
8.7170277 25.354174 -1.648716
8.5394917 25.737827 -1.4440649
9.2040672 24.075905 -1.4287003
8.7655096 25.164869 -1.7912266
8.4942627 25.813457 -1.5503592
8.6188908 25.673241 -1.3272462
8.0739212 26.72353 -1.4571469
8.4491768 26.143749 -1.2853138
8.8031034 25.405937 -1.01467
8.6896152 22.964872 -1.8287396
8.6534338 22.89259 -1.7557327
8.6929674 22.906279 -1.6723931
8.7135267 25.64093 -1.3466636
9.2156487 23.60849 -1.4629593
8.7179537 24.692493 -1.4677947
9.336462 23.489305 -1.434644
9.0634041 23.983168 -1.5480798
8.764246 24.788731 -1.4510113
8.5605173 25.796431 -1.1658982
8.9426985 24.416946 -1.5873644
8.9039869 24.317465 -1.5321811
8.5135536 25.318594 -1.4097662
8.5356979 25.379173 -1.542086
8.7893372 24.721214 -1.3569024
8.8478432 24.588182 -1.4656394
8.8663368 24.501453 -1.3422161
9.5822687 22.588436 -1.4754868
9.0696507 24.397486 -1.4498782
9.0617809 24.391014 -1.5641866
8.9928274 23.918131 -1.9160485
9.1045208 24.268482 -1.5402987
8.7262344 24.912748 -1.3347341
8.7345896 24.983519 -1.3713527
9.2959728 23.295828 -1.5502272
8.6044998 25.188354 -1.712281
9.337348 23.267776 -1.4666667
9.5176067 22.683807 -1.5967491
9.4979591 22.697247 -1.7159823
9.4030104 22.895077 -1.5662338
9.5635471 22.875202 -1.5344274
7.7735724 27.200306 -1.2997115
9.2835255 23.199118 -1.4438012
7.7767267 27.220802 -1.4594172
8.5338526 25.376682 -1.7165338
8.1543016 26.489897 -1.5349277
7.8969722 27.085733 -1.5467385
9.5311565 22.758406 -1.4997994
7.7634792 27.302328 -1.4290471
7.8886194 27.104223 -1.6197773
9.2202663 23.362066 -1.699687
9.3833294 22.886374 -1.8199852
9.1419582 24.147659 -1.7297462
8.2774124 26.446611 -1.3642313
9.5176945 22.638222 -1.5112848
8.7850876 25.109697 -1.5384572
8.7400455 25.128881 -1.800342
9.1783953 23.963812 -1.5163822
9.1971302 24.302052 -1.5135816
8.7612953 25.273352 -1.551239
9.2398663 23.712078 -1.7237771
8.8664322 25.072702 -1.4275661
8.8055372 25.20365 -1.5747879
9.1749792 24.126192 -1.6165173
9.1653414 24.183157 -1.5421004
8.7379198 25.368603 -1.7110431
8.7909269 25.286343 -1.4451007
9.1595335 24.302973 -1.4562916
8.686657 25.486872 -1.428709
9.2895422 23.367619 -1.3692526
8.7808695 25.349092 -1.3550133
8.7481785 25.295227 -1.6443415
9.1821594 23.59503 -1.5393875
9.3716297 22.979666 -1.8021036
9.1769352 23.514465 -1.7527614
9.201849 23.503338 -1.5503204
9.594882 22.497337 -1.5471765
9.0828447 23.885027 -1.5415814
9.0690937 23.88854 -1.7302998
9.0128021 23.935122 -1.6604242
8.7844944 25.202751 -1.6335469
8.9597759 24.000097 -1.7926847
8.9843216 24.022772 -1.6428703
9.4799995 22.797537 -1.5497762
8.8642435 24.492273 -1.5484535
9.504468 22.714409 -1.5559913
8.7921963 24.685135 -1.6283629
9.0153351 23.839193 -1.878827
9.4670038 22.808657 -1.6467744
9.4057856 22.914837 -1.6364866
8.7987633 24.487551 -1.5727358
9.4030666 22.901749 -1.7380842
8.7976913 24.602299 -1.6507548
8.7589521 24.550634 -1.8619754
8.6599903 25.407782 -1.7145398
9.2836494 23.214561 -1.6460369
9.2358723 23.207813 -1.9191852
8.9129763 24.039434 -1.6737373
8.6141777 24.844707 -1.6598213
8.6111259 24.880463 -1.6706245
8.1692238 26.39341 -1.5411112
9.1118336 23.510296 -1.7260718
9.0919609 23.527523 -1.8539405
9.0961475 23.614111 -1.7229955
8.7724304 24.413624 -1.5991797
8.8076468 25.057255 -1.6536303
8.9013834 24.117228 -1.7488656
8.7069998 24.613333 -1.7023844
8.7277031 25.314419 -1.7320775
9.0979671 24.29598 -1.7049949
9.1865501 23.394413 -1.7194562
9.1616707 23.392563 -1.8658642
8.8084793 24.341578 -1.7789501
8.7765579 24.408947 -1.8294806
8.9669809 24.188147 -1.6211262
8.8741503 24.214254 -1.8473485
9.3185806 23.103212 -1.7634412
9.276885 23.188725 -1.7394756
8.9921169 24.109375 -1.7232929
9.2529135 23.276636 -1.7317164
8.8883762 24.405521 -1.6332057
8.8695354 24.41785 -1.7356766
8.4119549 25.480957 -1.7389936
9.2731972 23.305868 -1.6380299
9.2378836 23.294182 -1.8768721
9.1793013 23.583828 -1.6261834
8.7184525 24.628601 -1.6634598
8.3681269 25.614521 -1.7673514
8.3971558 25.698971 -1.6375092
9.1588917 23.616135 -1.7168479
9.1580057 23.694422 -1.6312547
9.0944958 23.724018 -1.6321751
9.149291 23.504086 -1.8213676
9.1278152 23.603994 -1.8802844
8.7423506 24.593094 -1.7482959
8.7136631 24.688635 -1.7554675
8.6918211 24.727362 -1.8055164
8.6741486 24.734093 -1.6368152
8.2961636 25.768925 -1.7539417
9.079318 23.891298 -1.6223482
9.0577583 23.979235 -1.6190327
8.9814711 24.104198 -1.638538
8.6637745 24.99843 -1.6302608
9.0134964 23.945375 -1.7738665
8.9963636 24.015135 -1.7601743
8.6707449 24.938284 -1.7300361
8.5846691 25.10153 -1.6309561
8.8479986 25.102657 -1.6303352
8.8930626 24.199009 -1.7636243
8.8832436 24.235764 -1.6392155
8.8654118 24.292788 -1.7371719
9.1454201 24.293688 -1.624522
8.7964373 24.423143 -1.7474047
8.0623064 26.882605 -1.6307675
9.3303795 23.284428 -1.6233878
8.5861387 25.018715 -1.67382
8.2921209 25.712463 -1.8937165
8.3049917 25.741444 -1.7292267
7.9757204 26.695087 -1.6338701
8.0884943 26.490599 -1.738398
8.3843746 25.70915 -1.5478787
8.0486755 26.686678 -1.5400244
7.9910269 26.666351 -1.5372349
7.9868956 26.672333 -1.7431839
7.8606277 27.078979 -1.4633353
8.1066761 26.406616 -1.5183415
7.9852085 26.954048 -1.7361084
9.3761539 23.597067 -1.4489843
9.2716055 23.376646 -1.5452167
7.8074484 27.121267 -1.5376608
7.7912264 27.117569 -1.7415668
7.788219 27.17523 -1.5304439
9.3861828 23.646196 -1.4403721
9.2712336 23.682898 -1.5248774
9.4276829 22.99696 -1.6270888
8.0970631 26.484472 -1.5395166
8.2732067 26.319889 -1.6469465
8.1117086 26.385189 -1.4158024
8.1934614 26.207012 -1.5393846
8.2810011 26.394699 -1.438709
8.1629009 26.188457 -1.4467031
8.1014538 26.398787 -1.6541053
8.0996094 26.405355 -1.7049756
8.5925159 25.782719 -1.340344
7.9616146 26.610718 -1.8354717
8.2744856 26.312439 -1.475368
8.2685499 26.297623 -1.371181
9.4767494 23.228184 -1.4856496
7.9866662 26.57762 -1.9171368
8.4304237 25.927156 -1.5627174
9.187129 23.532768 -1.6414449
8.5081434 25.801044 -1.1906425
8.5741043 25.777967 -1.4080417
8.8130541 25.17874 -1.1788366
7.956008 26.88722 -1.6418128
8.7528591 25.497299 -1.1767255
9.3681641 23.101871 -1.6485249
9.3728189 23.095879 -1.7144598
8.8366556 24.482248 -1.4644259
9.3696947 22.991957 -1.7378018
8.8421383 24.587954 -1.5401294
8.491993 25.74728 -0.95975351
8.8519087 24.947977 -0.93036932
8.5872955 25.610611 -0.90864158
8.7166681 25.323944 -1.1677556
9.3640203 23.090279 -1.5605905
8.866497 24.501188 -1.634148
8.8850574 25.152967 -0.99451321
8.8624868 24.499805 -1.757771
8.5633583 25.291271 -1.6285267
8.3109646 25.90609 -1.5362387
8.3143377 25.894283 -1.6406794
8.648098 22.85857 -1.8201221
8.6530876 25.404533 -1.3241866
8.0695076 26.766537 -1.3624557
8.6784248 25.332079 -1.0800626
9.0940609 23.675026 -1.8944446
9.0657597 23.698198 -1.8423635
8.825345 25.303038 -0.93594682
8.9331713 25.106323 -0.96018016
8.6668549 25.599327 -0.81192201
9.3459272 23.195274 -1.7225916
8.79809 25.307987 -1.1130655
9.0980263 23.681957 -1.7285584
7.8549805 27.198889 -1.455641
8.0059204 26.868185 -1.2445
7.8522367 26.994102 -1.4017189
9.2004499 23.305683 -1.907934
9.0974455 23.799385 -1.6384643
8.807682 25.660168 -1.0904641
8.04247 26.677576 -1.3842504
8.006958 26.622925 -1.5547057
8.5100183 25.589445 -1.3467909
9.3878794 23.004612 -1.5353132
9.1582422 23.786249 -1.505185
9.0650749 24.083109 -1.5479051
8.0181637 26.616053 -1.7582058
7.976892 26.889269 -1.5298915
9.0592937 23.930893 -1.8452711
9.4428387 22.82579 -1.0443921
9.1655016 23.678522 -1.5452589
9.0942469 23.795158 -1.5378129
9.4374628 23.084934 -1.719156
8.4515572 25.590031 -1.5384263
8.7868862 25.285776 -1.3244698
8.923871 25.102264 -1.140458
9.5698624 22.91717 -0.92642641
8.1237869 26.705202 -1.3576368
8.7441874 22.959671 -1.2455082
8.770854 25.275139 -1.1928542
9.0216084 24.0814 -1.4867601
8.4754467 25.604988 -1.4723262
8.6924324 25.414124 -1.2211697
9.7450066 23.047426 -0.722601
9.5611286 22.906546 -1.0360545
8.8514948 25.211481 -0.75174057
9.352807 23.18119 -1.6466672
8.9043255 24.024727 -1.932735
9.0294552 24.064957 -1.6116272
8.1522598 26.312119 -1.3191067
8.5718956 25.795958 -0.92574167
9.0728807 23.792856 -1.8206624
8.1963844 26.307873 -1.4503367
8.4280777 25.85755 -1.1216671
9.2941198 23.837345 -1.6572739
7.8621612 27.197422 -1.5432866
8.7836037 25.419617 -1.2400303
7.8593531 27.048613 -1.8575976
7.7862091 27.320713 -1.2674992
7.8798976 26.911921 -1.3738666
8.0989971 26.526449 -1.3215424
9.4499884 22.904856 -1.6334405
9.2541351 23.404306 -1.6172478
9.2240725 23.549425 -1.6653455
8.8549929 25.205029 -1.1479188
8.7385464 25.605278 -1.0376121
9.6480188 22.403728 -1.54532
9.4660501 22.877518 -1.7204711
9.6280308 22.494492 -1.5759213
9.3094807 23.901623 -1.4476732
9.6766558 22.293583 -1.5511115
9.424037 22.928282 -1.0403961
8.0779591 26.613626 -1.4473261
9.4089012 22.901348 -1.0699825
9.0853596 23.837402 -1.4369867
8.8737097 25.03459 -1.0317643
8.2770557 26.391054 -1.5374584
9.3046217 23.18166 -1.05635
8.7750015 25.413994 -0.94504297
7.8862948 27.011063 -1.5557281
7.9029675 27.014063 -1.6310319
9.3231115 23.349648 -1.4214181
8.5108976 25.680202 -1.2106398
8.882164 25.067007 -1.1351143
9.442894 22.890875 -1.5473982
8.8729315 25.122429 -1.0492014
8.8482428 25.15226 -1.2223245
9.4653378 22.827457 -1.7361428
9.3836269 22.990829 -1.6412358
8.0864983 26.553394 -1.7075199
8.60532 25.737652 -1.1931291
8.6592684 25.603018 -1.0564026
8.8759155 25.144159 -1.2517192
7.7927685 27.28685 -1.6229924
8.4675722 25.561283 -1.2506111
7.9473433 26.626093 -1.3194134
8.4402752 25.813532 -1.4218311
9.4353409 22.99238 -1.5196034
8.5980101 25.670347 -1.550395
9.2302084 23.699837 -1.4848489
8.5145302 25.698824 -1.3685805
9.2661209 23.826183 -1.4560528
8.8999672 24.379631 -1.5452807
8.8354807 25.110332 -0.82890069
8.7134371 25.058414 -1.3665164
8.7444277 25.365322 -0.59183526
9.230978 23.395927 -1.4415598
8.2960749 25.775032 -1.6514069
8.251276 26.436083 -1.346382
9.4992313 22.778395 -1.4693073
8.607935 25.004915 -1.7592791
9.0577707 23.870161 -1.4860401
8.078845 26.589045 -1.6319425
7.9874926 26.609062 -1.6510235
8.0832634 26.610519 -1.3625205
8.1946335 26.524345 -1.2452989
8.7494373 25.497475 -0.91869503
9.4674282 22.959021 -0.89789391
8.7791061 24.490908 -1.7464085
8.0737591 26.586714 -1.5477507
8.8016596 25.275261 -0.95664275
8.6477337 25.485714 -1.0486215
8.5819607 25.714674 -0.93577099
8.793973 25.218027 -0.85588729
8.8439045 25.299389 -0.73671734
8.6140471 25.607712 -0.84541041
8.6451836 25.605007 -0.94341087
8.48559 25.486851 -1.6296549
7.8323517 27.318521 -1.3575122
8.8122015 25.094154 -1.0303642
8.1726894 26.312843 -1.637042
9.62356 22.468716 -1.6699328
8.7401514 25.363409 -0.57527804
8.2481623 26.367048 -1.7133222
8.9249849 25.164957 -0.83494639
8.7667255 24.481884 -1.8143036
9.3688641 23.124966 -1.1229784
8.7546082 25.349194 -1.1854775
8.7136698 25.429205 -1.1672689
8.7019691 25.606411 -1.1441331
8.7990055 25.143862 -1.2286863
9.2628727 23.555943 -1.4624647
8.7594423 22.979204 -1.3120171
8.8444805 25.258951 -1.0034454
8.9762592 24.196655 -1.7481606
9.3394527 23.035181 -0.94569898
7.9004788 26.927843 -1.4888668
9.3502483 23.090778 -1.4489648
7.9056344 26.880592 -1.6220897
9.5744848 22.583897 -1.6433678
8.8796196 24.397598 -1.4704266
9.2149525 23.315216 -1.6695001
9.2122211 23.240963 -1.7612617
9.1940641 23.294577 -1.8202827
7.9109006 26.926353 -1.4333854
8.5737324 25.276205 -1.4698025
8.5651188 25.286453 -1.537639
9.1493235 24.250748 -1.6993972
8.8724155 25.277584 -1.1461684
8.3562965 25.902979 -1.4660894
8.0296068 26.889904 -1.2949558
8.0478888 26.704557 -1.6224866
8.262475 26.539667 -1.4249536
7.9335618 27.035675 -1.4736634
7.9328003 26.957664 -1.6334306
7.9849672 26.701469 -1.4471948
7.9659662 26.654469 -1.3527753
9.5852118 22.520092 -1.6126978
8.8770294 25.145086 -1.3456614
9.563221 22.599968 -1.5550069
9.5380974 22.675245 -1.5561408
9.6530123 22.402864 -1.6260231
9.347456 23.186441 -1.5636177
8.4724731 25.500956 -1.5466306
9.3040104 23.306877 -1.4503835
9.2402277 23.482954 -1.6105206
9.2432871 23.481705 -1.5452739
9.1647434 23.693045 -1.7168365
9.0053062 23.98889 -1.5449817
8.6722126 24.987823 -1.5468009
9.2333593 23.501305 -1.7089251
9.5300169 22.713522 -1.7748983
8.6819735 24.99501 -1.4540571
8.6672344 25.003536 -1.3229953
8.7044134 25.647923 -1.1727948
9.1320524 23.778868 -1.6311086
9.5441284 22.699194 -1.60923
8.7163963 24.919659 -1.6572832
8.7104292 24.86533 -1.3828199
8.9991703 24.100422 -1.5457948
8.9719906 24.200369 -1.5195563
8.9025335 24.286198 -1.6223586
9.2073536 23.47068 -1.4455738
8.9944191 24.098934 -1.4839571
9.3008747 23.218103 -1.5061853
8.8353186 24.588934 -1.6323435
8.7961798 24.602957 -1.550522
8.7984705 24.673365 -1.5564584
8.9389248 24.299583 -1.621923
8.7901201 24.69957 -1.4733121
8.756773 24.785973 -1.5469961
8.9506588 24.297771 -1.7117852
8.9496641 24.281237 -1.5342491
8.7497759 24.80081 -1.6391504
8.6859684 24.92663 -1.5558919
9.2423058 23.504723 -1.4783156
9.3547316 22.995209 -1.0077188
8.6132431 25.134266 -1.5629337
8.5886374 25.208464 -1.5427108
9.1554613 23.745287 -1.474836
8.9906349 24.169538 -1.4883858
9.5461655 22.710642 -1.4253402
8.7730827 24.724407 -1.7126148
8.6044664 25.192436 -1.6241876
9.3595133 23.200428 -1.4369611
8.6461639 25.100113 -1.6340632
9.4212971 23.046318 -1.5901656
8.8057556 24.636414 -1.4654416
8.7624388 24.798264 -1.7278172
8.6595373 25.073198 -1.5392616
9.1511278 23.783377 -1.4640596
8.67628 25.079624 -1.4327846
8.7008333 24.927082 -1.4414533
8.6744614 25.006559 -1.7074456
8.6242476 25.173861 -1.6168947
8.5924807 25.182076 -1.4506767
8.535717 25.385115 -1.6285495
8.3789434 25.786409 -1.4561757
8.5187893 25.384739 -1.4784286
8.4492044 25.601641 -1.6374239
8.4316397 25.679909 -1.6174096
8.3857365 25.791126 -1.5432497
8.4392071 25.668322 -1.5490406
8.3689489 25.792322 -1.6404053
8.3528738 25.881577 -1.5416304
8.50315 25.418581 -1.6394032
8.4968443 25.409485 -1.5176117
8.4501619 25.589342 -1.7067724
8.7298288 24.853701 -1.5423375
8.3945112 25.681179 -1.7553475
8.2877369 25.996872 -1.6378912
8.2740593 26.015818 -1.5436463
8.2529612 26.098045 -1.5436486
8.5372229 25.398121 -1.4477785
8.4156151 25.622896 -1.5584688
8.2626953 26.093357 -1.6343095
8.6447477 25.076181 -1.7190189
8.9371939 24.296417 -1.4492202
8.2503481 26.208578 -1.5318047
8.2666197 26.279638 -1.5397621
8.1874876 26.296396 -1.5598161
8.3586607 25.888618 -1.6590474
8.401639 25.713995 -1.4549556
8.0278807 26.797939 -1.5437938
8.0933371 26.498495 -1.6329592
8.3360376 25.955311 -1.5168042
8.1443157 26.458582 -1.7275505
8.7216702 24.910423 -1.6202819
8.1804657 26.387146 -1.7478118
8.1534653 26.382622 -1.6412069
8.3306417 25.845169 -1.6980557
8.5095549 25.321398 -1.5432734
8.3991117 25.600969 -1.6129601
7.9786396 26.792347 -1.6440334
8.6133089 25.034637 -1.5655407
7.9770389 26.78158 -1.706313
8.0450583 26.536781 -1.7911648
8.6635284 24.966959 -1.8412554
9.3376989 23.092607 -1.0685847
7.9954176 26.784695 -1.5430473
8.9211502 24.355345 -1.4821589
8.4775763 25.468412 -1.4468577
8.2721786 26.005951 -1.4470172
8.6393051 25.149248 -1.5685771
8.1686172 26.428942 -1.4600948
7.8985043 27.063892 -1.722729
7.8387041 27.278662 -1.5317832
8.4447956 25.726458 -1.4382689
7.8981786 27.006426 -1.7430917
7.8669319 27.187696 -1.7028466
7.8421688 27.196568 -1.6464643
8.4572048 25.679665 -1.7139335
8.0390129 26.77058 -1.6033001
7.9700165 26.985464 -1.5475433
8.540144 25.458174 -1.6048324
8.5476847 25.513477 -1.5608345
7.9831762 26.804722 -1.4326453
8.5605888 25.477577 -1.3757625
8.3062391 26.197014 -1.4455543
8.1513367 26.457754 -1.6386876
7.9410982 27.062325 -1.4500735
8.6312428 25.206446 -1.4119902
9.2483473 23.539516 -1.3661346
8.4713287 25.540817 -1.3809273
8.1317682 26.353342 -1.3815413
8.1251459 26.501307 -1.3795378
8.6336432 25.678776 -1.2279441
8.6703634 25.498137 -1.2878194
9.1166277 24.211519 -1.6682967
8.0725918 26.500864 -1.4595449
9.7569389 22.556448 -1.4429239
8.248868 25.92861 -1.4325223
8.3908319 26.012949 -1.4456888
8.3829889 26.058985 -1.485683
8.3538599 26.120171 -1.3727069
8.7392225 25.31101 -1.8040584
9.1210279 23.776173 -1.7438629
8.3527384 25.691141 -1.3536613
8.6816006 24.792267 -1.4300193
7.9268131 26.890257 -1.4145095
8.6091452 25.107162 -1.4536629
7.954802 26.836269 -1.3598977
8.7433434 24.8232 -1.2817141
8.7715149 24.848461 -1.4610342
7.8393335 27.1945 -1.3406546
8.4026985 25.796974 -1.3078275
7.7950463 27.236526 -1.2506201
8.3880424 25.757524 -1.217896
8.2828197 26.029821 -1.3638519
8.5526237 25.329859 -1.3372968
8.804575 24.800375 -1.3201476
8.4134998 25.705858 -1.0789462
8.5654831 25.342621 -1.2634982
7.9298201 26.986961 -1.2852091
9.2575417 23.334642 -1.1024334
9.2295475 23.446623 -1.0191574
