# .PCD v0.7 - Point Cloud Data file format
VERSION 0.7
FIELDS x y z
SIZE 4 4 4
TYPE F F F
COUNT 1 1 1
WIDTH 695
HEIGHT 1
VIEWPOINT 0 0 0 1 0 0 0
POINTS 695
DATA ascii
35.850731 25.207523 -2.0159557
37.907898 25.833216 -2.4641881
35.456055 24.951591 -2.0199926
36.912399 25.606009 -2.0426724
36.007545 25.329666 -1.2250148
36.740059 25.563496 -1.285854
36.777878 25.634756 -1.3053861
37.371052 25.644583 -1.2975895
36.567268 25.402325 -1.3273044
35.62925 25.016182 -1.3321851
35.424431 24.965624 -1.4981396
37.081406 25.570469 -1.2350367
36.984882 25.553991 -1.2108678
36.783997 25.481754 -1.2454239
36.340668 25.253313 -1.2377779
36.888569 25.499657 -1.1676502
36.907288 25.504112 -1.2234384
35.877586 25.120457 -1.0567075
36.585728 25.383356 -1.2346907
35.872929 25.086216 -1.1378381
36.907345 25.504457 -1.3549409
36.99836 25.490503 -0.86127365
36.909557 25.456188 -0.97223467
35.776985 25.09721 -1.0215495
37.021721 25.448467 -0.89612961
37.040405 25.494987 -1.0001328
35.850483 25.052477 -1.477484
35.805954 25.050669 -1.5845501
36.931618 25.442904 -1.429083
36.863548 25.687426 -2.029897
36.574806 25.192984 -1.9412482
35.610088 24.937401 -1.3185813
36.755524 25.616623 -1.8246728
35.986164 25.110435 -1.6412351
37.053089 25.508656 -1.2814913
35.664955 25.106747 -1.1674078
36.639473 25.659451 -1.6969335
37.562756 25.701887 -1.9460851
37.72752 25.735758 -2.2779214
37.574764 25.721201 -2.2684088
35.882889 25.020992 -1.9425389
37.683155 25.722937 -2.1437643
37.660069 25.715254 -2.3924031
37.767189 25.787836 -2.320056
36.509186 25.378965 -1.2095908
37.764061 25.77454 -2.4316046
37.685711 25.865959 -2.4197798
37.668243 25.636473 -2.2982783
37.676929 25.905899 -1.3335153
35.543316 24.970482 -1.8139381
37.563904 25.70249 -2.3286269
36.675163 25.577175 -1.7584201
37.761547 25.73386 -2.121706
37.773602 25.788742 -2.2428963
37.763405 25.703007 -2.5762691
36.620209 25.336609 -1.5363469
35.879662 25.085003 -1.8313648
36.110115 25.374609 -1.6610397
35.602768 25.048773 -1.8931593
36.074738 25.174803 -1.2258015
35.655796 25.06044 -1.2574078
35.566254 24.987568 -1.7303451
36.472847 25.486706 -1.8031317
36.360424 25.431257 -1.4467298
37.289345 25.649059 -1.7598374
36.924995 25.661329 -1.3581812
37.339523 25.797821 -1.4506227
35.85009 25.082575 -0.9718439
35.611404 25.174072 -1.441131
35.967529 25.120901 -1.4461151
35.678097 25.078627 -1.7398794
35.668579 24.992189 -1.5469362
35.555798 24.976803 -1.6426802
37.385674 25.675365 -1.2478538
36.495041 25.494591 -1.729393
37.377441 25.818947 -1.3483946
35.953667 25.204308 -1.7263654
36.594536 25.576883 -1.4201193
36.637451 25.568102 -1.4294157
37.669048 25.711212 -2.2233112
36.997742 25.443413 -2.0339353
36.963287 25.417282 -1.9291785
35.761211 25.190338 -1.5645156
37.48307 25.683506 -1.6365844
37.458687 25.806362 -1.5419126
36.361279 25.45849 -1.8337739
37.448772 25.602688 -2.0083539
37.361153 25.611223 -1.9411484
37.057205 25.555466 -2.2161653
36.5634 25.314123 -1.6343166
36.391235 25.288029 -1.1426131
36.114132 25.364323 -1.5782323
36.77652 25.424116 -1.2520726
35.796089 25.088871 -1.1038277
36.481834 25.395004 -1.3996528
37.475296 25.707264 -1.3439069
37.467987 25.678736 -1.4491515
35.603481 25.002163 -2.0650249
36.76651 25.430851 -1.3377292
36.179329 25.121771 -1.9296547
35.571381 25.000078 -1.0743937
36.557503 25.346226 -2.293505
36.748013 25.423326 -1.1868519
36.619179 25.554726 -1.3650136
36.868984 25.42444 -1.5425291
36.827053 25.444807 -1.2775989
37.667873 25.697723 -2.3367863
36.484497 25.288691 -1.7389389
36.93549 25.67519 -1.9854007
37.290653 25.579599 -1.4308593
36.643864 25.319157 -1.7569001
36.858189 25.398157 -2.1401117
35.661522 25.182198 -1.3995632
37.055149 25.585365 -1.7427011
36.553207 25.54694 -1.7852215
36.946857 25.704964 -2.0367062
37.592194 25.78323 -2.3590209
37.061508 25.506128 -1.9195262
37.040176 25.71591 -1.9604983
36.673759 25.473995 -1.2699759
37.567432 25.712975 -1.5375273
37.584728 25.753208 -1.9207172
37.564507 25.798918 -1.6388812
37.602497 25.84201 -1.510865
37.555431 25.745918 -1.4743532
37.593616 25.841837 -1.1858516
35.684231 25.176739 -1.6136143
36.35574 25.458435 -1.921205
35.699287 25.113405 -1.2974868
36.607288 25.227734 -2.0449102
36.575916 25.308071 -1.931082
37.171661 25.734558 -1.4511919
36.561646 25.315313 -2.0454619
36.509567 25.374084 -1.165054
36.515072 25.361881 -1.8708345
37.351974 25.621637 -1.5472316
37.369823 25.664293 -1.5377719
37.578007 25.702623 -1.8320504
37.840904 25.735336 -2.3119423
36.790741 25.535097 -1.56733
35.590038 24.927742 -1.2104312
37.329514 25.591408 -1.2524709
37.700798 25.846996 -2.3861074
37.077148 25.511604 -2.0400655
36.968533 25.500408 -1.4568089
35.976578 25.12809 -1.5298064
37.366676 25.663519 -1.3355813
35.891518 25.132645 -1.2425823
36.26091 25.219109 -1.4351754
37.446247 25.616728 -1.6665822
37.575302 25.775084 -1.9991653
35.964745 25.079422 -1.8378675
37.360725 25.612513 -1.4456924
36.162556 25.133718 -2.1153293
35.96941 25.14999 -1.9204732
36.361092 25.213011 -1.8484986
37.434456 25.856318 -1.3510624
36.015671 25.157021 -1.5617203
37.571724 25.818245 -1.2245216
35.649143 24.952888 -1.1951116
37.560074 25.702053 -1.6396824
37.575291 25.697767 -1.7385176
35.705761 25.070591 -1.9861366
35.978859 25.190826 -1.6418014
37.274395 25.603962 -1.5367558
37.556129 25.767159 -2.2495892
37.450417 25.628416 -1.928284
37.541779 25.79003 -1.3068705
37.019699 25.552919 -2.290653
35.983772 25.127964 -1.284806
36.903545 25.41979 -2.2109289
36.45536 25.316452 -1.2327476
36.266285 25.191448 -2.0350735
37.775585 25.784801 -2.1338603
36.755501 25.5856 -1.4276215
36.570877 25.365927 -2.133955
36.370037 25.226908 -2.1354616
35.441017 24.95706 -1.1821394
36.675507 25.372335 -1.8387611
37.06234 25.533083 -1.3500724
35.978672 25.239885 -1.0716331
36.058418 25.091702 -1.7507772
37.055374 25.525669 -1.4399607
36.956688 25.426502 -1.8411742
37.578793 25.706886 -2.131474
36.081703 25.314804 -1.6461425
36.707729 25.602282 -1.3673224
35.861038 25.025488 -1.6590807
36.577271 25.556995 -1.5452396
37.367355 25.604254 -1.7285221
36.976887 25.486614 -1.7541108
35.637211 25.231691 -1.714754
35.862816 25.086842 -1.7369171
37.212166 25.686281 -1.9347506
36.355495 25.231333 -1.6686022
35.542686 24.89843 -1.7350583
37.104675 25.750469 -1.8728
36.29039 25.272135 -1.8513714
37.672817 25.775253 -2.1318736
36.363564 25.233311 -1.5635442
36.568417 25.503254 -1.7336003
36.988167 25.561584 -2.10653
37.148121 25.509352 -1.7464902
35.94606 25.291561 -1.4423362
36.801376 25.471811 -2.3177714
37.135082 25.519899 -2.0177519
36.471268 25.288177 -1.8383781
36.853546 25.415825 -1.9299014
36.27277 25.395895 -1.6367745
36.284977 25.22702 -1.238238
35.583675 24.95624 -1.9818525
36.569645 25.551521 -1.8058208
36.261398 25.236736 -1.3224063
36.372528 25.219286 -1.7496951
36.473602 25.540657 -1.41689
37.430218 25.792143 -1.8707045
36.567131 25.32914 -2.2450027
36.97916 25.484138 -1.8416771
37.171352 25.572815 -1.5536628
37.60849 25.764954 -2.1275744
37.365852 25.608696 -2.2531927
37.5821 25.707228 -2.4420316
36.555744 25.319244 -2.3020346
36.467129 25.299168 -1.6493442
36.157299 25.369822 -1.4430298
36.453777 25.229445 -1.8588119
36.478844 25.242765 -1.4561901
36.483074 25.292603 -1.5604241
36.44997 25.232391 -1.7517077
37.162979 25.575985 -2.2971892
37.359581 25.613136 -2.1430454
37.18737 25.572889 -1.7431133
36.691696 25.577612 -1.6366867
36.038483 25.326664 -1.4447118
37.370216 25.672089 -2.3335912
35.678699 25.108242 -1.5403217
36.481503 25.303129 -2.1338959
35.701118 25.135107 -1.7925637
37.359318 25.613436 -2.044389
35.968735 25.092484 -1.7464687
36.452126 25.238556 -1.6610274
37.157558 25.721886 -1.5519149
37.390774 25.661144 -1.6492376
36.648281 25.318714 -2.1531332
36.35788 25.242346 -1.4326892
36.961067 25.699387 -1.7422713
36.972286 25.490919 -2.0402679
37.295189 25.669373 -1.939927
36.469246 25.307219 -2.3013091
37.601696 25.777243 -1.842183
37.573433 25.626837 -2.039494
36.759506 25.398159 -1.5460706
37.530563 25.645111 -1.7831765
36.066139 25.297417 -1.7173378
36.653969 25.381645 -1.4714615
35.58894 25.113476 -1.7245603
37.076809 25.49991 -1.8265491
36.867401 25.421726 -2.0360143
37.655315 25.720873 -1.5255867
37.069675 25.503796 -1.6458807
37.316406 25.800209 -1.6249723
37.077755 25.495451 -1.7373973
37.048317 25.498501 -2.2088141
36.453442 25.414997 -1.7189188
35.797409 25.224285 -1.3694383
37.065647 25.516821 -1.541683
35.562965 24.97019 -1.1379876
36.261696 25.219336 -1.6256218
37.079243 25.558846 -2.04182
37.067799 25.516081 -2.1262841
37.684521 25.782663 -1.8338881
36.069351 25.192539 -1.3557409
36.977543 25.422319 -0.89457208
36.275887 25.215277 -1.5365607
37.683865 25.813364 -1.3371451
37.391109 25.672195 -1.7588812
37.388901 25.664356 -2.2393813
37.59301 25.812166 -1.7460221
37.076096 25.417255 -2.011692
37.092567 25.562283 -1.5466874
36.563202 25.329002 -1.3656013
37.370007 25.617918 -1.6454893
37.483166 25.695005 -2.2570245
37.370525 25.660278 -1.9337813
37.669323 25.757776 -2.5108373
37.172855 25.722221 -1.6299319
37.12645 25.512777 -2.1220858
36.566742 25.327847 -1.4649584
37.07114 25.554737 -1.6404098
37.475407 25.677517 -2.0406153
36.267063 25.193407 -1.8280723
37.097889 25.563774 -1.8340865
35.650261 25.124409 -1.6525173
36.768425 25.418329 -1.4642949
36.170776 25.123688 -1.8426733
36.1516 25.123579 -1.5735388
37.075871 25.561821 -1.9253564
37.386627 25.652317 -1.4343958
36.971882 25.479841 -1.9352367
37.175537 25.580297 -1.92184
37.167652 25.562281 -2.1209841
37.472439 25.623587 -1.8222593
36.437286 25.229046 -1.3677336
37.426689 25.689024 -2.2917325
37.109867 25.586937 -2.1063151
37.276035 25.800055 -1.8249568
37.270824 25.59551 -1.934973
37.665154 25.729748 -1.9269462
36.17775 25.128553 -1.7463586
36.563301 25.322289 -2.1413505
35.601715 25.101738 -1.5132502
35.988358 25.066143 -2.1339056
37.574062 25.715134 -1.4584613
37.177128 25.579781 -1.3415068
37.142605 25.526646 -1.6435473
37.166134 25.576145 -2.2316318
37.188217 25.574978 -1.6491814
37.178944 25.587412 -2.0537791
37.15823 25.524826 -1.9474822
35.969238 25.116848 -1.3504426
37.198154 25.661623 -2.0700836
37.156269 25.693649 -1.7333429
37.173954 25.781193 -1.7957256
36.984802 25.632233 -1.6130215
37.178894 25.689373 -2.1043062
37.388737 25.659435 -2.0552745
35.995255 25.091284 -1.9323064
36.239132 25.401558 -1.8741059
37.372669 25.671259 -1.8559909
35.97493 25.103804 -2.0355182
36.490665 25.362587 -2.0237808
36.494652 25.49633 -1.3305664
36.48848 25.306335 -1.3667415
37.240772 25.525064 -1.8979503
35.54092 25.002653 -1.2536447
35.536213 24.957539 -1.3137512
35.459843 24.843422 -1.8921305
36.365295 25.211422 -1.9245955
37.377369 25.678711 -2.1391592
37.372776 25.611963 -1.8469505
36.401596 25.459328 -1.6430185
36.364811 25.454645 -1.7631254
35.587791 24.995308 -1.4972328
36.275757 25.205603 -1.9395298
36.293472 25.269379 -1.6406943
37.276066 25.789303 -1.5352399
36.33849 25.456953 -1.5460721
37.645248 25.722645 -1.4765246
37.212444 25.787252 -1.7206544
36.17527 25.458849 -1.3764336
36.479424 25.322422 -2.2185326
37.656345 25.722309 -2.0529618
37.666847 25.711082 -1.8257875
37.561329 25.718559 -2.0377572
36.41431 25.552624 -1.5390061
35.565186 25.088873 -1.3180501
36.260437 25.138893 -2.0485411
36.264442 25.143856 -1.8971478
35.759651 25.204922 -1.6334952
36.870319 25.406685 -1.8410548
37.159756 25.771706 -1.5336463
35.801983 25.171949 -1.7367374
37.473446 25.675465 -1.5295324
37.306152 25.795473 -1.3630326
36.274487 25.203503 -1.7421271
37.435898 25.833076 -1.3185997
37.358944 25.801247 -1.5332005
35.771301 25.203342 -1.426411
37.350391 25.853445 -1.7924476
35.963902 25.303062 -1.5249325
36.071171 25.313099 -1.5351098
37.3382 25.876379 -1.8887857
35.975906 25.024984 -2.1125271
36.173439 25.135958 -2.0495527
36.068432 25.180557 -1.4551755
37.65863 25.736658 -1.6278368
37.261322 25.675497 -1.307348
37.271278 25.603348 -2.2439806
35.996914 25.165373 -1.8455545
36.670696 25.417715 -2.322114
37.474426 25.686377 -2.1364574
36.27256 25.402485 -1.5281729
37.275276 25.597244 -1.6394184
36.874454 25.419222 -1.7341294
37.269337 25.595949 -1.7319463
37.269844 25.59104 -1.8388319
37.178619 25.595619 -1.2603933
36.687054 25.351606 -1.2742249
37.291908 25.604645 -1.3000922
37.341839 25.783342 -1.2265897
35.463348 24.904715 -1.5546832
35.519363 24.959955 -1.194808
35.492149 24.947081 -1.3904734
36.473866 25.296303 -1.9467331
36.563572 25.528505 -1.848129
37.296089 25.646437 -2.3243444
36.580437 25.373173 -1.7334836
36.944069 25.622519 -1.6969823
37.384995 25.787832 -1.7173065
37.477264 25.674402 -1.8485596
37.372463 25.8029 -1.6451173
37.169098 25.57126 -1.8436291
36.800049 25.435863 -0.9384619
37.264465 25.625856 -1.2468772
36.500832 25.346237 -1.5476999
36.962456 25.483032 -2.1236091
37.449471 25.834293 -1.4222943
36.629379 25.337477 -2.2523718
36.664829 25.380505 -2.1376626
37.504009 25.762276 -2.0623157
35.689362 24.978054 -2.0398817
36.662552 25.388227 -2.0461533
36.210674 25.381317 -1.3795882
37.028561 25.437269 -1.929567
35.657444 25.008823 -1.124657
37.279987 25.66798 -2.0798755
36.671638 25.383808 -1.6351068
36.171818 25.192337 -2.0361078
37.180485 25.671932 -1.344021
37.260788 25.734818 -1.6291955
35.445095 24.897915 -1.6410124
37.290894 25.668936 -1.8286163
36.685562 25.406536 -1.3392892
36.75597 25.389997 -2.2373602
36.290646 25.263327 -1.497789
36.830082 25.664036 -1.8584486
36.375835 25.280737 -1.9326406
36.599609 25.376734 -1.0182849
37.685764 25.814066 -1.5508591
36.945045 25.487934 -1.3149112
36.080849 25.17366 -1.7383537
36.280983 25.450953 -1.7828019
36.361904 25.27442 -1.7344422
36.648197 25.319237 -1.9155049
36.069191 25.185562 -1.848983
35.459137 24.91111 -1.9341234
37.258118 25.590094 -2.0417404
36.16296 25.295151 -1.9427377
37.685886 25.807411 -1.635603
35.863674 25.012558 -2.0247357
36.237076 25.180265 -2.1949601
37.682877 25.810265 -1.4386908
35.958012 25.038759 -1.8603636
37.682056 25.791319 -1.7314738
36.1726 25.203936 -1.4439726
35.669559 24.981333 -1.9554408
36.287174 25.407024 -1.4585572
36.277088 25.274307 -2.1442733
35.914783 25.230606 -1.9302876
35.555744 24.990963 -1.3973396
36.057354 25.173279 -1.1536248
36.74556 25.307791 -2.0579867
37.695698 25.78089 -2.2474067
36.081032 25.168905 -1.515807
36.165428 25.292356 -1.5579441
36.856888 25.42065 -1.6485991
37.252815 25.533447 -1.8577664
36.984184 25.660511 -1.6243789
37.272121 25.535086 -1.75219
37.237766 25.532406 -1.6473913
37.456535 25.620499 -1.5300834
37.444431 25.626719 -1.7260543
35.562706 24.906816 -1.8382727
35.867336 25.086559 -2.1383066
35.97739 25.045313 -2.0175946
36.478477 25.481655 -1.6332741
36.169285 25.239716 -2.2565079
36.738712 25.334127 -1.8181142
36.74017 25.32712 -2.1564329
36.671783 25.391434 -1.9353547
37.278336 25.606758 -2.1379087
35.989868 25.298212 -1.3460207
36.867805 25.436413 -1.4873893
36.677814 25.372007 -1.5247163
36.020195 25.131721 -1.5771959
35.600506 24.923405 -1.0809335
36.104698 25.354443 -1.7336857
36.319687 25.298704 -1.155562
37.27623 25.787971 -1.4642394
36.663994 25.555752 -1.5115912
37.146793 25.535406 -1.4553571
36.978947 25.689388 -1.4367528
36.065773 25.136589 -1.6357194
36.570377 25.283667 -1.8403774
36.565426 25.321655 -1.5498089
36.379009 25.274576 -1.6430461
35.88015 25.207636 -1.544078
36.758579 25.585649 -1.5262601
36.259434 25.266129 -1.2339795
36.434151 25.380474 -1.3044183
36.475151 25.480253 -1.557169
36.915569 25.648338 -1.5794797
36.067326 25.346693 -1.3783658
36.63509 25.506504 -1.5351886
36.033875 25.074314 -1.3304404
37.178043 25.762104 -1.4113367
37.060783 25.716803 -1.4144912
36.46526 25.296526 -2.0363643
36.872353 25.622257 -1.3538347
36.570419 25.489759 -1.3469934
36.847401 25.618336 -1.4520878
37.66946 25.722729 -1.7374825
36.962666 25.490519 -1.6513864
36.869587 25.472425 -1.6544396
36.777786 25.412777 -1.6451601
36.684074 25.382086 -1.7309408
35.884705 25.253801 -1.540601
36.554207 25.503334 -1.51872
36.958374 25.436695 -1.7310008
36.964893 25.677225 -1.5337105
36.981457 25.482773 -1.5333464
36.380238 25.277233 -1.5420952
36.899532 25.4727 -1.7179114
36.898602 25.459459 -1.434514
36.169098 25.20175 -1.5445014
36.767033 25.397577 -1.7354463
36.168121 25.188211 -1.646855
36.560772 25.511465 -1.440912
36.773338 25.385044 -1.844541
36.180111 25.182491 -1.7325906
35.888916 25.263031 -1.4452674
36.089607 25.179094 -1.6485012
36.165928 25.370569 -1.5699073
36.886803 25.466663 -1.8335431
35.957333 25.274433 -1.6359371
36.567799 25.309639 -1.7402596
36.373466 25.445772 -1.4237843
37.14336 25.538719 -1.5244071
36.375771 25.281662 -1.4301558
37.286755 25.664473 -2.1249015
35.735146 24.993177 -1.4328567
36.655231 25.318518 -1.8440969
36.66465 25.337027 -1.6445184
36.942368 25.480705 -1.2581046
36.184166 25.398758 -1.2713494
35.425056 24.905121 -1.244206
36.379158 25.259468 -1.3186808
35.662827 24.995232 -1.4421484
35.450153 24.98608 -1.2962968
35.491001 24.878067 -1.3919752
35.867489 25.034006 -1.4117928
37.032207 25.69146 -1.3564234
35.446907 24.911938 -1.1150521
37.189411 25.755795 -1.3267193
35.866474 25.080088 -1.324922
35.780231 25.09124 -1.2558155
35.431179 24.924988 -1.3095036
36.470665 25.22945 -1.9185545
36.169262 25.306101 -1.6326867
36.594105 25.375172 -2.0365574
37.469948 25.68462 -1.922442
35.884132 25.082596 -1.9397211
37.47551 25.678921 -1.7413561
35.882339 24.996893 -2.1157758
35.867168 25.017273 -1.8350505
35.8825 25.006491 -1.7567383
35.767284 24.977177 -1.916039
35.772793 25.011591 -1.6272321
36.514252 25.384686 -2.2436905
35.823021 25.042183 -1.0986574
35.765808 24.97905 -1.8527842
36.879906 25.486069 -1.925696
36.482178 25.374537 -1.9309705
36.665802 25.504738 -1.7342665
35.856003 25.215069 -1.4540217
35.878719 25.218807 -1.6308755
36.291943 25.365059 -1.7242734
37.594791 25.902325 -1.2080219
36.075603 25.103842 -1.8541744
36.078941 25.176268 -1.95226
36.7337 25.335278 -1.7593925
36.376717 25.274296 -1.8452737
36.386536 25.356897 -1.7667003
36.750324 25.326309 -1.9408622
36.266228 25.274837 -1.7414391
36.774277 25.38941 -2.0332103
36.768009 25.407537 -2.1329365
36.26358 25.265589 -2.0376995
36.776173 25.403624 -1.9241956
36.471981 25.297628 -1.4734696
35.873737 25.211813 -1.7267895
36.255234 25.251099 -1.4345325
36.371113 25.217701 -2.0308924
35.655334 25.007172 -1.7325339
36.692059 25.593309 -2.0814996
36.701515 25.582153 -1.8159661
36.789486 25.62826 -1.9900078
36.89349 25.668303 -1.9168384
36.748611 25.614021 -1.9414649
37.206505 25.795185 -2.0244377
37.052135 25.668861 -1.7255634
37.277313 25.792288 -1.6975911
35.989429 25.264965 -1.7842854
37.022903 25.445259 -1.7221414
37.027187 25.432827 -1.8125474
35.870827 25.099718 -1.6549351
36.179363 25.192347 -1.8416067
37.479198 25.636326 -2.0995808
37.058254 25.501459 -2.3245893
37.466682 25.690311 -2.4307137
37.738823 25.732615 -2.3139534
37.267487 25.610594 -2.3157952
36.37859 25.279736 -2.023191
36.978256 25.498348 -2.2249653
37.696991 25.81879 -2.3221846
36.877808 25.464958 -2.1284943
36.762466 25.420748 -2.298562
36.457047 25.217316 -2.0264268
36.762085 25.574526 -1.6348234
37.144531 25.514915 -1.8451425
36.58857 25.365437 -1.8226975
36.883484 25.479025 -2.0164351
36.016022 25.345934 -1.6916206
35.787148 25.081123 -1.8340682
36.668037 25.404081 -2.2604756
36.883938 25.475861 -2.2519712
35.872307 25.219599 -1.2371608
36.584877 25.461529 -2.0746002
36.760956 25.492142 -2.1114981
36.722076 25.485373 -1.7885284
36.788933 25.473597 -1.8218119
36.947018 25.556955 -2.0029449
37.410378 25.750902 -2.1269684
36.408512 25.549385 -1.7390826
36.064949 25.206018 -2.2252865
36.085552 25.168392 -2.0067334
36.179543 25.188929 -1.9386559
36.177139 25.189425 -2.1289175
36.265743 25.277214 -1.928122
36.583668 25.385824 -2.2394714
37.296547 25.664762 -2.2085342
35.789917 25.067589 -2.0497522
36.273304 25.207087 -2.1114445
36.375191 25.280159 -2.2122722
36.183815 25.378784 -1.7544272
37.485115 25.763912 -2.120311
35.734241 25.070488 -1.9120455
35.84848 25.073206 -2.0416231
36.571869 25.377476 -1.9299201
36.774837 25.484135 -2.0137343
37.10318 25.767807 -1.7536814
36.300941 25.261238 -2.2082362
36.874279 25.663916 -1.7007426
35.872108 25.291517 -1.6290683
36.588966 25.372332 -1.6424491
36.771732 25.463531 -2.2762372
36.977974 25.499834 -2.3052804
37.105309 25.749685 -1.6755636
36.093864 25.153187 -2.1181824
36.14938 25.262924 -1.8799946
36.667404 25.483837 -2.1065571
36.793678 25.45628 -1.9020621
36.378571 25.266886 -2.1363215
36.058697 25.102926 -1.9233197
36.297138 25.237827 -2.3018503
36.069817 25.101379 -2.0076337
35.878139 25.095791 -1.5538446
36.348866 25.264458 -2.2964346
36.109749 25.104973 -2.1054797
36.775978 25.595182 -1.7165761
36.885056 25.622534 -1.641457
36.892807 25.470791 -1.5300881
36.605347 25.378462 -1.5209663
36.784588 25.445795 -1.3939424
35.776638 25.057331 -1.7438198
36.637352 25.536379 -1.4614305
35.825172 25.158895 -1.0940934
35.67207 24.995184 -1.6217092
35.755749 24.997978 -1.75697
35.787941 25.001648 -2.0387337
37.053158 25.69174 -1.6399418
36.178352 25.373922 -1.5975149
36.380444 25.404354 -1.616755
36.362106 25.432178 -1.5260687
36.673351 25.327866 -2.0375929
35.465454 24.902344 -1.8338032
35.723824 24.940668 -1.789445
35.648243 24.924297 -1.9373579
35.668484 24.927355 -1.8352435
35.969929 25.035088 -1.8998066
36.177605 25.323528 -1.739948
35.660275 24.963894 -1.8360686
36.659843 25.514915 -1.6199017
36.598225 25.495089 -1.6534266
36.6894 25.664427 -1.9107172
35.468842 24.887127 -1.7372782
36.864998 25.602219 -1.7459275
36.769379 25.502174 -1.6203496
36.9953 25.426739 -1.6442735
35.958111 25.059847 -2.2548833
35.493099 24.957336 -1.7445338
36.871189 25.675875 -1.6004196
35.803799 25.086855 -1.5911049
35.771832 24.993557 -1.5105941
35.470646 24.95237 -1.6665449
