# .PCD v0.7 - Point Cloud Data file format
VERSION 0.7
FIELDS x y z
SIZE 4 4 4
TYPE F F F
COUNT 1 1 1
WIDTH 1197
HEIGHT 1
VIEWPOINT 0 0 0 1 0 0 0
POINTS 1197
DATA ascii
17.243614 19.53742 0.90207547
17.097599 19.675737 -1.0452213
17.110977 19.67293 0.21788004
16.663973 19.496971 2.1610496
17.018862 19.503332 0.22357003
17.536688 19.971708 -0.43989247
16.725651 19.328182 2.3583474
16.508694 19.554173 3.1833017
17.331602 19.703087 -0.22145525
17.322298 19.673538 -0.049087003
16.781845 19.683788 -2.0151842
16.76214 19.741606 -1.8896885
17.07922 19.699186 0.53723508
16.765533 19.684866 -0.76800448
17.571363 19.959539 -0.57280934
16.90653 19.295965 1.2676165
17.50169 19.931816 -1.4108882
17.254997 19.87525 -1.8309673
16.481148 19.412457 -1.7505466
16.77895 19.325754 -1.0764911
17.375568 19.869629 -0.51468056
16.4618 19.563511 -0.93398607
16.665155 19.519316 -1.5118743
17.077681 19.651243 0.71755236
16.830111 19.657766 -0.99131691
16.778324 19.579136 -1.6474227
16.782917 19.566364 -0.12496409
17.701811 19.924652 -0.044182599
16.561668 19.412312 0.46472627
17.326225 19.733295 -0.57524806
17.747255 20.002537 -0.063105509
16.585794 19.296234 -1.7135319
17.253611 19.728363 -0.74592978
17.575153 19.985491 -0.052730501
16.687473 19.695091 0.81374574
16.549839 19.404169 0.3770977
17.342463 19.705795 -1.55282
16.706348 19.615875 -1.7711592
16.475475 19.567883 0.44614252
17.333176 19.716314 -1.4250026
16.732798 19.34425 -1.776368
16.708864 19.653339 0.054474182
16.650301 19.67098 1.374514
16.705788 19.609846 -0.42173657
17.358652 19.651491 0.045715395
16.471045 19.438414 1.4612861
17.408991 19.973415 -0.10817488
16.412943 19.436445 -0.56342804
16.779858 19.580034 -0.22716482
16.548388 19.495222 -1.8247378
17.068388 19.764381 -0.13261847
16.47748 19.425598 -1.2427357
16.548149 19.479521 -1.637701
16.661903 19.611408 0.56154865
16.927664 19.479609 -1.4490331
16.540028 19.486162 -0.53915256
17.706289 20.016758 -0.19851695
16.538334 19.480824 -0.64120203
16.402929 19.596365 -0.23133628
16.497227 19.305712 -1.4214256
16.842304 19.59601 2.2030809
17.388664 19.69352 -1.7345923
17.244955 19.77487 0.4552536
17.283298 19.59108 0.2040458
17.243502 19.778316 -0.04089259
16.470823 19.32667 -1.3769889
16.840721 19.570475 2.2619965
16.538736 19.479595 -0.73669595
17.333326 19.796057 -1.5053344
17.330341 19.788593 -1.4404364
16.779413 19.435839 -0.52685213
16.578609 19.31411 0.58211327
17.331738 19.578032 -1.7407258
16.794655 19.425884 1.0600836
16.543655 19.478706 -1.4380627
17.486952 19.91116 -0.30814934
17.487331 19.913357 -0.44581574
16.773027 19.568836 -0.35359934
16.64662 19.606377 1.1521415
17.659941 19.997362 -0.3568159
16.542439 19.590111 -1.4195729
16.819794 19.424078 -1.889323
16.539562 19.43516 -0.94079459
16.688162 19.709318 1.6538202
16.540577 19.502405 1.7578621
16.848013 19.422287 -1.3312771
17.108423 19.726112 -1.6740249
16.488131 19.408287 -1.9237393
16.793598 19.425875 0.86179787
16.478519 19.477503 -1.0394831
17.28451 19.790735 -1.8334768
17.781403 20.033689 -0.23260787
17.246481 19.7295 0.16568182
16.680416 19.564613 1.444376
16.732079 19.661369 -0.13324505
16.959986 19.480286 0.66427767
16.777439 19.421347 0.76855803
17.338284 19.799427 -1.7259666
17.460129 19.885342 -0.13019262
17.526867 20.046995 -1.5705246
17.448196 19.911587 -0.03699854
17.36731 19.948523 -1.7439362
16.722704 19.318939 -1.2428777
16.609175 19.654581 2.4751379
16.485386 19.56144 2.4664547
16.637846 19.589037 -1.3413548
16.968182 19.488611 0.55225515
17.424042 19.721426 -1.8745916
16.541851 19.499689 2.853775
17.285303 19.801285 -1.9264135
16.482662 19.41053 -2.0359643
16.670126 19.599606 -0.54755676
16.546768 19.475348 -1.5402237
16.490778 19.416477 -0.33406684
16.488686 19.568018 2.1664176
16.828756 19.674585 -1.5062622
16.97571 19.552824 0.14256281
16.782034 19.33194 1.1324712
16.554104 19.434824 2.09937
17.264828 19.861275 -2.0480528
17.115179 19.692297 -1.36211
17.231606 19.619001 -0.088270061
16.92594 19.406092 1.8632303
17.486832 19.978884 -1.8813491
17.247852 19.727291 0.25398377
17.33573 19.779692 -1.9259354
17.256113 19.7143 -1.6366658
16.81703 19.441507 2.8823879
16.860329 19.480099 2.9521599
17.187243 19.587435 0.65649122
16.850615 19.419092 -1.8385757
16.397419 19.57826 -0.3145445
16.943966 19.493462 -1.5335729
17.242653 19.731838 0.36815426
16.800497 19.486496 -0.23766597
16.79788 19.491362 -1.5381708
17.661549 19.777893 -1.8066845
16.777435 19.417704 1.9571766
16.370914 19.49369 -0.25472632
16.463219 19.580074 -0.5430277
17.133965 19.509447 0.51212382
16.539227 19.502432 2.5637417
16.472589 19.568758 2.3677907
17.248386 19.724566 0.4654426
17.1854 19.84791 -0.62023705
16.744999 19.299885 -0.89089191
16.657959 19.481068 -1.3563868
16.989285 19.476955 0.38408476
16.797041 19.435867 -1.1347033
16.464661 19.569407 -0.13688618
16.808971 19.571388 2.3945
16.494888 19.562471 -1.431955
16.769508 19.574308 2.4456375
16.795116 19.476484 0.56507963
17.195349 19.570208 0.45409998
16.554611 19.497561 2.3504319
16.479292 19.432379 -1.0351735
16.544031 19.475847 -1.3426138
16.55517 19.484499 -1.7403104
17.198709 19.775784 -1.3408539
16.677231 19.589697 -1.6112474
16.657141 19.516235 -1.6259462
16.470451 19.578838 -0.35939583
16.539396 19.48345 -1.0396391
16.817562 19.576176 0.94605404
16.687262 19.480125 -1.8523799
16.525043 19.381449 2.1782353
16.555893 19.410896 -0.017827326
16.561487 19.58507 1.681831
16.474754 19.431217 -1.1387651
16.803385 19.55122 1.8488175
16.662584 19.479124 -1.4521527
17.281307 19.712662 -1.9325008
16.47673 19.431927 -0.43347201
16.541483 19.497257 2.0583706
16.478006 19.424082 -0.040290836
16.681843 19.389921 0.5599227
17.178806 19.855835 -0.74884117
17.238123 19.533167 0.95539445
17.110643 19.776928 -0.64475179
16.578856 19.334362 2.1116223
17.164507 19.864752 -1.7452164
17.393421 19.598703 -1.257642
16.546167 19.42268 -0.33722717
16.950602 19.484118 0.77369535
16.850321 19.484732 2.2771287
16.68161 19.675703 1.4485526
16.775974 19.423977 -1.5724306
16.684797 19.530907 0.34545252
17.083965 19.61182 0.26059717
16.857277 19.467623 2.5463545
17.073677 19.81794 -0.43565595
16.969007 19.469408 0.45335785
17.053579 19.494514 0.54219574
16.796499 19.423796 1.1714522
16.493311 19.563229 -0.026487002
16.794479 19.416836 0.25936675
17.194326 19.729225 -1.335757
16.795042 19.434361 -0.95042676
17.265547 19.875708 -0.22983587
17.028877 19.733955 -0.49807605
17.813534 20.052702 -0.12360063
16.804209 19.426065 0.36171687
16.718895 19.432539 2.3633513
17.361046 19.703316 -1.149869
16.800085 19.490181 -1.0378591
16.787354 19.403179 -0.74332893
16.782499 19.420527 -1.4313233
16.682539 19.444578 -0.38245165
17.788172 20.066601 -0.0084895212
16.410002 19.3722 -0.37707156
16.959517 19.561665 2.1423302
16.755856 19.317699 -1.4588476
16.540781 19.424074 -1.7366214
16.667946 19.473375 -1.7315924
17.057875 19.603916 -1.5303082
16.546665 19.559446 -0.57720637
16.678976 19.695473 -0.14831717
16.544046 19.552814 -1.1569756
17.201609 19.784267 -0.43941963
16.942123 19.381283 1.3701038
16.558464 19.548908 0.0094306152
16.58279 19.56263 -0.23112376
16.47904 19.479782 -1.1398054
16.802773 19.422895 0.57289046
16.482372 19.48641 -0.24222097
16.88093 19.495249 -1.8452762
17.018608 19.432238 0.80561787
16.899364 19.648901 0.39919612
16.941614 19.59119 0.4522652
16.793997 19.429274 0.65667588
16.481062 19.484041 -0.64107752
17.262497 19.858744 -0.14755766
16.869251 19.576384 -1.226842
17.249126 19.729002 -0.83930719
16.770405 19.564943 2.7344239
17.233932 19.569466 0.69001973
16.789934 19.605511 -0.061799511
17.274942 19.586508 1.6615088
16.810255 19.567888 -0.43836498
17.016869 19.625902 -1.1405752
16.879953 19.580982 -0.91715771
16.788406 19.428877 -0.43930334
16.940359 19.379341 -1.2310762
17.256332 19.867229 -0.75510246
16.798721 19.433655 -0.63153201
16.808727 19.436033 -0.82030386
16.971529 19.581434 -0.035713546
17.067074 19.491146 0.28187245
17.047363 19.629883 -0.7808677
16.860678 19.548723 -0.75164115
16.869873 19.655945 -1.7295771
16.480232 19.48033 -0.53857851
17.581545 19.943712 -0.10121874
16.473902 19.481995 -1.5337535
16.798172 19.583054 0.64314657
16.756008 19.574686 2.5622668
17.200722 19.7309 -1.0449231
17.196411 19.715168 -1.8360358
16.650169 19.546265 2.3012366
16.858461 19.577623 -0.83632451
16.770247 19.604116 2.8248613
17.260077 19.572405 0.77292174
17.25238 19.720434 -0.33561093
16.56373 19.563231 -0.3557784
17.248217 19.722881 -0.44351384
16.587439 19.57724 -0.11699277
16.953936 19.566883 -1.2239318
17.387053 19.90663 -1.3668736
16.733841 19.577726 2.2589324
16.87952 19.571203 0.73798084
17.185345 19.724195 -1.5492907
17.182505 19.79105 -1.8383269
17.194172 19.730022 -0.92617106
16.480581 19.518911 2.6545801
16.656994 19.406555 -1.6303513
17.167223 19.717068 -1.9323666
16.536913 19.506176 2.4608505
17.271864 19.793966 -1.7310398
17.061113 19.654257 1.8825128
16.477945 19.431679 -0.8395167
16.71402 19.716831 2.3456585
16.420225 19.649471 0.35970867
16.548758 19.514618 2.1471601
17.257462 19.86977 -0.042657189
16.485209 19.484365 -0.13926035
17.183973 19.587374 1.3790392
16.783588 19.475368 2.1573107
16.59201 19.444311 1.2235768
16.761364 19.496964 -1.9147557
16.594364 19.312567 -0.80544496
16.484196 19.482544 -0.33932224
16.778198 19.481838 2.7489398
16.541632 19.482916 -0.13088852
16.482397 19.489571 0.36178166
17.130646 19.642509 -1.3085409
17.205849 19.634954 -2.0725007
17.200642 19.784172 0.56568635
16.866877 19.557446 -0.65493762
17.199135 19.711649 2.1745284
16.5406 19.497141 1.9543388
16.864489 19.587795 -0.43509638
16.608938 19.315529 1.1825686
16.5383 19.487522 0.66102123
16.67655 19.438303 -0.057975683
17.040663 19.622799 -0.4936884
16.569614 19.421837 1.652231
16.918901 19.647934 1.0076909
17.263033 19.863813 -0.44292068
16.794903 19.477016 -0.038504243
16.881662 19.582256 -0.15836652
16.482048 19.426497 -0.24485525
16.484818 19.484966 -0.038790621
17.304621 19.594191 -0.22518475
17.19838 19.787073 -1.4415864
17.256512 19.725052 -0.63653749
17.270264 19.627501 -0.11629759
16.784729 19.433626 3.1968427
16.770824 19.438364 3.0759082
17.205442 19.854855 -1.5210711
16.538214 19.489666 0.56727612
16.550259 19.426676 -1.6376032
17.250235 19.781816 -0.63549954
16.873592 19.584723 -1.7282468
17.097164 19.717356 -0.080824316
16.534725 19.500456 1.4619428
16.668613 19.487732 2.3636382
17.198708 19.790068 0.15910129
17.184334 19.785286 -1.7347808
16.975443 19.704613 -0.21978846
17.020853 19.444984 0.76969308
16.801569 19.474976 0.95926189
16.79229 19.413103 -1.2327106
16.686232 19.497412 -1.0623342
16.48284 19.490498 0.25920165
16.502354 19.205893 -1.4138186
16.96372 19.562258 1.2754087
16.955732 19.512657 -0.071947813
17.040049 19.730101 -1.2720705
17.247139 19.726748 0.058833487
17.140869 19.583681 -1.4755741
16.872986 19.485615 -1.7328756
17.059233 19.620337 1.8641601
17.195503 19.719255 0.85252017
16.535973 19.481806 -0.43920565
17.094013 19.782644 -1.9295722
16.888397 19.584682 -0.24889125
16.477528 19.578369 -0.63196301
17.086826 19.797745 0.43047482
16.788101 19.528011 3.187423
16.967812 19.575953 1.1707975
17.38763 19.871468 -1.7655294
16.801624 19.481585 0.66033751
16.847506 19.421141 1.9580975
16.541145 19.47838 -0.84054655
16.85041 19.489634 -0.63950878
17.067623 19.490601 1.1677768
17.366749 19.828354 -0.22715142
16.793671 19.475639 1.3610222
17.180065 19.714994 0.36724907
16.787951 19.481363 2.3640926
17.069326 19.635536 0.44067571
16.693592 19.515606 2.2201464
16.533504 19.608261 2.467865
17.194914 19.715269 -1.7175264
16.719017 19.328583 0.47009829
16.849861 19.483454 2.1536167
17.283598 19.590675 -1.7958153
16.531818 19.333958 -0.76046014
16.478258 19.500486 2.1496654
17.344898 19.769308 -0.37495545
16.85815 19.430075 -0.53531688
16.860998 19.431898 -0.83712101
16.616451 19.593027 -0.74742222
16.772083 19.488602 2.568347
17.185593 19.724314 -2.0630631
16.552986 19.427437 -1.5220605
16.668394 19.340656 0.65692425
16.55801 19.421762 0.14582831
16.952103 19.455393 1.2571313
17.202427 19.722437 -0.63843918
16.866552 19.435759 -1.0355246
16.682718 19.587736 1.8187561
16.540548 19.485834 -0.24209449
16.598001 19.312145 -1.630015
17.243227 19.776882 -0.33915338
16.553198 19.427641 -0.64806974
16.547882 19.418682 -0.16530493
17.257378 19.728714 -1.0428014
16.54637 19.514898 -1.9304322
16.485006 19.420723 -1.6421045
17.257229 19.727736 -0.54091406
17.251976 19.730043 -0.94135547
16.483267 19.479198 -0.93982291
16.846003 19.48097 -0.24069574
16.482315 19.490477 0.45949286
16.487036 19.4874 0.062459242
16.546364 19.427691 -1.1376147
17.196632 19.780621 -1.1370502
16.543787 19.427517 -0.74105364
16.663532 19.502934 -0.35320091
17.65913 19.977903 -0.13913542
16.867825 19.43376 -1.13147
16.858076 19.431131 -0.64697146
16.569151 19.310474 0.96619916
17.172478 19.730597 0.26270428
17.187992 19.732201 0.44523039
16.579689 19.32276 0.88495046
16.851807 19.484148 -0.73905939
16.799736 19.481724 0.064962447
17.248646 19.732935 -0.051657446
16.481306 19.423946 -1.4372239
16.480194 19.479443 -1.2394848
16.579617 19.307129 1.0553344
16.799118 19.486403 -0.74266905
16.675774 19.4844 -0.93750262
17.066351 19.493889 0.87459832
16.800201 19.483055 0.16281515
17.189997 19.784529 -1.5309435
17.378365 19.870008 -0.26240212
17.055162 19.86853 -0.95152825
17.257254 19.717693 -0.2448336
17.387215 19.638142 -1.8620594
16.536108 19.547007 2.3325748
17.374434 19.840977 -0.42982495
17.261213 19.718796 -1.7302483
16.554365 19.428307 1.8508869
16.62779 19.371647 -1.0358406
16.54598 19.431326 -1.3381557
17.251293 19.782763 -0.83750188
16.548155 19.427834 0.61426735
16.783875 19.427282 2.1388409
17.200731 19.780153 -1.0358164
16.475065 19.479794 -1.4330661
16.554796 19.396114 -2.0617795
16.621857 19.382891 0.052292708
16.684643 19.488117 -0.45039991
17.08053 19.571699 -0.22930337
16.847473 19.41642 2.0600667
17.522745 19.937246 -0.21691401
16.853624 19.423328 1.1585758
16.851418 19.423082 1.4589384
17.700594 20.01683 -0.4445959
16.86128 19.430502 -0.73525691
16.565243 19.320528 -1.8424935
16.57579 19.416115 1.5712066
16.471457 19.50692 2.465276
16.84779 19.486124 -0.53857917
16.542244 19.492779 1.0638878
16.853912 19.598053 2.0641022
16.849157 19.313883 -1.0100827
16.980299 19.632345 -1.3740377
17.263218 19.722792 -1.5332912
16.490749 19.413185 -1.8356581
16.494886 19.571655 -1.0190846
16.936661 19.673622 -1.6614628
16.474796 19.431374 1.07481
16.483768 19.483072 -0.44061008
16.543102 19.424379 -1.2371085
16.799305 19.483376 1.1664742
16.534285 19.501602 1.3627923
16.419697 19.364742 3.157788
16.528891 19.552628 2.0587029
17.245388 19.727758 -0.13767849
16.559956 19.413914 0.95412421
16.539783 19.481558 -1.2343343
17.255224 19.726086 -1.2368855
16.848158 19.428984 -1.4363868
16.872578 19.457367 3.3274486
17.110985 19.477646 1.3497833
16.47558 19.497942 1.5620178
17.332731 19.680092 -0.71622562
16.485043 19.435158 -0.94140941
17.26511 19.86894 -0.54311657
17.1936 19.527468 0.62302262
16.938808 19.587112 -0.55795336
17.371023 19.866749 -0.16726181
16.872051 19.572353 -1.8454559
16.848602 19.482176 -0.43743694
16.811941 19.618984 -0.6272884
17.188274 19.726093 -0.75069928
17.207558 19.880844 -0.79221022
17.551798 19.961552 -0.3628836
16.842888 19.476309 0.1611727
17.198996 19.721195 0.58128309
16.481653 19.480843 -0.73945522
16.551697 19.420609 0.2492163
16.555944 19.512896 -2.0527394
16.79719 19.477774 0.85953015
17.072153 19.516277 -0.61343378
16.540703 19.488298 0.25102988
16.463528 19.55619 0.37030071
17.257046 19.872959 -1.6411636
17.819681 20.019791 -0.3009043
16.451246 19.443892 2.7836633
16.421642 19.461224 3.0797861
17.252544 19.531628 1.1287601
16.849567 19.476145 1.2562984
16.663269 19.578495 1.2181612
16.845509 19.469582 0.7594744
16.955891 19.576906 -0.7464124
16.683739 19.484264 1.9614168
16.533651 19.478504 -0.026575588
16.538923 19.482897 -0.93803114
16.629173 19.336643 -0.80959892
16.544222 19.489752 0.7602762
16.937641 19.509686 -0.22088024
17.25659 19.853577 -0.33682257
16.85783 19.586903 1.9830558
16.539009 19.531824 3.3411434
16.540009 19.483173 0.16559932
16.859158 19.489706 -0.93947929
16.551624 19.319696 -1.5492823
16.533897 19.490143 0.85471171
16.564449 19.413183 1.3709524
16.577692 19.315083 1.2697939
16.539911 19.571415 -1.6939996
16.676304 19.598543 0.067644425
16.695608 19.594488 0.80264622
16.791553 19.416292 2.0600178
16.550861 19.513622 1.8651161
16.777945 19.406973 -1.0533495
16.534973 19.499083 1.5700568
16.841349 19.47283 0.25725704
16.780361 19.479456 2.2468522
17.760647 20.020397 -0.12839206
16.705175 19.561842 0.29386225
16.70253 19.56559 0.33853546
16.54166 19.488771 -0.34139007
17.377857 19.618908 -1.6466165
17.074486 19.679491 0.47404793
16.800028 19.614815 1.0666018
16.663055 19.493073 -0.21005198
16.543798 19.480175 -1.1435059
16.479534 19.572371 -1.2474585
16.562525 19.58938 0.16240342
17.250017 19.777363 -0.73630476
16.537371 19.488028 0.9568193
16.846542 19.47526 1.0623434
16.794538 19.472834 1.2625464
16.854055 19.430872 1.8641188
16.989517 19.598761 -0.813963
17.452908 19.953434 -0.2409579
16.543118 19.482443 0.063113898
16.483234 19.494398 0.86372447
16.852306 19.475409 1.4644494
16.485888 19.487732 0.16505294
16.585768 19.509212 -2.1359932
16.479368 19.478598 -1.3401227
17.024332 19.593287 1.4756161
16.848017 19.433352 -0.94399214
17.091459 19.505774 0.12353148
16.945988 19.423342 1.2415686
17.202059 19.782024 -0.93304354
17.263414 19.717493 -1.4409214
16.849987 19.486649 -0.84106761
16.928875 19.4307 -1.1472037
17.241846 19.779722 -0.24241133
16.552631 19.561602 -0.99718302
16.555647 19.423714 0.56328809
16.844036 19.477535 1.6621513
16.787704 19.480299 1.5680197
16.534807 19.484957 0.46295285
17.000298 19.592951 1.8616936
17.117449 19.638205 1.6692858
16.541317 19.43074 -1.0323707
16.866684 19.489662 -1.4351658
16.541288 19.225773 1.2458997
16.847813 19.486059 1.9554679
17.639427 19.942455 -0.095378406
16.682585 19.493839 1.3670011
16.538897 19.489338 0.36588997
17.200924 19.781567 -0.73610866
16.651913 19.388029 -1.7086169
16.475039 19.502211 1.7634057
16.482288 19.428707 -0.54210448
16.844692 19.474047 0.85799742
16.932627 19.578764 -0.64251292
16.798054 19.494448 -1.4295467
16.801718 19.473871 0.75786209
17.183098 19.560282 0.38082832
16.717087 19.444069 -1.8283648
17.257284 19.780849 -1.0388404
16.647268 19.412571 -0.70343912
17.05286 19.494766 0.35822561
16.630331 19.322723 0.89442295
17.519045 19.959356 -0.45456973
17.492275 19.957111 0.088304102
17.245693 19.778769 -0.54077929
17.283234 19.600468 -1.5667276
17.002693 19.430616 0.9538638
16.540726 19.316956 -0.65192205
16.532122 19.407799 -1.8325728
17.046297 19.504784 1.6582905
16.481455 19.491938 0.66389263
17.248781 19.780212 -0.43754563
16.804836 19.489389 -0.43797618
17.199175 19.784122 0.45737484
17.070391 19.435833 0.89513791
16.793882 19.482101 1.4604732
16.4126 19.422829 -1.154717
16.800293 19.474636 1.0641339
16.47616 19.504457 2.5463958
17.201571 19.781113 -0.54363263
16.480368 19.431 -0.12884559
17.366812 19.635742 -0.41586903
17.323317 19.610363 -0.23923448
16.876358 19.666302 -0.149583
16.843637 19.479069 1.8617431
17.080132 19.513323 1.5617722
16.848675 19.476494 1.3592595
16.546383 19.422222 -0.54022682
17.242231 19.777876 -0.13622411
16.835064 19.675165 -1.7994071
17.070871 19.698473 -1.4325597
16.480082 19.422466 -0.62950015
16.65996 19.326597 1.0618548
16.657902 19.323952 0.54326451
16.410042 19.479088 -0.34334752
16.937744 19.585279 -1.4333211
17.002316 19.754536 -1.4415317
16.803364 19.477978 0.4602738
17.194244 19.719467 -0.12315875
17.32518 19.715572 -1.2386661
16.477806 19.43256 -0.74154377
16.544266 19.416016 -0.24756981
16.54064 19.426579 -0.83242059
16.456261 19.496387 3.1834784
16.474218 19.49752 2.0609267
17.263287 19.782606 -1.3323913
16.861982 19.491144 -1.2334548
17.202524 19.782013 -0.037293371
16.858109 19.49069 -1.1367373
17.181503 19.855518 -1.0515058
16.628374 19.317509 2.3247442
16.868563 19.499863 -1.5407079
16.874743 19.493174 -1.636462
17.326027 19.686909 -0.29459763
17.261213 19.724855 -1.1324502
16.536812 19.416958 -1.9288512
16.855358 19.49066 -1.0359045
16.582653 19.31498 0.74928927
17.410948 19.645832 -1.8353904
17.39011 19.867817 -0.35277206
16.481134 19.504108 2.2618284
17.330601 19.786652 -1.6392211
16.482309 19.479767 -0.84026235
16.846464 19.481247 2.0675848
16.514471 19.275026 -2.0485206
16.654879 19.596472 0.15780042
16.783573 19.410332 -1.750394
16.475534 19.423971 -1.5367032
16.797581 19.504997 -1.8333461
16.776508 19.434399 2.9667933
17.194572 19.849262 -0.17322263
16.673754 19.324623 0.97996473
16.542953 19.501471 2.26612
16.586033 19.590963 0.36502129
16.903082 19.649969 0.78131759
16.991692 19.609724 -0.95522457
16.487652 19.426037 0.26332015
17.243187 19.77891 0.16345152
16.796625 19.485134 -1.3370684
16.55724 19.576477 -0.44485068
16.78146 19.47806 1.9547979
16.968988 19.425129 0.86787915
16.954563 19.628843 -0.98895204
16.553331 19.567299 0.24869366
16.65976 19.494019 -0.034734659
16.566566 19.297894 1.7774749
16.627115 19.443392 -1.1960188
16.616062 19.311899 1.4629865
17.192547 19.730536 -1.2481416
17.242863 19.779364 0.25930712
17.253508 19.713949 -1.8493398
17.451426 19.908125 -0.23675098
16.563408 19.581985 0.55997372
16.665154 19.495239 2.0515313
16.679167 19.476055 1.1751143
16.632374 19.431713 2.9709847
16.785614 19.476065 1.8624777
16.487423 19.566784 -0.45722643
17.079903 19.633112 2.0459714
16.798836 19.492226 -0.6394093
16.589746 19.335482 -1.141205
16.971382 19.625679 0.29529053
17.022024 19.614954 2.3440869
16.697721 19.518114 1.2474235
17.184748 19.712681 0.15234075
17.197876 19.728498 -0.84301805
16.803886 19.490429 -0.54041201
17.335829 19.769829 -0.64675069
16.404039 19.504469 -0.4372232
16.983189 19.59392 -0.265212
16.71104 19.310106 -1.8888856
16.646332 19.39403 1.8489097
17.047279 19.650396 -0.39580244
16.669317 19.492584 0.54874659
16.554237 19.41651 2.2570932
16.400291 19.504398 -0.66143274
16.841906 19.473454 0.56309611
16.843088 19.473103 0.45707774
16.477028 19.21619 -1.5287169
16.952623 19.395737 -1.6351268
16.676271 19.596964 -0.2430066
16.89212 19.58814 0.33702305
16.845694 19.474077 0.66523558
16.845346 19.427156 0.46329471
16.847754 19.427979 0.36243841
17.193766 19.710505 -0.041957654
17.194904 19.697189 0.054583739
17.021358 19.569649 1.5811043
17.007404 19.722647 -0.010043061
17.200953 19.783579 -0.34168795
17.191097 19.725792 -0.23105881
17.198841 19.788925 -0.13643727
16.714888 19.603067 1.6418525
17.203012 19.7843 -0.63594449
17.055157 19.591013 -1.1223886
17.611813 19.971056 -0.16916114
16.847458 19.43191 0.56042707
17.253651 19.724693 -1.3356161
17.193253 19.639776 -0.010177104
17.187458 19.712919 0.66180372
16.847998 19.425535 0.66457695
16.862717 19.605099 0.53224301
17.200674 19.788195 0.060237043
16.636368 19.323324 -1.75345
16.652279 19.405235 1.6739683
16.460695 19.568598 -0.82346565
17.092472 19.631517 0.57768166
17.359352 19.608047 -1.5411842
17.058615 19.439737 0.70611042
17.077631 19.613493 -0.61287522
16.997561 19.77319 -0.3834686
16.867874 19.491032 2.7349355
17.200314 19.785645 0.36023879
16.952702 19.502373 -0.94837189
16.485916 19.518497 2.740629
16.780354 19.473209 1.6598995
16.399437 19.507233 -0.73128009
16.789553 19.45158 2.9396732
16.96698 19.703798 -0.50405425
16.474081 19.424871 1.5274429
16.55537 19.420918 0.035372328
16.540655 19.498913 1.6667514
16.56292 19.418484 1.0783266
17.093555 19.582403 -1.3780209
16.532703 19.407122 1.4713202
16.669653 19.327612 0.7877419
17.35685 19.816448 -0.1314908
17.029478 19.627172 -1.2548552
16.946117 19.683689 -0.40592158
16.643349 19.565273 -1.8126998
16.827065 19.670677 0.48290217
16.826746 19.424959 3.4200051
17.25947 19.780703 -1.2402157
16.936592 19.499895 -1.0601224
16.684984 19.585527 -0.14161956
16.474287 19.574024 2.2746105
16.863499 19.557268 -1.4435965
17.35 19.821114 -0.059599083
16.482313 19.568407 2.5616453
17.6581 20.034525 -0.043784402
16.55954 19.569912 -1.5301068
17.053986 19.494469 0.46400058
17.199833 19.859289 0.22317076
16.544653 19.560808 -0.87537611
16.689571 19.593979 -1.2046952
16.680616 19.63335 -1.4111693
17.132404 19.624041 -0.7141127
17.211594 19.637907 0.056795325
16.80603 19.428764 -1.33406
16.673117 19.587524 -0.34480447
16.779888 19.485691 2.4611652
17.162701 19.629568 -0.4451676
16.631315 19.312939 -1.5840901
16.799641 19.478971 0.25626698
16.844469 19.471525 0.3670373
16.540041 19.427437 -1.4369012
16.80336 19.488253 -0.34068158
16.795975 19.480499 0.35904834
16.856571 19.579981 1.3745388
16.85244 19.578503 1.7497652
17.085644 19.591568 0.98572338
16.799423 19.440517 -1.830927
16.573467 19.556553 0.46016985
16.648109 19.31179 1.1383998
16.538822 19.431257 -0.43433526
17.561838 19.967178 -0.24708605
16.403076 19.49865 0.14895886
16.800869 19.564566 -1.9176811
16.801241 19.48785 -0.84034473
17.202225 19.779465 -0.84319001
16.491919 19.41843 0.56144899
16.72546 19.646425 0.99673766
17.090876 19.748499 -1.1737168
17.201445 19.783743 -0.24194567
17.043861 19.768707 -1.4187162
16.67178 19.321838 1.4237165
16.991066 19.72414 -1.5214326
16.798428 19.487066 -0.14167558
16.934858 19.695747 1.6463479
16.483767 19.561359 0.25316098
16.786013 19.47584 2.0602257
16.781641 19.595013 -1.7254598
17.684071 20.020004 0.087784871
16.946537 19.656946 1.2196431
16.955347 19.39621 -0.95612663
17.342245 19.932178 -1.6431112
17.184053 19.866333 -1.8255907
17.336506 19.713974 -1.6350485
16.699116 19.645681 -1.4396181
17.332245 19.778095 -1.2294463
16.626902 19.344267 1.7459576
17.33729 19.777882 -1.3325225
16.977482 19.705492 -0.34840515
16.942005 19.708099 -1.6985471
17.201279 19.619587 -1.6416942
16.784447 19.426716 1.5605959
16.790806 19.486286 -1.7439694
16.785927 19.478382 -2.0285451
17.181887 19.617224 -1.5240737
17.212301 19.616543 -1.0875946
17.056955 19.576571 0.37237638
16.399113 19.419914 3.0490222
16.645058 19.661047 2.4392009
16.787569 19.479259 1.7665135
16.796371 19.413931 -1.6541085
16.627333 19.411037 -0.095809706
16.652271 19.325245 -1.1358008
17.194571 19.726091 -1.1424932
16.671444 19.325169 -1.5923665
17.174717 19.586685 0.73439616
16.810009 19.549097 0.84371889
17.010159 19.76647 -0.16627154
16.939951 19.489885 -1.346176
16.621107 19.337225 -1.0674129
16.940464 19.700016 -0.17157075
16.936968 19.487915 -1.164677
16.940577 19.501278 -1.2505205
16.952515 19.502747 1.6400001
16.870268 19.658609 -0.23200728
16.850042 19.472195 1.1612526
17.172157 19.493729 1.1665319
17.328423 19.731411 -1.2987763
17.085823 19.601685 0.87145072
16.665913 19.500578 -1.1332779
16.844927 19.475985 1.7508584
17.286816 19.567768 -1.7190064
17.075333 19.482317 1.4533867
16.56254 19.564529 0.055519279
16.760206 19.611578 0.077527381
17.270933 19.86096 -1.5258205
17.744896 20.031309 0.06859386
16.706772 19.510948 0.26618126
16.854422 19.580492 -1.5465482
16.611345 19.553856 1.6086848
17.081459 19.478716 1.0515889
17.085697 19.601667 -0.0032030232
16.553549 19.561596 -0.65661454
17.026112 19.508879 -0.27717024
16.472904 19.563272 2.6669433
17.195572 19.734554 -0.44197586
16.966928 19.729176 0.14502487
16.676159 19.397047 0.3782658
16.688213 19.418016 2.7838652
16.671633 19.391544 0.29294375
16.66354 19.40325 0.47593382
17.072554 19.784609 0.14036936
16.858419 19.493374 -1.3371496
17.104553 19.809301 0.23848383
16.633421 19.604935 0.6607374
17.192703 19.862099 -0.94066942
16.687256 19.382517 0.64127111
16.666382 19.351084 1.6010351
16.727831 19.436977 2.5558219
16.863903 19.686644 1.6337781
16.647167 19.548399 -0.69377047
17.104761 19.795046 0.31562239
16.565388 19.463331 2.9570112
16.569565 19.536018 3.1322045
16.942291 19.485413 -1.6369152
17.16667 19.569853 0.30645528
16.529863 19.566624 2.1241028
17.353031 19.785299 -1.8302057
17.072664 19.499046 0.96193182
17.0816 19.499804 0.76320887
17.172747 19.567036 -0.1757984
16.847517 19.420914 1.3583261
16.719856 19.382561 3.0608826
17.169941 19.566761 0.5651111
16.566666 19.579512 -1.238607
16.66993 19.628166 0.010504849
16.66893 19.555691 -0.63554013
16.687061 19.22994 -1.685817
16.537621 19.562712 2.2754357
16.852901 19.422754 1.2633801
16.888062 19.60182 -0.3554067
17.054329 19.517082 0.6911599
17.121614 19.523529 0.48847121
17.197788 19.851511 -1.4412093
16.691826 19.426491 -1.4361792
17.182329 19.723244 -1.6356035
17.564678 19.97896 0.068323277
16.558533 19.417637 0.83899748
16.536535 19.568758 2.6614444
16.6497 19.431232 0.73707074
17.169481 19.636084 1.2599432
17.05686 19.57584 0.66656369
16.696831 19.406782 1.4440467
17.0639 19.478271 -1.6527814
17.007944 19.482273 0.85949188
16.653751 19.380331 1.364594
17.067358 19.705757 -0.10716486
16.763557 19.601357 -1.4417081
17.211754 19.540888 -0.072345078
17.365149 19.741308 -0.86385483
17.115213 19.749901 -0.35814899
16.797071 19.57737 1.8016047
16.841043 19.536165 3.0134354
17.402346 19.86404 -1.9438046
16.664383 19.48562 -1.2359433
16.669256 19.407402 0.85141712
17.17602 19.560095 0.96443355
17.270231 19.783583 -1.638739
16.665876 19.358284 1.2720356
16.611776 19.556711 1.4402431
17.181089 19.637266 0.89667457
17.25036 19.568487 0.45363531
17.251343 19.779945 -0.9350453
17.2327 19.542681 1.1087399
17.06946 19.511415 1.2666245
16.883423 19.650347 1.0615441
16.634125 19.592863 0.89671385
16.74334 19.679121 1.8232038
16.840099 19.564281 -1.3309826
16.854977 19.419941 -1.7353907
17.209759 19.864019 0.36784515
17.25536 19.613962 -1.1587344
17.347641 19.74926 -0.56577176
16.561901 19.558825 -1.3226688
17.19759 19.7791 -1.238361
16.953491 19.592943 -0.34173578
16.660324 19.395115 1.0510641
16.687767 19.496971 1.7595247
16.777008 19.589109 1.4631565
16.632248 19.479101 -0.64345038
16.781542 19.561178 -1.0477095
16.807058 19.578442 -1.1314154
16.79649 19.551979 -0.97549891
16.778339 19.588017 -0.75882065
16.871939 19.574406 0.068376869
16.803974 19.702862 -0.8832798
16.875982 19.591528 -0.056346741
16.911152 19.565536 -0.52474844
16.841087 19.682596 -0.41235906
17.800961 20.088055 -0.33693025
16.636265 19.570408 1.0642421
16.852304 19.562122 0.83077645
16.545807 19.513033 2.7620938
16.666136 19.509508 1.5738432
16.791761 19.608728 0.18273029
16.833317 19.58379 0.24140131
17.771473 20.063015 -0.42848986
16.672789 19.490591 -0.84193778
16.719193 19.504557 2.940614
17.33643 19.690826 -0.62549293
16.791319 19.550743 1.3658695
16.784588 19.420748 1.3659344
16.405394 19.555378 -1.42259
16.683346 19.583054 -1.14052
17.343885 19.787676 -0.71176875
16.82729 19.550043 3.1906509
16.786282 19.495955 2.859163
17.373985 19.891594 -0.049670592
17.088392 19.759102 -0.91209078
17.257786 19.781717 -1.1330837
17.064634 19.508728 2.2261088
17.038591 19.730864 -0.64558029
17.138363 19.534678 0.39504176
16.524229 19.410021 2.758498
16.766483 19.723497 2.2887585
16.534649 19.498381 2.6716533
16.668873 19.560246 0.4428007
16.680265 19.489986 0.45432937
16.465303 19.560038 -0.2516602
17.108767 19.546108 1.7649639
16.783772 19.481129 2.6614382
16.997637 19.438522 0.33511126
17.266991 19.778151 -1.5366983
17.194416 19.520771 1.4422872
16.759937 19.568029 0.35201141
16.394056 19.281059 -1.4386635
16.409872 19.314196 -0.62843651
16.85326 19.56319 0.14155567
16.755959 19.68441 0.12710737
17.101395 19.687416 0.36965787
16.868071 19.707663 0.08595591
16.744673 19.575994 0.27522394
16.674284 19.59511 -0.96226937
17.156023 19.595997 0.15954351
17.175386 19.864311 -1.1435702
17.20285 19.62882 -0.57149601
17.232452 19.848747 -1.0384076
17.246065 19.86264 -0.65919083
16.974785 19.781311 -0.029551569
17.251129 19.638399 -0.74777168
16.968714 19.753696 0.15777415
17.038418 19.583595 1.2875712
16.428696 19.276131 -1.5061624
16.778521 19.716785 0.25441104
17.198778 19.564451 1.5634532
16.796738 19.596457 -1.2466513
17.449345 19.913326 0.060317997
16.686855 19.480911 0.16583928
16.906099 19.656992 -0.96507978
16.913534 19.671047 -0.6041587
17.019617 19.648609 0.45696613
17.143635 19.51754 0.95702994
17.595373 20.011393 0.14251289
17.160627 19.526834 1.0640304
16.764822 19.587397 0.44009569
16.950161 19.442738 1.0583992
16.698658 19.489769 -0.74156493
17.07616 19.731493 0.98676789
16.540085 19.561714 3.1348352
16.759399 19.299536 0.85580826
16.548164 19.213676 -1.8369114
16.664986 19.49004 0.87255192
16.776833 19.686377 -1.3361855
16.70903 19.486101 3.1873655
16.67881 19.581417 -1.5180947
16.96438 19.700506 -1.4342163
16.680613 19.407852 0.98885989
16.800705 19.557241 -1.8172896
16.524374 19.552654 2.5640373
16.400118 19.392923 -0.4694638
16.922888 19.519617 0.103931
16.764149 19.312805 1.0231497
17.262239 19.619408 -1.6253458
17.262558 19.521448 -1.6989836
17.086115 19.749348 -1.4958682
17.107988 19.744812 0.13739039
17.080666 19.721478 -1.5200083
16.846687 19.473177 2.8772309
16.846987 19.47282 0.95895374
17.331194 19.759613 -1.1447914
17.194706 19.71892 0.76264733
16.907688 19.287188 -1.1182053
16.957951 19.410545 1.1485217
16.953264 19.53196 2.2791862
17.250765 19.857351 -1.3733264
16.963907 19.580717 0.94151723
16.843145 19.697353 -1.4643437
16.956347 19.554544 1.0761195
16.654476 19.586063 -0.80409074
16.946987 19.580929 0.65545058
16.960577 19.548208 1.6519842
16.798769 19.551941 -1.3313745
16.851892 19.432652 3.3817625
16.976881 19.590906 0.58622968
16.956619 19.511833 -0.74853778
17.194199 19.550694 1.4652241
16.958038 19.488981 1.0509453
16.868156 19.568062 0.94076914
16.541422 19.565878 -0.89994591
16.903019 19.583948 0.67579353
16.869711 19.592703 1.2210176
17.101093 19.577372 2.2590482
16.823526 19.425959 3.1839383
16.886097 19.580582 1.1775436
16.847301 19.564615 1.667148
16.938484 19.633512 -1.6871073
17.130438 19.543451 -1.6045674
17.191177 19.720505 -0.54590118
16.705999 19.437067 2.2834799
16.85449 19.55864 -1.1150038
17.117712 19.715622 1.484638
17.134106 19.560837 -0.62609243
16.784204 19.583191 2.0521796
17.338411 19.791044 -2.032552
16.849541 19.422585 -1.2318697
16.659954 19.330767 1.2364815
16.801067 19.560318 1.5479393
16.852888 19.420244 -1.558745
17.175598 19.62541 -0.33346364
16.794518 19.567787 1.2346879
16.837353 19.56753 1.8573225
16.675774 19.415617 1.9813609
16.854248 19.486834 2.6652951
16.763279 19.607468 -1.5348883
16.838434 19.572956 0.4827038
16.849155 19.597496 1.4607691
16.683062 19.501524 0.96484125
16.846928 19.601418 1.0454998
16.805574 19.594177 0.55673671
16.86936 19.42934 -1.6469141
16.564903 19.405478 0.75129628
16.665596 19.489101 0.64666981
16.805466 19.480434 -1.6252756
16.844419 19.42691 0.76923287
17.51321 19.707447 -0.15830943
16.98316 19.602829 -1.7205286
16.84713 19.42911 0.85860646
17.053095 19.733368 -0.28750035
16.820309 19.42696 2.9478207
16.955032 19.482046 1.4007488
16.950741 19.495245 -0.57613808
16.750181 19.673761 -0.036645792
16.664021 19.429192 2.1335816
17.17148 19.769135 -1.9317321
16.801397 19.559622 2.1832125
16.850676 19.680813 1.5947059
16.985893 19.433907 -1.7380062
16.654558 19.48377 0.027686872
16.620544 19.400597 2.0966265
16.56221 19.433138 1.768658
17.105793 19.755428 -1.6385061
16.793154 19.642431 -2.1021957
17.082397 19.720604 2.0431809
17.100458 19.712427 0.70024037
16.981083 19.596903 0.72542912
17.056114 19.689829 -0.92709726
16.845787 19.425074 1.0628016
17.063467 19.622557 0.77459139
17.106606 19.846148 -0.5939678
16.671387 19.471098 1.0467436
17.099487 19.70693 0.85325289
16.559046 19.390335 1.1659009
17.180248 19.512411 1.5331876
17.098661 19.849091 -1.1336184
17.050251 19.901979 -0.80506259
16.95266 19.479906 -1.7230115
16.682901 19.494654 1.4604462
16.786215 19.666853 -1.4429982
16.654381 19.325365 1.6587193
16.954689 19.441872 -1.4912192
16.382586 19.600605 -0.18244499
17.095715 19.441889 -1.7101277
16.923527 19.419395 0.66543782
17.054359 19.673798 1.9363732
16.829308 19.338867 1.0863822
16.711008 19.470341 2.7483935
16.800346 19.554203 -0.82628316
16.860247 19.559933 -1.0123718
17.128578 19.512947 1.3599005
17.356268 19.861671 -1.1354618
16.777529 19.571526 1.6734412
17.095905 19.60033 -0.80130965
17.057749 19.662176 1.8028537
17.10265 19.786934 -0.81766254
17.05328 19.749651 -1.0411834
16.82597 19.555336 2.5783029
16.391335 19.553205 -0.93660378
16.66848 19.436954 -0.53611803
17.023966 19.516104 2.3735869
17.14809 19.640034 1.6454461
16.954512 19.477942 1.1464769
16.381241 19.286692 -1.5583793
16.687784 19.484583 1.8625641
16.944437 19.493782 -0.64556158
16.678051 19.477247 -0.14527895
16.959921 19.483219 0.97326291
16.770391 19.593098 2.6803741
16.533581 19.434685 3.067353
16.796097 19.487911 -1.2393568
16.923882 19.385714 1.5693341
17.240549 19.502604 1.5335531
16.830149 19.339813 0.95085365
16.801502 19.493055 -1.1401576
16.655626 19.519222 2.589572
16.702978 19.485334 1.659716
17.203753 19.724979 -0.34643018
16.854242 19.425295 0.96655917
16.417711 19.441442 -0.89717525
17.118206 19.729507 -0.87400615
16.969513 19.701052 2.0696936
16.801601 19.485422 -0.92861789
17.190998 19.545206 0.87754053
17.100548 19.764862 -0.55710965
17.26182 19.7799 -1.4411397
17.11174 19.778053 -0.26504344
17.137714 19.497318 1.2366196
16.799068 19.559278 0.71181995
16.794472 19.42062 1.2628697
17.273327 19.858395 -1.4352776
16.742634 19.688797 1.6746967
16.414219 19.455679 -1.1328785
16.791361 19.422113 0.95639831
16.668829 19.468054 -0.54591823
16.787401 19.331951 1.0087625
16.713291 19.513857 0.78667814
16.875216 19.572222 -1.6269491
16.733418 19.700119 -0.43816578
16.7526 19.756321 -1.4512273
16.78274 19.598263 1.9491649
