# .PCD v0.7 - Point Cloud Data file format
VERSION 0.7
FIELDS x y z
SIZE 4 4 4
TYPE F F F
COUNT 1 1 1
WIDTH 899
HEIGHT 1
VIEWPOINT 0 0 0 1 0 0 0
POINTS 899
DATA ascii
46.583557 26.435848 3.0277667
46.239391 26.358707 3.3881702
46.48946 26.434715 2.9660797
46.587353 26.435228 2.9973261
46.399765 26.414965 3.1973662
46.472656 26.475817 3.2057891
46.387501 26.342117 2.4905427
50.296543 27.730721 2.854538
46.583584 26.442057 3.1925406
46.869366 26.434628 1.7691146
47.525417 26.739445 2.9125311
49.521687 27.545321 2.8196967
46.560436 26.42588 2.832077
49.480236 27.559898 2.9811566
47.331757 26.637812 2.8196435
47.226383 26.622042 3.1307988
47.740341 26.831877 2.986985
46.731796 26.427319 2.8213806
47.247345 26.615356 2.9653926
47.525566 26.730669 2.8950191
47.735756 26.817085 2.8325956
47.082134 26.54195 2.5569441
47.179974 26.654894 2.2226212
47.633022 26.743294 2.4262679
47.378624 26.622246 2.1172245
46.940022 26.539545 1.7606864
47.472847 26.757139 1.8610106
47.569683 26.776592 1.8614227
47.980927 26.949322 1.8607396
47.571136 26.821033 1.7626367
47.888519 26.91337 1.8315641
48.902279 27.277046 1.9091413
47.278492 26.676495 1.8748953
50.025074 27.748835 1.8523363
49.29813 27.453428 1.8116205
47.273392 26.701574 1.7827737
46.866749 26.528055 1.7571629
47.599937 26.782856 1.9753771
47.767143 26.851646 1.8390379
48.340996 27.074287 1.8891883
47.804016 26.854769 1.9782937
49.591328 27.54907 1.8905247
47.029697 26.517607 1.8838079
50.148609 27.761803 1.8864719
47.854877 26.906004 1.9245142
47.290108 26.662731 1.9631064
47.15929 26.583281 1.9679496
47.964722 26.886862 1.9648242
49.117104 27.353922 2.0397367
49.387207 27.459232 2.1410458
49.116505 27.355049 2.1446652
47.710434 26.849636 2.250195
46.864578 26.474312 1.9741358
46.765488 26.438404 2.7492082
49.40868 27.464716 2.2315295
48.81818 27.246592 2.2526083
49.47538 27.479557 1.9635401
49.472534 27.476192 2.151047
49.350395 27.425489 1.9868517
49.171146 27.366568 2.1550016
49.472603 27.475187 2.0648656
49.277287 27.39537 2.0674515
49.909302 27.656088 2.3555353
49.669907 27.518826 1.9607793
49.721897 27.541441 2.0704846
47.847504 26.838661 2.1505024
48.962997 27.230646 2.078887
47.854332 26.833471 2.2535198
47.848488 26.834759 1.9471334
47.776413 26.811016 1.9673285
47.696793 26.767221 1.9433402
47.350578 26.633362 2.2401605
47.050289 26.52639 2.2626712
47.03384 26.522985 2.3448553
49.671162 27.519981 2.0523431
49.136333 27.325943 2.0773509
48.955441 27.242239 2.2467141
49.646614 27.532537 2.6453087
47.866947 26.831881 2.0579844
49.195877 27.361343 1.9605073
49.754051 27.534678 2.6205413
49.072662 27.299519 1.9688743
48.904655 27.266712 1.9557335
48.275059 27.003958 1.9488237
48.642288 27.129128 2.3510523
50.235497 27.727959 2.6540985
49.997986 27.643894 2.6188679
49.953686 27.63545 2.4413033
49.566761 27.486408 1.9643277
48.944878 27.239012 2.1552253
47.998486 26.958208 2.1803944
46.571049 26.509712 2.8137269
48.781792 27.204618 2.0683148
47.874306 26.842291 2.4880695
50.262321 27.741762 2.5886383
47.47197 26.702669 2.8212416
47.251457 26.608261 2.0618672
47.235676 26.626793 2.7804954
48.053581 26.933254 2.1638763
47.756573 26.81599 2.0705807
47.797813 26.859577 2.0518236
48.010735 26.951347 2.1062403
47.884781 26.870195 2.0728588
47.666538 26.793831 2.0689437
47.288155 26.662634 2.0752139
47.169735 26.602186 2.0683703
48.850197 27.230843 1.9740506
48.785233 27.201172 1.9697812
48.882751 27.250597 2.0595739
50.179958 27.715569 2.6464484
47.25499 26.628839 2.2722688
47.784756 26.853123 2.1721311
47.828629 26.829445 2.3670211
49.944401 27.626978 2.1636512
48.861046 27.228472 2.1641796
49.062965 27.301758 2.0737493
49.063972 27.310806 2.1640985
48.123116 26.944275 2.7901287
50.171791 27.72337 2.068099
49.970249 27.631786 2.0591068
49.94783 27.635582 2.263164
49.660206 27.533007 2.3639069
47.987236 26.911371 2.0645492
47.678802 26.794771 2.1644585
49.939545 27.63303 2.3603256
49.576561 27.510269 2.1667469
46.859543 26.490253 2.0630019
49.773254 27.5805 2.1738217
50.193634 27.754398 2.1698508
50.068497 27.691618 1.9779867
48.050961 26.922617 2.269381
47.571911 26.766497 2.2605841
47.5756 26.767014 2.1675742
47.483315 26.756443 2.1727228
47.280136 26.660925 2.1650898
47.204967 26.652956 2.3450243
47.171162 26.604774 2.172354
46.871082 26.49641 2.1682103
49.774078 27.580709 2.2644296
48.576607 27.132803 2.8281791
48.551544 27.117151 2.6606219
49.862003 27.610811 2.1762292
48.257114 27.021776 2.755861
47.672112 26.798042 2.6560905
47.872585 26.872581 2.2591558
47.760201 26.820576 2.2666602
47.768185 26.827513 2.6653893
49.951897 27.637531 2.5164008
49.87236 27.616573 2.0609198
49.690479 27.56061 2.272788
48.774342 27.20223 2.2717488
47.763641 26.809902 2.7907889
47.762329 26.827845 2.3638606
47.543335 26.732445 2.5565529
47.553318 26.734304 2.6603963
49.631836 27.532227 2.7548177
49.618416 27.552963 2.2936919
49.577576 27.526981 2.7270947
48.86261 27.225468 2.4384952
47.871826 26.873861 2.1702752
50.258766 27.745081 2.7536614
49.860394 27.617935 2.5393622
47.453568 26.714155 2.7383575
48.25893 27.009645 2.0720029
47.257282 26.627621 2.461355
46.662319 26.420372 2.8549585
50.162312 27.717176 2.7665064
48.849136 27.228039 2.3552403
48.564251 27.124699 2.3557689
46.953327 26.525572 2.6538441
46.670925 26.426958 2.6617048
50.072609 27.696104 2.060276
49.772141 27.578989 1.9756631
48.563602 27.128656 2.5643451
48.551147 27.12022 2.7357597
48.562473 27.122055 2.2672081
47.759586 26.822357 2.1528771
47.762497 26.829039 2.4517047
47.247272 26.626635 2.1633959
46.962593 26.52519 2.3585944
46.948906 26.512535 2.5681014
48.860359 27.227102 2.2583187
48.27076 27.015276 2.2513855
49.806892 27.670132 2.7035413
49.574913 27.523119 2.9423246
48.018162 26.958447 2.2720227
47.787388 26.858095 2.2605245
47.670128 26.798126 2.2703927
46.599037 26.547365 3.0409436
49.976128 27.662872 2.3672519
49.910248 27.648577 2.1129124
47.173504 26.607738 2.2614951
47.660343 26.800413 2.8565903
48.721485 27.223156 2.9619284
48.717903 27.250431 2.4832907
47.671413 26.862057 2.373436
47.614334 26.859049 2.3933859
46.889538 26.572729 2.3341818
48.672379 27.169231 1.9939455
49.866989 27.615665 2.3589253
48.7649 27.202448 2.3564749
48.22438 27.019512 2.9815376
47.158455 26.62924 2.7583563
46.871181 26.497784 2.4565113
50.156673 27.718513 2.1700201
50.162998 27.724823 2.3587821
50.067673 27.685429 2.1671228
49.977638 27.668179 2.4540241
49.974579 27.668041 2.1752429
48.965519 27.27784 2.2666268
48.586365 27.159378 2.2733126
48.268978 27.020052 2.4482791
50.156487 27.721289 2.5557117
49.976101 27.66667 2.2687438
49.940681 27.63616 2.7642708
49.906101 27.654305 2.2522719
48.846851 27.238529 2.6564596
48.767982 27.204655 2.1645496
48.560787 27.127539 2.4444997
47.975529 26.907032 2.1672463
48.267696 27.020845 2.3575597
48.258682 27.02408 2.6545954
50.341858 27.817549 2.9830542
50.075428 27.707262 2.7354686
49.949833 27.669193 2.7299514
49.878422 27.619122 2.7341514
49.866577 27.619715 2.4531744
49.837757 27.642195 2.9588842
49.557747 27.563103 2.9418554
47.989758 26.958181 2.3712988
47.968449 26.908499 2.3706884
47.787258 26.855299 2.361896
50.110592 27.764704 2.3752241
49.768436 27.596746 2.5603209
46.8508 26.564407 3.1638899
46.770531 26.49869 2.8589373
48.382034 27.170748 3.2155659
47.282681 26.752487 3.1224873
50.246387 27.811594 2.8519995
50.108532 27.753593 2.5673156
48.77121 27.220152 2.7458549
48.660198 27.220753 2.965385
46.658012 26.475325 3.0174365
48.76152 27.220173 2.8325238
49.771133 27.639177 2.8804333
48.448814 27.13007 2.9642801
49.765121 27.599915 2.6700182
49.731991 27.619789 2.9210486
49.675018 27.569 2.6487336
49.682697 27.560133 2.3683364
49.59631 27.572439 2.8593156
48.963337 27.305069 2.8341956
48.927803 27.219044 2.3177161
47.074631 26.634071 3.1407142
46.896667 26.559059 2.8445711
46.8741 26.510372 2.5566339
46.673683 26.472921 2.8578358
50.364712 27.846296 2.49546
50.33147 27.823736 2.8385997
50.063351 27.708996 2.5528395
49.865456 27.613279 2.265816
47.650459 26.835714 3.0799077
46.882759 26.552773 2.6812577
46.764679 26.498178 2.9498556
50.161179 27.721766 2.2680268
50.33527 27.802864 2.4293966
50.258377 27.769718 2.3492539
47.601974 26.864262 3.0888631
47.180595 26.667149 2.4718957
47.888924 26.953667 2.6690729
50.144123 27.83721 3.1852567
50.094002 27.777037 2.8792868
49.871887 27.677029 2.8583057
49.716167 27.656042 3.1260526
49.667419 27.605679 2.8646238
49.614201 27.629425 3.1090848
47.059254 26.6742 3.2813261
46.902733 26.587616 2.9775043
46.818321 26.562689 2.9747465
46.778141 26.482334 2.6577525
46.569729 26.490948 3.2181144
48.97073 27.34701 2.6087282
48.881023 27.354097 3.1285646
48.59021 27.24752 3.0852907
48.602539 27.155834 2.1473715
48.750534 27.331509 3.2730141
48.679382 27.256134 2.7287107
48.687561 27.279781 3.2503097
48.58173 27.25721 3.2473488
48.391258 27.153152 2.691174
48.160103 27.071325 2.9528587
48.092693 27.060909 2.8958473
48.071541 27.062496 3.1752133
50.279675 27.859625 2.9400551
50.255096 27.819223 2.9730973
50.080696 27.813438 3.1874685
50.068024 27.767454 2.6559548
49.989532 27.752426 2.6424389
49.979797 27.771595 3.1750424
49.890503 27.756258 3.1632519
49.874687 27.676992 2.6401465
49.790169 27.664072 2.5957246
47.984951 27.058271 3.3637524
47.889503 27.003448 3.3494701
47.788498 26.974174 3.3294506
47.803909 26.950001 2.7813549
47.644661 26.903345 3.30583
47.498783 26.846775 3.0004101
47.245735 26.759092 3.2313671
47.195362 26.740782 3.2219677
47.451157 26.713436 2.6645529
49.65683 27.59618 2.771373
49.577522 27.568245 2.7564092
48.997345 27.381035 2.9332809
47.314854 26.756653 2.8669038
47.286213 26.792406 3.4193039
47.234623 26.781143 3.4075241
47.186428 26.748844 3.400444
47.137123 26.7225 3.3919601
46.997986 26.658537 3.0823898
46.734718 26.570728 3.3123703
46.697388 26.546658 3.0222092
46.378983 26.384388 2.6610477
50.358688 27.839529 2.7238617
50.320576 27.817444 2.7044089
50.17931 27.758106 2.3735695
50.177715 27.795938 2.9581175
48.162865 27.018423 2.8402503
50.375797 27.847322 2.5737295
50.29631 27.8685 3.1245234
50.250156 27.841488 3.116833
48.108566 27.047226 3.2614863
47.903706 26.97542 3.2234614
47.792412 26.924416 2.9253962
47.779091 26.883886 2.6640644
47.705723 26.915955 3.1725776
47.595379 26.853996 3.1718256
47.576736 26.783638 2.6517453
47.5434 26.795675 3.1484585
47.424309 26.700321 2.9477947
47.311962 26.63056 2.8349822
47.248901 26.623232 2.5627844
47.15667 26.604557 2.8425741
47.15181 26.564371 3.0885222
47.056572 26.528233 2.458807
46.967113 26.524267 2.7557127
46.903027 26.574396 2.4598467
46.977955 26.49634 1.8833388
46.875076 26.493782 1.8607635
50.308971 27.853785 2.8889468
47.979721 27.015137 3.1543441
47.886898 26.96521 2.8038702
50.38866 27.875925 2.764677
50.306755 27.856577 2.7741013
50.263939 27.790466 2.7675693
50.071152 27.757572 2.7302055
48.081772 27.030922 3.0935996
47.894966 26.970325 3.071104
50.362839 27.883322 2.6914451
48.432014 27.149347 3.0219884
47.284634 26.660496 2.3578272
48.985867 27.348412 2.7659929
48.778282 27.255259 2.4561753
48.671883 27.258278 2.9814634
48.667408 27.170004 2.3691895
46.792908 26.562202 3.0450106
48.796532 27.253044 2.6541309
46.857464 26.578659 3.0527215
46.960213 26.52791 2.4623268
47.380383 26.767355 2.8631005
47.263882 26.70532 2.957274
47.092194 26.671665 3.0559216
47.153503 26.683867 3.1452723
48.831062 27.320833 2.8540285
49.095478 27.426033 2.9418685
49.039902 27.417276 3.2166488
47.575005 26.857212 2.7433867
47.554432 26.873173 3.3317001
47.501747 26.876776 3.312474
47.452316 26.856958 3.2972152
47.360882 26.802189 3.2658257
47.281441 26.767517 2.9540191
47.206604 26.749075 3.2231185
48.782562 27.302275 2.8469484
47.468918 26.827469 3.2474949
50.029224 27.778566 3.2353723
49.978832 27.759079 3.2207239
49.946903 27.737537 3.1853206
49.868797 27.716242 3.1665635
49.780323 27.655933 2.8728235
49.764549 27.683863 3.143276
48.132206 27.066544 3.2906091
48.025543 27.04006 3.2593591
47.887131 26.968559 2.93818
47.877995 26.894543 2.6469274
47.764214 26.890947 2.8464267
50.371201 27.892887 3.1341527
50.262226 27.855547 3.0799325
48.37775 27.146418 2.8619215
48.334312 27.124596 3.1679757
48.653984 27.134266 2.2634571
48.771732 27.277142 2.7514973
50.333977 27.869051 3.0821831
48.689217 27.264946 3.2005677
48.709538 27.249548 2.619391
48.575432 27.188433 2.8458593
48.458961 27.159449 2.8877571
48.375843 27.155308 2.9370065
46.536049 26.608894 3.171515
46.648804 26.50404 3.2257068
46.614178 26.486284 2.9142518
49.978237 27.719219 2.8353086
49.964661 27.709042 3.1075747
49.873138 27.672998 2.7902715
49.855408 27.680168 3.0735781
49.884754 27.655996 2.4568357
49.805943 27.649569 2.7642519
49.673805 27.623846 3.0469232
48.151615 27.060959 3.1424944
47.863735 26.925241 3.0483549
47.87051 26.88158 2.4617825
49.972221 27.673807 2.5621834
49.879326 27.658863 2.5671313
48.160587 27.011232 2.6513655
48.086239 26.964733 2.2740021
49.124481 27.402517 2.8513246
47.271637 26.695576 2.8501053
47.286301 26.664253 2.2627885
47.162209 26.607565 2.548058
50.345955 27.868311 2.9480176
50.380527 27.857525 2.3695769
50.341118 27.818216 2.3562298
50.268517 27.805309 2.6591349
50.267693 27.788652 2.5594192
50.165298 27.791775 2.8375659
50.198074 27.760904 2.2677135
50.169197 27.766047 2.5619221
48.86237 27.317816 3.0061543
50.238579 27.835054 3.0790014
50.264629 27.782297 2.4633572
50.157188 27.784443 2.7553418
48.425728 27.140207 3.103271
49.750507 27.655647 3.053014
49.773167 27.591196 2.4608412
49.746849 27.619774 2.7823863
47.982838 26.966375 2.7851775
47.709301 26.85198 2.4447689
47.595573 26.859184 2.9642353
47.584999 26.870205 3.2777786
47.378242 26.696939 3.1283822
47.377174 26.721525 2.840363
47.1791 26.691607 3.060277
47.167984 26.610498 2.4617183
50.066208 27.764793 2.9800072
50.065369 27.694448 2.360008
50.060497 27.71068 2.6488237
47.973038 26.969982 2.6688108
48.982307 27.336037 2.9508119
48.979034 27.283321 2.3492615
47.16988 26.616701 2.6603029
47.150463 26.600311 2.9579802
46.867992 26.495083 2.3597748
46.866196 26.528858 2.9580793
46.86467 26.506788 2.6592596
47.666161 26.828905 2.7484806
47.18045 26.669886 2.5533216
47.18383 26.639301 3.1445901
47.177139 26.701834 2.8359971
46.883183 26.565809 2.7674427
48.872463 27.291553 2.7515066
50.36179 27.879036 2.8754828
50.375072 27.861187 2.3028769
50.340836 27.834463 2.549407
48.486919 27.176752 2.9551084
48.489498 27.146128 2.3319907
48.775043 27.261375 2.5357211
48.762299 27.203674 2.559885
48.674927 27.210529 2.7512867
46.867844 26.498281 2.2655513
46.989441 26.542496 2.8431995
46.865582 26.506399 2.8439229
46.670906 26.427364 2.7456796
47.697929 26.847961 2.5721445
47.671654 26.803831 2.5601506
47.47179 26.778687 2.7526379
47.390224 26.768045 2.7573409
47.271648 26.676008 2.66979
48.775303 27.274218 2.9888577
48.791851 27.254511 2.3729062
48.761528 27.214811 2.6557889
46.859489 26.504705 2.7465754
46.771729 26.519909 3.0568981
46.78384 26.493509 2.7423644
50.103497 27.77005 2.4504607
48.16124 27.036263 3.0283215
47.671757 26.878567 2.8661952
47.457115 26.80854 3.1438859
47.578918 26.855129 2.8754644
47.581612 26.817112 2.8554907
48.594803 27.159971 2.3725598
49.04211 27.372454 2.7694943
48.949379 27.312836 2.744513
48.864204 27.300102 3.0239182
48.876842 27.262995 2.4481986
47.247726 26.708206 3.1496875
47.265148 26.675499 2.5585303
47.180996 26.670393 2.7599905
47.568165 26.804676 2.7444909
47.512863 26.79829 3.0429072
46.664185 26.480978 2.7578981
50.071785 27.765039 3.0444448
50.072132 27.699127 2.4545107
49.963364 27.695303 2.652513
49.954445 27.703653 2.9822586
48.082489 26.963585 2.4603987
47.986767 26.954134 2.4711771
47.866875 26.899376 2.9540269
47.872253 26.877703 2.3625722
47.849133 26.915964 2.838367
47.823223 26.827719 2.514297
48.892414 27.262484 2.2611802
48.867615 27.271004 2.6693892
48.670528 27.190674 2.5604875
48.64077 27.200438 2.8865001
48.547592 27.214296 3.1788955
48.571827 27.170786 2.5538223
46.720581 26.517082 3.2405198
46.599625 26.49284 3.1612835
46.669289 26.473131 2.6646309
46.690716 26.49164 2.9563403
47.578899 26.774736 2.4537165
47.460358 26.783075 2.9645112
47.371292 26.685446 2.3638852
47.365047 26.686537 2.948822
47.096199 26.662853 2.9764202
47.676529 26.85821 2.9784837
47.636433 26.813553 2.975023
47.576954 26.770546 2.3630185
47.575268 26.780144 2.5587959
50.17062 27.782257 2.6597707
50.045448 27.719219 2.8835449
50.07177 27.695042 2.264657
48.174252 27.054689 2.6933212
48.169998 27.0112 2.9622257
47.968956 26.958401 2.5739281
47.965557 26.906693 2.2683878
47.059036 26.611658 2.9503093
47.872089 26.912645 2.7630498
47.64679 26.860132 2.6535385
47.557922 26.811533 2.9512184
47.666973 26.798819 2.3610344
46.965904 26.593704 2.9589367
47.365711 26.755056 3.0613923
47.277912 26.712683 3.0359409
47.287281 26.670174 2.460109
47.276104 26.694311 2.7631245
47.178795 26.659931 2.6750743
47.175789 26.694538 2.9733236
47.171627 26.608511 2.3656266
49.029137 27.380646 3.0626543
48.983116 27.366791 3.0609834
48.955658 27.295841 2.4587719
48.552528 27.237225 3.252847
48.441811 27.191488 3.2220213
48.666149 27.1875 2.6520579
48.576385 27.172293 2.6559744
48.573006 27.205183 2.9592152
47.051483 26.637053 3.059128
50.189125 27.767969 2.4614816
50.162399 27.803762 3.0672615
50.161362 27.72854 2.4573865
48.8932 27.256071 2.3425164
49.0723 27.403055 3.1302459
47.868721 26.882517 2.5525672
47.778412 26.882946 2.7499535
47.764011 26.900175 3.0575237
47.784546 26.861912 2.4548538
47.681648 26.865276 2.7542574
47.676231 26.877655 3.0517473
47.565685 26.81016 3.044775
47.66246 26.797808 2.4552574
47.958031 27.001406 3.2350464
47.894627 26.960392 2.5909097
47.857365 26.964138 3.1893084
47.792259 26.871277 2.5697141
47.759048 26.82345 2.5524428
48.581726 27.161346 2.4669158
48.927219 27.365807 3.1723418
48.947544 27.292416 2.5717151
48.878662 27.276249 2.5596828
48.870304 27.332506 3.1935973
48.861885 27.227892 2.5506911
48.570225 27.177492 2.762634
48.579475 27.212128 3.0395386
48.756935 27.275597 3.0699883
48.668945 27.25897 3.0666165
48.765678 27.204983 2.4538612
48.659542 27.20652 3.0829139
48.665573 27.25959 2.8389843
46.5881 26.486698 2.6451766
46.202724 26.373581 3.169457
48.466141 27.111387 2.648663
48.45993 27.108253 2.7597349
46.950039 26.597336 3.06442
47.036697 26.67993 3.372673
47.021435 26.529222 2.8311751
46.205242 26.366632 2.8358934
48.493698 27.172935 2.671268
46.934601 26.647768 3.3512497
48.348412 27.118868 2.9679363
46.283009 26.379522 2.7429106
46.188091 26.37467 3.3537738
46.501091 26.448704 2.4463952
46.380322 26.382288 2.4730537
46.180809 26.353823 3.0168886
48.265953 27.098743 2.9617469
48.356655 27.094786 2.7721665
48.492031 27.169411 2.7596519
48.274002 27.083359 2.8557806
48.28529 27.092709 3.052803
46.567806 26.417645 2.6601825
46.836609 26.605268 3.3330002
46.861961 26.578459 3.2577055
47.549847 26.73144 2.7748418
47.879593 26.904942 3.1482286
47.049221 26.526304 3.0669768
48.17551 27.06481 3.0776436
48.393211 27.117552 3.0410533
48.271042 27.092415 3.1577811
48.456909 27.117256 2.8497689
48.355976 27.095318 2.8621931
46.470013 26.414888 2.4428694
48.185833 27.053318 2.7343504
48.268147 27.023901 2.5670116
48.671593 27.183544 2.4485817
48.678261 27.168564 2.2623677
48.07991 26.963192 2.3667812
50.173885 27.728277 1.9802256
50.23769 27.737503 2.2508626
48.687141 27.182255 2.1626139
48.463356 27.152752 2.4596715
48.487324 27.165737 2.5898957
49.787991 27.668001 1.9754137
46.75909 26.550802 3.241226
48.081356 26.962194 2.1688964
46.762512 26.552359 2.7538376
48.17503 27.060944 2.8687568
48.265549 27.071291 2.7536986
48.060883 26.930101 2.086931
48.085121 26.960442 1.9397541
48.378571 27.096066 2.6523902
48.376217 27.079548 2.5695782
50.428921 27.860703 2.5900035
48.671085 27.171894 2.060971
47.478752 26.756752 2.3526387
47.004341 26.652182 2.8238668
48.30291 27.049473 2.0759211
48.62315 27.132683 2.0737236
48.376892 27.074148 2.4546382
48.473263 27.107008 2.5532393
47.083183 26.658339 2.852591
47.979488 26.831928 2.0396414
48.379307 27.064993 2.0856495
46.971817 26.580654 2.749701
47.070465 26.601522 2.8364758
48.471165 27.104736 2.4548595
47.465256 26.715872 2.1551833
48.470001 27.096033 2.3617764
48.281754 27.060738 2.4613388
48.293579 27.055111 2.2856514
46.984493 26.565742 2.6598938
48.347687 27.032555 2.3580935
48.480492 27.075348 2.0060704
47.976566 26.915394 2.5535669
48.167274 26.938303 2.2379489
48.355614 27.027819 2.1688559
47.323673 26.636551 2.5747075
46.984001 26.560974 2.4547012
46.438335 26.300564 3.1884871
49.471386 27.50371 1.7383744
46.273251 26.306398 2.4716167
46.268848 26.305054 2.8685949
48.066765 26.919024 1.9811496
48.882214 27.257166 2.1668761
48.285717 27.072191 2.5609579
47.071045 26.576132 2.2649789
47.499241 26.75116 2.2782722
48.37711 27.068274 2.3620949
46.440174 26.382742 3.0550799
46.478249 26.421429 2.636826
47.472729 26.719908 2.5677981
47.467041 26.717997 2.2588723
48.178955 26.981829 2.0584097
47.46994 26.722231 2.4631665
46.485756 26.396935 2.7510545
47.570786 26.766453 2.0750215
47.461819 26.787279 2.871973
47.955238 26.913864 2.9409063
47.365665 26.767822 2.6617298
47.387108 26.766705 2.956069
48.937416 27.226858 1.9213998
46.474228 26.332331 2.463362
47.37265 26.756016 2.5955017
47.490688 26.76388 2.445529
46.512802 26.398766 3.3700554
48.264515 27.065285 2.6640162
46.979588 26.569674 2.5583608
47.397804 26.749771 2.3687928
48.059525 26.931986 2.5484247
47.375114 26.689453 2.0545876
47.406487 26.762054 2.4505701
46.969593 26.519848 2.0598202
48.172428 26.994383 2.5571039
47.070442 26.584158 2.4619136
46.484612 26.401766 2.5445056
47.770103 26.826658 1.833699
49.181396 27.388559 1.8663739
48.051567 26.925156 2.7714314
47.064449 26.587345 1.870356
49.387703 27.570591 1.7535161
49.322826 27.397823 1.876562
46.344872 26.392826 3.1020494
47.371349 26.698076 2.5578671
48.12413 26.928875 3.2235227
48.68309 27.187187 1.8940822
50.228157 27.742168 2.0727618
46.963657 26.522259 2.1717036
46.353924 26.310192 2.0459681
46.972046 26.489534 1.9623626
47.373119 26.694262 2.4529626
48.17128 26.992125 2.4556098
48.169983 26.985626 2.3617933
48.155018 26.929661 2.4578176
47.487705 26.766878 2.5598962
48.076366 26.992685 2.6606221
47.090172 26.579527 1.9809874
47.074078 26.567965 2.0590479
48.075172 27.00807 2.9704466
48.080845 26.982389 2.7493234
48.060444 26.9349 2.6829903
46.969318 26.575344 2.8593442
48.057816 26.933788 2.3579638
48.060524 26.94508 2.8878789
47.3554 26.673809 1.9698038
47.469818 26.720707 2.3633852
47.560913 26.739929 2.4506958
48.069733 27.007622 2.8629014
48.07296 26.968887 2.5579457
48.166027 27.003534 2.7469966
47.965668 26.91515 2.6656268
48.35466 27.025869 2.0694733
47.366066 26.678907 2.156951
47.968407 26.926506 2.7461669
47.968403 26.924583 2.8594964
48.081547 26.958899 2.0669374
47.028351 26.542862 2.0448272
46.937531 26.608227 1.7857735
49.479504 27.490671 1.8730961
49.133614 27.382559 1.6558783
47.400074 26.729593 1.8577204
48.378479 27.068993 2.2715573
46.251984 26.378304 2.868758
48.514317 27.179708 1.7976029
48.053452 26.932068 2.4527392
48.290016 27.061533 2.3615711
46.460743 26.298574 2.6883659
47.065243 26.532328 2.1450157
49.659286 27.565275 1.948764
47.096184 26.532236 1.949796
49.221214 27.450544 1.9380486
47.768337 26.931847 3.1481926
46.954357 26.524611 2.2692685
49.664192 27.584396 1.8573073
49.582253 27.499146 1.8727471
47.851967 26.956894 2.8753805
47.115143 26.649693 2.4636517
49.282364 27.416079 1.8462815
46.538864 26.410572 2.760675
47.35342 26.671637 3.0930181
48.872288 27.228773 2.0725923
47.357315 26.778667 3.1618412
47.07476 26.582502 2.551569
46.368752 26.359461 2.856108
46.471699 26.335115 2.718677
46.374474 26.399767 2.9516273
48.228127 27.032963 1.87791
46.509861 26.453882 2.8190072
46.478569 26.404646 2.3584619
46.333954 26.317551 2.9503713
46.566547 26.468801 3.4008963
46.620731 26.580458 3.2687886
47.067646 26.575991 2.3605609
47.365582 26.692129 2.6685591
47.96627 26.909845 2.4572127
46.577103 26.421249 2.4435585
49.86351 27.600279 1.9661632
49.888527 27.661854 1.9552526
47.463066 26.771582 1.7759706
48.749416 27.195972 3.063792
47.281021 26.601879 3.0632792
46.474686 26.415224 2.8592429
48.355282 27.024588 1.9492846
47.368187 26.718744 2.7522731
48.346958 27.029224 2.2645955
49.971737 27.635176 1.8716733
48.381794 27.065451 2.1628392
50.18932 27.759478 1.9638031
48.313717 27.107862 1.8047457
49.458961 27.585899 1.983061
46.942116 26.616961 1.8391609
46.997509 26.553089 2.1827269
49.987396 27.671078 1.8456461
49.271553 27.428957 1.7583131
48.976715 27.306499 1.8537858
48.972946 27.283489 2.16697
48.961285 27.284836 1.7872195
47.551105 26.709702 2.0688436
47.498966 26.72897 1.978763
47.561829 26.729431 2.258297
47.497158 26.756903 2.0642481
49.782475 27.583941 2.0694437
48.467907 27.091707 2.1594181
47.479614 26.785158 2.6557136
48.160969 27.006966 1.7611409
48.552441 27.121904 2.0648494
46.239407 26.296888 2.9570613
49.867336 27.61269 2.657546
50.391655 27.958448 2.538589
46.364082 26.311331 1.9595387
47.550472 26.737759 2.1692948
46.28886 26.360065 2.4582863
48.308357 27.057432 2.1805568
48.473 27.09338 2.2645371
46.352196 26.321815 2.1553748
49.132893 27.330507 1.8314921
49.97419 27.666079 1.9797988
46.991997 26.556305 2.3633473
48.085373 26.970812 1.8009522
46.281662 26.360399 2.651463
46.370617 26.373816 2.3639178
46.373161 26.409443 2.7748227
46.369606 26.367121 2.2628105
46.373955 26.361933 2.1769588
46.263233 26.37278 3.1673234
47.374512 26.684837 2.2693207
47.093933 26.658587 2.5699551
46.376541 26.366053 2.0707016
46.235706 26.339628 3.0244458
46.38229 26.396877 2.5611303
46.270927 26.374855 2.5488322
46.493351 26.455053 2.9434166
46.39893 26.274038 2.6357646
46.148781 26.359327 2.9677167
46.302979 26.35652 2.9140384
46.349091 26.318314 2.2532642
46.360626 26.305071 2.3449159
46.982555 26.558468 2.2728992
47.064762 26.586517 2.6623955
47.088455 26.655529 2.7706826
47.517357 26.766037 1.9758935
48.977505 27.285042 1.9729755
48.47715 27.181904 3.1628909
49.397869 27.496441 1.8511083
49.375687 27.473118 1.9615182
47.456219 26.714241 2.0707531
48.362389 27.096306 1.795167
48.281273 27.063297 1.8640521
48.168964 26.983374 2.2709517
48.182575 26.992853 2.1742568
48.178864 27.023972 1.8454843
48.769035 27.189796 1.8479906
49.976616 27.661001 2.0634747
48.044731 26.972649 1.8685057
48.565998 27.119408 2.1738613
48.600349 27.151413 2.0588598
47.961548 26.977829 3.0787148
47.976772 26.980463 2.9510605
49.673031 27.560228 2.1661057
49.374241 27.457756 2.048933
48.15921 26.985954 1.9618257
49.803505 27.689829 2.2428288
47.977421 26.986725 2.8508985
49.685753 27.560848 2.0452609
50.067833 27.731073 1.8952886
47.069511 26.572811 2.1660817
49.76273 27.621529 1.7896407
49.284786 27.451988 1.7328089
47.256992 26.632868 2.3520267
48.982044 27.345627 1.8971715
48.469116 27.097675 2.0825231
49.106361 27.367357 1.7915502
49.08976 27.364443 1.8748922
48.763763 27.253139 1.8627669
49.403725 27.505867 1.8073428
48.597366 27.164946 1.9040618
48.434952 27.118332 1.8772372
49.077881 27.332323 1.8739223
47.247726 26.619736 2.6899016
47.067707 26.606607 2.7607388
