# .PCD v0.7 - Point Cloud Data file format
VERSION 0.7
FIELDS x y z
SIZE 4 4 4
TYPE F F F
COUNT 1 1 1
WIDTH 520
HEIGHT 1
VIEWPOINT 0 0 0 1 0 0 0
POINTS 520
DATA ascii
39.971542 43.247128 1.7742341
39.939793 43.035072 1.1507466
40.102535 43.044106 0.23007965
39.939106 43.040436 1.4542377
39.983566 42.928722 -0.91314876
39.934349 43.034435 1.3381448
39.961105 43.030346 0.52753145
39.919388 43.145744 -0.86625278
40.09967 43.266209 -1.0335894
40.085667 43.251511 -0.56117719
40.155575 43.283478 -0.81898677
40.204498 43.258888 -1.0330993
39.784229 43.069874 -1.0360241
40.162666 43.350899 -1.4289236
39.954769 43.022411 1.5293112
40.179756 43.276302 -1.1418549
39.976757 43.185177 -0.82877058
39.975548 43.162807 -1.6250286
39.987228 43.176384 -1.2455419
40.224796 43.147724 2.1769452
40.193211 43.135719 2.2803657
40.147724 43.127522 2.6032701
40.059971 43.120605 1.3609718
40.15593 43.19672 2.4470363
40.059734 43.12476 0.77064335
40.20779 43.200787 2.3313146
40.184296 43.172417 2.6562533
40.242947 43.170467 1.9638606
40.040947 43.105354 2.5586286
39.984295 43.164288 0.15951689
40.231365 43.178192 2.232219
40.254265 43.068226 2.6923079
39.910664 43.220257 2.5797768
40.091946 43.283646 2.5116911
39.955025 43.283665 2.4493539
40.172874 43.2808 2.1881268
40.074215 43.043266 -0.67646587
40.071739 43.018803 -1.1157359
40.027031 43.022053 -0.8109737
39.977299 43.018497 -0.74628586
40.052834 43.040421 -1.0404843
40.051674 43.042679 -1.2519749
39.97604 43.013329 -1.1237799
39.947296 43.014267 -0.94673055
39.944355 43.040779 -0.062265143
39.955181 43.024761 -1.2506893
39.87521 43.00935 -1.1368732
39.962082 43.091923 -1.2300769
39.879383 43.106205 -1.3410288
40.051014 43.117611 -0.63554871
40.181023 43.136829 2.1917083
40.196465 43.253342 0.46673375
40.178116 43.202198 2.0561895
40.199314 43.269058 0.18694857
40.209656 43.268204 0.82827377
40.207924 43.268776 0.97071248
39.975307 43.088432 1.6563092
40.171452 43.134884 1.6601857
40.331825 43.280617 0.82117969
40.184471 43.12851 1.4527435
40.179726 43.121662 1.3515831
40.230961 43.315536 0.045754779
40.236404 43.184181 1.5602713
40.180168 43.137585 1.2614307
40.179043 43.122231 0.66719311
40.178356 43.113567 1.1695811
40.205246 43.104195 2.4629059
40.295616 43.080261 2.5896955
40.235088 43.188694 1.757809
39.960079 43.026928 -1.0540004
40.28336 43.078033 2.3548195
39.77174 43.150257 -1.6009618
39.984402 43.171436 -1.5476354
40.064487 43.197617 -1.3530238
40.102901 43.27528 -0.8208105
40.079178 43.270466 -1.5743358
40.224804 43.260521 -0.85042351
40.159267 43.268555 -0.52438211
40.196838 43.271912 -0.61661041
40.076565 43.104553 -0.85105991
40.11359 43.246693 -1.46163
39.988152 43.254017 -0.78942615
40.10408 43.254883 -1.2363648
39.933727 43.020855 -1.4178972
39.918552 43.177422 0.9685328
39.850796 43.154385 0.5418191
40.257202 43.250095 -0.18629707
40.165932 43.25972 -0.9710499
40.170483 43.259792 -1.439643
40.181744 43.258186 -1.3468789
40.167206 43.259876 -1.2283142
40.186031 43.198277 -1.3327007
40.181171 43.109772 -1.1486429
40.176575 43.114754 -1.0437182
40.185986 43.118614 -1.2369171
40.182449 43.12035 -1.335856
40.18671 43.193398 -0.84335518
40.185951 43.190102 -0.54024887
40.191563 43.197578 -0.93898505
40.182045 43.195087 -1.037156
40.178066 43.206062 -1.2437344
40.189602 43.206161 -1.4363453
40.242985 43.272163 0.16169083
40.253922 43.263809 0.4510828
40.080391 43.210907 -1.6337601
40.24807 43.266327 0.28317595
39.824718 43.119106 -1.7895901
39.916111 43.205051 -1.6239721
39.854027 43.169533 -1.1177707
39.876202 43.091309 -1.621753
40.058357 43.118053 -0.040468328
39.867332 43.069637 0.455836
39.946724 43.092442 -1.6514057
39.923351 43.029564 1.9611585
39.875717 43.168541 -1.4363849
39.897522 43.173435 -0.21273012
39.994064 43.175396 1.0415382
39.966358 43.096947 1.1613476
39.939835 43.04142 1.6660726
39.881691 43.165619 0.04616059
39.874081 43.076832 0.26317659
39.900024 43.15934 -0.42756373
39.973061 43.104488 0.062826969
39.970722 43.171425 -1.333467
39.991081 43.160442 -0.043149471
40.270065 43.090065 2.4537466
40.22665 43.158066 2.4213181
40.068913 43.110622 1.9654001
39.847134 43.123856 -1.7657692
39.974953 43.170261 0.96520483
39.968468 43.102688 0.95921689
39.985973 43.270355 1.5390946
39.967613 42.996868 -0.45056757
39.988159 43.159668 1.2796803
39.970253 43.096169 1.0642827
39.968876 43.105659 -1.3416934
39.977638 43.105106 -1.1400295
39.978191 43.189232 -0.52013153
39.993469 43.166996 -1.0375732
39.952377 43.266338 2.3758574
39.784863 43.070858 -0.14914417
39.88131 43.098091 1.7539654
39.928467 43.028305 0.23050377
39.973618 43.104206 0.85632545
39.621487 43.148273 -1.7552258
39.766033 43.191273 0.5054996
40.233269 43.152534 2.3535216
39.879581 43.085316 2.1682932
40.081612 43.169281 1.3622997
39.984077 43.17691 -1.4375321
39.983181 42.987785 0.14976189
39.875046 43.076881 -0.14179164
40.072598 43.175789 -0.24613392
39.992603 43.185551 1.4649202
39.97654 43.171528 -1.1373355
39.971832 43.090969 1.7620951
39.885395 43.159393 1.3536159
40.090206 43.200859 1.9393232
39.7836 43.058784 -0.23405708
39.992237 43.169479 1.370616
39.979076 43.1922 0.66934848
39.976059 43.180473 -0.42169258
39.966976 43.1017 -0.83299375
40.0746 43.265442 2.7328665
39.870907 43.076927 -0.23553149
39.875458 43.09354 1.4559655
39.876957 43.078041 1.5601734
39.987301 43.169872 -0.26923367
39.767895 43.071507 -1.1413738
39.97311 43.012615 -0.51914674
40.182026 43.124611 1.5603279
39.970211 43.102547 0.45498714
39.962452 43.101913 0.35690925
39.988354 43.272053 -1.0372736
39.880486 43.07626 1.3555313
39.782829 43.068813 -0.82982332
39.784908 43.073032 0.36079434
40.237225 43.189133 1.0649875
39.830727 43.163639 0.21882419
40.256489 43.100288 1.9664075
39.89217 43.087151 1.8640871
40.270897 43.277596 0.57605982
40.248348 43.182198 -0.43445051
39.86927 43.076328 0.16730319
40.296246 43.003925 2.4550669
39.969612 43.105278 -0.73633075
39.967598 43.085312 1.9373057
40.22802 43.166405 2.5546675
39.984642 43.174114 0.36334255
40.265259 43.088737 2.0466378
40.093704 43.129189 2.3799531
40.235638 43.187759 1.1566105
40.005272 43.179066 0.067758188
39.784874 43.16251 -1.7274874
39.886162 43.093575 1.6541694
39.891857 43.097443 2.0501137
39.784538 43.169884 1.1626482
39.907974 43.080849 2.2434559
39.874645 43.080482 0.057528548
40.231422 43.268288 1.0718259
39.988941 43.164635 -0.3387391
39.86734 43.10458 1.9667513
39.967113 43.096107 -1.0536577
40.231915 43.252319 -1.1411198
40.285015 42.990826 2.5448692
39.902225 43.149693 -1.8870577
39.857822 43.086575 -1.0511472
39.870884 43.085606 -0.9470982
40.221905 43.251358 1.2178555
40.264877 43.2682 1.1739156
39.961933 43.210518 2.2695377
40.228149 43.269234 0.84378201
39.986759 43.164703 -0.73783779
39.986 43.161777 1.7612097
40.078239 43.167679 0.16466424
40.308037 42.997597 2.7991033
39.896294 43.152237 -1.719445
39.880711 43.072384 -0.74081373
40.00246 43.154716 -0.6410619
39.873657 43.075493 0.36134997
40.234169 43.306908 1.3975105
39.771832 43.075401 -1.2375339
39.87225 43.018757 -0.83533341
39.865643 43.017796 -0.75141454
39.957127 43.189114 2.5422118
39.782417 43.076984 -0.94476581
39.898983 43.153095 -1.5053822
39.970055 43.179527 2.4519851
39.952507 43.196793 2.3701975
39.987816 43.154453 -0.94800544
40.234917 43.195366 0.75826073
39.975735 43.154037 0.25182897
40.236694 43.19455 0.86219144
39.961136 43.099041 -0.9491601
40.241714 43.170883 1.8544157
39.868378 43.078632 -0.63782418
39.915081 43.178848 1.1326768
39.883881 43.088142 -0.34379789
39.966393 43.102539 0.56032735
40.269062 43.257965 1.6330425
39.876656 43.086498 -0.44090018
39.862732 43.180557 -0.058698431
39.975273 43.181469 0.45545816
40.222023 43.250763 1.9156687
39.873138 43.074291 1.2556436
40.231571 43.169907 2.0672231
39.998493 43.149445 -0.13827346
39.968975 43.106548 0.26364559
39.768101 43.085308 -1.5373602
40.225601 43.268585 0.964472
39.837929 43.13868 2.377584
40.233559 43.18745 1.2578596
40.227863 43.267323 -1.2907447
40.235291 43.189556 0.96377754
40.017738 43.103561 2.344048
40.070004 43.10601 2.1613257
40.094376 43.282562 0.046665698
39.876762 43.09288 -0.83994693
39.87429 43.077072 -0.038214635
39.963902 43.283474 0.76622045
39.778923 43.082867 1.5642397
39.871895 43.014072 -0.64425629
39.850128 43.032681 -0.56092143
39.965435 43.103424 -0.43234426
39.968132 43.105072 0.66446346
40.260536 43.100258 2.2586107
39.971054 43.097054 1.2521077
39.874207 43.073143 0.55799556
39.905937 43.161888 1.6721847
40.241344 43.351139 0.40105641
39.983971 43.162708 1.1500022
39.981071 43.18195 0.58453959
40.184864 43.27684 -0.32128385
40.137817 43.273746 2.4722888
40.031628 43.034096 2.5082202
40.077251 43.188011 1.7552841
39.972588 43.112339 0.16427991
40.052895 43.105839 2.4548423
40.08633 43.318897 1.5658851
40.089615 43.269344 -0.047532082
40.082455 43.168312 0.45911312
39.789062 43.199722 1.8465209
40.059223 43.120178 1.2600316
40.074707 43.111168 1.6671937
40.059265 43.113281 1.4708726
40.050407 43.124557 0.25976396
40.232895 43.255775 -1.0695808
39.874153 43.079533 -0.54635632
39.973526 43.105007 -0.14237566
40.081802 43.183651 0.66908932
40.066936 43.181183 2.5181315
40.238117 43.191467 0.4590973
40.072151 43.133675 2.7398994
40.081181 43.181221 1.1551889
40.061584 43.113411 1.5605044
40.158691 43.267639 2.038815
40.085674 43.168293 0.26387373
40.079807 43.180462 1.5603477
40.062035 43.262138 2.3813643
39.877594 43.074585 0.66925454
40.085667 43.172516 0.36699986
40.087379 43.175262 -0.33480167
40.057262 43.109371 -0.3403604
40.233948 43.197136 0.66018909
40.193642 43.19239 1.1579593
40.074165 43.121384 1.1587344
40.032402 42.984074 -0.060362667
40.076298 43.189213 1.6539342
40.093044 43.001987 0.59471685
40.189697 43.195972 1.8529987
40.182209 43.124134 -0.93872935
40.234581 43.261471 1.4838834
40.191849 43.194073 1.0591301
40.063221 43.081028 -1.3645475
40.065926 43.12188 0.17200601
40.105709 43.262741 1.8938726
40.067429 43.118752 -0.2409211
40.055794 43.105045 -0.72832435
40.058605 43.131065 0.96511102
40.059666 43.129356 0.36147287
40.106945 43.257359 1.6638017
40.027573 43.018105 -1.6135991
40.096321 43.278667 1.943876
40.18401 43.194645 0.25845459
39.789314 43.07085 0.54392642
40.043755 43.024715 -0.46627453
40.183929 43.11779 0.75050408
40.187111 43.191528 -0.33912852
39.981991 43.178043 0.72938287
39.974144 43.101704 1.3564942
40.095055 43.08728 2.2595363
39.958649 43.08086 -1.7347466
40.080162 43.166008 0.56075287
40.056255 43.125629 0.055451095
40.079227 43.161701 0.061314549
39.969883 43.102039 -0.24198423
40.081181 43.129097 0.86048585
40.049789 43.125111 0.56272358
40.18663 43.193874 -0.13503094
39.780376 43.160606 1.2401875
40.079411 43.175526 -0.42703682
39.872841 43.111431 -1.534409
39.96727 43.107162 -0.54276383
40.131527 43.350483 1.3044147
39.990074 43.170033 0.87703723
40.057476 43.115952 -1.4406908
39.988262 43.157173 1.5906981
39.93306 43.010494 -1.5277333
40.180634 43.190594 0.062839128
40.195724 43.197277 0.95837092
40.237953 43.196953 0.55798
40.076744 43.103745 -0.93791974
40.191792 43.19458 1.5597205
40.125896 43.379475 2.6497548
39.978394 43.099792 1.4658053
40.191505 43.201412 1.7570037
40.155487 43.029911 -0.53208673
40.061142 43.123978 0.4621197
39.969418 43.095654 1.8515689
40.080353 43.222557 2.2675691
40.155289 43.111584 -0.53549016
40.193195 43.195072 1.4614099
40.157063 43.193329 2.5654716
40.156036 43.031689 2.102632
39.972469 43.10202 0.75704873
40.062828 43.009644 -0.2362403
40.173107 43.108913 1.7734091
40.080006 43.108242 1.7553807
40.040325 43.27932 1.0684726
40.02047 43.02277 -0.92979419
40.190929 43.194664 0.66009986
40.072121 43.186546 -0.73591346
39.961769 42.994564 -0.82865834
40.070324 43.19738 2.1471069
40.149574 43.118408 1.9792
40.164135 43.131252 0.96069753
40.105438 43.27169 -0.10616568
40.174393 43.105263 -0.057721846
40.191013 43.191578 1.2614721
40.058102 43.262733 2.6938593
40.175655 43.26255 1.7569454
40.192368 43.192162 1.3588581
39.988049 43.014374 0.78245342
39.965748 43.097656 -0.33299187
40.188091 43.192364 0.56140798
40.085217 43.179989 1.4595462
40.187061 43.120235 -0.42917469
40.067039 43.209328 2.3737926
39.916809 43.150616 0.65427411
39.94915 43.19651 1.9115447
40.076962 43.179619 0.95928878
40.198681 43.267971 1.4562238
40.178841 43.261654 1.3522037
39.938377 43.023663 -0.6397866
40.072029 43.179581 -0.93498778
40.079762 43.278465 1.7642229
39.78611 43.191963 1.4793618
40.077797 43.084988 -1.2411164
40.083973 43.171169 -0.042234901
40.078953 43.17691 0.85226667
40.163555 43.298645 1.8594259
40.193966 43.118011 -1.4367607
40.190075 43.19487 0.3596693
40.183006 43.282776 1.2729753
39.894234 43.173485 1.5139655
39.952785 43.094528 -1.5306497
39.967869 43.028202 -1.5977681
40.092674 43.177467 1.0578367
39.872227 43.098293 -1.1309696
40.093918 43.250076 0.66899812
40.064278 43.19363 -1.5387014
40.076534 43.17524 -0.62592041
40.114079 43.260509 0.27320671
40.186928 43.266819 0.77370566
40.189079 43.195621 0.16142751
40.07679 43.173645 1.2565306
39.869762 43.251228 -1.7389597
40.078335 43.271397 0.39022326
40.052567 43.125916 1.0607888
40.07848 43.111893 1.8675156
40.227161 43.289162 0.3583954
40.231163 43.184086 1.6624511
40.188732 43.197453 0.76048452
40.06765 43.130814 0.66399252
39.89875 43.146175 -1.207063
40.373695 43.013 2.6385205
40.067181 43.121548 -0.44787213
40.340794 43.077892 2.1887653
40.071007 43.123951 -0.13589591
39.960728 43.027054 -1.3564816
39.858208 43.182541 1.4333605
39.856728 43.092678 -1.2374659
39.949493 43.025856 -0.17314836
40.114967 43.260239 2.0633149
40.157074 43.078194 0.47525656
40.018951 43.257721 -1.4123632
40.082825 43.176437 -0.13219528
40.18536 43.107452 0.053667128
39.90749 43.178082 -1.3519142
40.351135 43.112152 2.4836454
40.334152 43.121181 2.5259058
40.233215 43.249359 -0.4134514
40.234913 43.266239 -0.25662893
40.073433 43.109234 2.067652
40.184467 43.123009 -0.84206206
39.883137 43.16008 0.39699322
40.063477 43.1049 -1.0403732
40.184196 43.19305 2.2578716
39.880333 43.184212 1.0761569
39.969349 43.094337 1.5630897
40.056168 43.199253 1.8438942
40.072762 43.199909 2.0621388
40.160721 43.143059 0.26313299
40.186783 43.109547 0.85678601
40.185997 43.188866 -0.4358449
40.185123 43.12207 -0.73463535
39.993855 43.044724 0.62270623
40.118744 43.258369 -0.78073281
40.09222 43.266037 0.57341629
40.072063 43.286194 1.2544324
40.177299 43.27253 1.9674157
40.078678 43.104816 -1.1387538
40.188301 43.198833 -1.1408165
40.164925 43.283356 2.2541525
40.091942 43.287327 2.452492
40.186817 43.193649 -0.63420451
40.191814 43.261089 1.035872
40.188534 43.267719 1.6579407
40.16621 43.106632 -0.23845883
40.164829 43.125694 1.8702011
40.038479 43.279045 0.83511662
40.065498 43.26292 -0.23548952
40.159031 43.397121 2.4348483
40.072807 43.187992 -0.84362078
40.167728 43.290936 -0.2143683
40.172939 43.266727 1.1649777
40.091187 43.274338 2.1640699
39.975224 43.200329 1.8713695
40.191772 43.192764 -0.037799321
40.143707 43.334541 2.5965176
40.118725 43.363987 2.3094316
40.181355 43.278454 0.63555783
40.111553 43.348499 1.9691907
40.146999 43.338081 -0.12769869
40.114761 43.30146 -1.1282458
40.12027 43.390808 2.211585
40.158573 43.37915 1.5404682
39.991131 43.287621 0.85196197
39.949528 43.26524 0.19035551
40.167675 43.276455 -0.45485184
40.152321 43.350086 0.20641761
40.179821 43.186981 2.1694119
40.186447 43.19149 -0.7432487
40.175045 43.101257 -0.15223861
40.163769 43.132523 -0.34454802
40.192371 43.196556 1.6517699
40.135925 43.280487 2.3612559
39.869175 43.165142 1.7474831
40.132572 43.268406 2.6949546
39.967358 43.173164 1.6571722
40.110588 43.281872 2.282841
39.983723 43.037502 -0.19879715
40.185341 43.195839 1.957882
40.186432 43.191902 -0.23434317
40.165756 43.135834 -0.64350605
39.98304 43.114162 -0.043906804
40.055973 43.114986 -0.53880972
40.06971 43.183956 -1.2428741
40.078938 43.174927 -0.5426563
40.075138 43.104122 -1.6132197
40.069992 43.189049 -1.0467756
40.065285 43.187222 -1.1420783
40.069344 43.190678 -1.4375656
39.864746 43.103085 -1.4465023
39.889648 43.177185 1.2471797
39.960331 43.093796 -1.4207098
40.085339 43.162361 0.7521497
40.063736 43.103142 -1.550155
40.25819 43.085373 2.1578796
40.226692 43.278313 -1.2527834
