# .PCD v0.7 - Point Cloud Data file format
VERSION 0.7
FIELDS x y z
SIZE 4 4 4
TYPE F F F
COUNT 1 1 1
WIDTH 1437
HEIGHT 1
VIEWPOINT 0 0 0 1 0 0 0
POINTS 1437
DATA ascii
34.93325 30.722134 0.54426277
35.283012 30.871754 -2.1547532
34.943123 30.823545 0.87973833
34.836193 30.818981 0.48343217
34.842979 31.544947 -1.2970678
34.783264 31.605499 -1.6372124
34.767921 31.565271 -1.4437063
35.542938 31.71154 0.11207667
35.090401 31.203943 2.6571457
34.805222 31.600971 -1.7122211
35.015991 31.407307 0.65761578
34.975853 31.071123 1.1749903
35.236866 30.937782 -1.8957762
34.99966 31.747049 0.12592605
34.992317 31.420742 0.73967206
35.023026 31.753374 -0.50370502
35.25375 31.051458 -2.200624
34.906174 30.889881 -2.4726276
35.122524 31.447037 1.3866006
35.237404 31.205229 2.9356492
35.5662 31.70742 0.38869038
35.270805 31.126373 2.9717593
35.265705 31.085997 2.8493817
35.275185 31.099771 2.7473969
35.133427 31.468323 0.68667316
35.117241 31.274227 2.8031001
35.253216 31.184984 2.7380464
35.25127 31.184679 2.8477147
35.258194 31.103811 2.4530563
35.232239 31.197977 2.473815
35.262161 31.105782 2.6884959
35.24136 31.185663 2.6669765
35.10614 31.206312 -0.030100405
35.251282 30.933241 -0.33660623
34.98748 31.501322 -1.1305385
35.106468 31.210947 0.15464689
35.13216 31.518166 -0.84018081
34.997841 31.518711 -1.011451
34.874817 31.393972 0.11061099
35.555214 31.629717 0.34804285
34.956593 31.654106 -1.0914993
35.524364 31.683575 0.26520482
35.017738 31.342697 1.2449403
35.107933 31.214209 -0.12562278
34.831345 31.507902 -1.4571025
35.107643 31.220509 0.46451634
34.95911 31.518923 -1.3632907
34.991795 31.65785 0.26427954
34.873211 31.519236 -1.501979
35.110744 31.219824 0.35486126
35.138664 31.47617 -2.0265815
35.313549 30.943346 1.0169072
35.106247 31.209476 0.75630951
35.094666 31.307056 -0.7324971
34.983559 31.653625 0.045449577
34.992947 31.516441 0.36364052
35.098129 31.197083 1.5563028
34.762917 31.684477 -1.033465
35.098957 31.207396 1.3619074
35.102501 31.212849 0.85564637
35.09584 31.205584 1.6635739
35.100506 31.210791 1.1668513
35.249432 31.61816 0.3149178
35.100826 31.211372 1.7609903
35.261459 31.326195 2.277416
35.095364 31.209663 1.2645085
35.25053 30.887085 0.11595531
35.08345 31.302681 1.3582429
35.103283 31.215488 1.0629954
35.001385 31.519201 0.46106878
35.10907 31.218977 0.56028044
35.570641 31.641102 -0.0537703
35.078873 31.292667 1.6603218
35.147957 31.66082 -0.11931421
35.095272 31.302727 0.6633938
35.090885 31.302706 0.8617
35.088535 31.298319 0.96052384
35.096405 31.305058 0.56066376
35.111694 31.215256 0.061476216
34.983654 31.521341 -0.34286326
34.907394 30.822916 0.22908783
35.018559 31.387636 -1.1330113
35.23241 31.172981 2.3696501
35.222088 31.205811 1.4249558
35.047192 31.660858 -0.11751053
35.128963 31.384047 -0.33101073
35.325089 30.986179 -0.61860818
35.097534 30.982359 2.6467152
35.101738 31.208109 -1.0461311
34.870438 30.952993 -1.4323351
35.191219 31.59149 0.031446021
35.138329 31.286036 -0.040600561
35.147129 30.876125 1.8848276
35.006618 31.424574 -0.94046074
35.076897 31.10006 1.9653069
35.149632 31.282049 -0.74240261
35.171448 31.567749 0.6000123
35.216553 31.581253 0.38221169
35.140949 31.281977 -0.239721
35.064823 31.602716 2.3571393
35.141823 31.283392 0.055537064
34.992191 31.503546 -0.63062841
35.071739 31.505596 1.9614612
35.079807 31.490908 1.7631276
35.237041 31.071526 -1.4395511
35.128773 31.370882 -0.44770831
34.838646 31.684555 -0.036640882
35.160126 31.005243 -1.4440101
35.075172 30.981213 -2.1463099
35.089672 31.00753 -2.3200216
34.944427 30.929541 0.46648607
34.99929 31.51329 -0.43709734
34.98613 31.510427 1.3632696
35.242764 31.072657 1.4592463
34.891659 30.962509 0.56563085
34.89344 30.968304 -2.0226338
34.961025 30.889067 -2.0474856
35.075222 30.985109 -2.0099173
34.765305 30.830593 -1.8389513
34.971066 30.916321 -1.3543291
34.869751 30.914045 -0.23380743
35.241436 31.069464 1.7533392
34.878105 30.823164 0.87617242
34.754669 30.828402 -1.2491789
34.963547 30.791437 -2.2921228
34.952267 30.907862 -1.2332757
35.221081 30.849394 1.6725385
35.283531 30.913612 1.449526
34.873535 30.881388 -1.9312923
34.956696 30.924538 -0.82919914
34.978283 30.909601 -1.9340249
34.763493 30.877748 -0.43770781
35.06012 30.923805 -1.7328008
35.045387 31.489607 0.85972488
34.765713 30.889099 0.85858154
34.972561 30.888046 -2.1345313
34.779209 30.812794 -2.137903
34.845798 30.86919 -2.2215295
34.87286 30.910381 -0.43904477
35.076637 30.933027 -0.8279748
34.847389 30.811268 -2.2276587
34.959999 30.92478 -1.1442941
34.771606 30.817331 -1.9486887
34.926739 30.840214 -2.430968
34.952328 30.931736 0.15762262
34.959629 30.917912 -1.0364708
35.079777 30.984005 -1.3320849
34.885677 31.613142 2.5468166
34.776878 30.874083 -1.3359287
35.136154 31.385515 -0.63962781
35.056797 31.597397 2.0607123
34.731949 30.664352 0.15122499
34.888569 30.726334 0.14346448
34.881516 30.964676 -0.34856617
34.885132 31.68544 2.1568701
35.235786 31.077412 -1.0362302
34.768692 30.883295 -0.039144069
35.166252 31.001999 -1.5370334
34.98082 30.96652 -0.037097316
35.221199 31.150743 0.82495677
34.970608 30.921021 1.2752008
35.15974 30.920172 -0.33125603
34.832737 30.824095 -1.6406848
34.868805 30.914522 0.26299351
35.235847 31.073685 1.3560108
34.863224 30.916561 0.85997868
34.768032 30.877237 -1.0417621
34.749233 30.822674 -0.63813025
34.9748 30.841589 0.29755807
34.937347 30.838034 -0.96043754
34.756432 30.821589 -0.23338185
34.758209 30.816816 -0.73166841
35.169853 31.012302 -1.337424
34.980572 30.874846 -2.2221274
34.956249 30.929516 1.0616663
34.950771 30.929754 -0.13884066
35.024311 31.665199 -0.35719505
35.142792 31.564154 0.68236291
34.979 30.980364 1.0559849
34.768719 30.882658 -0.34366894
35.03986 30.920151 -0.34615892
34.770668 30.885464 -0.23996925
34.967793 31.441917 0.10069339
35.225002 31.173988 2.0650337
35.244259 31.150263 0.38925931
34.727612 30.666477 0.32975903
35.133396 31.379585 -0.73698556
35.125763 31.645653 -0.055529926
35.225307 31.197868 -1.0185189
35.143692 31.279053 -0.33864847
35.141296 31.280924 0.15558231
35.23806 31.076809 -1.1387206
35.236954 31.059708 0.15930003
34.879284 31.591665 2.2488592
35.140423 31.296022 -0.63426679
34.872204 31.609589 2.3568656
35.136959 31.28389 -0.14328463
34.889275 30.956404 -0.22833739
35.102806 31.214767 0.96038914
35.129406 31.38426 1.2505734
35.108051 31.210304 0.26560661
34.797653 31.573997 -1.5112053
34.865856 31.728519 0.3523778
34.867649 30.828625 -0.34714639
35.046329 31.588291 -0.94126761
34.987572 31.056671 0.75148576
35.180382 31.612066 0.15871234
35.076996 30.993277 -0.54330683
34.805332 30.72328 -0.11949432
35.075867 30.918747 0.14510959
35.145927 31.380917 -0.51133138
35.165154 30.986565 -1.9345057
35.179508 31.089729 1.8610919
34.871288 30.901024 -0.83738172
35.153023 31.290237 -0.93950576
35.141201 31.378803 -1.1246958
34.884529 31.57803 -0.53657657
35.336159 31.005951 0.55512744
35.238499 31.061293 0.65555775
34.877125 31.573851 -0.03608048
34.867947 31.573223 -0.64203012
35.235508 31.062254 0.96246529
34.871403 31.671118 0.29113233
35.068325 31.396633 0.96021181
35.223038 31.198509 -0.62370872
35.271706 31.146658 0.057220049
35.232491 31.210274 -0.7481671
34.88023 31.568769 -0.14289904
35.140388 31.382124 -1.2330803
34.871086 31.580912 -0.72890073
34.681854 30.696795 -0.42275983
35.237511 31.082029 -0.93389583
35.188145 31.077978 -1.1331969
35.243782 31.023266 1.8633834
35.084049 30.761797 0.93478495
35.041065 31.588158 -0.24555372
35.220882 31.235994 -1.1151067
35.365974 31.014915 0.45229718
35.160889 31.298044 -1.1223702
34.833523 30.719076 0.42952728
35.327 31.030802 -1.2869369
35.222816 31.157389 0.51038206
35.000237 31.431961 0.24836317
35.548695 31.69416 -0.24815375
34.976719 31.587538 -0.53460497
35.248676 31.015207 -1.6462407
34.938465 30.806057 -0.65149653
35.071232 31.499174 -0.94331759
34.975159 30.970213 0.26202154
34.976326 30.970623 0.46614307
34.877419 30.877874 -1.8434502
35.185928 31.570339 0.45791119
34.792297 31.65913 -0.72942626
35.00663 31.408037 1.3685372
34.849579 30.82217 0.97462106
34.873737 30.810936 0.64276433
35.173725 31.02305 1.1656848
35.242538 31.183804 1.7724189
34.759117 30.824945 0.36174914
34.748638 30.836063 0.76303685
35.235218 31.063604 1.1668564
34.962105 30.907856 -1.7347945
34.97504 30.975889 0.85936481
35.105534 31.215471 -0.74196523
34.883312 31.566751 0.059821345
34.868355 30.905432 -0.94498354
35.152946 31.448784 0.19284081
34.972942 30.969023 -0.24017605
34.751141 30.813818 -1.7314229
34.93993 30.841967 -1.7023779
34.971821 30.980209 1.2569468
35.185322 31.080774 -0.23431318
35.044395 31.751102 1.3055333
34.995419 31.2911 0.17220555
34.880669 30.966488 -0.83308691
35.072544 31.494551 1.8696058
34.882534 30.959002 0.3675088
34.864594 31.687256 1.9649725
35.162781 31.187292 -0.64161319
34.878761 30.961483 0.26033062
34.871456 30.897202 -1.4430714
34.869617 31.596628 2.4635582
34.751633 31.539276 -1.6172252
34.772297 30.819448 0.56692761
34.763649 30.824158 0.67181695
34.748936 30.827589 -0.83597344
35.234238 31.05987 0.54859495
35.167492 31.190454 -0.73592019
35.261024 31.110394 2.5611022
35.13208 31.385757 0.14024766
35.159866 31.193258 -0.23746948
35.134762 31.359882 0.97766936
35.152687 31.190632 0.25846609
35.151386 31.188688 0.35982841
35.140205 31.372202 0.85815758
34.721893 30.742462 -1.6956605
35.158211 31.190285 -0.33772105
35.241062 31.024643 0.85764402
35.235493 31.030609 0.76506031
35.503075 31.647703 0.86985523
35.212536 31.132904 -1.9639904
34.870026 30.90942 -0.33797657
35.154121 31.386311 -1.7358167
35.02557 31.84437 0.42325979
34.941677 31.053808 0.83880508
35.324997 31.034836 -1.4946005
34.878136 31.602324 2.1719635
35.235847 31.337793 2.3392572
34.788471 31.583616 -0.036323998
34.792221 31.584972 -0.73254323
34.772572 31.620789 -0.41440123
34.770309 31.581375 -1.2497823
34.78154 30.876377 -1.5395367
35.078011 31.29376 -0.94086307
34.961311 30.930355 -0.73452574
34.953247 30.927006 0.25577906
35.065487 30.891798 -2.252753
35.083344 30.988874 -1.0282021
35.085522 30.897831 -2.3025196
35.25032 31.013662 -0.33924127
35.05748 31.489353 1.3628219
34.630623 31.625145 -0.85886621
35.145985 31.38501 -0.26034534
35.239899 31.020447 -0.43123779
35.243725 31.022839 -0.038782291
35.285156 31.303396 2.4984539
34.967346 30.919899 -1.4456154
34.863056 30.829605 -0.50880742
34.862038 31.520937 -0.33505049
35.049789 31.604572 -1.4329566
35.172607 31.109737 2.4762156
35.346786 30.999653 -0.53815615
35.134232 31.378706 -0.046873648
34.866444 31.519989 -0.8244431
35.088604 30.807901 2.4421272
34.841213 30.813931 0.15780999
34.972977 30.980667 1.1589153
35.177097 30.935429 -2.1367373
34.86776 30.901379 -1.0324064
35.229179 31.168629 1.5662241
35.157875 30.933298 -1.712582
35.178177 31.080616 0.86159664
34.980602 31.054916 1.3414166
35.100346 30.790873 -1.2934315
34.863659 30.819862 0.066184632
35.140377 31.283533 0.56410676
35.178917 31.56086 -1.3227528
35.156139 30.99789 2.2437928
35.146355 30.963314 2.4810262
35.051823 31.590582 1.7589188
35.034954 31.591187 0.56215185
34.899239 30.963417 -1.1142814
34.981731 30.975357 -1.3297015
34.863861 30.896399 -1.2366898
34.881344 30.954067 -0.64363909
34.865639 30.902447 -1.1330632
34.871052 30.892014 -1.3356289
34.870804 31.52005 -1.2043047
35.098179 31.305016 -0.042948216
35.070244 31.662968 2.1735394
34.787739 30.969818 0.44198951
34.849701 31.693851 -0.21080244
35.226036 31.317717 1.5720527
35.200527 31.213015 2.5629659
34.842918 31.749336 0.51139355
34.783676 30.956713 0.66550732
34.97501 30.985737 1.3611047
35.181225 31.609705 -0.25375965
35.239677 31.030039 -1.2298111
35.154236 30.988728 -1.7385366
35.034653 31.589024 0.35886338
35.134392 31.391794 -1.0367476
35.065678 31.397015 1.1616294
35.048615 31.652098 -1.0462613
35.24255 31.067377 -0.23665759
34.981163 31.589596 1.1608943
35.16782 31.60298 -0.054286946
35.054157 31.591045 -1.1379009
34.94989 31.627131 2.6483393
35.010677 31.381548 1.1637859
34.993275 31.512529 -0.1512825
34.771061 30.866745 -1.6438057
35.008324 31.054129 1.7152027
35.064491 30.928509 0.38952279
35.236649 31.06922 1.2661586
34.986832 31.903481 1.1861149
35.076241 31.298141 1.5615835
34.792191 31.583614 -0.34222138
34.875435 30.960938 -1.6934487
35.178059 31.618259 -0.14033835
34.958714 30.923807 -0.94031
35.086006 31.076973 0.77226883
35.133053 31.283167 0.46396422
34.956013 30.927309 0.361137
35.047546 31.59079 -0.83419824
35.224503 31.180853 1.6497141
34.984669 30.963881 -0.9314937
35.228909 31.215704 1.2493182
35.095463 31.296432 0.4623732
34.969509 30.931499 1.5665877
35.241467 31.064972 -0.1403178
35.243057 31.063616 0.86506498
35.476818 31.67174 -0.045431528
35.247097 30.919941 -0.20232289
35.070927 30.999037 1.1607332
35.211349 30.928669 0.41511983
35.072842 30.996796 0.26558599
35.085533 31.297672 -0.83090377
35.147121 31.381657 -1.339183
35.560074 31.623335 0.074476838
35.158489 31.624361 2.4142938
35.042408 31.645672 -0.9567737
35.18948 30.978607 -2.1314063
34.97813 31.585876 -0.33652687
35.154793 31.293402 1.8644906
35.248714 31.217667 0.11777981
35.182343 31.07877 0.16210458
34.873898 30.889187 -1.5395969
35.057896 31.689056 -1.1277683
34.786411 30.81642 -2.2452471
35.200867 30.916197 0.26564139
35.204742 30.932312 0.12966156
34.87344 31.581249 -0.44203308
34.972126 30.962822 -1.4467661
35.138298 31.281813 1.0676301
34.762787 30.818956 -0.34248325
35.383316 31.633629 -0.40769678
34.867527 30.912634 0.36061212
34.867451 30.906141 -0.73617601
34.7696 31.667225 -0.33112288
35.140038 31.290146 -0.53199559
35.359657 30.970789 2.3270228
35.365875 31.606144 0.073672131
35.178627 31.080299 0.26077345
35.077873 30.929844 -0.41153148
35.182755 31.0844 -0.83427376
34.881992 30.964352 0.76736033
35.174709 30.892048 -0.63611805
35.034996 30.883814 0.97187734
35.171314 30.891207 -2.2994189
35.52243 31.640514 -0.19504736
34.876564 31.586376 -1.4123937
35.181549 30.944059 -1.1358124
34.785568 31.564907 -0.25279635
34.976452 31.590582 -1.0298001
35.340321 31.66703 -0.30341911
34.873051 30.918152 -0.037921321
35.090122 31.288361 1.9509864
34.885735 31.565712 0.2582778
34.876484 31.832766 0.34130234
34.868523 30.963259 -0.7415297
34.651573 31.701714 -0.86593217
35.098099 31.215282 0.65534633
35.175106 31.027527 1.2643574
35.236645 31.013742 -0.83082831
35.330864 31.041258 1.5468154
35.230747 30.943491 -2.0866122
35.168999 31.015364 1.9666003
35.062038 31.616873 2.6532934
34.869373 30.914148 0.057060506
35.077465 31.074141 1.1720476
34.951305 30.931648 0.56483018
34.976089 31.61931 2.1612084
35.085354 31.301546 1.159067
35.146824 31.479841 -2.1076064
34.740276 30.833513 0.45778266
34.763741 30.877041 -1.2443831
35.244797 31.077749 -0.75683838
35.064911 31.397247 1.461223
34.865757 30.913994 0.95770591
34.761623 30.877583 -0.53098696
35.243435 31.073948 1.5686816
35.236317 31.075974 -0.63849247
34.967434 31.677883 2.046422
34.951778 30.928244 -0.042370379
35.235977 31.060062 -0.049423419
35.173172 31.08399 1.5589498
34.962185 30.827999 1.0455185
35.25592 30.997286 -2.0557628
34.883308 30.878059 -2.0324814
34.975544 31.670799 0.6833275
35.125877 31.40185 -0.12813704
35.231552 31.066975 -0.52945465
34.907001 31.657639 -1.3269626
35.243225 31.017548 0.16260605
34.879459 30.967001 0.85635459
34.760128 30.831522 0.27938828
35.325367 31.101677 0.34942973
35.151329 31.40489 -1.6286443
34.947319 30.930574 0.05183896
35.241432 31.01519 -0.74873161
34.961102 30.913759 -1.5496551
34.770985 30.887093 -0.1438763
35.238255 31.022915 0.3565551
34.97686 31.596636 1.6634613
34.969894 30.965092 -0.53569329
35.240917 31.015537 -1.5311219
35.239006 31.072689 1.855597
35.005051 31.321474 0.087937042
34.970871 30.986528 1.4556947
35.244724 31.018557 -1.1401919
34.756813 30.837505 0.17801057
34.979099 30.972013 0.76048928
34.759323 30.824995 -0.54982412
34.812004 30.96912 -0.8691867
35.165264 31.302485 -1.5319937
35.152771 31.19449 0.96059555
35.240486 31.064865 0.77142024
34.883488 31.574045 -0.94203216
34.787746 31.648663 -1.3430493
34.981281 31.591007 1.0648383
35.089851 31.076786 1.4508371
34.982426 30.971163 -0.83790129
34.95026 30.921909 -0.64825028
35.13451 31.377502 0.34222046
34.857327 30.731644 0.25405559
34.832382 31.654194 -0.6379385
34.785011 30.96665 0.75356442
34.848305 30.833176 -0.83901942
34.981091 31.067205 1.6637176
34.762806 30.885151 0.46338463
35.15836 31.299099 -1.3272492
35.062603 31.59304 -1.5414602
35.087322 31.088903 1.7579154
35.17519 31.085379 1.358893
35.241859 31.073914 1.6587257
35.240669 31.067013 0.061671473
34.745499 30.827459 -1.338154
35.06036 30.930035 -1.6251825
35.14254 30.926731 -0.72124118
34.914772 30.952345 -1.5111163
34.753765 30.821081 -1.0492209
34.847656 30.826313 -0.66005635
35.085693 30.983322 -1.2434831
35.237717 31.018368 -0.6454612
34.855263 30.82662 -1.931921
35.044888 30.931202 -0.039122157
35.155987 31.005484 2.6704259
35.162189 31.29637 -1.2404091
35.224319 31.590487 -0.79736352
35.083263 30.929972 -2.112108
34.77784 30.984398 -0.14583693
35.468586 31.635574 -0.33030766
34.868118 30.912432 -0.14162421
35.241043 31.021324 0.46136272
34.805 30.9916 0.27652681
35.041256 30.93088 -0.94113868
35.077911 30.921925 -1.0441574
35.098248 31.304665 0.061931044
35.158573 30.788786 0.29601002
35.097137 30.977798 -1.8309191
34.868919 30.913982 0.45599174
35.083755 31.298611 1.4564923
35.196945 31.102896 -1.5281607
35.14175 30.931629 0.86284107
34.74815 30.820026 -0.94236445
35.320911 31.06332 1.9132206
35.077515 31.075001 2.1412079
34.990215 30.963079 -1.6356386
35.070934 31.004736 1.5647749
35.118385 30.79884 0.24464834
34.829205 30.797428 -1.3354734
35.092899 30.981705 -1.9367521
35.177029 30.927952 0.93357366
35.154411 30.940022 0.38668191
34.953049 30.926556 -0.24307138
34.87458 30.963467 0.17017871
34.883991 31.52339 -0.9301762
35.119713 31.335117 -1.6723971
35.080368 30.919655 0.45769396
35.073597 30.998827 0.95662022
35.04892 30.939627 -0.73897922
35.004227 31.42017 1.5632244
35.10273 31.194519 -0.93409872
35.162182 30.99408 -1.6475669
34.861004 31.523066 -0.63170135
35.126217 31.366405 0.48774663
35.069893 30.984903 -1.1387784
34.976711 30.96563 0.16297184
35.169575 31.023422 1.8592039
34.957268 30.929827 1.4765854
35.059097 30.934441 1.1765163
34.965813 31.592184 -1.2282244
34.847069 30.838278 -1.8287015
34.98159 30.967752 0.066176765
34.812958 30.955261 -1.058771
35.073299 30.989977 -0.44490951
35.054962 30.913298 0.77032316
34.774387 30.873592 -1.1462457
35.238319 31.024715 0.55604094
35.233887 31.080053 -1.5353714
34.865036 31.680513 0.058965918
34.788914 30.965397 -0.75781262
35.051792 31.492701 1.2598742
35.008255 30.825945 -1.350889
35.164711 31.192604 1.6639373
35.067871 30.993151 0.36033803
35.059944 30.916059 -2.0300083
34.86903 30.915283 0.15953006
34.971176 31.655535 0.34383619
34.808426 30.972584 -0.20081177
35.242989 31.015244 1.959716
35.243599 31.075844 -0.34359488
34.985802 31.664179 0.75713265
34.981026 30.973869 -0.34129146
34.987335 31.517832 -0.94556665
35.058517 31.496672 1.4613801
34.987461 30.968523 -0.63614827
34.878147 31.515263 1.8646576
35.070915 30.934748 -1.3486232
35.009525 31.431301 -0.8771562
35.075081 31.302715 1.7529176
34.883354 31.525978 -1.0595224
35.232693 31.073372 -0.43487403
35.17733 31.078806 0.46111006
35.093338 31.303438 0.76144779
34.893505 30.957602 -0.42446601
34.868999 30.910877 -0.53801823
35.069851 31.001772 1.4567318
34.976994 30.967524 -0.13992928
35.073368 31.496189 -1.0438786
35.078102 31.504644 -1.2426587
35.26173 31.006142 -2.2315733
34.87841 30.968077 1.1542695
34.867653 30.834919 -0.72566462
34.977776 30.969467 0.56050605
35.072025 30.908329 -0.62605149
34.984745 31.659117 0.56723022
34.769119 30.969168 0.55616885
34.923153 31.823704 1.144671
35.158176 30.881247 -0.067064203
35.23534 31.057674 0.25793779
35.074116 31.502535 -1.1241351
35.095596 31.205423 1.4687498
35.178017 31.084164 1.1616378
35.323116 31.055262 -0.56420541
34.784264 31.529921 -1.4346644
35.087654 31.085999 1.6648138
34.955723 31.669626 2.1656361
34.747833 30.829807 0.067272507
34.994789 31.664753 1.2786839
35.049145 31.48839 0.66443217
35.089386 31.298962 -0.64243168
35.062763 30.926371 -1.1416054
34.827538 30.843149 -0.28246254
34.771091 30.88772 0.65876514
34.955196 31.617861 -1.7530657
34.915787 31.420654 1.7808621
35.182182 31.089701 -0.74377769
35.254898 31.00952 -1.0348833
34.869938 30.915371 0.66504198
35.242973 31.095495 2.0597115
34.968372 31.601635 -1.3247582
35.075134 30.992334 -0.64365256
34.854965 31.656693 -0.55769145
35.072811 30.994953 0.16448532
35.089748 31.304758 -1.0381205
34.982914 31.58663 -0.63665718
35.070518 31.493872 -0.84173435
35.180378 31.081488 0.35837618
34.891022 30.966141 -1.3554354
34.857403 31.533455 0.26521385
35.239563 31.029774 1.3678892
34.863895 30.913488 1.2633042
35.03933 31.658836 1.269087
34.967377 31.806591 0.56199181
35.24728 30.991024 -1.9387881
34.853062 31.662434 -0.12393671
34.74366 30.737057 -1.6580777
35.234356 31.064737 1.0684831
34.756435 30.830366 -0.43319529
35.070084 31.000683 1.0597146
35.101158 31.214153 -0.34749642
35.177612 31.082493 0.96226871
34.770199 30.886099 0.96063542
34.967247 31.598059 2.0583475
35.076324 30.99119 -0.82979369
35.077614 30.996307 -0.93721753
35.071148 30.996435 0.65558362
35.245888 31.156034 -1.3000338
34.751396 30.867102 -1.9384415
35.13876 31.269531 0.2660118
35.153049 31.292118 -1.0421631
34.961109 30.929613 -0.4441199
35.073868 31.001612 1.3592004
34.768612 30.888958 0.76321632
34.912785 30.94635 -1.2742933
34.768711 30.874699 -0.83324319
35.070019 31.00049 0.86046267
34.873837 30.96977 -0.92882675
35.243721 31.111603 2.3692346
35.07127 30.989759 -0.3395611
35.150604 31.29331 1.4661603
34.888031 30.958416 -0.13146947
35.164951 31.296206 -1.4460427
34.867062 30.83898 -1.1501279
35.107594 31.21682 -0.41397548
35.248787 31.005466 -1.7278793
34.943962 31.788376 0.34225285
35.250168 31.103497 -2.0518122
35.182526 31.195812 1.9544857
35.071842 30.997749 0.75500107
35.225021 30.877918 0.68979836
35.173313 31.02422 0.95882791
34.861534 30.838589 -1.0379109
35.175537 31.019785 1.7639816
35.164692 30.987787 -1.8379033
35.072201 30.990477 -0.23843874
34.849483 31.516472 -0.4295108
34.890598 30.96792 0.45769623
34.881016 31.673599 2.0629923
34.956165 31.614534 2.4516194
35.162971 30.792389 0.94830424
35.178268 31.083128 0.65790147
35.071011 30.993793 -0.037368838
35.15295 31.195129 1.0615418
35.085373 31.302458 1.8606926
34.857262 31.531612 0.1659905
35.166061 30.879848 1.9810994
35.138363 31.373409 0.060297079
34.865028 31.523045 -0.537723
34.8661 30.914675 1.1641009
35.096447 31.293808 -1.5210541
34.976585 30.969137 0.36247587
35.170361 31.091425 1.9588122
35.179169 31.078999 0.56065923
35.174664 31.016052 2.1586542
35.143288 30.907427 -1.2480795
35.17746 31.080622 1.2617433
35.242554 31.058344 0.35277504
35.075115 30.995535 0.062712118
34.99649 31.780291 1.881891
35.093254 31.099949 -1.2060746
34.767551 30.886076 0.36357513
34.749924 31.541126 -1.5312232
34.770237 30.886848 0.16551767
35.061119 31.588131 -1.2321409
34.880894 30.965654 -1.044518
34.853958 31.508066 -1.1086259
35.069187 30.99641 0.55990762
34.957932 30.929007 -0.53279805
34.87122 31.526945 -0.236846
35.053047 31.662312 2.4410071
34.755283 30.823925 0.87200469
35.156315 30.920465 -2.2484145
34.969151 31.590645 -0.94041222
34.860016 30.911142 1.0581919
35.053345 30.820953 1.8696814
35.145779 31.407043 -1.4470673
35.071117 31.000118 0.45864266
34.979187 30.969822 -0.73642409
35.089577 31.406502 -1.3407182
35.373119 31.60504 -0.23846641
35.37302 31.612604 -0.028368717
34.772205 30.885387 0.062927738
34.846844 31.523479 -0.72878325
34.883015 31.590572 -1.1342938
34.874104 31.57423 -0.84230828
35.245296 31.101158 2.1606054
35.069984 30.996449 -0.13839729
35.174931 31.019615 1.5573239
34.7729 30.876648 -1.4303278
35.064232 31.001799 1.2594234
34.86515 30.82513 -0.43774462
35.143002 30.901924 -1.4128693
35.290329 30.943026 2.3824191
35.109528 30.842316 -0.64102685
35.051086 31.483757 1.1609247
35.224075 31.175993 1.9631224
35.042656 31.674711 1.7534971
35.170231 31.024883 1.6598954
34.95055 30.933767 0.65692627
34.892204 31.605951 -1.5304842
34.948807 30.930672 0.76412368
35.175056 31.02441 1.064234
35.071766 30.989649 -0.74184424
34.716946 30.73752 -1.359956
35.361904 31.130274 -1.1650277
35.564999 31.755568 0.18177311
35.005672 31.410982 0.96629697
35.181412 31.095076 -1.0456588
35.19379 31.091848 -1.4358797
34.933434 31.774246 0.82269514
35.237759 30.987896 2.6394448
35.176922 31.088621 1.4569175
34.891586 31.862143 1.149071
34.772732 30.882254 -1.7404355
35.180092 31.089327 -1.3352382
34.971436 30.970406 0.66062689
35.05265 31.490408 1.0627772
35.138721 31.283916 0.95914871
34.980766 30.965216 -0.44106945
34.982082 30.958342 -1.7368634
35.562721 31.691139 -0.15791056
34.944176 30.92617 0.95557058
35.094547 31.311945 -0.53433818
34.952114 30.929688 -0.34232676
34.879108 31.567953 0.16236812
35.487221 31.684694 -0.22394647
35.152416 30.934172 -1.9548857
34.991173 31.053646 1.4773749
34.996819 31.412039 1.2614176
35.075302 30.984043 -1.5386099
35.070793 30.97876 -1.6357237
34.751499 30.829372 -1.1500341
35.082218 30.986317 -1.7361082
35.174702 31.024458 0.75690836
34.947144 30.828089 0.41932791
35.462219 31.620621 -0.062748186
35.17358 31.023548 0.86158115
35.157894 30.926945 -0.25217202
34.762897 30.824917 -1.6461155
34.69072 31.63002 -1.131273
35.149025 31.289497 1.5478765
35.143719 30.894316 -0.92405117
34.772026 30.810183 -2.0252013
35.067776 31.661398 2.5441144
35.234818 31.278009 1.7846448
35.277931 31.659386 -0.097352281
35.487923 31.663849 0.29195067
34.770557 31.657883 -0.43895483
35.17638 31.084455 1.0598255
35.233837 31.019827 2.3488307
35.063309 31.671972 0.46144539
35.06728 31.394735 1.3621963
34.839466 30.734449 -0.032041963
34.888153 31.490599 2.2392225
34.862038 31.706554 0.47742993
34.867653 31.519484 2.1394081
34.874008 31.543221 2.7135127
34.963444 30.719049 0.10690411
35.134518 30.929031 -1.8372066
35.125488 30.926159 -2.0265224
35.025986 30.925123 0.29900551
34.75782 31.666084 -0.23586094
35.24675 30.932226 -2.2177558
35.170113 31.021423 1.464963
34.991932 31.613165 -1.6499879
35.466751 31.67017 -0.11792599
34.808769 31.651007 -1.2437372
35.279922 30.998276 -2.1588602
34.981674 31.594147 1.2616481
35.240856 31.024771 1.0458963
34.907776 31.749769 1.5083381
35.033607 30.923254 0.83997053
35.172958 31.024626 1.359059
35.262436 30.886776 0.91394514
35.1306 30.801441 2.065289
35.238731 31.031931 1.158958
35.15424 30.763494 1.9180919
35.131638 30.764666 1.8952773
35.086746 30.988514 -1.4342365
35.230797 31.174831 -1.4107418
34.875916 31.585676 -1.3366039
35.168816 30.807184 1.7615625
34.947533 30.959478 -1.9357873
35.149643 31.192713 0.45949727
34.979992 31.594336 1.4618578
35.246273 31.02487 1.2661619
34.791191 31.440699 -1.0401284
34.834713 30.992264 -1.6331818
35.148602 31.189327 0.55684239
34.980049 30.970322 -1.1300777
34.867794 30.889669 -1.6467963
34.845604 30.830402 -2.022728
34.978947 30.964188 -1.0337586
35.234947 31.023628 0.96456909
34.885731 30.971828 1.0673825
34.861046 31.586342 -1.2436609
35.149963 30.927864 0.60029626
34.838459 31.699543 -0.4863486
34.769794 30.874601 -0.9374007
34.985855 30.969301 -1.2384046
34.863926 30.912184 1.3584834
34.773518 30.880478 -0.74669391
35.126472 30.944891 -0.41014996
34.876812 30.973833 1.2622055
35.163563 30.914671 0.076386027
35.245506 31.089096 -1.8384193
35.135666 31.285053 0.85809958
34.973774 30.976252 0.96248752
35.246552 31.013302 2.5569956
35.144634 31.285275 1.160892
35.146198 31.289194 1.3613853
34.815655 30.72925 -1.2804215
34.780163 30.70282 -0.74656177
35.554123 31.638489 -0.15671714
35.037048 31.581816 -0.043767467
34.864334 30.908607 -0.6362797
35.051243 30.916023 1.0719484
34.945446 31.680618 2.3676245
35.042046 30.93165 -1.2175288
34.801418 31.570511 -0.8412323
35.102188 31.212555 -0.53936195
35.089035 31.227314 -1.2513758
35.098862 31.21427 -1.1505129
35.228512 31.184805 2.2717671
35.059914 31.49316 1.5620953
34.979767 31.059336 1.5680679
35.021996 31.652191 -0.074376501
35.038498 31.66917 0.07662119
34.769711 30.879936 -0.639705
35.074242 31.39616 0.064699106
35.426735 31.688236 0.1890346
34.873329 31.566631 -0.23280127
35.09779 31.30442 0.36259791
35.01712 31.056522 0.99211019
34.798252 31.5907 -0.64427286
34.849915 30.796846 -2.3139594
35.500416 31.67388 0.94962442
35.129791 30.822994 1.6877618
35.325138 30.940952 1.8838217
34.994354 31.055731 1.1087425
35.056198 31.663313 0.35976136
35.049191 31.588774 -1.0356938
34.707481 30.737232 0.66413611
35.162338 31.408752 -1.8595607
34.872478 30.83584 -2.1557801
34.949524 31.757004 0.43078732
34.996151 31.519733 0.86348003
34.881756 31.5839 -1.0341054
35.044498 31.485567 0.76187533
35.047962 31.488062 0.96068501
35.051811 31.670132 0.66004872
35.065609 31.398581 1.0605114
35.039497 31.64797 0.55545008
35.071312 31.393173 0.56239158
35.124172 30.906301 -1.6080946
34.763924 30.884848 0.56042391
34.850746 31.525452 -0.13835526
34.986687 31.506748 1.2678988
34.987331 31.40346 0.39142841
35.482006 31.650045 -0.31958461
35.13673 31.389832 -0.93305695
35.179886 31.295599 2.354202
35.115421 31.533075 -2.1477599
35.160545 31.196712 -0.53005695
34.987507 31.667313 1.1567179
34.959202 31.66893 2.2581677
34.890354 31.679022 2.656054
34.786415 31.715872 0.46692532
35.016556 31.537937 -1.4121819
34.99107 31.510342 -0.5484013
34.982338 31.595352 0.96100813
35.00449 31.409384 1.4640559
34.840225 30.841461 -1.7223904
35.171947 31.10778 2.1533606
34.870533 31.604483 2.0597398
34.944946 31.678177 2.5566025
34.86591 31.591936 2.6736858
34.868298 31.513611 2.0533137
35.070034 31.392229 0.66320252
35.152916 31.184896 0.86120516
34.876526 31.596954 1.9604
35.330845 31.025795 1.1529547
34.97662 31.599289 1.760729
34.951248 31.614651 2.3686547
35.158077 31.19191 -0.13921811
35.121986 31.408384 1.0967357
35.171494 31.383192 -1.9232199
34.983208 31.430162 2.3703196
35.016521 31.421675 0.53311247
34.871685 31.536224 2.4884043
34.984184 31.662373 1.471097
34.973202 31.602722 1.8603092
34.89436 31.52083 2.353503
35.150578 31.193344 -0.037333168
35.134567 31.377687 1.3708073
35.011448 31.225851 0.93508172
34.841034 30.825897 0.39762741
35.157459 31.296558 1.7602261
34.959114 31.608318 2.2642288
34.945633 31.676775 2.6506202
34.972858 31.598763 1.9522867
34.989594 31.665604 1.7506624
34.979774 31.66713 1.8567984
34.976265 31.595051 1.3583845
34.983368 31.511499 1.5577825
34.868477 31.504494 1.9524076
34.994129 31.506254 0.95992839
34.981758 31.662813 1.3605074
34.983932 31.590685 0.86369598
34.98296 31.589886 0.65966254
35.051384 31.662523 1.445857
34.982857 31.588831 0.36225387
35.108242 31.225574 -0.247822
35.032856 31.590673 0.45493263
34.983944 31.590345 0.26360884
34.986019 31.589622 0.46100047
34.74424 30.826565 -1.5317966
34.98455 31.589714 0.56232637
35.043423 31.59333 1.3582385
34.678928 31.999807 1.1283857
34.981792 31.589504 0.76204431
35.246925 31.03327 1.5566355
34.983704 31.590275 0.16168189
35.132927 31.375307 -0.85159558
35.138721 31.347166 0.76841301
34.790096 31.556337 -0.94967085
34.864601 30.912445 0.55636299
35.146847 31.283792 -0.43821108
34.97979 31.506947 1.4603295
34.976948 31.659111 1.5657905
34.994465 31.506071 2.1553912
35.335625 31.017221 1.9187796
35.170876 31.615906 -0.31934398
34.979309 31.517878 1.8540155
34.979477 31.594498 1.56062
35.409576 30.884949 1.8102733
34.99836 31.651291 0.86193621
34.959694 31.609179 -1.4383104
35.075329 31.67709 -1.1991456
34.695011 31.680737 -0.50981426
34.955837 31.62079 2.5541484
34.840076 30.831041 -1.4674428
35.161846 30.896912 -0.8055191
35.240593 31.087355 1.9663566
35.241325 31.1646 1.835699
35.26371 30.930796 -0.13810617
35.182259 31.296143 2.5467796
35.176762 31.656637 -0.2427713
34.864845 30.915047 0.76370686
35.344913 31.015545 2.0487604
35.18103 31.097084 2.0561352
35.076397 31.604753 2.5615115
35.061939 31.664268 2.7585592
34.85387 31.532309 2.6259584
34.875366 31.499321 2.5490315
35.141251 31.367388 0.55291051
35.13184 31.369812 0.28542715
34.966938 31.625996 2.8782501
34.647598 31.68169 -0.93153435
35.161602 31.196131 1.4615171
34.801304 30.9466 -0.90413886
35.180244 31.08037 -0.040107343
35.183033 31.08325 -0.5394913
35.047535 31.664242 2.2450781
35.18309 31.081696 -0.43797573
34.961605 30.966183 -1.5352294
35.037518 31.665253 1.1492456
35.160034 31.025667 2.0454996
34.986729 31.6583 1.0659857
35.156273 30.904062 2.0764527
35.032558 31.787298 1.1818694
34.979137 31.658558 1.6655605
35.112602 31.192017 -1.3448608
35.068016 31.669775 1.8522484
35.100029 31.211584 2.2516618
35.329464 31.026644 -1.101384
35.039257 31.594736 1.656076
35.040901 31.672644 1.656238
35.195469 31.200104 -1.7561847
35.031078 31.661087 0.86673516
35.227039 31.280872 -1.9115576
35.178139 31.203493 -1.237106
35.064682 31.664818 1.0589137
35.141594 31.293413 1.2574664
35.036724 31.585611 1.0590894
35.047382 31.599411 1.861518
35.035091 31.580629 1.1582538
34.982037 31.512976 1.6595696
35.262852 31.408024 -1.5828742
35.150528 31.190903 0.6647588
35.136692 31.279694 0.66779798
35.225624 31.157949 1.1443174
35.131779 31.369699 1.1603979
34.859585 30.878263 -2.1457107
35.037258 31.596395 1.4592576
34.996502 31.509052 0.65477163
34.73595 31.692528 -1.103719
35.000736 31.653286 -0.90777349
35.035892 31.5854 0.95759577
35.043613 31.588209 -0.7395649
35.141888 31.28524 -0.83792299
35.019367 31.653427 -0.26484117
35.134754 31.280617 0.35981008
34.994453 31.509659 0.76315516
35.199169 31.573139 -0.85918897
34.896065 31.655521 -1.4217135
35.151035 31.193943 0.15911238
35.150764 31.405842 -1.5511582
35.155823 31.413689 -2.0347016
35.134373 31.282341 0.76930028
35.04763 31.588272 -0.44422263
35.141579 31.383202 0.67674929
35.181557 31.591093 -0.7388708
35.149261 31.288515 1.6546446
35.177856 31.590233 0.2787464
34.997257 31.411263 1.0553446
35.146576 31.393698 1.8706546
35.102848 31.181011 2.0526378
35.237652 31.065388 0.46198851
35.250126 31.16573 -1.5401926
35.222645 31.163725 -0.95974141
35.235565 31.085732 -0.84849709
35.237007 31.149996 -0.071483843
35.182114 31.291636 -1.7420223
35.274406 31.147135 -0.51557535
34.873592 31.572767 -0.3367427
35.055119 31.694342 -1.4353791
35.18528 31.289003 -1.9295025
35.029198 31.658615 -1.5569196
35.171692 31.292812 -1.6240762
35.047508 31.581308 -0.54091626
35.167534 31.305731 -1.8439982
35.053898 31.582321 -1.3571755
35.163727 31.094563 -1.8388176
35.182201 31.079195 -0.13568412
34.70853 30.744162 0.59916854
35.169346 31.087355 1.6564204
35.149326 31.369209 1.6728216
34.783089 30.875116 -1.8365704
35.248997 31.005163 -1.8239937
35.234287 31.163702 1.369041
35.238419 31.156242 0.77044725
35.191643 31.083838 -1.2394958
34.977314 31.650988 -1.3230366
35.066784 30.919737 -0.25505838
35.182255 31.089153 2.248327
35.54015 31.691038 -0.32694337
35.176418 31.566303 -1.2179967
35.043552 31.588646 -0.64203525
35.08786 30.8011 1.9706907
35.245937 31.02553 1.6521691
34.989941 31.605114 -1.5373107
35.071541 31.406166 -1.5245621
35.033039 31.586021 0.7615726
34.953213 30.926601 0.86192811
35.14447 31.481657 -1.452158
35.18478 31.19812 2.1576121
35.172153 31.08588 1.7596709
35.164597 31.187531 1.7674005
35.15694 31.385527 1.9631181
34.956676 30.925287 1.1606131
35.044964 31.492914 0.55780607
35.24876 31.163071 -1.8598926
35.097042 31.207178 1.8642526
34.945988 30.923899 1.6609778
35.033436 31.65329 2.0558152
35.059517 31.604534 2.2699239
35.045898 31.590801 -0.34121418
35.233734 31.178894 -1.7103943
35.044926 31.591331 -0.13543686
35.051197 31.64937 -0.60009414
35.231174 31.074047 -1.2227064
35.207466 31.14167 -2.0714355
35.175491 31.103668 2.3624325
35.048054 31.675335 -0.81278622
35.046143 31.6534 -0.75547129
35.191891 31.19697 2.3638904
35.23909 31.201792 -1.9349402
35.204636 31.086945 -1.7062993
35.031124 31.592548 0.8553887
35.157207 30.97814 -2.0237973
35.315639 30.857082 1.7919627
35.254066 31.043877 2.2630515
35.16497 31.195286 1.8623352
35.184319 31.57769 -0.94774491
35.243332 31.194628 -0.39223796
34.98288 31.587366 -0.73338717
35.20417 31.103252 2.5610511
35.240875 31.080116 -1.3349878
35.187294 31.070374 -1.6336441
35.242729 31.021782 0.057791434
35.241165 31.013693 -0.54021358
35.189384 31.200232 2.2672687
34.981438 31.587006 -0.23831293
35.181362 31.079027 0.061690029
34.777805 30.955387 0.36904311
34.883251 30.956926 0.075448714
35.0639 31.05891 -1.6218485
35.17955 31.199738 2.0628567
34.784111 30.969988 0.060535342
34.887775 30.958454 -0.5345645
34.883129 30.961336 -0.037496198
35.550053 31.70643 0.044272024
35.083775 31.086056 1.3581665
35.009995 31.409834 0.86175102
34.971687 30.903839 -1.8410029
34.893478 30.964724 0.66343218
35.156826 30.950911 -2.2483852
35.236332 31.023632 0.65879256
35.051113 31.657322 -0.44530058
34.745758 30.824574 -1.4414061
35.20322 31.079981 2.6534359
35.040398 31.592812 1.5642649
35.081253 31.054361 0.85656476
35.037216 31.596584 0.16453005
35.06403 30.748535 0.12191876
35.235634 31.031471 1.7669296
35.03656 31.595415 1.2604821
35.235306 31.006807 2.0551507
34.966125 30.925703 1.3522607
35.247025 31.080631 -1.9423268
35.045219 31.491009 0.45850974
34.874336 30.96903 0.96568149
35.245579 31.076603 -1.6098089
35.054256 30.914206 -0.14281912
35.130013 31.508699 -1.2446073
34.987225 31.599148 2.7271111
35.049397 31.596781 1.9695332
35.339165 31.048655 1.0447774
35.088924 31.088619 1.5643742
34.92551 30.81391 -0.25684309
35.079708 31.072512 1.2608782
35.234177 31.17589 2.1582186
35.076824 30.933374 0.039036226
35.0396 31.593021 0.27142119
35.182919 31.026857 2.3846767
35.137402 30.910646 2.1702673
35.178463 31.082752 0.76020753
35.05933 31.658329 2.3620596
35.035885 31.665421 1.9613329
35.228462 31.003395 2.163049
34.735493 31.669456 -0.95497853
35.03289 31.581558 0.65397644
35.08419 31.073915 0.96157026
35.24844 31.162664 -1.6483517
35.243858 31.203249 -1.2184461
35.120392 30.865557 2.4448154
35.153618 30.941048 2.3566117
35.040257 31.582624 0.055757139
35.207031 31.201813 2.4618726
35.566074 31.696941 -0.043761365
35.248043 31.098974 2.2604661
35.067192 31.606735 2.4531968
35.206036 31.220236 2.6587694
35.046455 31.665442 -0.26700458
35.00898 31.534241 2.2429626
35.085255 31.656536 2.7046654
35.039013 31.667263 -0.52500236
34.946857 31.538076 2.5848801
34.985378 30.91515 -1.6325866
35.054401 30.935453 -1.4483209
35.084343 31.078209 2.2553854
34.999554 31.544289 2.3599401
35.132431 31.473091 -1.3303659
35.189068 31.088188 -0.63468397
35.18222 31.083288 -0.33849651
35.230293 30.914841 -1.1119832
35.042881 30.868467 0.6788494
35.095333 31.312506 -1.3331476
35.054558 31.675158 0.15857226
35.030144 31.675755 0.97373343
35.177635 31.50774 0.77513695
35.084057 31.31119 -1.2275071
35.059982 30.916475 1.3390639
35.095753 31.403059 -1.4340032
35.114113 31.124088 -1.1392912
35.242153 31.083677 -1.7303387
35.07262 31.309967 -1.1299524
35.034512 31.680042 0.75704104
35.08963 31.39546 -1.2377986
35.182037 30.981611 2.5157177
35.086937 31.303213 1.0661561
35.082542 31.304022 1.2609099
34.763424 31.502775 -0.82937586
35.448475 31.641268 -0.12177026
35.238636 31.313303 -1.0363115
35.169945 31.205523 -1.039048
35.179455 31.18536 -0.94144589
35.162045 31.191334 -0.43448585
34.997887 30.962715 -1.8122128
35.181145 31.190075 -1.1405474
35.143387 31.489044 -1.7590163
34.862358 31.523203 0.061642434
34.997528 31.513784 -0.7268191
34.977951 31.586555 -0.13975848
34.982822 31.588133 -0.4396604
34.983368 31.590172 0.062538095
34.763763 31.525095 -1.0391541
34.761963 31.507076 -0.73911136
34.976376 31.592585 -0.84072375
34.762814 31.511621 -1.3534086
34.768501 31.512403 -0.94370389
34.774857 31.511703 -0.64108455
35.109997 31.205303 -0.62910998
34.768867 31.511559 -0.54338652
34.984215 31.586321 -0.035548732
34.766083 31.50877 -0.4353537
35.066498 30.920866 -1.9224149
35.46003 31.658422 0.5720259
35.101837 31.189636 -0.84624147
35.01796 31.657148 -0.44159847
35.384434 31.623409 0.48049384
35.493893 31.67593 0.36679411
35.425621 31.625618 0.36433941
34.746704 31.500298 -1.1294179
35.582016 31.719933 0.48660779
34.833954 31.65065 -0.29252514
34.990032 31.515259 0.057128593
35.256847 31.490507 0.65862608
34.986664 31.508627 1.1603761
35.133202 31.476044 -0.92993015
35.137749 31.481401 0.25592852
35.469936 31.601078 0.55132949
34.997345 31.512541 0.56775302
34.771347 31.50585 -0.34683639
35.072006 31.393955 0.76057172
34.99868 31.512167 -0.23568912
34.852097 31.524765 -0.03323641
34.996555 31.507469 0.25790632
34.993706 31.519569 2.0620437
35.060425 30.934635 -0.55757487
35.004166 31.520903 0.15748568
35.185776 31.301718 2.4628687
34.774136 30.899204 -2.0486116
35.18399 31.200268 -1.4444522
35.012524 31.649607 -0.37150988
35.116886 31.176689 -1.4156646
35.211979 31.186054 -1.9294053
35.267006 31.599659 0.27411753
35.012135 31.696697 -0.10561695
35.193325 31.195873 -1.536052
35.175968 31.205597 -1.3512647
35.126511 31.610945 2.2863641
34.97744 30.971619 -2.0308123
35.229015 31.253654 -1.9981437
35.171421 31.506094 -0.71396255
35.191086 31.214731 -1.8577924
35.287323 31.486906 -0.90425849
35.251392 31.58206 -0.15676281
34.987007 31.662828 0.17173982
35.230618 31.290901 -1.1991895
35.249683 31.588978 -0.34327304
35.253658 31.59425 -0.23061556
35.174995 31.201889 -1.6410311
35.1511 31.495857 -0.52566707
35.156013 31.503683 -1.0372565
34.973812 31.507898 1.945002
35.253468 31.540665 -0.21628746
35.239704 31.610573 -0.025010159
34.972054 31.511337 1.7684786
35.385674 31.66013 -0.21248999
34.988293 31.506441 1.0663849
34.754841 31.664392 -0.53087944
35.16021 31.654953 -0.29605937
34.97612 31.600691 -1.133664
34.783863 31.58182 -1.1629469
34.788685 31.585918 -0.5492062
34.989269 31.675608 -1.0747516
35.254707 31.611664 0.032263257
35.264465 31.598694 0.13623413
34.687908 31.682749 -1.0264399
35.438873 31.628185 -0.24052696
34.995399 31.657181 0.96712714
34.79224 31.577349 -0.14245233
35.10437 31.20249 1.9610544
35.077362 31.092009 2.0542543
34.782097 31.64769 -0.60881114
34.76907 31.590021 -1.3193216
35.259548 31.387051 2.4346793
34.764404 31.514507 -1.2354935
34.715073 31.63814 -0.56108564
34.816021 30.860125 -2.2341232
34.996254 31.416496 1.6664838
34.843864 31.386881 2.5853224
35.155285 30.981903 2.7847631
35.173805 31.012173 2.8756442
34.564049 31.68914 -0.82952869
34.766304 31.572506 -1.0322211
35.161972 31.189856 1.5594436
34.714115 31.654257 -0.61024123
34.564693 31.702105 -0.91186875
35.184341 30.829937 0.79659659
35.054569 30.934513 -1.5326166
35.063034 30.92894 -1.837388
35.103275 31.304764 -1.421828
34.776531 30.970966 0.17957321
34.949902 30.838051 0.14742279
35.06929 30.912813 0.58700705
35.413605 31.631502 -0.099110581
35.11187 31.31065 -1.7435826
35.242928 31.184782 2.5629132
35.077873 31.091282 2.3295488
35.098961 31.215574 2.5733006
35.101601 31.213139 2.348305
35.105347 31.135872 2.5082583
35.093334 30.981941 2.466609
35.138088 31.482597 1.2631538
35.200249 30.800297 -0.61936766
35.093628 31.097174 1.8508444
35.154408 31.19342 1.1589485
35.142632 31.480234 -1.8473991
35.082291 31.401825 -0.64331031
35.0993 31.305687 -0.24108575
34.871613 30.884342 -1.7322142
35.075092 31.396076 -0.03895485
35.15955 31.18861 1.2566029
35.070877 31.396025 0.8585844
35.073059 31.395405 0.26184377
35.151367 31.191034 0.76520008
34.935829 30.837009 -2.2425518
35.141876 31.502386 -1.1313945
35.221317 31.5546 -1.2909157
35.163212 31.191624 -0.83182853
35.192837 31.305183 -2.0336363
35.156178 31.192642 1.3610878
35.077541 31.399885 -0.1380572
35.072884 31.396862 0.15809418
35.081116 31.397631 -0.73446006
35.256123 31.177454 -2.035634
35.084721 31.402103 -0.53625292
35.002876 31.671137 0.45310619
34.903385 31.046438 1.5391225
35.155231 31.192799 0.062408704
35.071083 31.395353 0.36455342
35.086723 31.404089 -1.0380955
34.96735 31.662081 -1.3999118
35.088123 31.393873 -0.83915126
35.392647 31.655745 -0.12245106
35.085632 31.391962 -1.7046665
35.174431 31.537914 -0.66680235
35.097202 31.303867 -0.43256435
34.97924 31.060608 1.2627842
35.369949 31.657068 -0.019817658
35.083435 31.39716 -1.814487
35.086403 31.277107 -1.9995031
35.101608 31.304167 -0.13772872
35.388351 31.685646 0.05520412
35.0966 31.300444 -0.34312025
35.079365 31.414663 -1.1245098
35.072754 31.405027 -0.93610728
35.068344 31.398232 0.45994124
35.01638 31.525848 -1.1985456
35.38102 31.616026 0.13163766
35.114731 30.820183 1.7011244
35.06892 31.398129 1.2576371
34.999691 31.506924 -0.83313471
35.435463 31.639626 0.088930562
35.478828 31.694275 0.092059344
35.418072 31.646355 0.13312413
35.09507 31.304174 0.15658323
35.092007 30.999645 2.5826058
35.42778 31.637129 0.18470618
35.094608 31.30407 0.26250881
35.182426 31.682171 0.099830918
