# .PCD v0.7 - Point Cloud Data file format
VERSION 0.7
FIELDS x y z
SIZE 4 4 4
TYPE F F F
COUNT 1 1 1
WIDTH 689
HEIGHT 1
VIEWPOINT 0 0 0 1 0 0 0
POINTS 689
DATA ascii
14.424886 33.287632 -2.0131776
14.468431 33.07132 -2.1289883
14.446979 33.171871 -2.1989985
14.410942 33.229939 -2.2130804
14.36915 33.278442 -2.2117972
14.514929 33.015266 0.87443435
14.519584 33.031967 0.49412268
14.49268 33.03043 0.054571103
14.382831 33.216522 0.96790057
14.409098 33.19606 0.017461114
14.509617 32.985756 0.53760666
14.404886 33.199127 1.0942051
14.303919 33.385567 0.55008531
14.63979 33.175381 1.1595595
14.522925 33.089844 -1.8150773
14.493751 32.893036 0.44855082
14.409207 33.15197 0.6476621
14.369891 33.300934 0.024579434
14.540138 32.735107 -0.17569259
14.541914 32.731133 1.1607963
14.592363 32.743828 1.2673254
14.513785 33.037148 -0.58860624
14.601463 32.818008 -0.5340296
14.601535 32.817532 -0.24451163
14.546229 32.651344 0.46501619
14.403746 33.303665 -0.10715313
14.562971 33.211121 2.4579535
14.583021 33.416672 2.3787794
14.551616 33.217152 2.248143
14.311779 33.405499 2.0563154
14.603909 32.823532 0.46561939
14.541677 33.314495 -1.1563818
14.504395 32.962708 -0.73425055
14.491369 33.093472 -2.031167
14.533651 33.306988 -1.3025736
14.542723 33.267555 -0.9238342
14.597534 32.817467 0.26409623
14.432961 33.360294 -1.8918257
14.43681 33.398983 -1.720703
14.435446 33.379967 -1.8501369
14.388212 33.23764 -1.0855689
14.447638 33.382896 -1.5369585
14.406035 33.305466 -1.7353774
14.43788 33.300804 -1.7345216
14.43187 33.310505 -1.9202517
14.550574 33.208088 2.1653497
14.40831 33.230984 1.8628345
14.468749 33.199352 -1.6360834
14.457757 33.375061 -1.4271655
14.552929 33.403687 2.2550988
14.450728 33.29594 -1.5454303
14.483994 33.196934 -1.3387258
14.477599 33.199135 -1.5472617
14.48865 33.095261 -1.9289767
14.474904 33.586262 2.060257
14.51723 33.023109 -1.7351121
14.494845 33.095066 -1.7412186
14.458969 33.186142 -1.9352922
14.399951 33.317577 -1.1367259
14.490882 33.110466 -1.2358767
14.544825 33.292545 1.4752132
14.505603 33.099331 -0.63698655
14.536345 33.291786 1.8548853
14.54165 33.289761 1.2581187
14.63027 33.070629 1.4627689
14.505826 33.104027 -0.92796278
14.546797 33.271599 2.3645029
14.583465 33.596317 2.1548643
14.555943 33.399815 2.1529667
14.506616 32.992584 1.372785
14.50508 32.873989 -0.035018016
14.601632 32.816193 0.96263433
14.601231 32.81916 0.36646479
14.517865 33.005932 -0.32327089
14.598426 32.822254 0.66410828
14.410535 33.463463 -0.13590261
14.540998 33.284557 1.0763317
14.629893 33.074451 1.356498
14.572765 33.509796 2.4465888
14.542801 33.288712 1.3660241
14.470077 33.028835 3.0712185
14.502891 33.001198 2.8845012
14.546029 33.185478 0.86192209
14.457694 33.395721 1.9585167
14.487442 33.090019 2.8689048
14.541295 33.284954 -0.12598115
14.495069 33.111271 0.75436848
14.439672 33.299011 2.7671163
14.441474 33.290947 2.6531217
14.459371 33.399902 1.4598639
14.538346 33.278603 -0.3411161
14.461639 33.400433 0.56161678
14.490914 32.979378 2.7796385
14.544477 33.192665 1.6562126
14.44361 33.297882 -1.6288974
14.446688 33.299847 2.4515517
14.537709 33.282368 0.069656298
14.52893 33.066086 2.5493929
14.581749 32.996723 -0.037717879
14.459801 33.396454 1.8572891
14.673558 33.186485 0.063610226
14.554761 33.186253 1.4603155
14.546303 33.073364 -1.7475011
14.391239 33.290981 0.96921223
14.57023 32.889736 2.3598206
14.356874 33.345547 -2.2229676
14.578766 32.898026 2.7572017
14.586218 32.999214 0.86206013
14.439461 33.274109 2.8568864
14.458883 33.395493 1.6629969
14.501336 32.996826 2.1524034
14.604525 32.896236 1.0586791
14.45858 33.401012 0.96177232
14.458736 33.399799 0.76297188
14.464165 33.296246 1.7555428
14.585571 32.786549 2.763957
14.477163 33.300095 -0.24161884
14.461682 33.299507 1.9637243
14.479942 33.19595 1.7576745
14.461757 33.395985 1.7594832
14.461905 33.296333 2.0605721
14.475513 33.296665 1.3615779
14.457951 33.301125 2.158869
14.492593 33.085629 2.7475214
14.548038 33.187511 1.8616202
14.587033 32.995514 0.56124163
14.469738 33.194431 2.0616205
14.501551 33.202667 0.35892531
14.505852 33.00613 1.7746913
14.599869 32.890614 -0.24081793
14.600549 32.894417 0.55892611
14.576033 32.99765 -0.83097541
14.605726 32.899506 0.85996193
14.419127 33.304142 0.39803115
14.509278 33.106407 0.95852083
14.406543 33.41256 0.56122369
14.510011 33.027256 1.8839788
14.554392 33.180969 -0.72668064
14.598938 32.901703 0.65926635
14.56589 32.996704 1.6589633
14.487918 33.104084 2.5596972
14.541166 33.182312 0.5601517
14.446379 33.288715 2.555295
14.49886 33.204639 0.16282882
14.502131 33.099213 1.5632796
14.512768 33.019287 1.44783
14.406993 33.41288 0.86306876
14.498208 33.205933 0.65951586
14.584443 32.999294 -0.24107985
14.499925 33.202274 0.76120567
14.598008 32.818718 1.0576359
14.568285 32.995632 1.7580839
14.481522 33.295925 0.56054658
14.603146 32.898098 0.96116781
14.477255 33.107491 2.0594404
14.460217 33.399773 1.0625019
14.477036 33.295296 -0.33710462
14.460548 33.399868 0.35994291
14.516602 32.91172 0.81413072
14.583699 32.900562 2.2668209
14.583625 32.994659 1.2664737
14.582897 33.000435 0.26219863
14.405308 33.318634 -1.4440322
14.585346 32.998299 0.16505723
14.537324 33.185604 0.26342815
14.463838 33.396908 1.1590873
14.49936 33.116661 1.365784
14.588523 32.992645 0.65909415
14.507602 33.124725 -1.0483681
14.577807 33.000126 1.45542
14.583491 32.994808 0.45851353
14.601863 32.884651 -0.73957062
14.541449 33.183426 -0.13663341
14.462908 33.395958 1.258762
14.506474 33.114624 -0.42701316
14.47073 33.299232 1.5604472
14.477997 33.296715 0.062719561
14.563789 33.199211 -0.93219233
14.500389 33.117046 1.2669096
14.487194 33.200207 1.5552101
14.538557 33.290737 -0.4390159
14.469806 33.302128 1.8626571
14.477762 33.29697 0.26255119
14.409066 33.318306 -1.6171856
14.55304 32.999195 2.4639049
14.508739 33.029633 0.67747843
14.516027 33.036079 -0.17847294
14.499735 33.201469 -0.23420629
14.598759 32.898163 1.2668426
14.577606 32.998882 1.358068
14.681107 33.071606 0.72992396
14.470021 32.933598 0.6226294
14.500431 33.002045 1.0708551
14.559059 32.993721 1.9509857
14.642024 32.98019 -0.24563855
14.38652 33.186356 2.045594
14.452669 33.286919 2.2621324
14.477149 33.29998 1.2561203
14.531846 33.296345 0.26859441
14.562118 33.093731 0.86163372
14.477778 33.298771 -0.1360094
14.459264 33.395336 1.5612977
14.542478 32.977638 2.7503932
14.457798 33.401424 2.0605712
14.480665 33.295826 -0.041662641
14.506058 33.099281 -0.54503328
14.475206 33.10968 1.9577352
14.399455 33.311108 2.0607455
14.500853 33.10434 -0.74790061
14.471954 33.2994 1.6565726
14.462453 33.395996 0.16084434
14.463794 33.197392 2.3642099
14.397095 33.283295 -1.5596974
14.418167 33.339802 -1.375482
14.462843 33.397419 1.3605429
14.451239 33.390751 2.3634808
14.503819 33.117599 -0.037994787
14.400521 33.313583 -1.8259312
14.401184 33.387875 -1.6322309
14.4833 33.201038 -1.2396146
14.393705 33.338226 1.2639039
14.565683 33.089664 -0.73240489
14.560107 33.096279 0.7574783
14.497835 33.106171 1.6686087
14.552593 32.971642 2.8344297
14.541559 32.980206 3.0248814
14.455198 33.387745 2.4738371
14.39755 33.312569 2.7502439
14.558457 33.091022 0.6633538
14.527145 33.06102 2.79847
14.464726 33.195633 2.2577121
14.562375 33.094048 1.1629305
14.508805 33.273769 -2.1714265
14.49556 33.201664 1.161176
14.626316 33.080391 1.8258841
14.491234 33.185444 -1.1406791
14.481252 33.296669 0.46171039
14.492651 33.200741 -1.0442139
14.571819 33.494118 2.0635245
14.388869 33.193722 1.9866627
14.498179 33.102688 1.8672585
14.475843 33.586258 1.9456911
14.640706 32.980434 -0.14619645
14.555287 33.088173 -0.93893802
14.537571 33.186485 0.15961941
14.466073 33.487934 2.0642827
14.547514 33.093891 -1.0299217
14.398312 33.397873 2.053314
14.304539 33.416222 2.6687651
14.554832 33.28772 -0.25511608
14.654562 33.080475 0.33233187
14.526843 33.368546 2.6933968
14.56222 32.97377 2.6495273
14.636958 33.086143 -0.15173247
14.455295 33.501747 2.8482976
14.602432 32.728172 2.5759907
14.460409 33.398956 0.057180613
14.507743 33.121185 0.26271841
14.563266 33.095448 -0.43633154
14.504518 33.102909 -0.33685684
14.503613 33.120255 0.35904047
14.644509 32.986336 -0.33771431
14.480478 33.300564 1.1632868
14.534296 33.270164 0.56440806
14.507524 33.117004 -0.84702694
14.604623 32.89159 0.16000924
14.568018 33.090046 1.2606071
14.547417 33.180447 -0.53844094
14.412798 33.313927 -1.2447982
14.538819 33.18734 0.35821831
14.554921 33.095322 0.06502986
14.557243 33.088688 1.8488972
14.555518 33.092537 1.9606509
14.395404 33.387672 2.4583738
14.43745 33.382221 2.5654523
14.545231 33.188763 0.96465319
14.501699 33.109455 1.4541448
14.537298 33.188293 0.46118352
14.559401 33.09127 -0.13746414
14.441392 33.403969 2.6588478
14.508417 33.119236 0.058480188
14.412651 33.477386 2.3568282
14.559016 33.086693 -0.63845831
14.467322 33.476059 1.8636228
14.555395 33.092697 0.26121065
14.310076 33.377495 1.4528724
14.548895 33.005306 2.351114
14.455646 33.390244 -1.0390258
14.392611 33.477951 1.0510079
14.472603 33.189713 -1.7314879
14.566133 33.096035 -0.54022861
14.496475 33.197803 -0.93226093
14.397246 33.471783 0.97609866
14.568243 33.09375 1.3601077
14.477941 33.474129 1.9622751
14.584409 33.000618 1.1620311
14.473547 33.296284 -0.43429562
14.469347 33.299881 -0.93612099
14.49891 33.111706 1.7607243
14.467296 33.386196 -1.2406979
14.582728 33.000469 0.75647956
14.55965 32.963253 2.9422419
14.537953 33.289024 2.0514615
14.574102 33.495567 1.9596287
14.562301 33.086948 1.6588473
14.464838 33.482536 2.1675992
14.403118 33.304859 -1.0464284
14.649692 32.985901 1.263356
14.539396 33.187511 0.76171404
14.457645 33.484261 2.4643226
14.501177 33.204227 -0.33095473
14.44024 33.382019 -1.6341224
14.495111 33.204987 -0.64613014
14.562089 33.094833 1.5627648
14.545847 33.087105 -1.2371261
14.565534 33.08984 1.4569998
14.640128 32.965683 0.47373113
14.497768 33.109837 -1.146715
14.645928 32.975803 0.27056438
14.409866 33.372719 -2.0444078
14.562559 33.095261 0.96025324
14.584872 32.997005 0.36334714
14.502946 33.111401 -1.3465861
14.543178 33.185741 0.062650464
14.387589 33.395695 2.6653385
14.560427 32.993412 2.066597
14.637801 32.96764 0.1605742
14.537927 33.183865 -0.043766607
14.487304 33.097679 -1.8192911
14.501 33.204647 0.86681199
14.553962 33.191589 1.5583475
14.462828 33.396679 0.46199486
14.499746 33.201283 1.063814
14.540185 33.285942 -1.25142
14.473237 33.298138 -0.63659799
14.398528 33.393066 2.2591653
14.401123 33.295578 2.4646626
14.593196 33.57185 1.9765805
14.396711 33.397129 2.1567652
14.638778 32.984093 0.3596811
14.553338 33.091206 -1.1477762
14.53364 33.278267 -0.63915056
14.628284 33.06649 0.16268271
14.487948 33.203197 1.6649215
14.4025 33.300102 2.355211
14.488513 33.205013 1.4639244
14.260038 33.553932 1.7922909
14.462014 33.305561 -1.0469042
14.480956 33.297184 0.66531086
14.492918 33.016537 2.3854401
14.541982 33.288345 1.5559726
14.640944 33.068035 -0.32662645
14.654676 32.88517 1.1587105
14.636299 33.061237 0.24789099
14.640585 33.078205 -0.63903159
14.490019 33.199036 1.3692968
14.492113 33.021954 2.4861686
14.497797 33.205101 -0.040594742
14.655479 33.067802 0.071037672
14.480576 33.195774 1.9655657
14.584766 32.808125 2.6528544
14.507005 32.894047 2.3588781
14.46068 33.296284 -1.1416911
14.409464 33.409878 1.1597022
14.539139 33.289364 2.166616
14.447758 33.387691 2.2603567
14.492983 33.205936 1.2615647
14.597403 32.818501 1.2583607
14.636932 33.084652 1.0656896
14.437014 33.289036 -1.8200005
14.502319 32.986275 0.7800104
14.563399 33.095139 1.0582401
14.628781 33.081612 -0.47148299
14.633316 33.073532 -0.23976518
14.540341 33.279869 -0.028146027
14.497826 33.113743 1.1594901
14.481011 33.304005 0.86025184
14.47193 33.496838 2.7528172
14.475882 33.361385 -1.9892358
14.624241 33.071526 -0.5443157
14.461561 33.187309 2.1629832
14.503364 33.119617 0.56811196
14.47776 33.300266 0.96144336
14.584206 33.000751 0.060862985
14.498703 33.205105 0.058621291
14.416525 33.319187 -0.44049197
14.473175 33.302357 -0.73477894
14.49945 33.204021 0.45878735
14.301834 33.390949 1.0993955
14.464629 33.373955 -1.333801
14.476337 33.300949 -0.53432649
14.557982 33.08939 0.55782193
14.556438 32.90424 3.1346881
14.62077 33.065144 0.60261238
14.470404 33.383556 -1.1353526
14.494203 33.19733 -0.73308235
14.544599 33.279594 0.36322683
14.542603 33.292969 1.6531339
14.461733 33.48885 2.2610006
14.538926 33.272095 -0.81572676
14.601914 32.886677 1.1614727
14.481858 33.195637 1.8608637
14.402733 33.460842 1.2595886
14.586581 33.581882 2.0728602
14.390957 33.180073 2.2690361
14.479438 33.297714 1.0594805
14.483201 33.493584 2.5703843
14.535527 33.280041 0.85570753
14.472908 33.49007 2.3548117
14.477177 33.496979 2.6652911
14.481809 33.296932 0.76181424
14.555285 33.092419 0.16287366
14.552489 33.085175 1.7604562
14.540333 33.269073 -0.73230588
14.380684 33.393833 2.7614436
14.495705 33.105167 0.65538955
14.405847 33.32402 1.4425575
14.560797 32.810047 2.8513694
14.475331 33.303658 0.16449031
14.542874 33.288944 2.4424536
14.500154 33.201725 0.96168923
14.528687 33.082718 2.4643784
14.571274 33.504635 2.3546953
14.527461 33.334248 -1.5796223
14.599799 32.718189 2.7031808
14.565787 32.991879 1.8681147
14.543598 33.30481 1.7527303
14.598206 32.894241 1.3605003
14.563208 32.991432 2.2552481
14.390678 33.476898 0.84060133
14.380941 33.192356 2.1735632
14.530689 33.279362 0.77032965
14.254933 33.506264 2.7107365
14.602551 32.898197 0.75773871
14.463299 33.578217 2.3681316
14.50009 33.030579 3.1388071
14.477107 33.107948 2.1600797
14.565959 32.894249 2.8663082
14.504023 32.855904 -0.40512964
14.631123 33.146877 -0.32873952
14.403802 33.394276 1.758769
14.460296 33.402042 0.66105372
14.385985 33.304707 2.6549039
14.397093 33.317707 2.5471284
14.495547 33.205315 -0.53248036
14.481311 33.297871 0.36069506
14.456061 33.287872 2.3548546
14.530297 33.286469 0.16536024
14.552844 33.1819 1.3652983
14.40033 33.397343 1.9636254
14.633229 33.188206 -0.25027952
14.5054 33.005306 2.6703372
14.463736 33.08329 2.9565406
14.396597 33.390579 2.3681366
14.552238 33.092331 -0.84181023
14.545968 33.18856 -0.83400041
14.470831 33.297638 -0.84010929
14.603003 32.896175 0.062939957
14.49936 33.2127 -0.44261691
14.580565 33.503494 2.1656022
14.534168 33.298309 2.2590494
14.458284 33.397335 2.1611576
14.389067 33.476433 1.9664466
14.505628 32.865337 1.9118441
14.510291 33.11483 -0.12984325
14.49779 33.203724 -0.13524379
14.49589 33.008587 2.5840759
14.314443 33.485199 1.771814
14.621379 33.204418 -0.14656603
14.408131 33.316746 1.9535557
14.383237 33.462723 2.4749994
14.408436 33.465927 0.65317035
14.486814 32.935986 2.9616113
14.399672 33.473648 1.7584599
14.401759 33.481236 2.1598897
14.400145 33.310406 1.8813131
14.39974 33.395493 1.8613112
14.393377 33.480347 1.8586211
14.586658 32.899429 2.4557338
14.497959 33.200367 0.26271647
14.586407 32.813316 2.9675817
14.403247 33.398335 1.4604672
14.404228 33.403133 1.3578843
14.534666 33.281345 0.96221626
14.583345 32.997181 -0.13534784
14.470546 33.008339 -0.063205294
14.406613 33.414661 1.060262
14.408214 33.472076 1.5585754
14.401078 33.404427 1.6596779
14.639882 32.9687 0.76250553
14.405778 33.412056 0.46078458
14.403354 33.402824 1.5530617
14.403362 33.315529 2.2668021
14.553701 33.203674 2.3502588
14.530421 33.087494 2.3603408
14.406092 33.294983 1.1423606
14.400867 33.322292 1.7609949
14.404123 33.300758 2.1698987
14.620416 33.161064 0.3508262
14.512665 32.938717 2.0310056
14.405231 33.410538 0.95698637
14.405854 33.473892 2.2647862
14.649803 32.991802 1.1623152
14.403957 33.410637 1.2599247
14.58127 33.591587 2.2669048
14.501188 33.202454 0.56137919
14.555917 33.095303 0.46374914
14.599078 32.897541 -0.036704496
14.600902 32.89703 -0.13663524
14.458015 33.300713 -1.2440679
14.459047 33.199581 -1.8151169
14.603807 32.887699 -0.64306557
14.54606 33.206932 1.9564725
14.498293 32.901424 1.5749646
14.494727 33.201099 -0.83719736
14.507895 32.903625 2.1676338
14.406261 33.467678 1.6679065
14.56841 33.590282 2.4497647
14.454701 33.291206 -1.3342716
14.484584 33.202534 -1.4399885
14.457495 33.29781 -1.440901
14.402356 33.48074 0.75079316
14.49883 33.123905 0.46380985
14.403533 33.465614 1.4661258
14.58407 32.85265 2.9705677
14.509039 32.899765 2.8665826
14.641265 32.978794 -0.43856779
14.550644 33.409004 1.8687404
14.582281 33.00248 0.95861262
14.640102 33.073399 1.2711401
14.579858 32.993759 1.5589061
14.636844 32.984772 0.8598181
14.638445 32.974979 0.66223782
14.638632 32.981163 0.9592979
14.575959 33.502842 2.2574496
14.551722 33.189564 1.2623518
14.638146 32.973328 0.56429619
14.600513 32.822502 0.56540531
14.541019 33.171028 -1.0329493
14.395442 33.46666 0.56880766
14.651124 32.983852 1.3591038
14.581934 33.587685 2.3539639
14.639579 32.985229 1.0638753
14.557898 33.40472 1.9604459
14.627799 33.075058 1.5727936
14.638822 32.976856 -0.029489975
14.538619 33.289608 1.1693225
14.399168 33.475986 2.55967
14.537734 33.295609 1.9513105
14.556305 32.992859 2.1593738
14.595778 32.819683 1.3672564
14.576083 32.898163 2.5573814
14.574806 32.892693 2.6561487
14.461704 33.4035 0.8606419
14.535683 33.06419 3.0295072
14.643102 32.979435 -0.65142262
14.563716 33.488804 1.8648378
14.550071 33.185123 1.758762
14.549409 33.189594 1.1595129
14.552888 33.209682 2.0687656
14.536468 33.277794 -0.53897846
14.527877 33.085625 2.8791666
14.533277 33.279678 0.67044073
14.530115 33.275036 0.47046515
14.642212 32.982536 -0.73884428
14.644156 32.978252 -0.53983414
14.58446 32.996578 1.0587616
14.585437 32.895065 1.9652264
14.532581 33.187477 -1.648873
14.552369 33.157524 -1.9192327
14.596394 32.822704 -0.63473558
14.553986 33.40543 2.0578113
14.677918 33.189701 -0.53381568
14.54968 32.992184 2.55316
14.598998 32.892441 1.4570711
14.545485 33.186146 1.0551206
14.39591 33.289181 -1.9566203
14.50036 33.013603 1.1440818
14.401506 33.309471 1.5582037
14.685928 32.590904 2.7385101
14.595126 32.971817 3.1597347
14.650597 33.227962 -0.76222348
14.418571 33.330185 -0.073698536
14.408103 33.298351 0.87392014
14.631531 32.958485 3.042171
14.505441 33.1222 1.0512813
14.407584 33.405525 -0.1377576
14.491379 32.863121 -0.12581579
14.490283 32.99379 1.6341646
14.58893 32.737995 2.7699177
14.405966 33.335831 1.6928922
14.508405 33.108002 0.85195816
14.495337 33.593281 2.4623039
14.594598 32.813988 0.8613717
14.477709 33.587803 2.5638232
14.596257 32.821915 1.1712686
14.513933 33.003952 1.5968511
14.398639 33.097954 2.5600476
14.404716 33.309841 1.361797
14.487082 33.600433 2.2947261
14.378613 33.204433 2.758374
14.404115 33.490753 2.0728667
14.396006 33.318443 0.66032141
14.493902 33.005177 0.37152547
14.382921 33.330654 1.0460604
14.603639 32.824249 -0.13406304
14.511333 33.032513 0.25068921
14.51434 32.907726 1.4405005
14.403815 33.22443 1.4096599
14.416573 33.245373 1.1550181
14.658072 32.925449 2.7443066
14.385364 33.463211 2.7356541
14.568633 32.724773 -0.52302676
14.38933 33.467648 2.8599598
14.388872 33.470169 2.6622951
14.367721 33.103893 2.1573937
14.510223 33.120598 0.15499806
14.504862 33.113327 -0.22585726
14.518712 33.037659 -0.39078295
14.540768 33.188457 0.66068572
14.393376 33.461929 1.1707536
14.405211 33.461246 1.3694031
14.50277 33.547745 2.1779344
14.378307 33.388866 -1.7397149
14.620823 33.085613 -0.79437
14.630336 33.092911 -0.71581918
14.558281 33.094379 0.35668051
14.494906 32.824947 0.32448706
14.510012 32.875652 0.2718643
14.518427 32.874992 0.33289129
14.507335 32.844372 0.521604
14.49542 32.851009 0.17557628
14.5188 32.844318 0.2741169
14.495719 32.861248 0.029258057
14.506937 32.872978 0.55115455
14.511845 32.8606 -0.23899873
14.459199 33.400524 0.26115957
14.580755 32.99614 -0.43834111
14.410021 33.316128 0.16986713
14.632188 33.066055 0.94415009
14.405797 33.414864 0.75703675
14.406429 33.412209 0.36051631
14.406291 33.41354 0.66466719
14.408452 33.306431 0.47827536
14.496458 32.781364 0.69692463
14.397007 33.386082 -1.5624297
14.624578 33.168976 1.2613772
14.575998 32.706734 0.33500254
14.406448 33.405605 0.25709134
14.629822 33.066975 1.1583015
14.401279 33.294693 -2.0363441
14.410345 33.285927 -2.1286097
14.407859 33.412067 0.063233793
14.566913 32.875767 3.0442979
14.375257 33.576462 1.8482268
14.623885 33.077103 0.86724788
14.601791 32.889538 -0.44001219
14.471266 33.294418 1.4632015
14.582695 32.992809 -0.63865197
14.559729 33.186798 -1.3234719
14.60092 32.893559 -0.53831589
14.540339 33.180748 -0.43510085
14.60078 32.887768 0.45906824
14.600689 32.89233 0.36071616
14.581125 32.996113 -0.33736286
14.603821 32.885044 -0.33547774
14.559313 33.089638 -0.33801034
14.543559 33.182873 -0.23689984
14.548875 33.175877 -0.63679564
14.543135 33.189472 -1.2260909
14.533734 33.181416 -1.5176361
14.544294 33.184711 -0.33367488
14.601052 32.898331 0.26319039
14.570708 32.728439 -0.45514107
14.405478 33.408722 -0.037127078
14.487607 32.703583 0.19978407
14.406679 33.409061 0.16230622
14.643199 33.094994 1.7023191
14.632045 32.691925 2.7445302
14.410199 33.306236 0.55201554
14.391271 33.391129 2.5498755
14.397549 32.885265 -2.0655792
14.695069 32.712044 2.8400626
14.586553 32.998489 -0.53684229
14.580337 33.001961 -0.73200113
14.555075 33.093853 -0.040814854
14.528677 33.176487 -1.4342158
14.548609 33.188469 -1.1366793
14.557818 33.095833 -0.2331063
