# .PCD v0.7 - Point Cloud Data file format
VERSION 0.7
FIELDS x y z
SIZE 4 4 4
TYPE F F F
COUNT 1 1 1
WIDTH 774
HEIGHT 1
VIEWPOINT 0 0 0 1 0 0 0
POINTS 774
DATA ascii
29.52356 19.198164 -3.2603426
29.583551 19.281382 -3.2166259
29.333933 19.573999 -3.0296819
29.430017 19.582424 1.2720765
29.485682 19.613413 0.0080485661
29.520863 19.492476 -0.013740717
29.446413 19.562599 0.981309
29.427658 19.493881 -2.4150341
29.299412 19.338501 -2.9414947
29.421038 19.450008 0.35722938
29.429243 19.494793 1.3554299
29.342989 19.591499 -2.2372031
29.393986 19.292236 -2.6386101
29.394415 19.564409 -2.7932696
29.368008 19.511053 -2.7745843
29.289368 19.194826 -1.2156987
29.228872 19.374243 -0.22466679
29.206051 19.454243 -0.23363896
29.304758 19.420185 -0.29427534
29.252743 19.408237 -0.13209385
29.426468 19.555979 -1.0107673
29.203579 19.620487 -0.069488972
29.319735 19.377831 -0.07533738
29.314329 19.406803 0.94679195
29.311064 19.440554 0.39796379
29.355745 19.296688 -2.5082569
29.422724 19.476051 -0.26260242
29.447113 19.483536 -0.63605833
29.414755 19.221169 1.3638651
29.310768 19.496412 0.66136611
29.43648 19.354109 -3.1879196
29.4032 19.21834 -1.0408984
29.330286 19.691851 -1.057817
29.439875 19.322676 -3.6032226
29.31459 19.431379 -0.54733682
29.34549 19.593206 1.4624022
29.289351 19.607662 -0.7438302
29.278214 19.704384 1.5610621
29.397118 19.222179 0.97027057
29.31241 19.524906 0.44331372
29.296688 19.504543 1.1505466
29.285065 19.698473 1.0590268
29.437134 19.476357 -1.0159638
29.295443 19.527685 1.2715306
29.297932 19.528271 1.3661786
29.435316 19.479494 -1.3406996
29.427507 19.446875 -1.1363163
29.302029 19.508068 1.4630159
29.30545 19.510723 0.078751579
29.278496 19.612061 1.8623451
29.401093 19.226919 -0.3441135
29.461262 19.595512 -1.3189986
29.400494 19.220648 1.1611129
29.306252 19.521175 1.7440212
29.437159 19.452169 1.8613744
29.28429 19.496714 2.0710366
29.535082 19.521759 -1.4924642
29.276106 19.705526 0.16061234
29.311874 19.394859 -1.9637756
29.311142 19.50951 0.26131719
29.302027 19.305765 -2.2982397
29.302288 19.392027 -2.0429835
29.403152 19.30974 0.94772309
29.404041 19.213879 -0.84136713
29.446096 19.395983 -0.63463581
29.393911 19.221699 -0.44343215
29.211693 19.73719 -0.65071833
29.452358 19.271053 -1.4319164
29.438082 19.272091 -1.5352421
29.345245 19.59034 0.86223757
29.311226 19.518963 0.35551715
29.276711 19.70488 -0.03819108
29.434334 19.45252 -2.7691238
29.292643 19.602037 -0.2417859
29.439306 19.382071 -0.13987468
29.194689 19.773367 -1.2408106
29.275484 19.701633 -0.14211227
29.273069 19.704544 -0.24126135
29.434412 19.573378 -0.44806126
29.202713 19.686569 -2.2322834
29.304035 19.523987 -0.53084654
29.272491 19.70076 -0.53620636
29.194063 19.72237 -1.7401319
29.466152 19.506741 0.47609469
29.300579 19.405895 -2.3398027
29.456301 19.278149 -1.0423087
29.201714 19.721823 -1.4351274
29.273386 19.701633 -0.33920762
29.294664 19.601383 -0.13540603
29.463564 19.490284 -0.7478466
29.456142 19.277336 -0.14021511
29.199724 19.721478 -1.5320793
29.301611 19.417627 -1.626761
29.300697 19.511898 1.6513485
29.424437 19.407661 -2.1456509
29.196787 19.776154 -0.84414196
29.444593 19.381245 -1.2482362
29.30389 19.509731 -0.34454307
29.199764 19.704351 -2.4447641
29.416832 19.142574 -1.6045401
29.447166 19.466925 0.69150883
29.1996 19.779551 -1.0403568
29.200481 19.78138 -0.94048792
29.205906 19.725391 -1.8276947
29.162611 19.394392 -1.7106359
29.196342 19.698061 -2.0267835
29.301958 19.310963 -2.4442492
29.294174 19.602549 -0.53848058
29.445011 19.249527 -2.2218628
29.298002 19.384781 -2.2427363
29.29961 19.602324 0.06308648
29.20241 19.721056 -1.3461639
29.44602 19.281887 -2.1338966
29.193554 19.779203 -1.7278754
29.184484 19.777819 -1.6413634
29.40517 19.378263 -2.8746111
29.199936 19.720512 -1.638422
29.45871 19.486271 1.1551989
29.255972 19.573872 -2.5359735
29.1952 19.684349 -2.5193744
29.371574 19.212166 -2.4380159
29.422411 19.522762 -1.5163881
29.294287 19.492161 -2.2458518
29.194832 19.792202 -1.9350328
29.190392 19.776049 -2.0331471
29.193256 19.783739 -1.8312098
29.294849 19.498652 -2.1357331
29.384417 19.296694 -1.1391091
29.388302 19.215538 -2.3223372
29.297892 19.393898 -2.4475753
29.397638 19.218855 -1.6298943
29.206423 19.703287 -1.9461623
29.242151 19.792791 -1.8405722
29.335196 19.237972 -2.914212
29.404196 19.205883 -1.8368193
29.387787 19.216022 -2.2380295
29.291269 19.601717 -0.43912467
29.397194 19.214867 -1.7404553
29.380184 19.298847 -1.8259706
29.333652 19.700954 1.3560494
29.437042 19.37484 -1.5165925
29.477329 19.458954 -1.4148737
29.299669 19.607634 0.85854787
29.400148 19.216879 -1.4384626
29.202324 19.781057 -0.14007832
29.237137 19.684147 -2.419755
29.432775 19.466213 1.4985162
29.435528 19.382978 0.56900376
29.309132 19.523975 -0.2349682
29.303276 19.495781 0.56764728
29.368744 19.385014 -2.7095375
29.311581 19.4193 0.47295046
29.303453 19.405991 -2.1278882
29.292784 19.524839 0.1643801
29.377281 19.391064 -2.9438095
29.383059 19.402494 -3.1134229
29.332706 19.364433 -2.6401763
29.439762 19.492638 1.0710727
29.388306 19.210505 -2.1309397
29.457706 19.36347 -2.3432512
29.349129 19.504173 -2.9325023
29.330368 19.637531 -2.3701177
29.400833 19.215012 -1.1459701
29.190351 19.77615 -1.4351521
29.394289 19.217695 -1.5322561
29.255276 19.604954 -2.3382111
29.350267 19.388519 -2.3261886
29.455372 19.282745 -0.74191308
29.442455 19.400459 -1.4422709
29.424688 19.450592 -0.91028982
29.455553 19.446369 -2.1820083
29.34573 19.586048 1.5604423
29.437916 19.37429 -1.1351482
29.456621 19.220633 -0.54070538
29.435749 19.389931 1.6483066
29.301569 19.497337 -1.1373491
29.438753 19.376995 -0.82882589
29.344191 19.591038 0.063094229
29.348251 19.689997 0.1697368
29.453482 19.367548 -2.445405
29.346848 19.589376 -2.1423516
29.346104 19.586773 0.76005048
29.371475 19.493515 1.9515181
29.297806 19.496712 -1.5354012
29.398548 19.29904 0.059707765
29.433666 19.617184 -1.6964673
29.341345 19.702589 -0.23462045
29.461607 19.215256 -0.9374488
29.346584 19.688564 -0.14382352
29.390102 19.219181 -3.1578331
29.39761 19.32033 -3.368366
29.435135 19.510658 0.85811478
29.343374 19.681074 0.063037731
29.279434 19.593758 -1.9393249
29.350441 19.391056 -2.2357728
29.438787 19.382483 -0.7382589
29.283133 19.698484 1.1611555
29.460094 19.212933 -1.0414761
29.273247 19.594814 -1.4429204
29.288239 19.466516 -2.6482329
29.370834 19.490999 1.2645504
29.288288 19.600368 -0.83919346
29.357553 19.489517 -0.83957577
29.345865 19.688887 -0.03839276
29.291643 19.608782 1.6589503
29.354528 19.515051 -2.6466019
29.297077 19.604963 1.263079
29.357601 19.494339 -2.1411767
29.389851 19.316408 -3.4479303
29.393017 19.300367 0.75628239
29.464922 19.507334 -0.83228117
29.387482 19.209127 -2.4974029
29.362471 19.495737 0.36125353
29.39188 19.221945 0.46448109
29.442366 19.379133 -0.040245458
29.392139 19.30719 0.85555607
29.304789 19.382427 1.0195475
29.342958 19.587692 -1.136467
29.445553 19.469687 0.96046078
29.304964 19.523413 1.5571116
29.402779 19.294828 1.0551518
29.280663 19.704172 0.96294725
29.426661 19.460012 0.26027995
29.506432 19.320271 -2.8982477
29.439873 19.378736 1.2587736
29.365814 19.496469 1.0682964
29.391277 19.230095 1.6459283
29.367552 19.49399 1.5608224
29.362499 19.48221 2.0664937
29.205061 19.722717 -1.2342613
29.384348 19.295788 -1.7387737
29.245956 19.692642 -2.1515934
29.342796 19.691927 0.36300704
29.345655 19.588263 -1.2446079
29.338728 19.581863 -1.8274544
29.297674 19.601261 0.16057354
29.450413 19.400009 -1.9401731
29.40024 19.309835 1.3643889
29.454435 19.283461 -1.2397523
29.298424 19.606884 0.36036906
29.443125 19.296545 -1.6378353
29.496273 19.389326 -2.792937
29.360035 19.499554 1.8560702
29.282671 19.597425 1.9595193
29.363718 19.395041 -1.6385453
29.34639 19.581362 -0.53901446
29.27947 19.701786 0.056161854
29.441668 19.224525 -2.7316163
29.272112 19.700937 -0.83746457
29.484587 19.226879 -3.125777
29.467505 19.481253 0.13477938
29.34264 19.58889 -1.4194063
29.448524 19.477074 -0.1566408
29.340961 19.283577 -2.4366522
29.392473 19.39835 1.0622058
29.405077 19.212093 -1.9319972
29.366287 19.49485 0.95768374
29.351242 19.692259 0.75628507
29.280495 19.704737 0.36102822
29.391449 19.403673 0.75602788
29.457602 19.279495 -0.43452093
29.355944 19.49316 -0.93029177
29.27577 19.704128 0.26019949
29.459452 19.212772 -1.1340716
29.279327 19.700573 0.45599866
29.299286 19.604961 -0.043989394
29.384323 19.388641 -3.3431675
29.368256 19.498077 1.7617253
29.450583 19.279491 -0.84026009
29.465061 19.204781 -1.4423606
29.446287 19.487808 -0.33523533
29.378643 19.30167 -1.9329978
29.270279 19.705788 -0.63549685
29.361809 19.573425 -2.7361338
29.448919 19.282639 -1.9372379
29.347281 19.584555 -0.93537241
29.268353 19.703773 -0.73749846
29.369389 19.387939 -3.0432675
29.438391 19.377138 0.66396636
29.353666 19.592638 -1.9209211
29.406881 19.221817 -0.94530988
29.36042 19.495321 0.058928415
29.365036 19.495079 0.66085738
29.451283 19.278625 -0.63488436
29.434345 19.381021 0.25724557
29.353506 19.491194 -1.2407839
29.36215 19.496246 0.56174511
29.573885 19.229334 -3.0137517
29.345201 19.683748 -1.3272462
29.196087 19.776344 -1.1399436
29.361341 19.495415 0.46039668
29.370619 19.494637 1.3577347
29.449226 19.273582 -1.8366528
29.339464 19.670143 -1.2210724
29.380873 19.294174 -2.1267738
29.344395 19.685297 0.65983242
29.359234 19.491959 -0.73709601
29.383402 19.399137 -0.33406526
29.363647 19.441923 -3.6290307
29.456781 19.271784 -0.33753493
29.384394 19.582664 -3.4554811
29.368511 19.398125 -1.5320421
29.390301 19.288952 -0.93960619
29.182381 19.604527 -2.2639658
29.288221 19.605181 1.5666471
29.348 19.711668 -0.84138542
29.456944 19.221716 -0.33848828
29.418243 19.195066 -3.6990707
29.340816 19.682274 -0.54181343
29.395103 19.300539 -0.33232024
29.336823 19.696283 1.5697132
29.402451 19.213287 -2.0477982
29.457592 19.219265 -0.73662972
29.225348 19.657131 -3.6631188
29.348053 19.582048 -1.320462
29.463978 19.275091 -0.54536539
29.457592 19.202387 -1.8417197
29.437119 19.376284 -0.32375416
29.459511 19.273079 0.16265886
29.279755 19.700542 0.56190252
29.300411 19.619274 -3.344466
29.369795 19.402937 -0.93306273
29.432224 19.381737 0.76691312
29.439156 19.381588 1.360064
29.43498 19.305521 -3.0785024
29.390636 19.403605 0.35870418
29.381721 19.392143 -0.63756728
29.33725 19.58905 -0.036293156
29.253275 19.686403 -2.0341103
29.354956 19.391165 -1.4363438
29.279284 19.702028 0.66193169
29.253759 19.601385 -2.4267032
29.337727 19.581249 -1.642988
29.343094 19.585835 -1.5376184
29.34116 19.690506 0.56637162
29.296467 19.3932 -2.529706
29.396275 19.290663 -0.73429441
29.361723 19.404612 -1.7434326
29.393385 19.396999 1.2653217
29.378651 19.400297 1.8581889
29.398062 19.217279 -1.3365685
29.456423 19.224876 -0.13965064
29.189577 19.639814 -3.0230377
29.385317 19.294378 -1.239205
29.458471 19.203112 -1.5359555
29.382874 19.394562 -0.23778628
29.369518 19.490429 1.6613276
29.298708 19.609867 0.65926164
29.279289 19.704666 0.76232773
29.359409 19.394869 -1.3384355
29.389303 19.395208 0.2641215
29.443193 19.380753 -1.0401652
29.281267 19.597654 -1.3361753
29.366133 19.502985 -3.1105909
29.276213 19.59383 -2.134671
29.360516 19.495783 -1.1320282
29.363298 19.320877 -3.6021786
29.289721 19.508177 -1.7389816
29.459162 19.280205 1.5601833
29.361393 19.496159 -0.13735729
29.268126 19.703032 -1.0370857
29.342888 19.685699 0.95733017
29.402435 19.293165 -0.1396165
29.368782 19.496193 1.4654813
29.441172 19.380394 -0.53903514
29.496605 19.186535 -3.2083592
29.345671 19.588261 -1.0415207
29.38159 19.295292 -1.4378389
29.345345 19.48778 -1.4341038
29.39257 19.400198 1.3693225
29.43959 19.381603 0.16678734
29.294916 19.621407 -3.70451
29.454622 19.282173 -1.1326053
29.338207 19.680729 1.6633201
29.440727 19.381029 0.96608233
29.476515 19.293365 -2.6427412
29.37079 19.448238 -3.4419489
29.381985 19.298054 -1.3356467
29.337477 19.684372 1.1675204
29.439892 19.358364 -3.0261543
29.398943 19.303846 0.35715374
29.455669 19.221733 -0.2377045
29.453667 19.267929 -1.3457913
29.373714 19.497248 1.1595392
29.308319 19.411835 -1.0205706
29.381159 19.303493 -2.0470479
29.437946 19.379795 0.3610974
29.3815 19.296068 -1.6446296
29.383886 19.398724 -0.73564237
29.384754 19.395937 -0.4397797
29.399582 19.220985 -1.240943
29.381855 19.395554 -0.54030144
29.27479 19.593208 -2.0328071
29.36927 19.582024 -2.0444863
29.270693 19.501234 -2.7518353
29.456865 19.218382 -0.43946573
29.394588 19.296944 -0.44000086
29.390688 19.396107 0.85628122
29.366217 19.494257 0.76637954
29.381575 19.298405 -1.5390329
29.295008 19.442554 1.2804136
29.344318 19.58642 1.660852
29.382843 19.509285 -3.018271
29.29866 19.609266 0.76154119
29.348824 19.703629 0.25876155
29.440857 19.385952 1.1572171
29.302114 19.602489 0.26085463
29.529587 19.219303 -3.1219244
29.336515 19.689074 0.87198454
29.385008 19.397007 -0.039926793
29.3405 19.684114 1.4803392
29.282574 19.703815 1.2615868
29.34214 19.676102 -1.6965547
29.193764 19.687691 -2.6090746
29.445751 19.388306 0.85980016
29.42285 19.311075 -2.5258369
29.287535 19.50054 1.9744278
29.238546 19.67095 -2.32968
29.397579 19.306717 1.1601707
29.361246 19.397411 -1.2432157
29.377565 19.39753 -0.8386234
29.562981 19.302187 -2.930903
29.280346 19.598228 -1.2338918
29.195704 19.779737 -1.3458481
29.309416 19.502613 1.0805579
29.306847 19.412518 -1.7464691
29.456356 19.22632 0.060639314
29.358654 19.494749 -0.041471563
29.37112 19.404249 1.9562123
29.189737 19.474176 -1.3606677
29.280542 19.601646 -1.5345161
29.392881 19.305174 1.2625531
29.269293 19.606667 -2.9671404
29.242483 19.577305 -2.6250863
29.213268 19.636517 -0.85489202
29.281122 19.700378 0.85799485
29.450693 19.466728 0.76688492
29.172268 19.487083 -1.6808716
29.402033 19.302084 0.45357904
29.354633 19.49419 -2.2197995
29.339853 19.682138 -1.1384803
29.279125 19.597527 -1.6322266
29.390709 19.299274 -0.84190345
29.34095 19.471489 -2.0389783
29.360531 19.493881 0.25634485
29.34234 19.686331 1.2648952
29.351507 19.584551 1.9594572
29.438873 19.377045 1.5634375
29.446136 19.311478 -3.2280154
29.291134 19.314085 -0.44498512
29.308901 19.400932 0.86976439
29.457748 19.21888 -0.63821489
29.218182 19.632965 -2.0099785
29.222895 19.67083 -3.5660458
29.348793 19.695536 -0.93167341
29.33297 19.57564 -3.341331
29.415197 19.386404 -3.8184402
29.261293 19.700541 -1.3320768
29.376163 19.394497 -1.0384146
29.366587 19.39123 -1.1381938
29.292341 19.602236 -0.33383429
29.295713 19.606102 1.152372
29.398632 19.290092 -0.63315111
29.40202 19.2931 1.5621626
29.27771 19.698652 1.6601588
29.266327 19.698835 -1.1418809
29.379128 19.389528 1.6621315
29.385042 19.40304 1.7634977
29.348209 19.593744 1.7577057
29.397758 19.290359 -0.53311419
29.431755 19.486145 1.7686485
29.402826 19.295076 -0.23439361
29.397306 19.301186 -0.033674844
29.253159 19.696894 -1.7381988
29.272316 19.705347 -0.43433994
29.462856 19.403809 -2.0328934
29.262676 19.695017 -1.2409451
29.274557 19.597797 -1.8384458
29.362448 19.361198 -2.4537699
29.297699 19.500193 -1.3341597
29.187128 19.593296 -2.3432024
29.438738 19.475029 0.070648558
29.292273 19.360006 -2.614186
29.292498 19.41444 0.057356924
29.39435 19.503868 -3.2346201
29.181171 19.695234 -2.9728003
29.315569 19.40991 -1.1476856
29.290321 19.516733 -1.8353623
29.249672 19.651852 -2.8625934
29.389833 19.399904 0.46510777
29.520893 19.407848 -0.26453289
29.296785 19.505983 -1.4373538
29.438307 19.38998 -0.93281972
29.430901 19.282673 -1.7434845
29.268276 19.509224 -2.4333401
29.25563 19.702652 -1.8353745
29.463116 19.206312 -1.3372624
29.450481 19.50494 -0.026987409
29.459717 19.270172 -0.037447616
29.451242 19.199345 -2.0622015
29.462378 19.200449 -1.6308336
29.345547 19.591455 -0.84043479
29.389853 19.296762 -1.0396059
29.388578 19.402411 0.55825698
29.437857 19.371254 1.0556465
29.497967 19.267712 -2.7537003
29.259693 19.69656 -1.4352732
29.35194 19.684771 1.068271
29.384342 19.398333 -0.1370464
29.287546 19.599903 -0.9424004
29.440578 19.369267 -1.811805
29.3496 19.495642 -1.9421705
29.439135 19.216183 -3.6184819
29.345272 19.499002 -3.3264146
29.302259 19.50539 -1.0374709
29.255833 19.699081 -1.536059
29.400866 19.305218 0.55962044
29.404945 19.304132 1.4515649
29.40169 19.305092 0.66422343
29.38728 19.399755 0.058630925
29.389439 19.295332 1.7645574
29.447189 19.372278 -1.3200835
29.396864 19.298479 0.26555735
29.403488 19.296534 0.16272844
29.362375 19.305307 -3.6889367
29.475557 19.494181 -1.7674495
29.400703 19.307339 1.6613303
29.461185 19.219049 -3.3612785
29.343401 19.478683 -1.7444799
29.352852 19.395462 -1.9337351
29.356577 19.49592 -0.64236134
29.401896 19.225414 0.55468929
29.352499 19.482151 -1.3372302
29.350168 19.589764 2.0579941
29.346857 19.590864 -0.64249903
29.289371 19.599396 -1.040809
29.350904 19.48926 -1.5382866
29.202587 19.708416 -2.1354055
29.214508 19.69627 -2.3688574
29.46282 19.219547 -2.8152809
29.365511 19.489653 -0.53715855
29.4576 19.223192 -0.0382674
29.358007 19.385605 -2.1314135
29.43321 19.470522 1.2487301
29.403164 19.227341 1.5491662
29.347574 19.496897 -1.6386918
29.295218 19.676815 -3.3407795
29.298416 19.506702 0.94701225
29.343779 19.58758 -0.43698895
29.261559 19.437862 -2.9685333
29.297632 19.608133 0.46133691
29.360384 19.387985 -1.8268766
29.278124 19.598999 -1.7404447
29.390184 19.399536 0.65389204
29.526176 19.417458 -0.80569297
29.457449 19.214779 -0.84049124
29.342258 19.585625 0.96216071
29.381119 19.221621 1.2585282
29.267393 19.702887 -0.93628949
29.428759 19.354063 -3.3468816
29.317402 19.431932 -0.83768785
29.30765 19.428038 -1.2340019
29.307777 19.431131 -0.95023566
29.313757 19.397045 -1.8349643
29.304451 19.508602 -0.94163764
29.307146 19.418272 -1.3490247
29.339287 19.584421 0.66268706
29.340309 19.585861 0.56537843
29.437822 19.213428 -3.7959292
29.301003 19.602461 0.55969685
29.288666 19.503414 -2.33971
29.250492 19.697329 -1.9326332
29.353968 19.303244 -2.3279204
29.287537 19.515068 -2.9690981
29.359207 19.490974 -1.03431
29.3083 19.404301 -1.5331812
29.279152 19.595676 -1.1394628
29.209084 19.729092 -0.94648397
29.431328 19.484657 0.54980367
29.441439 19.294546 -2.0788507
29.420269 19.45219 -2.1898382
29.297146 19.518057 -0.84436095
29.448645 19.211758 -1.939443
29.467194 19.194929 -1.7400703
29.297989 19.505325 -1.2380631
29.257965 19.697254 -1.6374882
29.333 19.687227 0.46946707
29.354654 19.396906 -2.0511882
29.351208 19.477856 -1.8337845
29.341324 19.590826 0.16205962
29.294407 19.50255 -1.6301064
29.358818 19.496145 0.15974547
29.358477 19.48819 -0.43977568
29.298174 19.495991 -1.9475951
29.342052 19.588291 -0.33415166
29.358654 19.493048 -0.3360303
29.45553 19.277422 0.059691802
29.340666 19.588203 0.36254701
29.488281 19.516376 -0.39187822
29.20627 19.724438 0.16610567
29.393198 19.513443 -2.8869288
29.204918 19.725391 -0.85191321
29.45672 19.284182 -0.93200696
29.340502 19.584621 -1.7293512
29.201862 19.724991 -1.143267
29.118952 19.709799 -1.0672276
29.438259 19.567822 1.4331715
29.430538 19.625771 0.48064494
29.537092 19.378574 -1.3972409
29.535175 19.364315 -0.40864018
29.463057 19.211563 -1.2407928
29.359352 19.495337 -0.23479666
29.099289 19.73472 -0.17388389
29.338825 19.587606 -0.22807455
29.460638 19.511168 -2.0176206
29.345016 19.586792 1.0680964
29.345325 19.590443 -0.74512118
29.344414 19.585142 -0.14061274
29.370689 19.513205 -2.3219535
29.294739 19.609827 1.0616806
29.31056 19.637377 -2.7102106
29.369957 19.492659 0.85934663
29.304062 19.477392 0.76356655
29.339722 19.395277 -2.5309465
29.34355 19.585436 1.1571921
29.46854 19.58004 -0.24324068
29.204659 19.712614 1.4595124
29.348658 19.58964 1.2625164
29.386791 19.218641 0.17034197
29.203028 19.726387 1.3434784
29.344193 19.604015 -3.7580535
29.348047 19.58762 1.8600713
29.447977 19.141596 -0.57536536
29.385063 19.575962 -2.4079494
29.310577 19.408459 0.66959321
29.455666 19.276878 -0.24170162
29.472345 19.387697 -2.7797241
29.344938 19.585739 0.4576689
29.300367 19.512079 -0.43650654
29.413877 19.121664 -0.44007671
29.390247 19.232264 0.27358907
29.301886 19.504976 0.86414284
29.279036 19.702011 1.4642704
29.290371 19.602928 -0.63464302
29.405155 19.218342 -0.73440504
29.341349 19.588026 0.26297596
29.283337 19.703636 1.3586987
29.31007 19.284204 -0.83735818
29.360352 19.121227 -0.83470821
29.195885 19.699932 -0.12388097
29.399046 19.222498 -0.051406007
29.402634 19.220526 -0.13642502
29.306992 19.507738 -0.64739192
29.403589 19.218422 -0.63641721
29.403595 19.22439 -0.5389064
29.45002 19.29954 -3.101141
29.440008 19.381857 1.4621676
29.393501 19.215019 0.86933881
29.306393 19.412643 -1.4453914
29.206324 19.725037 -0.74562097
29.283089 19.611679 1.7632022
29.2003 19.695852 1.5638814
29.10969 19.715231 -0.44606277
29.20451 19.725937 -0.43422601
29.181107 19.620176 1.7332741
29.218464 19.607967 1.5746784
29.08703 19.710648 0.25982606
29.079134 19.711451 0.47929832
29.403606 19.19379 1.4620377
29.30303 19.397774 0.26592672
29.391531 19.385897 -3.2339027
29.328228 19.637053 -3.099278
29.310234 19.233242 1.2095394
29.044743 19.705902 -0.19829002
29.457012 19.224379 0.15873671
29.433363 19.372181 -1.6314369
29.348995 19.661989 -1.4174478
29.217609 19.615154 1.4439269
29.203176 19.704411 0.5610196
29.061953 19.721695 0.38854271
29.278717 19.582569 -2.2279527
29.403164 19.226578 0.066205844
29.301893 19.305727 1.4806259
29.352333 19.127726 1.4633675
29.39212 19.210037 0.6467334
29.399267 19.220272 0.37005496
29.28009 19.258244 0.63942635
29.162279 19.626116 0.68191648
29.206247 19.711521 0.64406526
29.292564 19.281893 0.26351398
29.216564 19.501244 0.31087327
29.190109 19.703861 0.76060927
29.208311 19.604691 1.2663693
29.286312 19.341299 1.0711043
29.285479 19.400219 0.16001944
29.181038 19.608475 1.0868603
29.171337 19.625715 0.18109855
29.190212 19.709965 1.0669528
29.258156 19.188162 -0.2140272
29.286009 19.263014 -0.20585589
29.285706 19.28706 1.1843493
29.194647 19.585064 1.1610477
29.282097 19.294127 0.72649115
29.208706 19.696386 1.2716188
29.307974 19.351276 -0.63099152
29.214123 19.637419 0.25865689
29.297848 19.424372 0.72483134
29.184992 19.605665 -0.14937878
29.301264 19.28722 -0.12882458
29.223303 19.537193 -2.9955108
29.275139 19.496746 -2.538502
29.084778 19.750677 0.17302957
29.079357 19.751595 0.48190564
29.342484 19.112469 -0.56647593
29.20014 19.705601 0.85837722
29.200638 19.726404 0.96991861
29.18609 19.72263 -0.052334405
29.316465 19.428213 1.6618285
29.316811 19.422018 -0.44776392
29.193853 19.716532 0.47208682
29.298117 19.434689 1.5577524
29.316549 19.296902 0.53101891
29.306129 19.31008 0.18289956
29.308134 19.50729 -0.1360708
29.194975 19.720682 -0.33320215
29.213545 19.712595 0.27259126
29.194344 19.716215 0.060726579
29.264933 19.670582 -2.5276544
29.217697 19.60099 -0.49678037
29.315676 19.251247 -1.11585
29.395811 19.220554 -0.24592547
29.198605 19.724268 -0.24496125
29.197575 19.723001 -1.0334489
29.110109 19.756252 0.98564571
29.305986 19.522516 -0.73393393
29.438633 19.449421 1.5419931
29.308968 19.521666 -0.038567834
29.302227 19.608265 0.9633472
29.290031 19.597046 1.4561422
29.433651 19.405535 -1.7352098
29.213659 19.607395 -1.5213517
29.21405 19.616173 0.85879064
29.174494 19.611685 -0.24469323
29.214437 19.63295 -1.3778105
29.295561 19.612453 1.3633372
29.199781 19.724367 -0.53034282
29.389198 19.400763 0.96144098
29.386139 19.398525 0.16059563
29.312983 19.320232 -1.6314169
29.379311 19.255575 -2.9926336
29.398144 19.224747 0.76299071
29.398632 19.396202 1.159205
29.429213 19.578773 0.34982514
29.393169 19.405319 1.459217
29.376625 19.505436 -2.5031574
29.384056 19.4018 1.5630447
29.326038 19.186388 -2.6256173
29.442711 19.374893 0.45792773
29.07584 19.731712 1.3147252
29.341343 19.655888 -1.6331054
29.444048 19.374086 -0.43851259
29.438921 19.380135 -0.2357395
29.435617 19.382895 0.0567449
29.341904 19.593296 1.3566155
29.297928 19.497772 -2.0393181
29.240547 19.693602 -2.235534
29.178268 19.71664 1.1654803
29.400129 19.22987 1.0624601
29.203472 19.726028 0.33438268
29.277094 19.243904 0.014096726
29.284998 19.301025 -1.3698624
29.316347 19.32383 -0.036848761
29.553062 19.364645 -1.1393516
29.368948 19.298273 -2.2486148
