# .PCD v0.7 - Point Cloud Data file format
VERSION 0.7
FIELDS x y z
SIZE 4 4 4
TYPE F F F
COUNT 1 1 1
WIDTH 1612
HEIGHT 1
VIEWPOINT 0 0 0 1 0 0 0
POINTS 1612
DATA ascii
32.237076 22.770411 2.6286309
31.229473 25.457743 2.8101387
31.186005 25.588696 2.7733178
30.755894 26.755783 2.5804853
32.376774 22.841087 2.9521201
32.186768 22.991135 2.6619196
31.528425 25.048109 2.9049835
31.683502 24.771046 3.0323031
31.353062 25.421766 2.7430265
31.680851 24.282917 2.8257468
32.561958 21.942345 2.9690483
31.520185 24.991087 2.9336128
31.107075 26.034561 2.88903
32.240929 23.140909 3.0085907
32.64727 21.790642 2.8702631
31.06249 25.434074 1.877364
30.204994 27.615854 2.013303
29.846233 28.623644 2.003818
29.80868 28.724096 1.9299293
32.118763 22.703779 1.9886675
30.946564 26.327084 2.5924406
30.914103 26.459719 2.5817859
32.507385 21.953674 1.3192496
31.021719 26.43203 2.4492135
30.438026 27.995247 2.752615
30.790436 27.074415 2.6640496
30.080227 28.017658 1.9600402
29.866905 28.719362 2.0658174
30.816593 26.130507 2.2786245
32.195229 22.515175 1.9430698
31.599773 24.02005 1.9602535
31.694746 24.394127 2.5323954
30.704428 27.052395 2.0035138
30.608694 27.384712 2.6401238
30.00367 28.859142 2.5165243
30.913044 25.913397 2.2077332
30.912294 26.611786 2.6170113
30.773491 26.893341 2.6395361
31.286184 24.784781 2.1288927
30.280426 27.529993 2.196563
31.276018 25.574699 2.7494133
31.293381 25.786572 2.7567139
31.061403 26.098928 2.5880039
30.141804 28.631926 2.3629301
30.708832 27.126637 2.5645618
31.598009 24.020105 1.8969084
30.118977 28.022556 1.9060493
29.931271 28.85194 2.026844
31.430817 25.301426 2.5864861
31.272251 24.912064 1.8869607
30.681911 27.08481 2.3575356
31.605749 24.036016 2.2623665
30.898169 25.972292 1.9768218
31.470167 24.939587 2.4330125
30.428072 27.221182 1.892736
30.546633 27.394966 1.8820052
31.286987 24.79789 1.9667673
32.586441 21.990124 1.8924288
31.798939 24.223488 2.6604972
30.751841 26.330683 1.8747075
30.080824 28.088209 1.897759
31.504618 24.905268 2.5982187
31.31007 24.830799 2.0555475
30.512817 27.032497 1.7094382
31.776299 24.206224 1.7796371
32.800861 21.503222 2.4786859
31.389086 25.208412 2.51565
32.016258 23.646742 2.5517218
32.680214 21.835602 2.6238043
30.895069 26.58091 2.4461956
30.779076 26.882175 2.4655218
31.268858 24.839048 1.8027624
30.738289 26.274714 1.7919062
30.388111 27.796944 1.7752471
31.572937 24.006136 1.7805133
31.64467 24.503057 2.4625461
31.677467 24.39138 1.9625235
31.690943 24.367981 2.3974211
30.607218 27.353947 1.9123044
31.954561 23.692616 1.7687935
30.538517 27.50453 1.7693137
30.589882 27.179312 1.7394437
30.580898 27.396288 1.7835364
31.860231 23.982441 1.8324612
30.401974 27.870232 2.3708782
32.162838 23.209625 2.6728058
30.063532 28.760441 2.5319178
30.082634 28.57497 1.9755981
31.293346 25.536385 2.511471
32.613102 21.98674 2.4703255
30.315796 28.106409 2.4464426
30.500786 27.623009 2.4487309
31.463219 25.008116 1.8598078
32.369377 22.117424 1.8502619
32.666355 21.816566 2.5643868
32.77747 21.611229 2.4861381
30.572872 27.319042 2.4265511
30.598709 27.294977 1.9584541
31.10886 26.010284 2.3594754
31.059914 26.113976 2.6464725
30.560747 27.411999 2.0747609
30.91531 25.825506 2.0166204
30.292557 27.480173 1.9988201
30.471403 27.684492 2.259851
30.396364 27.89043 2.065712
30.403667 27.883303 2.514569
32.1875 23.137169 2.5614033
31.798208 24.202074 2.5711498
31.299519 25.542187 2.0357194
31.296026 25.501936 2.4785342
32.676022 21.790878 2.1655331
32.707596 21.775322 2.4003198
32.312847 23.021235 2.7130437
30.5504 27.658722 2.7542322
32.759762 21.869862 2.755758
30.700401 27.133514 2.6289024
30.670181 27.303558 2.6746695
30.090431 28.134142 2.082541
31.409752 24.500078 2.0690312
30.285437 28.099373 1.9606757
30.081993 28.63979 2.0922446
30.099358 28.708496 2.5787992
30.890694 26.616629 2.5520608
31.473551 25.008318 2.6274159
30.35038 28.111765 2.7033572
31.085762 26.154161 2.6757569
32.701622 21.97636 2.6494601
30.606922 27.386822 2.4231818
31.392834 25.28923 2.5498095
30.650681 27.45163 2.7271016
31.921528 24.03252 2.7297261
31.997551 23.745527 2.6534321
30.157558 28.601818 2.4551439
31.594404 24.875675 2.8612466
31.567326 25.137384 2.9286294
32.201427 23.371832 2.8283522
32.211739 23.31135 2.8182778
32.381367 22.779655 2.8651164
31.21172 25.89123 2.6454699
30.440191 27.978603 2.5748935
30.476269 27.905991 2.7989752
30.444313 28.008125 2.8274786
32.284252 23.068304 2.7700589
32.232197 23.318108 2.8387234
31.694712 24.607065 2.7637916
31.079388 26.196978 2.560163
31.472157 25.095129 2.6464832
30.320232 28.293993 2.4444664
31.279276 25.67487 2.71364
32.6996 22.100594 2.6569598
31.732012 24.656763 2.5239182
30.551022 27.084427 2.4526212
32.696438 21.897491 2.4387863
31.643055 24.1919 2.5563724
30.558107 27.012569 2.6530805
32.134224 23.576466 2.6571012
30.406031 28.017612 2.8083069
31.677429 24.391605 2.6544924
31.883017 23.403435 1.8775463
32.473053 22.400562 1.9902673
31.397306 25.23336 2.9213402
30.060543 28.289488 1.5567181
32.536736 22.492903 1.8822147
31.886555 23.242004 1.9569588
32.024494 23.26997 2.5243382
32.007336 23.102718 2.6367114
32.341164 22.045237 2.7356033
31.728735 24.045614 2.7273307
30.767897 27.163618 2.6085086
32.681263 21.422775 2.5250366
32.082191 22.998766 2.4632461
32.286766 22.393946 1.8809943
32.447113 22.708996 1.8844616
32.297234 22.306095 1.733407
31.453722 25.292412 2.1704354
32.190304 22.699249 2.4492729
30.56399 27.179436 2.2728624
31.751461 23.8965 2.2550964
32.190689 23.38356 1.7815299
30.005548 28.572849 1.6763881
31.870146 24.095266 2.5510421
30.480354 27.2075 2.0428696
30.855656 26.471336 2.3816221
30.380398 27.493671 2.5671265
31.691416 23.927837 2.4981241
30.157379 27.912025 2.5611866
30.149559 28.1845 2.3508289
32.73032 21.613564 1.5843178
32.189445 23.092108 2.1536176
31.743824 23.985077 2.2619457
30.167664 28.097216 2.364918
32.255013 22.791306 2.2659583
30.640846 26.878883 2.2609246
31.563351 24.989071 2.1670578
31.874617 24.188665 2.0721326
31.952408 23.383432 2.3549969
31.347649 24.974194 2.4528642
32.641579 21.666145 2.4171529
32.646744 21.510561 2.4481506
30.802376 27.023525 2.6605301
30.851784 26.298109 2.3554306
31.386784 24.946348 2.7216141
32.477268 22.503834 2.1588135
32.583698 22.096468 2.4469914
30.663355 26.797129 2.1638684
30.081326 28.307226 2.06565
31.087517 26.096209 2.369066
31.967016 23.485252 2.2732539
31.890579 23.401199 2.1557901
32.08699 23.285738 2.0638947
32.750931 21.892529 2.1580172
30.652437 26.969231 2.0501597
29.959032 28.884468 1.9824107
32.673332 21.470583 2.3633542
31.686607 24.501438 2.3624542
32.510822 21.910723 1.9732032
30.148432 28.191572 2.2600536
31.886581 23.889624 2.4774613
32.695267 21.885502 2.3470087
32.623932 21.890432 1.6130539
31.887972 24.011292 2.1711795
31.766733 24.092001 2.2581692
30.196548 27.906788 2.0622883
29.975218 28.436178 1.6963998
30.578915 27.273588 2.1296453
32.866081 21.419022 1.9689314
30.737364 26.67421 2.2752814
30.095699 28.319122 1.6748017
30.746128 26.68536 2.4452245
31.799019 23.609669 2.4627521
30.048002 28.397312 2.6487083
32.549229 21.902788 2.5738015
31.89455 23.41363 2.2823122
32.567204 22.270378 1.96735
32.564907 21.806156 2.4811909
30.156855 28.291592 2.454227
32.567574 22.318344 1.7629628
30.089539 28.290293 2.6566236
32.268524 22.509153 2.1615109
30.490969 27.190285 2.1550248
30.172506 28.102797 2.2599874
31.791872 23.704124 2.4642277
30.620592 27.048975 2.4767389
30.370237 27.593834 2.0681705
30.443836 28.007528 2.3789105
31.87471 23.893562 2.3591831
31.192642 26.002451 2.814661
30.213619 27.884228 1.9475964
30.388062 27.894611 2.2746964
31.467966 25.29332 1.9601659
31.84936 23.694651 2.1674938
32.268585 22.587984 2.3557684
32.278831 22.502081 2.2540209
30.348104 27.679335 2.0602016
31.876043 23.584503 1.6587161
31.350779 24.984365 2.5707366
30.385744 28.195549 2.8065252
30.591095 27.296 2.572041
30.683046 26.997622 1.8483276
31.097185 26.025494 1.8084444
32.069202 23.498806 1.8650831
31.284519 25.707207 2.0597126
31.354656 24.984795 2.3645444
29.984928 28.475941 1.5693468
31.419964 25.344355 1.7953628
30.255146 27.98686 2.1589737
30.081402 28.111599 2.5451028
31.591017 24.950928 1.3189453
29.938507 28.417171 2.7232513
32.121906 23.647821 1.8892115
31.837931 23.771175 1.6643616
30.564339 27.40308 1.687328
31.339235 25.683641 2.0631559
31.777645 23.488235 1.7527146
31.622021 24.914541 1.5974292
31.492365 25.208988 1.5694115
31.344723 25.665304 2.2346652
31.717892 24.63352 1.6462539
31.504454 25.214811 1.6955035
30.802324 26.82987 1.6489924
31.478273 25.192547 2.4644496
30.587006 27.300087 2.3793173
30.172073 28.312159 2.246794
31.971424 23.467638 1.686813
29.981325 28.991825 1.7363048
31.859787 24.10556 1.8573084
29.862356 28.629768 1.8389192
31.320662 25.684647 2.4304864
30.858994 26.290613 2.2602818
30.087337 27.99155 1.7535079
31.97014 23.478456 1.7734253
32.387093 22.321962 1.4741476
31.663084 24.785509 1.8630276
30.740314 27.195286 2.1508901
30.767084 26.388411 1.8737104
30.439909 27.387085 2.27121
30.752645 26.90262 1.5785407
31.259541 25.693197 2.2728708
30.791294 26.405329 2.4642513
29.976276 28.384098 2.6760569
32.361958 22.527828 1.6972138
31.987095 23.468843 1.8885876
29.748569 28.941689 2.65803
30.479048 27.35038 1.6374199
32.268867 23.018347 1.6949421
30.793806 26.401966 2.3616915
31.227793 26.00205 2.0574503
31.76634 24.502077 2.066143
30.75466 26.990337 2.3586774
30.573893 26.970552 1.6917751
30.140259 28.173443 2.548949
30.463322 27.481789 1.9400523
32.241852 22.817169 1.7440884
29.965393 28.410191 2.5759089
30.058767 28.238905 1.8883047
32.305664 22.23778 2.0682206
31.301081 24.997498 2.1653798
31.864519 23.593065 2.061233
31.245115 25.967281 1.8827578
30.795132 26.407499 2.2689185
32.263062 22.8099 1.5508837
32.556831 22.265484 1.6949581
30.571686 26.989519 1.8550186
30.240017 27.985647 1.8500096
32.306656 22.520889 1.7381289
32.433884 22.132185 1.7020572
32.297722 22.615223 1.6843736
30.151007 28.117411 1.7417516
31.576458 25.022274 1.7703494
30.688221 26.767414 1.48939
31.761477 24.095711 1.9433497
29.763809 28.898098 2.5605934
32.000538 23.115585 1.9121132
31.556152 25.147135 1.5318457
30.433481 27.979523 2.2747402
31.18708 25.314974 2.6406715
30.954397 26.369707 1.8670084
30.452456 27.378315 2.5483425
30.484243 27.111975 1.8967822
29.946304 28.926991 1.866617
29.948896 28.865442 1.551725
31.783884 23.91398 1.6885657
30.741302 27.252068 2.0207636
32.174191 23.081715 1.8809766
30.082272 28.102325 2.4530625
30.499855 27.103191 2.1909299
31.992199 22.984171 2.0423334
30.714874 26.657143 1.4066157
31.453125 24.885288 2.3329165
30.723528 27.283461 2.1273506
31.388466 25.388206 2.0699537
32.648338 21.690639 1.6553779
32.181236 23.072481 2.4343657
31.038124 26.489992 1.9509
32.172314 23.020905 1.7270753
31.365795 25.390177 2.4600592
30.652927 26.794987 2.4484973
30.049 28.282793 2.7202041
30.062973 28.801844 1.9700812
30.080091 28.813787 2.1529009
32.145203 23.482658 2.3580918
30.407078 27.345488 2.0934911
32.656975 21.698252 1.8826898
31.818968 23.910585 1.7230363
32.276772 22.565878 1.5523447
31.9991 23.114128 2.067524
30.530891 27.776352 1.9462869
32.251732 22.604673 1.9796959
31.446066 24.889698 1.8970511
32.008923 23.022102 2.1863546
30.787758 27.011209 1.8649687
30.93199 26.376701 1.7378824
31.485178 24.998848 1.9597547
31.596344 24.990337 1.5737822
30.528847 27.671494 2.5513637
32.268398 22.756474 1.3726683
30.97364 26.074841 1.6438496
32.014511 23.001295 2.2409523
31.613974 25.031483 1.4689596
31.09458 25.994715 2.2657068
30.83663 26.375891 2.264715
30.797806 26.229099 1.9443029
31.763674 24.49263 2.4717467
30.797863 27.082836 1.8998866
31.426126 24.890303 2.7149003
31.504244 24.993406 2.0622194
31.875641 23.517456 2.4627869
30.731899 27.193613 1.8833945
30.045328 28.503109 1.366365
30.406658 27.389011 1.8504498
30.453083 27.383457 2.0634625
31.89831 23.31949 2.0543959
29.987873 28.879019 1.7150191
30.452402 27.388571 2.4656215
31.732914 24.577084 2.3529363
30.11459 28.19647 1.7400842
32.753002 21.290237 1.8796383
31.357319 24.999861 2.1593943
30.60322 27.247074 1.7523327
29.877607 29.071335 1.9515114
29.903454 28.811644 1.8741441
31.894115 23.330122 2.4427085
32.388821 22.279266 1.8515143
30.454849 27.37035 1.8470846
31.675131 24.601494 2.1583905
30.067738 28.718388 1.7158028
32.377865 22.31004 1.8046119
32.158539 23.395229 1.9508073
30.091026 28.712633 1.983433
32.377457 22.297022 2.4624393
32.345001 22.377529 1.9624279
32.392906 22.203465 1.8680453
30.155792 28.265339 2.0697954
31.575048 24.891682 2.4516072
30.444157 27.386932 2.3544297
29.882141 28.897762 1.8826535
30.408562 27.114498 2.6167791
30.142534 28.862652 2.0855005
30.436995 27.971283 2.4670081
32.743122 21.958763 1.8886063
32.56406 21.998468 2.049752
30.748161 27.100895 2.2595568
30.475861 27.293625 2.0754681
30.686819 26.608627 2.2609046
32.156689 23.393518 2.2596607
31.88875 24.093901 2.7357013
30.747919 27.188158 2.259984
30.383677 27.506557 2.1615963
29.852682 29.080708 2.0707974
32.128654 23.594021 2.2746451
30.178711 28.399521 2.3321719
30.125084 28.274466 2.3695765
30.202354 28.381584 2.0627227
30.487606 27.205078 2.3472645
30.202044 28.592253 2.0585282
30.190165 28.496235 2.4599545
29.877352 28.690817 2.5688679
30.47566 27.656555 2.8497519
29.814287 28.745695 1.9209801
31.661293 24.882528 1.7852281
32.827152 21.403025 1.6630584
31.899969 23.378098 1.7481245
32.568928 21.969734 2.3758054
30.5382 27.795925 1.876374
30.747061 27.257156 2.6512408
31.18989 25.305485 2.4636416
31.456894 25.20986 2.5502014
32.616402 21.560984 1.8058689
31.683815 23.915262 1.8471955
32.40752 22.244099 1.5029446
31.360399 25.400532 2.2492795
31.476254 25.194054 2.0662932
30.189554 28.005524 2.175518
29.878805 28.585785 2.6186466
30.521412 27.101227 1.6929348
31.264715 25.695482 2.4667454
29.868311 28.882717 2.2670894
30.946459 26.350594 1.5978857
30.367908 27.987915 2.0631971
31.151911 25.982658 2.4681408
29.975451 28.230024 2.4022262
29.970995 29.000477 1.8710493
30.166424 27.875803 2.2520704
30.178871 28.50518 2.0598924
31.044216 25.789049 2.4538624
30.893009 26.624037 1.569491
31.558922 25.307461 1.4561136
29.979036 29.008684 2.0530908
29.891865 28.796062 2.2753365
31.274143 26.016727 2.2961051
31.595528 24.711054 2.0696478
32.61541 21.443853 1.9075884
32.377121 21.970112 1.7689661
31.557793 25.081985 1.9608843
30.524815 27.001419 1.7677215
29.949982 28.786768 2.2488911
30.161036 28.439745 1.4081408
32.08667 22.999617 2.3641801
29.873569 28.893419 2.1640303
31.941681 23.550266 1.7861553
30.581619 27.508335 2.0733178
30.159483 28.353104 1.7130656
30.144272 28.286057 2.5374818
30.565432 27.490108 2.3672309
32.328579 22.45533 1.7477311
30.868992 26.377975 1.7805882
29.994165 28.229811 2.2783248
32.155155 23.493729 2.254395
31.873028 23.292038 1.8317807
29.984896 29.000523 2.1521659
32.143852 23.488152 2.165185
32.880089 21.485018 2.1783848
32.861992 21.596462 2.2365675
32.459717 21.819092 2.6173496
32.407059 22.039865 2.4661787
32.883926 21.594618 1.7090566
32.777168 21.618532 2.0610871
32.871368 21.58041 2.063668
32.940792 21.429632 2.1587284
31.62192 24.080534 2.9000292
32.93256 21.546648 2.0980673
32.882053 21.497843 2.0741446
30.529568 27.776289 2.2265296
32.840237 21.499039 2.2981818
32.861458 21.327908 2.164968
32.776703 21.482468 2.1328614
32.928223 21.400053 1.9504507
32.877056 21.610226 1.9666424
32.877361 21.595448 1.852932
30.824497 27.107059 1.9736351
32.741474 21.28299 1.9635776
32.96468 21.37434 2.0257862
32.128605 23.576811 2.362236
32.945976 21.44408 2.2857807
32.447342 22.199919 2.3557084
32.884514 21.493757 1.7923131
32.403545 22.484735 2.6779718
32.858318 21.477795 1.9939257
32.932251 21.353178 2.4539661
32.846107 21.490627 2.4690099
32.40004 22.203171 2.5478628
29.856174 28.996319 2.0578413
32.794079 21.509125 1.6954643
31.889719 23.900743 1.9645445
32.451309 22.693985 2.3486345
30.883207 26.210178 2.2516053
32.355209 22.390516 2.4539335
30.217041 27.897022 1.7224375
30.168446 27.889921 2.4528482
30.820303 27.150013 2.1445544
30.207417 27.836891 2.1654387
32.44606 22.700773 2.0714755
30.088436 28.21843 2.083745
32.075207 23.10474 1.8753089
31.883518 23.499453 2.5508215
30.134956 28.102936 1.6484166
29.802225 28.842796 2.0629547
30.122278 28.916435 2.1613615
30.795563 26.192268 2.1803992
30.454111 27.902531 1.9806094
32.007439 23.115421 2.2597523
32.806896 21.505693 2.3503475
31.180326 26.009441 2.6622834
31.899227 23.37015 1.9756989
31.478128 25.075598 2.8807089
32.476913 22.627249 1.9471196
32.338047 22.736116 1.534128
32.68132 21.908157 2.6710315
30.679342 26.696428 2.4495807
32.091106 23.297155 2.1774273
29.939718 28.793919 2.6440654
32.453091 22.583519 2.255024
30.171949 27.976761 1.7767646
30.660992 26.701349 2.6395843
32.357094 22.491945 1.9696887
30.416048 27.321148 1.9960564
30.185886 27.997173 1.9702258
32.462643 22.579891 2.5644231
32.510403 22.387569 2.0506675
31.124577 25.762688 1.8862705
32.737961 21.389217 1.9751737
31.883022 23.493177 2.0693278
32.461712 22.099049 2.5455256
31.785952 24.298204 2.4446115
29.847437 29.084103 2.1713572
31.437653 25.191589 1.883099
30.104298 28.709236 2.3404601
31.903172 23.393688 2.4589763
32.538883 22.40237 1.7947706
31.205572 25.288754 2.54968
31.50028 25.005655 2.4799333
31.060022 26.022543 2.5402238
32.480839 22.401535 2.3496695
32.307331 22.285769 2.4537525
32.728462 21.41087 1.4898226
32.651806 22.263929 1.7693868
30.450258 27.385921 2.1639576
31.157284 26.162891 1.740041
31.777771 23.434853 1.6458862
30.478003 27.078175 2.4631968
30.436996 27.481916 1.8489373
30.054266 28.889101 2.1651845
30.687687 26.60235 2.5668035
30.711086 26.509874 2.5667343
30.695595 26.495308 2.3410454
30.479969 27.797861 2.1574893
29.979635 28.592258 2.6417091
30.804035 27.029043 2.7516642
30.489578 27.807724 2.5880213
30.616997 26.720865 2.5508773
30.10136 28.215378 1.9623441
30.724566 26.666201 1.6827618
30.303444 28.192505 2.4804037
30.699131 26.501612 2.4898107
30.402287 27.195747 2.3355613
31.153881 26.092577 2.1540442
30.185036 28.008314 2.4433153
31.259489 25.381002 1.9049925
31.192089 25.11404 1.8626742
30.870867 26.698799 1.7063236
30.109066 28.206358 2.1592848
31.280058 25.688301 2.5781775
30.479176 27.808121 2.6392202
32.150169 22.406471 1.9512672
30.477901 27.130867 1.9612585
31.794912 23.503092 1.6699138
32.395061 22.60137 2.0670018
30.262901 27.701813 1.7789775
31.817699 23.418652 1.8521153
30.363884 28.197479 1.9725263
32.465931 22.580097 2.0773647
31.851414 23.695152 1.8600329
30.095882 28.925228 2.0930624
30.580467 26.993042 2.2595205
32.355934 22.484106 2.0543387
31.072353 25.700655 2.638746
31.182125 26.14876 2.4998817
31.603134 23.832809 1.898639
31.288128 25.69931 2.6592276
31.998322 22.974529 1.8663309
32.441246 22.70019 2.2643523
32.33419 22.847069 1.4839308
32.33831 22.4027 2.5628347
31.37038 25.393913 2.5644639
32.428932 22.202106 2.5199785
32.45377 22.627449 2.6114173
32.481503 22.496576 2.4711318
32.092873 23.406967 2.14691
30.494877 26.995283 2.3591189
30.85218 27.005348 2.1556852
32.503128 22.189375 2.8703136
30.502369 27.593643 2.3509994
32.197632 23.213999 2.4643517
30.379581 27.334507 1.7714965
30.094881 28.290228 2.3592174
31.47356 25.398521 1.8615121
29.931347 28.786781 2.4419141
32.451614 22.611526 2.4481294
32.446468 22.588774 2.3578842
31.3412 25.685936 2.1423342
30.105442 28.188982 1.5614073
30.11953 28.954847 1.8552785
32.171844 22.411652 2.0327156
32.498295 22.279058 1.863602
29.986431 28.699018 1.3114303
30.016603 28.223333 2.4518762
30.495384 27.089691 2.2690873
30.08102 28.294109 2.2647011
31.524895 25.189444 2.2654886
30.823027 26.960442 2.3676424
30.666803 26.521029 1.840891
30.514084 26.888699 2.2796986
32.503994 22.445068 2.5955827
29.887615 28.79084 2.5909545
29.951256 28.520916 1.665387
31.343521 25.483332 2.4512792
30.687597 26.600067 2.3738861
32.059109 23.096725 2.6397467
30.512152 26.924629 2.3214605
30.19276 27.791489 2.4732153
31.687943 24.312016 2.6841762
30.007961 28.309401 2.23175
30.596966 26.680002 1.8072917
30.521589 27.897165 1.9473788
29.994406 28.512638 2.2599053
30.716473 26.478226 1.9937711
30.345564 27.764809 2.3500621
31.999266 23.110439 2.1595521
30.055155 28.90649 2.4642718
30.398096 27.492714 1.9548221
32.333229 22.806381 1.4899489
30.659889 26.891171 2.0739172
30.278269 27.487406 1.8582183
29.818598 28.633835 2.5986984
30.193565 27.805443 2.251173
30.133926 28.801817 2.0551341
29.987398 28.51198 1.9865112
29.98945 28.504808 1.9012692
30.157343 28.270931 2.162972
32.180294 22.712549 2.2593431
32.460068 22.185789 1.8631612
31.878408 23.506514 2.7362816
31.795887 23.696009 2.1710603
30.019852 28.400608 2.07938
30.79788 27.006966 2.0747452
31.289537 25.511379 2.6704397
32.103477 23.016817 1.5077432
31.461258 25.19165 1.9653713
30.455709 27.49342 1.7104112
29.756466 28.899723 2.373868
30.835447 26.970442 1.9675298
30.347837 28.27446 2.0836079
31.498524 25.001221 2.2523744
30.667118 26.791639 2.0552056
30.523941 27.921904 2.2243528
32.851036 21.528282 2.6580203
32.448616 22.187698 2.0683281
29.976931 28.520308 2.0685675
32.405357 22.101656 2.1597335
31.216715 25.768995 1.664906
29.980467 28.58634 2.4427731
31.791927 24.182114 1.9081079
31.261738 25.791817 2.0734007
32.390587 22.626326 2.461133
30.474138 27.0795 1.7720424
30.455523 27.291746 2.354239
32.234921 23.485125 1.9578714
32.120663 23.54586 1.8060591
30.473501 27.807384 1.9713547
30.172016 28.681181 2.5703564
31.966446 23.984995 1.7993093
29.978537 28.52544 2.5717807
32.77673 21.695337 1.9578841
30.771358 26.996992 1.9399636
30.846451 26.963829 2.0317798
30.744488 26.698433 1.5745065
29.887682 28.726723 1.3893652
31.476164 25.392603 1.7540973
30.411983 27.187721 2.5515962
30.588243 26.874113 1.7737309
30.070324 28.209751 2.3471704
31.505772 25.029659 2.822639
31.194536 25.9009 2.4606595
30.175064 27.827709 2.5564408
30.345934 27.703188 1.9671153
30.702713 26.612747 2.1635852
30.650276 26.803345 1.7155868
29.873447 28.870272 2.6228509
29.991467 28.401491 2.3660693
31.357195 24.991749 2.2514095
32.150635 22.985615 2.0657761
32.071308 23.0886 2.2571611
30.189728 27.817852 1.78265
32.521084 21.905302 1.4633614
30.332582 28.34289 1.7899663
32.361401 22.475306 2.1653662
30.344921 28.304598 2.6508391
30.684566 26.708385 2.0570753
32.325802 22.689663 1.7995859
31.907032 23.40959 2.5472155
30.187342 28.002798 2.0829816
30.767488 27.097416 2.4377797
32.766178 21.707487 1.8497477
30.932177 26.175005 1.8719705
32.777313 21.654161 1.7214731
29.978121 28.573698 1.8860258
32.334831 22.492891 1.8426284
31.478678 25.210655 2.6498027
30.360798 28.192257 2.4656613
30.077711 28.220459 2.2808683
32.161793 23.481785 2.0711443
30.513493 27.615425 2.1636786
30.642769 26.967731 2.1619351
30.464005 27.623703 2.2427449
30.382048 27.502724 2.2526479
32.080742 23.000971 2.2603106
30.045132 28.229534 2.7331665
30.510641 26.90023 2.4643478
30.680729 26.708616 2.5496306
32.076843 23.062435 1.6661177
30.383327 28.095016 1.7595267
30.48418 28.073254 2.1647971
30.795862 26.518703 1.7599031
29.910433 28.453409 2.119132
31.76259 24.390322 2.35253
30.450407 27.486561 2.1514626
32.370373 22.521292 1.3279622
29.967096 28.999813 2.3413997
30.000946 28.504953 2.1767001
32.479031 22.341494 2.5776346
30.205124 27.716787 2.5907981
30.775053 26.998493 2.1638174
31.758995 24.405905 2.0505538
30.463774 27.284014 2.5598516
31.240244 25.990879 2.5667515
29.980343 28.594435 2.1742849
29.99087 28.495127 2.3567934
30.641905 26.78861 2.620903
30.763035 26.585648 1.4645067
32.473938 22.296694 2.2735977
30.276636 27.69948 2.5581563
30.429605 27.473339 2.0608037
30.471161 27.802174 2.3674736
31.753281 24.396259 2.2643957
31.746273 23.995224 2.6237144
30.348225 27.681446 2.3534248
32.502831 22.390448 1.794398
32.729259 21.383099 2.370594
30.654903 26.787338 2.3565843
30.27887 28.200191 2.0794103
30.091705 28.413328 2.7670405
31.571962 24.906136 2.0746217
30.001215 28.253138 2.7528126
31.144598 26.096264 2.2542644
31.525227 25.339989 1.9678026
31.158577 26.086332 2.4613895
30.459871 27.38586 1.9667562
31.779613 24.301661 2.3561397
30.81061 26.145411 2.5321214
31.170324 25.825306 2.82441
31.573622 24.811295 2.0651658
32.682457 21.902386 1.8723862
30.292608 27.69529 2.0464935
30.488142 26.955395 1.8013401
30.16798 27.906044 2.3731947
30.635826 26.977158 2.5131633
32.027122 23.180374 2.5272245
30.770981 27.102497 2.1536851
30.738855 27.176685 2.0684483
30.584553 26.996468 2.3597114
30.763767 27.186775 1.9470434
30.465504 27.304916 2.264456
31.968149 23.789536 1.7958822
30.384712 27.289774 2.372088
30.719473 26.98329 1.6954299
32.158077 23.005848 1.5383455
31.59087 24.92717 1.6599025
31.199629 25.778667 2.4408658
31.074459 25.701876 2.1661696
30.389721 27.399866 1.9667776
29.908449 28.698772 1.8738225
30.497478 27.012108 2.2541609
31.070881 25.698683 2.4497445
29.985504 28.299973 2.5388095
31.070232 25.702314 2.3592134
30.694542 26.780575 1.5921061
32.059162 23.085583 1.7538002
31.570793 24.38909 2.2611516
31.358219 24.886736 2.5700462
30.383604 27.231752 2.6654675
30.19838 27.86257 1.6496977
30.3783 27.500031 2.3626339
29.975555 28.501514 2.6489568
31.14617 26.269281 2.0076528
32.497215 22.40416 2.4535706
30.599186 26.74111 2.1356988
31.891541 23.401476 2.073303
32.270546 22.992655 1.9814503
31.177561 25.887632 2.3590088
31.18792 25.715267 2.6799726
32.364708 22.295647 1.9675907
30.39628 27.292576 2.2582796
31.643179 24.191597 2.682236
29.758904 28.858421 2.7223005
30.766266 26.988419 2.4823124
32.747688 21.286236 2.1603897
30.752468 27.18399 2.3857894
32.330944 22.391016 2.0577669
29.884195 28.721617 1.4451538
30.808422 26.06435 2.6773131
31.919085 23.307056 2.535322
31.128443 26.275949 2.0474219
32.478161 22.490328 2.2641411
30.55949 27.08709 2.3595357
31.067995 25.700319 1.9639558
29.888081 28.586063 2.2912474
31.052576 25.884548 2.6137693
31.557138 24.889557 2.5616741
32.295464 22.478491 2.8394361
32.12812 23.081738 1.4531713
30.172529 28.316761 1.7978916
32.298981 22.404079 2.0699782
32.670502 21.404158 2.4698477
31.36652 25.506001 1.8558176
32.125938 23.244968 1.5601157
31.595762 24.213924 2.4668214
29.870905 28.601154 2.3341231
30.108528 28.378702 1.8926492
30.757986 27.087696 2.5955331
30.372725 27.858482 2.958241
30.834084 26.961226 2.6583145
32.638023 21.591894 2.0694509
30.712034 26.506397 2.1467276
32.080364 23.593512 2.07465
32.323788 22.545881 1.5959074
31.143213 25.884865 1.7797676
31.175661 25.910458 2.2771633
31.150631 26.09726 1.9989878
30.744514 26.594511 1.9516661
31.183699 25.285543 1.9698358
32.659389 21.585991 1.9579692
32.452148 22.68722 2.156661
29.85973 28.882677 2.540349
31.782192 24.306107 2.5607593
30.555443 27.063969 1.7363387
31.600101 24.05784 2.9233613
30.422117 27.633783 2.5258877
31.151457 26.091061 2.3674502
31.900562 23.495974 1.9694133
30.442625 27.476252 2.6615047
30.18306 28.162233 1.8513789
32.312782 22.382277 1.6378541
31.219431 25.157518 2.2604129
30.454674 27.793791 2.2688112
30.019749 28.274225 2.3591614
30.831804 26.957949 2.580976
30.000956 28.300251 2.1898417
30.706377 27.023125 2.4888709
31.384409 25.389816 2.653583
30.345615 27.688868 2.1599193
32.192417 22.706802 2.1663542
31.133434 26.179893 2.3725643
31.127665 25.937534 1.6354688
30.073414 28.794094 2.3498447
32.723896 22.054409 2.7202532
32.564392 21.875389 2.6324167
31.417709 25.25601 2.8241069
30.134916 28.265526 1.6852829
30.187111 28.301228 1.8804138
30.434549 27.899048 2.3515067
32.145538 23.563028 1.8637652
32.144123 23.490164 2.6453557
31.898464 23.493093 2.3585079
31.484829 25.308754 1.6600643
31.870781 23.47509 1.8750925
31.079643 25.61581 1.9517205
29.767315 28.899534 2.4578104
32.786114 21.787025 2.1670208
32.877251 21.305832 1.9240326
32.109467 22.825642 2.1775556
30.679287 26.699478 2.1626449
31.374006 25.392229 2.1637127
30.287659 27.786755 2.051167
30.607979 26.72991 2.039567
32.862354 21.493589 2.7536871
30.146265 28.185106 2.4590626
30.762936 26.993835 2.2487309
30.450834 27.910231 1.8626989
30.887001 26.205891 2.0658631
32.72224 22.203558 2.2150848
31.72929 24.079189 2.0313635
31.321512 25.654131 2.4101958
32.261517 22.592852 2.256726
29.868034 28.896374 2.36429
31.570654 24.387962 2.5548244
31.253355 25.786825 2.3490915
31.172094 26.181181 1.8656702
30.499073 27.101757 2.3440206
31.880886 23.513994 2.2633445
31.205183 25.12919 2.1529219
32.477268 21.995581 2.4687035
30.461193 27.897331 2.162914
32.338467 22.494654 2.3600986
30.74799 26.69882 1.9710965
30.048788 28.983328 1.9692802
30.469112 27.456451 1.7192003
30.285192 28.19109 2.1625826
30.858047 26.207436 2.6242986
31.138302 26.323538 1.725512
32.733925 21.729885 1.6861778
30.176552 28.684441 1.8522158
32.140282 23.566944 1.9374276
30.614258 27.51292 2.6243212
31.997885 23.722633 2.4618511
30.190981 27.99791 2.2694561
32.377815 22.962276 2.6770287
31.073086 25.692764 2.5349422
31.140026 26.190119 1.9479805
31.484854 24.511721 2.5595648
30.881855 26.30674 1.8675033
32.931072 21.352301 2.3307905
31.878315 23.498539 2.1607609
30.566938 26.993626 2.5734923
32.390198 22.117256 2.3696258
29.899532 28.602375 2.4710097
29.91305 28.537909 2.259598
32.381168 22.895884 2.8055172
32.76157 21.889027 1.7906451
30.483135 27.195816 2.5557809
30.456558 27.823891 1.8661423
30.383528 28.464067 1.8921689
32.592411 21.593477 2.1577866
32.400307 22.001682 1.946156
32.339481 22.480442 2.45171
32.405895 22.604557 2.1574101
29.904646 28.539101 2.5493388
31.080212 25.70195 2.0699759
31.191326 25.294266 2.1486521
32.255844 23.206221 1.879077
32.147991 23.556755 2.730989
31.054825 25.789587 2.1667261
31.601986 24.203764 2.3426332
32.354164 22.381292 2.369581
31.2794 25.099583 2.5604184
29.88163 28.469625 2.6444747
32.357899 22.040554 1.8567116
31.669117 24.522228 1.8526084
32.779354 21.580046 2.2733192
31.581993 24.201332 2.7719774
30.05826 28.393494 2.5424914
32.351654 22.438555 1.6501051
31.166489 26.095444 1.8591413
32.281303 22.497417 2.4652402
31.187752 25.306145 2.0602195
32.176453 22.803646 2.3516388
29.964653 28.567348 1.5621171
32.190804 22.421612 1.9012278
31.074566 25.702417 2.2649498
32.460636 22.589001 2.1703568
32.457283 22.682775 2.6708212
32.467823 22.589684 1.8871821
31.817633 23.505146 2.4009378
32.356071 22.496902 2.2639451
32.364491 22.598602 2.3438954
32.350151 22.88612 2.2522266
32.437813 22.680626 2.4483516
32.305092 22.408758 2.266978
32.096275 23.254801 1.6490667
31.185087 25.897648 1.9645905
30.035753 28.803085 1.7420479
32.057732 23.405521 1.9687186
31.594475 25.003719 1.6748712
30.701485 26.416285 1.8901303
30.715841 26.388809 1.7492359
30.555292 27.77496 2.6380715
32.380329 22.600098 1.9696472
31.174353 25.391123 1.9782236
31.185101 25.400431 2.2490027
30.589725 26.986334 2.0660608
30.560472 27.000751 1.9701118
30.582424 27.005178 2.1640098
32.352493 22.471573 2.553401
32.474213 22.490301 2.0708249
32.491241 22.501553 1.9603688
30.517195 27.209246 1.6810675
32.459927 22.452204 1.8760594
31.192719 25.797775 2.0676138
32.005768 23.010208 1.9791912
30.44722 27.820244 2.8032877
31.194885 25.809334 2.1709707
30.055553 28.403608 1.9552675
31.166481 25.995562 1.8846956
31.194029 25.490749 2.6496701
31.133915 25.60005 2.3377759
31.161501 26.084827 2.0697136
31.171831 26.078835 1.7987767
32.495853 22.402754 2.1588516
31.199947 25.743599 2.5542228
30.163235 28.286179 1.5642964
32.417336 21.860031 1.9338884
30.7139 26.877012 2.66027
30.193624 28.291904 1.511001
32.801735 21.575729 1.9692683
30.292152 27.695293 2.1727374
30.008312 28.276426 1.8644569
30.689383 26.698544 1.9522191
32.344692 22.918047 2.9302316
30.646198 26.702429 1.6251619
31.907763 23.188519 1.8996661
30.175303 27.982763 2.5673881
32.370796 22.890558 1.8794131
32.145607 23.553032 2.5628517
29.836149 28.988125 2.1645243
30.206285 28.417908 2.2432418
31.363686 24.99268 1.8966632
30.254763 27.900328 2.2709949
32.39949 22.031429 2.1951983
30.164318 28.501013 2.616504
31.052738 25.80102 2.2540812
30.488087 27.007542 2.5789697
30.521843 27.193756 2.5906923
29.984001 28.294895 2.4329524
32.325153 22.565886 1.3820536
32.687862 22.155544 2.7433245
29.85137 29.096109 2.3436632
32.05265 23.08794 1.9528278
32.310738 22.227404 2.235333
32.474625 22.668879 1.9795445
31.167082 25.402533 2.0644252
30.014166 28.506918 2.7128417
30.198315 28.437977 2.4174707
30.552547 27.088816 2.270824
30.282017 28.222528 2.3534214
32.283504 22.900391 2.0617924
30.304256 27.420904 1.9801352
32.039806 23.064051 1.5740993
30.16398 28.710991 2.0492036
32.752701 21.380217 2.1381426
31.895929 23.993773 2.3471336
29.886848 28.793661 2.447953
32.647591 22.219805 2.5384138
32.280273 22.395636 2.5606275
30.103516 28.259542 1.8501947
32.262928 22.585951 2.5479424
32.147579 22.888781 2.4630568
32.287479 22.411133 1.945269
32.65609 21.937712 2.7831209
32.437145 22.177916 2.2534306
30.519707 26.912487 2.5432954
30.511848 26.932951 2.6784325
32.342434 22.398918 2.1627541
32.163979 22.896057 1.8637611
32.466881 22.198555 1.6647751
30.157967 28.259457 1.9978138
30.198826 28.0142 1.6746669
32.355766 22.588663 2.5674412
32.677513 21.914211 2.2409675
30.482594 27.187275 2.451195
32.474247 22.500181 2.3677552
32.237286 22.905725 1.7352089
30.351517 28.054232 1.696388
30.710955 26.410553 2.2977829
31.054111 25.7901 2.3573821
32.255898 22.99435 1.7262347
30.419125 27.223585 2.1965322
32.628963 22.287329 2.0696514
30.701559 26.504234 2.252506
30.645632 26.893579 2.1643953
30.077091 28.805315 1.6864077
32.357082 22.387524 1.8601927
30.375757 27.489605 2.4624074
30.091822 28.587536 2.2328513
32.487236 22.703115 1.7624992
32.854538 21.40568 2.6489131
30.565563 27.089323 2.1495726
30.59889 27.479046 2.4463706
32.667255 22.166918 1.8230671
30.588312 27.493992 2.5549541
32.392879 22.801889 2.5520983
30.932953 26.42712 1.4498267
30.800137 27.01284 2.5623379
30.445435 27.477333 2.2571778
30.368069 27.502003 1.7712014
32.492744 21.861744 1.4920259
31.374826 25.490232 2.3457627
32.550636 22.479372 1.9870718
30.009041 28.276609 1.9893069
30.450874 27.871674 1.7823024
31.796329 23.512857 1.9704585
31.171797 25.394194 2.3529441
31.142397 25.577133 2.1644335
30.087055 28.189648 2.5545485
29.953074 28.688679 2.5719674
32.306561 22.426008 2.4610536
30.638947 26.867523 2.3659501
30.135174 28.02359 1.846351
30.174345 28.117031 2.6387622
30.074581 28.631611 1.6931587
32.359406 22.183804 2.839803
30.27702 27.697735 1.8471837
31.388254 25.280354 2.2666976
30.150848 28.190285 1.6335785
32.363365 22.292641 2.0617323
30.168613 28.242077 1.8082303
32.033489 23.858128 2.3575439
32.738403 21.999105 2.0700135
30.060606 28.888596 2.2714331
30.290289 27.701994 2.2645066
30.26128 27.650452 1.7082086
30.654551 26.77651 2.5642128
31.19124 25.313745 2.2512121
29.876085 28.697979 2.4506691
30.364912 28.229725 2.1355579
32.478809 22.293991 2.0761638
30.549816 27.558743 1.7714198
32.343864 22.370939 1.757104
30.580107 26.988916 2.4624178
29.991175 28.684299 1.5514046
29.940237 28.758963 2.3475027
32.447002 22.175859 1.9396442
30.181475 28.086437 2.464231
30.176792 28.10079 2.5460303
32.761246 21.713844 2.1677272
31.785875 24.19684 2.2576668
32.856571 21.399357 2.1714845
30.080973 28.197329 2.4684665
32.551167 22.401215 2.1561835
31.36319 25.500929 1.9613359
32.156368 22.892595 2.1656852
32.151093 22.904747 2.2574527
29.888285 28.806837 1.9459977
30.25214 28.160927 1.8632319
31.670502 24.589209 2.5396671
30.546989 27.104013 2.5507364
30.713404 26.332989 1.8279731
30.635345 26.990265 1.9592209
30.690115 26.87282 1.881289
30.648134 26.91361 1.9701582
32.163521 23.473331 1.9976305
30.415586 27.836357 2.7185919
30.473064 27.693813 2.4663873
32.327137 23.047565 2.1622212
32.4039 22.83993 2.7474813
32.349766 22.382898 2.2593732
30.667068 26.793316 2.261256
31.160847 25.50321 2.4467659
32.125458 23.478142 1.7789731
30.181234 28.596184 2.5702798
32.779556 21.596519 1.6566869
31.566557 24.886868 2.2588272
31.146372 25.592651 2.4466
31.174734 25.391788 2.4623477
32.521088 22.580851 1.9797711
29.872734 28.905045 1.9428794
30.625519 26.948774 2.3453131
32.369751 22.810358 2.0486362
32.733887 21.973448 2.2119997
31.130508 26.273178 1.8707533
30.342464 28.188679 2.3355746
30.475832 27.103405 2.5591218
30.366476 27.404348 2.5504646
32.432152 22.169304 2.1786914
32.151756 22.891026 1.9628592
30.379768 27.288464 2.5955346
32.405319 22.797825 2.6345453
31.187519 25.401945 2.1677105
32.156067 23.478775 2.5569725
30.277168 28.213121 1.9680383
31.845062 23.591223 2.5434847
32.846432 21.618326 2.1566808
30.466713 27.881147 2.0389373
30.376442 27.297766 2.6503658
32.396736 22.704391 2.2598577
30.375299 28.153088 1.78264
32.35722 22.293114 2.1673567
32.459885 22.104084 2.4429159
30.373352 27.81892 2.6053486
30.682108 26.972994 1.5780537
29.791475 29.094212 2.2733872
32.69825 21.895287 1.802573
32.704758 21.850327 1.3480704
31.93807 23.47731 2.4217525
30.164555 28.216389 1.9578705
32.618565 21.525711 2.3513994
32.826488 21.580235 1.720214
30.466112 27.812143 2.0851643
30.334198 28.179531 1.7055349
32.155697 22.890423 2.3636034
30.386103 28.184908 1.8758731
32.386395 22.194386 2.0640748
31.431292 25.417183 2.3832831
30.480888 27.872456 2.6440482
30.440989 27.496212 2.3659067
32.360054 22.483067 1.2944138
30.268513 28.237404 1.7736223
30.658318 26.994026 2.2819114
29.894514 28.584694 2.1416368
29.860806 28.892414 2.4748504
30.30172 28.12265 2.2033167
30.477882 27.105675 2.0589466
30.718624 26.860441 1.7996157
32.563934 21.640276 2.7294247
31.477362 25.301685 2.7769423
30.57272 27.076611 1.8730056
32.451469 22.094734 2.7688603
31.1653 26.026485 2.7856212
30.480791 27.794449 2.4819906
29.977148 28.594221 2.2591372
32.13958 23.560349 2.1519001
30.007637 28.597717 1.9665463
30.687227 26.811117 1.905084
32.176128 23.087841 2.3480155
30.353628 28.189442 2.256393
31.14382 26.205194 2.0782013
30.530106 27.890392 2.2060685
30.700068 26.697914 2.2625394
30.002548 28.43585 1.5537584
30.433132 27.904806 2.4518309
30.391129 27.220156 2.4517546
31.897793 23.414335 2.3377433
30.395603 27.899017 1.8597455
32.424355 22.796295 2.1315897
32.244381 23.182371 1.9669337
32.470737 22.292759 1.7787862
32.766956 21.69606 2.4584432
32.425938 22.289469 2.3618295
31.769537 24.092651 2.5410964
32.865826 21.397799 1.898914
32.89806 21.289007 2.3530593
32.474434 22.305279 2.1582069
32.382755 22.794029 1.9658905
32.849571 21.334438 2.2435384
32.385975 22.779575 1.7810578
32.729202 21.914492 2.5410364
32.74247 21.384241 2.0754154
32.904274 21.315323 2.5569868
31.294233 25.588406 2.6909854
30.365772 28.300575 2.351532
31.281391 25.58811 2.5499732
32.751812 21.882685 2.0642114
32.874733 21.386999 2.5652676
32.851372 21.587606 2.6706932
32.738819 21.974342 2.6693573
32.759541 21.865322 2.6609471
32.589153 22.20212 2.1664917
31.734161 24.48123 2.5404038
32.752007 21.96599 2.1659837
32.753052 21.868431 2.2692459
32.732338 21.37952 2.2722902
32.835236 21.596573 2.7826653
32.398724 22.697004 2.366673
30.079859 28.286213 2.4638627
32.735027 21.996246 2.4828265
31.174402 25.804035 2.5665929
32.721336 21.875458 2.4143169
32.739628 21.875488 1.9516459
31.986118 23.190796 2.4683394
32.471512 21.999622 2.3690732
31.390238 25.309002 1.8763996
32.455658 22.085384 2.0590918
32.7547 21.704765 2.3639619
32.569759 22.297853 2.1557047
32.471237 21.776785 1.9441997
31.234009 25.379448 2.1568582
32.906452 21.30068 2.4563749
31.701771 24.691002 2.6727958
31.305393 25.444405 2.6896422
32.651051 22.211243 1.9624014
30.636019 27.477407 2.4895527
32.421684 22.532055 2.6303766
32.405293 22.046204 2.6220531
31.044472 25.883976 2.1464798
32.517025 22.233274 2.6360509
31.626633 24.310465 1.8568554
32.779106 21.4023 1.8809996
32.879902 21.412313 2.4805763
32.743931 22.002197 1.7922249
32.722885 21.982044 2.7593789
31.990334 23.195171 2.2512579
30.142185 28.389029 1.9684191
30.407099 27.132074 2.3895452
31.674507 24.39221 2.7942271
32.625069 22.281031 2.3210707
30.838463 26.387423 2.577033
31.169235 25.993305 1.9770975
31.96748 23.299509 2.1628289
31.576069 24.98904 2.7521589
30.36701 27.598356 2.1588354
32.590824 22.280411 1.860805
31.77486 24.387274 2.1684527
30.768204 26.50209 2.1622674
32.452103 22.329752 1.403267
30.03945 28.486593 2.2612522
31.385454 25.290533 1.9461493
32.531601 22.378136 2.374253
32.794418 21.493843 1.9551771
32.54427 22.380348 2.2514534
32.278107 23.094765 2.0647776
30.23304 27.988419 2.4636581
30.550835 27.686602 2.4559364
32.075623 23.246292 1.8896161
32.780033 21.706678 2.056196
32.784897 21.802309 2.8395491
32.262783 23.093689 2.4570875
32.398937 22.705612 2.6567037
32.081837 23.599764 2.5429378
32.271461 23.094357 2.5643246
31.80945 23.5762 2.2448375
32.780025 21.695824 2.5570958
32.89138 21.317192 2.0729876
32.747669 21.68504 2.2472947
32.88055 21.358608 2.4008644
30.672625 26.781666 1.950513
32.75795 21.304842 2.056994
32.652203 22.191307 1.7882451
31.493647 25.131535 2.7875147
31.814407 23.527002 2.1442878
32.449589 22.796652 2.3497324
32.824684 21.614962 2.5456936
32.845165 21.520424 2.5570648
30.657318 26.706118 1.896863
31.480068 24.984221 2.3498721
32.445377 22.775908 2.0661223
32.869762 21.409187 2.2813785
32.543564 22.480957 2.0602334
32.441315 22.784397 1.8456197
32.742271 21.951008 1.9379802
29.991043 28.902803 2.1797721
32.872707 21.407259 2.064043
31.359985 24.996387 2.0646675
32.748322 21.801203 2.7785804
31.434288 24.859163 2.2366114
32.793228 21.737377 2.7795341
32.471756 22.271461 1.9797097
30.448097 27.874475 2.5365953
32.770065 21.883142 1.8640945
32.532669 22.481129 2.360759
32.428368 22.796112 2.4683516
32.123737 23.639584 2.068511
32.757401 21.306931 2.2649951
31.078609 25.706057 1.8750246
32.405041 22.205359 2.3545241
31.39245 24.799736 2.2619758
32.148163 23.500616 2.4497409
32.343674 22.777218 1.6840632
31.366844 24.78381 2.6359646
32.272156 23.093206 1.9652973
32.250336 23.229071 1.7826343
32.422924 22.334808 2.6891227
31.364237 24.984827 1.9595586
32.453445 22.202297 1.4736643
32.43399 22.174501 2.4481816
31.202496 25.208817 2.3797162
32.007744 23.17083 1.6253879
32.155464 23.514231 1.891048
29.89558 28.474989 2.7608831
32.389172 22.194366 1.9741446
29.877306 28.606934 2.538383
30.58407 27.490625 2.2565789
30.55739 27.711388 2.3962672
30.081478 28.287319 1.9427674
30.641144 27.386452 2.3826313
30.542345 27.748842 2.3744197
30.157486 28.625772 2.6861386
32.547012 21.880383 2.2538371
30.26511 27.779125 2.6374691
30.754889 27.080559 2.3750329
30.928387 26.689241 2.3820195
32.730801 21.331867 1.8012383
32.237431 22.939085 1.8716683
32.036148 23.289886 2.3735783
32.566734 22.284044 2.6467218
31.940741 23.89921 1.75713
30.085045 28.317467 2.5464561
32.653046 22.122103 1.9707887
30.192827 28.384411 1.8882986
32.569843 22.186996 2.5672622
30.358715 28.005138 1.8647463
32.605957 22.106081 2.1581244
32.544994 22.225401 2.7834773
32.609066 22.188728 2.6319542
32.283157 22.564083 1.76107
31.458511 24.879408 2.0645719
31.975695 23.571814 1.8845938
31.51944 25.164154 1.4687554
32.400238 22.103476 2.4717765
32.033684 23.235872 1.5927345
31.786991 23.826151 1.5200897
30.23992 28.27729 1.5519949
30.170229 28.190517 2.6407578
32.277893 22.711582 1.7106931
31.108267 26.111795 1.7546901
32.0868 23.100107 1.4931972
31.251423 25.781923 1.8520499
31.551992 25.06222 1.6411619
32.83672 21.698545 1.9697986
32.537373 21.681456 1.5434623
32.069801 23.301374 2.2596099
31.177677 25.995317 2.0595605
31.271622 25.868443 1.8519378
32.681694 22.100674 2.0522738
31.481075 25.084425 1.875896
30.203264 28.38784 2.1503079
31.887611 24.198576 1.7816554
31.77124 23.883636 1.8600538
31.95989 23.198692 2.6571989
31.367672 25.572304 2.0644844
31.977209 23.703796 2.0531752
32.534828 22.494989 2.549427
32.143066 23.310726 1.832261
30.37838 27.89241 1.9217875
30.884186 26.214808 1.7958418
32.837669 21.697229 1.848961
30.357389 28.112219 1.8690879
32.405167 22.272617 1.6825453
31.943771 23.402348 1.9680486
30.28112 28.110207 1.7825085
32.303562 22.882696 2.1690662
31.873224 24.097095 2.2554803
31.861303 23.790466 2.3611321
31.243103 25.376957 2.3346014
32.539482 22.478632 2.1502874
30.873953 26.187328 2.5571508
31.711014 24.274837 2.725064
32.381413 22.192165 2.1610599
32.538651 21.769505 2.6151626
32.350655 22.88599 2.4618716
31.595371 24.693111 2.5736308
31.299881 25.444332 2.5331769
32.534416 22.50017 2.2366939
32.043686 23.778931 2.1569967
32.047314 23.775951 2.7019427
32.5481 22.38027 2.5169017
32.633438 21.594469 1.8568271
31.761669 23.910603 2.7570009
32.513332 22.019728 1.5581479
31.67078 24.694714 2.0652275
32.373276 22.806946 2.1746926
31.448626 25.464344 1.9860973
32.700298 22.035343 1.7483685
31.531923 24.586721 2.3731604
31.23963 25.30862 2.3544424
32.742924 21.803431 2.3625741
31.557121 24.55846 2.0604775
31.695297 24.730028 1.7737393
31.666235 24.71158 1.9640461
32.765118 21.800531 1.9521878
32.51231 21.656979 2.732141
32.348454 22.993916 2.5498426
32.572487 22.380919 2.0634065
30.864128 26.809475 2.7676258
32.542057 22.386835 2.4618287
31.445799 24.886295 2.1615126
32.289608 22.999346 2.0667527
32.363182 22.284714 2.5528543
32.745014 21.802742 2.2655163
32.481247 22.500723 2.5441141
32.379349 22.3002 2.3716788
32.270458 23.097012 2.1722481
32.485313 21.91901 2.0682063
30.45224 27.886242 2.2633739
31.816217 23.375849 2.0629544
31.740692 24.057045 1.907594
32.258274 23.116627 1.748317
32.43885 22.805264 1.9567356
32.771118 21.790047 2.0707235
32.385887 22.803833 1.8808023
32.23756 23.283043 2.2527447
32.26561 23.096012 2.255044
30.188351 28.521683 1.8394543
32.338387 22.385061 2.6384814
31.746279 24.614405 1.8712316
30.191172 28.502201 2.1572704
32.560226 22.398834 1.8514423
32.32555 23.062756 2.0769103
32.328281 23.112682 2.3398378
32.2449 23.276384 2.3709857
32.223072 23.348225 2.0735822
32.145885 22.890312 2.0763724
32.29858 22.408476 2.156496
29.900469 28.431828 2.744859
32.377048 22.59033 2.2476661
30.170475 28.528 2.5823493
32.193832 23.203289 2.2704537
32.021286 23.887709 1.8394289
32.377934 22.876844 2.0685215
32.250156 23.191656 2.0815485
32.352352 22.999308 2.0802956
30.181158 28.002762 2.3677039
30.271885 27.691059 2.4582996
32.375404 22.786091 2.2640753
32.630306 21.854889 2.5433862
32.557735 22.297894 2.2614849
32.261555 22.992138 1.8990952
30.286488 27.706156 2.6516767
32.055771 23.212387 2.4672499
32.300323 23.087461 1.8742366
32.371059 22.299307 2.26759
32.358154 22.998905 1.8643821
31.194706 25.307186 2.3834581
29.900028 28.427561 2.4979293
32.285072 22.877832 1.9575759
30.290766 27.710138 1.957198
32.358215 22.96541 1.9531465
32.372356 22.797001 2.357388
32.23658 23.355322 2.3843954
32.341137 22.603172 1.8561437
32.291893 23.00857 2.170835
32.385872 22.210184 2.4575193
29.918476 28.397631 2.3581588
31.69923 24.050564 1.7942022
30.346985 28.097076 2.2463381
32.173664 23.078409 1.9651719
29.96957 28.507078 2.4503889
32.778469 21.611219 2.1729488
32.242882 22.913622 1.6811025
30.569172 27.596483 2.0743704
30.568701 27.583895 2.3573306
30.591307 27.403711 2.3600397
30.14835 28.19228 2.1647997
30.56543 27.458897 1.9824028
32.763485 21.287533 2.347249
32.36245 22.907833 1.9652847
31.376492 24.615446 1.9613482
31.239187 25.907124 2.6704922
30.698044 26.612856 2.4682574
32.673782 21.290806 1.8795193
32.505112 21.88055 1.7560141
32.541706 21.872807 2.4777911
30.57844 27.511948 1.8649484
30.284071 27.695612 2.3620839
32.824211 21.215733 1.8970624
32.760384 21.590376 1.8604119
31.9491 23.988144 2.5615814
30.868614 26.894711 2.3349261
32.541695 21.900673 2.0629227
31.064592 26.293112 2.5778687
30.194031 27.883848 2.6392779
32.298679 22.351681 2.7945874
32.413158 22.516411 2.758065
32.179581 23.117386 1.6902788
30.556778 27.686115 2.0560102
32.293392 22.389278 2.3695002
32.747017 21.583355 1.7945782
30.172922 28.686605 2.4399645
31.977259 23.090071 1.8909757
31.391153 25.207846 1.9693551
30.192011 27.91177 2.1561177
31.73951 24.494162 2.3552773
30.348656 28.295824 2.155972
32.566994 22.383806 1.9622231
30.264734 28.480801 2.0509439
30.569317 27.711939 1.8774743
29.976782 28.413496 2.1732783
30.356647 28.0865 2.3604467
32.566639 21.918579 1.3219234
30.685453 26.68972 2.3589559
32.674255 21.909727 2.0615182
32.26844 22.590296 2.1625957
31.560097 25.09309 2.1426587
32.540092 21.887344 1.9429328
31.736536 24.588793 2.2689617
30.286669 28.287397 2.0786862
30.881042 26.856266 2.2243488
32.557041 22.004681 2.5369034
32.403706 22.045359 2.2540112
30.175438 28.797066 2.1685419
30.942654 26.790581 2.329684
32.541496 21.895821 1.7827075
31.075512 26.215082 2.7999134
30.259693 28.389448 2.2561638
31.057711 26.213036 2.3723123
