# .PCD v0.7 - Point Cloud Data file format
VERSION 0.7
FIELDS x y z
SIZE 4 4 4
TYPE F F F
COUNT 1 1 1
WIDTH 956
HEIGHT 1
VIEWPOINT 0 0 0 1 0 0 0
POINTS 956
DATA ascii
37.988979 22.344868 0.30057013
37.896084 22.249762 -2.4320257
38.359432 22.41543 1.0254529
38.42495 22.486597 0.70034492
38.215473 22.420036 1.2560333
37.988827 22.339758 -0.97624505
38.026939 22.301264 0.014823102
38.138474 22.34693 0.68066913
38.205666 22.38435 -2.1948431
38.332916 22.483345 0.9690491
37.999577 22.322206 1.0907186
40.05209 23.312632 1.7001284
38.456203 22.760538 1.7427764
39.08065 22.831692 1.9357977
38.446846 22.531693 0.72899795
39.132782 22.921207 1.8762445
39.535992 23.085663 2.7198591
38.464344 22.763435 1.5814716
40.152042 23.397415 2.6533024
38.502171 22.516802 -0.69494987
38.435146 22.534933 0.072647668
38.177559 22.404415 0.027664043
39.295494 23.046513 2.3963566
39.063263 22.933212 1.8270705
38.122532 22.44384 -1.663271
37.931763 22.320208 -1.6275988
37.926304 22.322693 -1.5139751
39.831993 23.272089 2.5564668
38.161537 22.367872 -1.8725089
38.244396 22.32235 0.70880055
38.439022 22.668104 1.5707061
38.274384 22.582682 1.2601213
37.988678 22.468781 -1.6301464
38.277122 22.579887 1.160248
38.28064 22.576014 -0.93917
38.099319 22.563786 -1.7336855
38.073002 22.491684 -0.1373543
39.377216 23.052326 2.2686806
38.359333 22.517864 0.057236005
37.975517 22.469564 -1.5496933
38.048737 22.496155 2.0560596
38.345669 22.526997 0.15513036
40.466923 23.405729 2.4562964
38.330666 22.540634 0.28187075
38.389782 22.5301 0.54697967
38.279594 22.570265 -0.23525494
38.350578 22.505157 0.33689654
38.200405 22.562025 -0.13769977
37.970303 22.475658 -0.73512661
38.382149 22.541327 1.1414509
38.328102 22.541197 -0.033001937
39.278881 22.968258 2.3650098
39.63195 23.025772 2.401834
37.969002 22.470667 -0.53615314
38.191036 22.568031 -1.6285849
38.38295 22.608131 -0.33750275
38.383556 22.619036 1.7594025
38.14838 22.443182 -0.93857968
38.382908 22.603102 -0.13647859
37.959396 22.469694 -1.2408813
38.285141 22.573545 -1.2401222
38.437256 22.617184 1.4614301
38.677235 22.789967 1.9763806
38.358513 22.565744 -2.0171618
38.174068 22.512417 -0.83952653
38.404182 22.549675 -2.2034168
38.063408 22.485561 -0.6364947
37.97646 22.46726 -0.63544863
38.279385 22.593027 1.465379
37.893684 22.326967 -0.4507595
38.383217 22.592419 -1.3409822
37.950611 22.409321 -1.4292223
37.983089 22.37496 -2.4111927
38.041443 22.401382 -2.2755346
38.372429 22.501945 -0.16401087
38.236084 22.405071 -0.39731294
38.421005 22.515747 -0.0048472886
38.482666 22.519514 -0.23660147
38.133949 22.413721 -1.9407443
38.384148 22.604898 -0.040897414
38.360588 22.532507 -0.93632942
38.170227 22.525612 0.65937781
38.379829 22.59627 -1.4353564
38.211613 22.482965 -1.9216458
38.390476 22.507708 -0.72240198
38.38707 22.608768 -0.23957075
38.384148 22.594063 -1.5368315
38.038246 22.423725 -2.062448
38.351982 22.51182 -1.7355473
39.506004 23.212864 1.7800541
38.385048 22.605474 -0.53872281
38.381416 22.616747 1.5596859
38.37257 22.534393 -1.5578698
38.288338 22.587851 -1.4336587
38.169239 22.494576 -1.6352756
37.976055 22.465124 -0.34159449
38.176418 22.555672 -1.4467924
38.285427 22.56945 -1.8468058
38.264042 22.577648 1.3626888
37.972023 22.497192 -1.8051589
38.165794 22.50029 -2.0645883
38.37899 22.494188 -2.000906
38.19202 22.551634 -1.2350944
38.143097 22.435432 -0.82611227
38.588875 22.69136 1.7570765
38.275391 22.58453 -1.640053
38.077919 22.478954 -0.82732576
38.165379 22.512007 -0.62878728
38.178875 22.504187 -1.2413542
38.274914 22.581663 -1.5286281
38.205891 22.31209 0.17087816
37.950359 22.297853 0.1447695
37.86977 22.323114 -2.2194884
37.974537 22.465109 -1.3342119
38.260151 22.534147 1.2377772
37.95961 22.465952 -1.4445174
37.978062 22.468773 -0.4413206
38.162643 22.5114 -0.73815995
38.145592 22.478264 -2.2247672
37.974178 22.465622 0.55823267
37.880859 22.314787 -1.7435666
38.161816 22.51897 0.16544726
38.441097 22.513151 -1.8348385
38.384754 22.528355 1.7574134
38.356594 22.536701 1.6178433
38.381012 22.602894 -0.43833351
39.886227 23.304853 2.7351789
40.303421 23.410233 1.7259363
38.674458 22.712732 2.459017
38.174263 22.491968 -1.7413254
38.073681 22.49328 0.66181099
37.957104 22.409109 -1.5482659
37.916542 22.305698 -1.5558661
39.765739 23.11167 2.4571822
38.372276 22.504921 -0.33701801
38.22464 22.323023 1.0260463
38.177124 22.564486 -1.5696647
38.020466 22.425245 -2.1827176
38.371033 22.537422 -0.5403744
38.184422 22.561094 -1.1519697
40.583912 23.460611 2.548028
38.277122 22.573318 0.8590371
38.204872 22.576345 0.35153762
38.078106 22.549339 -1.423028
39.467846 23.018538 2.1568792
38.266727 22.376076 -0.25834048
39.464378 23.021212 2.0715835
39.170071 22.922256 2.1673887
38.168865 22.517376 -0.43201149
38.150391 22.346575 -0.34823033
38.130394 22.435392 0.8419317
38.179005 22.55242 -1.3523837
38.176872 22.57091 -0.725097
38.466125 22.633823 2.2582357
39.618378 23.152903 2.5734687
37.971191 22.469276 -0.83649307
38.495434 22.455803 -1.5128413
38.280251 22.574835 -0.63715273
40.141232 23.354595 1.9619125
38.117981 22.559221 0.61767566
39.488922 23.06501 2.2664554
39.26194 22.921902 2.6270194
38.46397 22.514874 -1.3241484
39.672054 23.099667 2.2699871
38.493961 22.508774 -1.4168692
38.951004 22.888268 1.9755976
38.470963 22.633825 2.4457793
39.053913 22.873318 2.7406297
39.627434 23.040821 2.4649384
38.253601 22.530771 -0.33997709
38.269283 22.587532 1.9523395
38.265846 22.532017 -0.83169621
38.623535 22.806038 1.5497124
38.252033 22.524923 -0.24415655
38.095589 22.552311 0.97559357
38.687569 22.759577 2.5430472
40.551052 23.423695 2.2570982
38.136101 22.444048 -1.3812933
39.981636 23.258741 2.4564092
38.181335 22.555191 0.86083877
38.369644 22.518848 -0.85271412
38.273571 22.566608 0.66344178
39.982437 23.262775 2.3553202
40.263775 23.31683 2.3701346
39.333519 22.941906 2.3154256
38.294224 22.522116 -1.64083
38.452091 22.623112 2.0691571
38.185741 22.568624 0.6547696
38.746445 22.735569 2.3612294
38.539978 22.603943 1.482182
37.973331 22.464327 0.069086105
39.478191 23.020412 2.6520326
37.961285 22.41996 0.66103715
39.809391 23.330477 1.8662925
39.077343 22.880583 2.3605063
38.115948 22.548628 -0.37832746
38.274979 22.367773 -1.5738322
38.402843 22.401001 -1.5870205
39.584328 23.076143 2.4493594
38.159538 22.51358 -0.14253087
38.271374 22.520742 -1.1442572
40.083485 23.266895 2.3578804
37.976948 22.275606 0.42486355
39.291668 22.962982 2.4514167
38.287258 22.571203 -1.3304148
38.135769 22.413996 -2.0788527
38.778416 22.761662 2.6154292
38.213169 22.282967 -1.939167
38.460075 22.523029 -1.0213434
38.142685 22.361643 -0.17779195
37.968178 22.383812 -1.836867
38.870953 22.803919 2.5447209
39.266769 22.954479 2.5222535
39.378471 22.987215 1.69888
39.467026 23.016706 2.3568931
40.080055 23.267233 2.2613304
38.546074 22.562441 0.07654307
38.034744 22.431133 0.15131675
38.066826 22.392794 -2.3282921
38.088097 22.462326 -2.0991418
38.113403 22.484318 -2.1974735
39.207943 22.917521 2.7724905
38.438892 22.618078 1.3582617
38.089531 22.498171 -2.0200143
40.185429 23.296906 1.9687797
38.122391 22.546741 -1.7593685
37.951958 22.291704 -1.9249923
38.38039 22.614666 1.9557157
38.3848 22.617113 1.4586816
38.357353 22.523094 0.82550037
40.173855 23.364367 2.3670146
38.769356 22.761076 2.550796
38.280441 22.56562 -1.1364709
40.239101 23.293503 1.8684059
38.179596 22.559566 1.0665894
40.170555 23.36866 2.1533122
39.26339 22.944946 1.8985976
40.07642 23.271444 2.5546424
39.464577 23.027779 1.8622179
38.284168 22.402361 0.98948628
38.049713 22.496616 -1.9357083
39.858944 23.133202 2.4779403
38.070053 22.420584 -1.837268
40.079868 23.278778 2.161324
38.159019 22.451599 -2.1104553
38.796608 22.766731 1.7320288
38.589893 22.502974 -1.1062812
38.191475 22.563639 0.064290412
38.069801 22.482872 -1.2487638
38.878357 22.80892 2.0731113
39.362858 22.986151 2.073174
38.26202 22.531309 -0.43276682
38.74263 22.729815 2.7133498
37.961819 22.418459 -1.3381183
38.183052 22.559334 0.15673628
37.979939 22.467922 0.25972369
39.373547 22.999161 1.962418
38.166718 22.341751 -0.82881522
38.023609 22.38348 0.10031845
37.972435 22.46899 0.3586202
38.170788 22.500984 -1.1393321
38.780128 22.774168 2.3550255
40.064766 23.219774 2.0717373
38.275024 22.567732 0.56054217
38.06509 22.394503 -0.44999039
37.975002 22.419846 -2.3280406
38.191223 22.56097 0.47667056
38.085629 22.295527 0.68182886
40.308643 23.385677 1.9552176
38.26487 22.405321 -1.1182348
38.469776 22.528858 -1.2502896
38.436771 22.496141 -2.0510206
38.07999 22.484034 -1.638675
38.964012 22.815422 2.6448789
38.385441 22.607952 0.060183179
39.468739 23.014635 2.4609897
39.672096 23.086964 2.6333213
38.014893 22.294189 -0.48627603
37.955822 22.417423 -2.14624
39.551395 23.034338 2.2619925
38.073463 22.491644 0.75964427
40.461033 23.393747 2.5571418
38.450821 22.629505 2.1676264
39.756958 23.124222 2.1683083
38.126957 22.370941 -0.67227292
37.928032 22.324881 -1.7304808
38.58696 22.782003 1.653466
38.164581 22.509502 -1.0331692
38.275364 22.591053 1.7556912
39.171711 22.909462 2.2682571
38.605995 22.785976 2.1310501
38.072044 22.50617 1.5582285
38.171474 22.563629 2.0687835
38.076408 22.484358 -1.4265616
40.090637 23.294292 1.7611227
38.058102 22.436216 1.2598411
39.983482 23.374905 2.7687588
38.000862 22.26915 0.073574089
39.074738 22.883242 2.2752807
37.946915 22.31399 -1.0140944
38.45248 22.435574 -1.1464959
37.945107 22.399752 -1.9216996
38.069283 22.43104 -1.5353127
38.664539 22.757881 2.4487619
38.061886 22.487488 -0.74507248
39.988377 23.290434 1.9436461
38.171814 22.512629 -0.53764033
38.355175 22.530857 1.5806433
38.452129 22.527065 -0.58173156
38.067913 22.48436 -0.94077796
38.194618 22.562706 0.75758368
38.072708 22.498096 1.0621464
38.270939 22.572649 0.7655884
38.267673 22.520935 -0.94118601
37.946281 22.415627 -1.2400737
38.178097 22.493654 -1.8427581
38.062698 22.494965 1.1556836
38.165108 22.519821 0.35432827
39.488903 23.071112 2.5613024
38.1758 22.258835 0.74655253
38.16251 22.512524 -0.34324706
38.004822 22.217342 1.1518508
39.869312 23.13707 2.0835893
37.969593 22.465757 0.66175371
37.953289 22.421972 -0.74155945
38.069153 22.505713 1.3631289
37.986137 22.467049 -0.24066634
37.95562 22.421309 0.069061808
38.274189 22.573153 0.95671761
38.092312 22.486309 -1.5186998
40.075714 23.119867 1.8588538
38.376484 22.680826 1.6606206
38.06641 22.429523 0.77300841
38.069733 22.488098 -0.039202664
38.644161 22.70389 1.7669909
39.635193 23.091583 2.7267575
38.159664 22.524584 1.5643579
38.754482 22.734245 2.1562119
38.090878 22.438995 0.96098638
38.192127 22.556343 0.26098952
38.166893 22.522118 1.0596193
38.164143 22.515123 0.063508183
38.383293 22.62027 1.8661196
40.065975 23.302637 1.8573029
39.672226 23.104738 2.5487261
38.185436 22.562099 1.2705678
39.984726 23.250559 2.6428695
38.376602 22.686153 1.8639138
38.05061 22.422737 0.25140744
38.181042 22.564537 1.4685274
37.979187 22.466843 -0.13416654
38.068378 22.501623 1.4680463
38.440212 22.625769 1.7564902
40.737686 23.479448 2.2744179
38.04266 22.417961 0.3190538
38.819664 22.842506 1.9709442
38.494511 22.5238 -1.9483055
38.049015 22.417122 -1.4682703
38.431732 22.527174 0.52488428
38.063427 22.489887 -0.23284912
38.254356 22.36974 -1.366873
38.081989 22.487423 -1.3425727
38.358219 22.493584 -2.0949869
37.975758 22.462465 -1.0400997
39.251976 22.924957 2.5509417
38.057354 22.436558 -0.53877628
38.071095 22.500143 0.96250182
38.27943 22.415062 0.037907444
38.048752 22.418653 -1.9337889
38.074684 22.488663 -0.54038751
37.952579 22.42462 -0.14007379
39.171379 22.954527 2.4555607
38.06604 22.493299 0.2606658
38.361271 22.532518 -1.226074
38.082748 22.55686 -1.3410082
38.336666 22.350451 -1.1028215
37.951035 22.421366 -0.34118906
37.955521 22.418594 -0.2408486
38.875137 22.813217 1.7840947
38.141708 22.416943 -2.3091211
38.380669 22.53163 0.74923766
38.075733 22.490381 0.56745619
37.945145 22.427647 0.4592475
38.076752 22.449114 -2.3132229
38.477619 22.529743 -1.591011
38.060223 22.548796 -0.66119754
38.051159 22.442253 -0.23505574
37.906628 22.328144 -1.3501379
38.742325 22.739252 2.2690406
39.45443 23.022829 1.9612894
38.062626 22.500904 1.2604569
38.254364 22.517344 -1.5194594
38.351032 22.505907 -1.8581153
38.039898 22.400766 -1.3517509
39.169098 22.955351 2.7051668
40.244965 23.302391 1.9664102
37.95063 22.427372 -0.4467369
38.048088 22.43169 -1.1405764
37.956966 22.426237 0.56292188
37.951164 22.418791 -1.0399075
38.966805 22.828812 2.1739464
38.192696 22.399437 0.97435915
38.192944 22.568462 0.55853325
37.962662 22.413519 -1.1309133
39.349522 22.93989 2.2576454
38.072933 22.495657 0.062437069
38.28635 22.571785 0.36403063
38.041779 22.42609 -1.6236404
38.989357 22.865061 2.4424415
37.952038 22.423449 0.16096447
38.183834 22.563993 1.6559362
37.959694 22.420425 -0.53668433
38.160301 22.523104 1.4506469
37.95903 22.421154 -0.94636005
37.894657 22.335531 -1.9502357
38.375858 22.419355 -2.037878
39.737617 23.147419 2.677408
38.058121 22.22607 -0.68081564
38.169769 22.416111 -0.73472047
38.970711 22.841541 2.0085154
38.078159 22.492113 -0.44250381
40.437218 23.340954 2.4743798
38.06926 22.411024 -0.86561823
37.952568 22.425758 -0.63717419
38.25351 22.526012 -0.64242339
38.095215 22.549528 1.4639697
40.155106 23.304089 1.8754998
38.072037 22.490988 0.45927331
37.964989 22.483891 -1.7152265
40.21423 23.34734 2.4959383
38.163857 22.524826 1.2629688
39.373489 22.990891 2.3553686
37.958988 22.343466 0.61955702
38.355747 22.493929 -1.1380548
38.07584 22.493437 0.35908341
38.770164 22.773415 2.2731547
38.161053 22.515867 0.56116456
39.552063 23.018322 2.1785269
38.354977 22.537867 -1.0508685
38.025993 22.385597 1.1762584
39.190247 22.955883 2.564672
38.865635 22.806765 2.162061
38.0854 22.493992 -1.1341724
38.162746 22.51388 0.46255067
39.045578 22.830395 2.097223
38.152657 22.533443 1.9482745
38.358059 22.520449 -1.3280801
38.864647 22.800734 2.2711194
40.161343 23.296902 1.7687229
38.768486 22.740986 2.5342855
38.070831 22.496653 0.86274695
37.91148 22.322811 -2.1337538
38.773132 22.794226 2.0956297
38.058891 22.473602 -1.0341896
38.179493 22.506624 -1.4428905
38.277611 22.575024 1.0593306
38.154564 22.526245 1.3772237
38.172546 22.56695 1.9687953
39.286526 22.969286 2.1746182
38.350998 22.578711 -2.1216087
39.585915 23.073938 1.955417
40.054993 23.211042 2.6323779
38.283424 22.596012 1.854003
38.214188 22.303267 -1.5687453
40.071854 23.256529 2.7533762
38.175877 22.523466 1.8620496
37.977047 22.465992 -0.041079823
39.422237 22.925596 2.7594309
39.399052 23.057892 2.3936968
40.573055 23.467283 2.2663982
39.855152 23.135027 2.3635929
39.976738 23.204958 1.8599795
38.3843 22.683895 1.7714465
38.383568 22.614861 1.258294
38.862007 22.809908 1.935649
38.802692 22.845493 1.911154
38.967636 22.827745 2.1038411
38.156422 22.312246 -2.4258027
38.263824 22.523054 -1.2491975
40.467293 23.402609 2.2602451
38.184631 22.577374 -1.9439836
38.182655 22.563442 1.3607873
38.066528 22.48435 -1.8341295
38.170292 22.524603 0.75758672
40.056412 23.195585 2.7409203
38.993298 22.870697 2.2773671
38.966087 22.863792 2.6888399
38.07399 22.492319 0.15818359
38.165745 22.524467 0.9562006
39.251629 22.924648 2.4591601
38.070217 22.488543 -0.33175227
38.552788 22.583645 2.3571076
38.092117 22.546843 1.3610933
38.580048 22.688066 2.3629513
38.057308 22.603535 1.3046321
38.380043 22.615099 1.6545311
38.420322 22.523741 0.45194042
39.193989 22.960827 2.3503456
38.322693 22.538576 -0.26352885
40.267441 23.311649 2.0651019
38.297028 22.675974 1.7618526
38.191479 22.571751 -1.0381808
38.257843 22.52688 -0.74296409
38.161484 22.52243 1.153592
38.548 22.527378 1.7047511
39.545265 23.105665 1.8857689
38.280827 22.570139 -0.34474066
39.477654 23.023478 2.721097
38.162041 22.521099 0.86491227
40.134724 23.242199 1.9015714
39.466969 23.011471 2.5489912
39.901421 23.117628 1.982989
38.24268 22.532017 0.15684409
38.346344 22.505211 -0.63060409
38.479866 22.543543 1.4543579
38.273449 22.528515 -1.4328681
38.241127 22.442255 1.0504267
39.758675 23.122425 2.361243
38.422771 22.523233 0.33264697
39.465382 23.017954 2.2642467
39.99033 23.253815 2.2673936
40.271557 23.364902 2.084069
38.15189 22.377174 -2.5898855
39.966099 23.206696 2.266294
40.569897 23.426899 1.979018
38.063148 22.414228 -1.7299721
39.376049 22.991701 2.1603527
40.09613 23.283308 2.6435513
38.058609 22.416969 -0.31643826
39.56739 23.07403 2.0687764
38.254444 22.530569 0.064220011
38.403336 22.532997 1.4082537
39.37067 22.994791 2.2693281
38.877762 22.792711 2.6343098
40.188511 23.34062 1.6967076
40.585419 23.504421 1.9615719
38.281178 22.570164 -0.43960601
38.064491 22.571796 0.78711295
39.959625 23.1985 1.7744563
38.873348 22.794846 2.3597105
38.022221 22.303135 1.0423615
37.961098 22.42107 -0.84439033
38.053886 22.427448 -0.95559317
38.98304 22.864412 2.5499766
39.400051 23.007433 1.8486097
38.056282 22.433086 0.45750314
38.351917 22.429974 -1.7443343
40.219315 23.34663 2.0425124
38.535435 22.710463 1.631056
38.567265 22.681351 2.2642891
39.259247 22.959139 1.9867722
38.964527 22.887377 1.8299403
38.259201 22.533312 -0.1360393
40.148163 23.235283 1.9712739
40.026009 23.214291 1.859087
38.276932 22.573284 -0.035091177
38.25795 22.528376 -0.039845958
39.991787 23.291592 1.8484622
38.278793 22.568958 -0.13750821
39.549015 23.029772 2.3619406
38.253868 22.526102 0.54246914
38.521774 22.640007 2.2534909
38.249817 22.511017 1.5581169
40.206051 23.361403 1.7725223
38.276104 22.570772 0.2563237
39.552589 23.032068 2.4544225
38.246426 22.536362 0.65992743
38.27721 22.569099 0.16471606
38.235558 22.528206 0.77008402
38.233349 22.53686 1.0534788
38.187271 22.566809 -0.2533322
38.159306 22.511133 -0.23963742
38.241665 22.536364 0.24997953
38.280602 22.575644 0.459479
38.255268 22.527533 0.96457112
38.244232 22.538219 0.86519688
38.252537 22.52738 1.4621422
38.243668 22.533949 0.46698743
38.256214 22.529541 -0.54365897
39.569504 23.073668 2.3578053
38.279934 22.568136 0.055966895
38.227123 22.524092 1.1822051
38.11092 22.570314 -0.41320693
37.972301 22.471939 -1.1347936
38.176468 22.499378 -1.5293062
38.160019 22.494816 -1.3388097
38.171124 22.506334 -0.95188636
38.152744 22.434822 1.370186
38.256584 22.508747 1.7696337
38.311871 22.415291 1.1125412
38.264519 22.51862 1.352899
38.673309 22.719933 2.3563972
37.97134 22.471125 -0.93296093
38.041451 22.303371 -0.013202288
38.442917 22.620823 1.9552023
39.99556 23.247017 2.0864351
38.435745 22.620552 1.5706489
38.896858 22.856819 2.3777909
38.250401 22.521227 -1.3363236
38.759605 22.736038 2.4465485
40.594357 23.513119 1.8583741
39.293186 22.972031 2.6505966
38.151443 22.525023 1.6604494
38.431053 22.605019 -0.33713192
38.167229 22.521582 1.7384098
39.52264 23.015827 2.0007441
37.948555 22.317461 -1.4669085
38.262306 22.528025 -1.0443044
39.764473 23.128338 2.06584
39.979919 23.207027 2.5632186
40.544693 23.407755 2.5398412
37.927101 22.306223 -1.3854039
39.670937 23.107353 2.1598651
39.685532 23.147734 2.3716578
38.255947 22.529505 1.9850333
38.252102 22.533611 0.35654208
38.76049 22.783724 2.1655641
38.435318 22.601891 -0.24008401
38.865501 22.854847 2.1554079
38.884689 22.861525 2.0523181
38.531155 22.577106 1.8770516
39.996559 23.250435 2.1800518
38.538723 22.605413 1.634124
39.979603 23.273514 2.5423818
38.188835 22.553671 0.96371603
38.985085 22.864166 2.3522873
39.49247 23.057926 1.9578791
38.980965 22.868246 2.1675305
39.770054 23.130852 1.7924485
38.871407 22.796686 2.4532678
38.103313 22.555399 0.36065009
38.07745 22.26087 0.7493422
37.972401 22.339128 1.1407065
38.533287 22.611652 2.2104332
38.040558 22.420067 1.3835229
37.945469 22.398352 -1.7383336
38.884743 22.851284 2.2713904
38.527275 22.77622 1.8950567
39.341644 22.931942 2.4404941
38.007442 22.467293 -2.0969305
38.957783 22.817844 2.4595249
38.811707 22.923096 1.9641823
38.382893 22.616835 1.3622335
38.093494 22.559448 1.7342061
40.134823 23.239595 1.6841258
39.550247 23.018499 2.553035
39.287678 22.909111 2.7125874
38.171841 22.438488 0.14692748
38.157242 22.445219 -1.501755
40.072449 23.271429 2.4517133
37.976017 22.468174 0.17004791
39.512512 23.064707 2.657146
39.5508 23.042213 2.6645567
38.27375 22.584063 1.5510095
40.144417 23.221794 1.5661433
39.836266 23.122562 2.2687964
38.886234 22.849218 2.4585395
40.369415 23.381466 2.5468223
38.439274 22.619629 1.8646872
40.055138 23.231134 2.2648416
39.269859 22.960617 2.7216158
38.183681 22.555054 -0.03653533
38.600849 22.772446 2.0637286
40.270775 23.3848 1.6613407
39.557499 23.044224 2.0713093
40.062519 23.222544 2.5342431
38.192364 22.576267 1.5739632
39.763744 23.173632 1.8482081
40.375591 23.387634 2.1616035
37.999577 22.497486 -1.9733689
38.281406 22.572699 -0.73751438
40.167027 23.300016 2.1705039
39.167755 22.936348 1.9842513
39.039932 22.824965 2.457597
38.272419 22.518547 1.8474789
38.545971 22.598082 1.5701482
39.874207 23.159657 1.7598327
38.270279 22.50104 -1.9446599
38.600243 22.78495 1.8105485
38.776253 22.772984 2.4367726
40.058655 23.277599 1.9841805
38.803688 22.914415 1.8661674
39.972542 23.192898 1.6926656
38.142124 22.344881 -1.4253612
38.43969 22.6749 1.9563509
40.440319 23.343191 2.3584323
38.465656 22.529606 -0.40718168
40.269466 23.321606 2.1628556
38.433357 22.6665 1.7560842
40.689308 23.478649 1.9421413
38.681038 22.765226 2.277169
38.164635 22.516727 -0.037672549
38.260834 22.585699 2.070442
37.988087 22.380934 -1.997146
37.944241 22.422407 0.3607246
39.903061 23.264603 1.9698808
38.688049 22.834686 1.6795911
40.698536 23.399469 2.0557096
37.954308 22.415943 -1.6357049
38.051029 22.429741 -1.2511561
38.006516 22.447237 -1.9966216
39.867321 23.187592 2.0791583
40.05587 23.210926 1.6700269
39.64558 23.095146 1.8988347
39.87682 23.159176 1.8529564
40.462009 23.398499 1.9721746
38.054863 22.425987 0.87179017
40.445213 23.312178 1.6184711
38.030426 22.433706 -1.0373983
38.060654 22.406666 0.66040307
39.374199 22.994717 2.5508366
38.171993 22.437466 -2.1078565
38.078465 22.427603 -0.15050466
38.541573 22.711588 1.9859047
38.100349 22.412207 -2.4433985
40.684021 23.504293 1.8642387
38.32473 22.533028 1.4557545
38.372734 22.587343 -1.8225455
38.453156 22.531918 0.14561075
38.193138 22.557192 -0.44202954
40.273499 23.365515 2.172627
37.951637 22.424702 -0.038900185
38.05196 22.499931 1.8603928
38.347134 22.543367 -0.45537242
40.260456 23.312195 2.4478042
38.097439 22.555851 -0.71516967
38.46212 22.518848 -0.61098236
38.169201 22.552322 -0.63166034
38.072327 22.494837 -1.7260833
38.124695 22.237486 -0.069853701
38.043346 22.255093 -0.28158465
39.783161 23.160818 2.171442
38.467503 22.633192 2.3561068
40.678673 23.482059 2.2610829
40.502483 23.460989 2.3810897
38.453735 22.679726 2.1515226
39.962631 23.215775 2.0657709
38.357956 22.50124 -1.9336255
37.956493 22.428123 0.259976
37.969463 22.463501 0.46895656
38.454506 22.674671 2.2595139
38.470932 22.681229 2.366039
38.984299 22.891582 2.0523779
39.170837 22.908638 2.3618689
38.562935 22.705044 2.1656787
38.183498 22.571819 1.7638533
38.438984 22.624315 1.6645843
40.471111 23.456282 2.1468165
38.260803 22.537535 1.64211
38.053047 22.42271 1.0767261
40.351707 23.334768 2.2673891
40.482841 23.469589 1.9814529
38.096985 22.554504 1.5668213
38.031368 22.41663 0.51261467
38.067955 22.578735 2.0475497
38.076843 22.49786 1.9517013
38.03973 22.443014 -0.068824567
40.668213 23.486233 2.1675315
38.378906 22.544813 1.8880818
38.04298 22.435757 -0.6554926
38.17923 22.578402 1.8596447
38.441265 22.67396 1.858523
38.078613 22.558191 1.855896
40.371773 23.393967 1.9560436
40.372345 23.376307 2.359098
40.488483 23.453289 2.4649489
38.962872 22.820904 2.549655
40.140724 23.230211 2.5481868
40.074551 23.276924 2.0651004
40.683517 23.422043 1.9618577
40.292133 23.363638 2.3569491
38.092949 22.554184 1.6606867
38.049461 22.427702 -0.73593211
40.101067 23.355665 2.636863
40.136162 23.233852 2.3681495
40.066212 23.228153 2.4598615
39.883598 23.264666 2.0937896
40.674091 23.486429 2.060257
40.061054 23.228027 2.3676019
40.140354 23.239084 2.4425921
40.276352 23.367029 2.2727523
40.136017 23.239372 2.1559656
40.051262 23.226549 2.1466796
38.435402 22.661419 1.6602585
39.660511 23.151434 2.156045
39.785664 23.169405 2.2638786
40.460342 23.401554 2.1555939
40.393768 23.449123 2.4122353
40.601501 23.48522 2.0569632
38.420757 22.333918 0.5636912
40.168163 23.295803 2.2671201
40.372944 23.366163 1.8633262
40.355507 23.337494 2.1558707
38.433228 22.60615 -0.44406769
39.772991 23.159365 1.9750454
39.77972 23.166304 2.3561859
40.676239 23.433651 2.1549368
39.760979 23.163109 2.0692875
39.487419 23.05928 2.3600061
39.776768 23.165066 2.4519422
39.869316 23.184441 2.4539371
39.677151 23.104187 1.9648857
39.876186 23.180902 2.3613718
40.278698 23.359928 2.460247
40.369961 23.377012 2.2714999
40.463177 23.409746 2.0856488
39.487148 23.070169 2.0716829
39.580143 23.077789 2.2650783
39.568127 23.068678 2.16381
40.340916 23.331148 2.5644517
39.972221 23.20697 2.3642194
39.872261 23.186626 2.5661077
40.467735 23.403009 2.3520949
40.372356 23.375055 2.0649023
40.374439 23.374554 2.4550686
40.172638 23.289999 2.4518428
39.866535 23.184311 1.9736884
39.956329 23.209753 2.1734915
40.172737 23.288137 2.3632143
39.968021 23.208321 1.9766477
39.697746 23.170017 2.0719874
40.165207 23.231443 2.7714989
38.4426 22.67466 2.0619235
40.582443 23.466745 2.1650436
39.871124 23.177849 2.2606282
39.667587 23.096256 2.3617525
39.970573 23.193769 2.6497657
39.964882 23.205997 2.4578533
39.575153 23.074146 2.5426109
40.353989 23.371517 2.6383407
39.773151 23.167227 2.5545545
39.674095 23.18372 2.5683694
39.485886 23.061544 2.1621439
39.485363 23.063202 2.4741192
40.254883 23.308784 2.6364653
40.16124 23.300432 2.645577
39.76265 23.125856 2.2613025
39.167336 22.904882 2.4551156
40.557011 23.425905 2.4454699
40.16917 23.292736 2.5600772
39.665352 23.101072 2.4578652
40.266987 23.31777 2.2634387
39.754517 23.114868 2.5573947
40.557388 23.426001 2.36288
39.255268 22.926834 2.257117
39.369179 22.984682 2.4560475
39.042686 22.834805 2.2768936
39.070854 22.875872 2.4531915
38.187263 22.555153 1.1682084
39.884972 23.182079 2.6571941
40.549805 23.424042 2.1685536
40.348591 23.336702 2.353657
39.257671 22.93005 2.3641837
39.224209 22.924397 2.0800645
39.274731 22.96875 2.2667296
40.271496 23.310354 2.5456009
40.295456 23.346285 2.6182849
40.290134 23.3734 2.5583084
39.664238 23.102467 2.0566204
39.215889 22.960268 1.9680905
39.067505 22.89624 2.1627595
39.067837 22.877375 2.0565391
39.588734 23.081051 2.6523113
38.675346 22.714516 2.1712599
40.066074 23.233187 1.9776877
40.167736 23.267094 2.7197742
39.371971 22.978718 2.6484032
38.968761 22.826488 2.2628551
38.657196 22.715071 2.2689536
40.565922 23.41482 2.0672565
40.359921 23.325237 2.6515388
38.673721 22.773565 2.0730958
38.575394 22.689135 2.4537437
38.264797 22.500336 -1.7398714
40.451702 23.329369 2.0781424
39.693058 23.155785 2.2534704
40.45393 23.398396 1.8660593
40.229412 23.238836 2.7620635
38.961487 22.824762 2.3647904
38.683857 22.76004 2.3582287
38.466446 22.671425 2.4553819
40.291321 23.281178 2.7730136
40.227089 23.30835 1.6524618
38.218468 22.436544 -1.1696956
38.162636 22.519758 0.25898522
38.282516 22.575745 -1.9123474
38.276463 22.571699 -1.0426503
38.275879 22.57296 -0.84272957
38.272629 22.580399 -1.7401453
39.171902 22.909399 2.553215
38.263088 22.509789 -1.8402032
38.135826 22.440214 -1.4680362
40.173763 23.29183 2.0738876
38.361237 22.53566 0.64404958
38.6646 22.719233 2.5412414
40.290432 23.389824 1.8354656
39.866299 23.18705 2.1638942
38.278931 22.59618 1.6568853
38.280861 22.567472 -0.53976703
38.239105 22.531519 -2.0333734
38.373894 22.589569 -1.7314323
38.668293 22.700466 1.944464
39.475849 23.030796 1.7311267
38.373585 22.585342 -1.6410609
40.331829 23.309635 1.6565386
38.632523 22.833721 1.8486919
39.479523 23.033464 1.6680926
38.547256 22.695141 2.0883973
39.306789 23.007196 1.8897194
39.06097 22.96797 1.8738889
39.804184 23.112913 1.8573155
40.06144 23.2304 1.7638686
38.668983 22.713055 2.0484309
39.132832 22.954216 1.9039521
39.345436 22.984358 1.7371606
38.664448 22.7596 2.1481507
39.847389 23.138418 2.1455352
39.782612 23.097239 1.7049304
39.042885 22.892113 1.7368836
38.637249 22.738771 1.8146685
39.474289 23.063026 1.6829282
38.194046 22.557554 -0.34869316
39.853912 23.128641 2.541096
40.105946 23.361761 1.9730231
38.908833 22.958326 1.9167687
40.369865 23.343784 1.9526052
40.621895 23.444342 1.8647441
38.196289 22.561558 -0.95717746
38.178185 22.558895 -0.85580862
38.179844 22.563427 -0.53249961
39.78331 23.131807 1.974822
40.448494 23.342974 2.2264779
38.266327 22.436882 -1.8877622
40.351074 23.331594 2.4581099
40.479836 23.397221 2.6407065
39.69453 23.149977 2.4722579
39.763874 23.095192 2.6374378
39.933338 23.14167 2.5496001
39.042328 22.837067 2.3936965
39.646015 23.042515 2.521152
39.844067 23.129374 2.6643889
39.06818 22.88171 2.5492053
39.349407 22.936687 2.5819712
39.073242 22.839512 2.5402234
39.179432 22.897266 2.6456866
39.257587 22.933065 2.1556931
39.062286 22.836182 2.7170575
39.094177 22.889431 2.6592679
38.577084 22.685404 2.5331371
38.671154 22.714922 2.6810763
38.593224 22.694828 2.6780713
38.610126 22.684435 2.7177444
38.883148 22.860676 1.8651836
38.35968 22.531078 -1.4162149
38.371548 22.528133 -1.6159509
39.661308 23.148108 1.9986221
