# .PCD v0.7 - Point Cloud Data file format
VERSION 0.7
FIELDS x y z
SIZE 4 4 4
TYPE F F F
COUNT 1 1 1
WIDTH 520
HEIGHT 1
VIEWPOINT 0 0 0 1 0 0 0
POINTS 520
DATA ascii
43.353218 24.669544 -2.0025475
43.591946 24.758083 -1.0421973
43.558739 24.689028 -1.8868397
43.601681 24.815222 -1.7461669
43.337185 24.750546 -2.0725985
43.346073 24.607386 -1.7375101
43.594063 24.812784 -1.8569807
43.531837 24.619844 -1.5191631
42.674133 24.248861 -1.163232
43.67033 24.613451 -1.1315012
42.963352 24.397213 -1.2885207
41.43557 23.743244 -0.89969087
42.641823 24.246393 -1.7688192
42.802246 24.310055 -1.7675476
42.611252 24.463135 -1.8071105
42.472961 24.146595 -1.6139927
42.787403 24.254099 -1.8049531
43.23307 24.511497 -1.596591
42.110893 24.217772 -1.2332476
42.598835 24.452539 -1.3699806
42.880272 24.577673 -1.3632255
41.616337 24.092087 -1.4043114
42.038738 24.25104 -1.3137953
42.029816 24.258068 -1.2810022
41.711731 24.118988 -1.3607845
43.709473 24.864487 -0.94007081
42.695023 24.477921 -1.2338042
41.80925 24.249153 -1.4393381
41.961922 24.219746 -1.3387799
42.413967 24.45532 -1.4848179
42.546486 24.262856 -1.2630037
42.119568 24.055197 -1.2738472
41.74102 23.953203 -1.3314399
41.517651 23.866859 -1.1897167
42.08783 24.324221 -1.4379177
42.395515 24.45746 -1.5261383
42.515919 24.50341 -1.544759
42.434875 24.194057 -1.3045611
42.322765 24.405302 -1.4444633
42.317722 24.490564 -1.5286072
42.799725 24.291378 -1.1109052
42.310638 24.169016 -1.1294707
43.710293 24.721739 -0.8495084
41.666248 23.904198 -1.2228734
42.309258 24.135162 -1.2349761
43.300083 24.554153 -1.2419428
42.684326 24.304176 -1.3575369
42.368515 24.184086 -1.2160162
43.451721 24.557529 -1.2828376
42.18034 24.110058 -1.343271
42.341568 24.142574 -1.2355337
41.686478 23.902905 -1.3086622
42.783024 24.323458 -1.3467307
43.218781 24.442249 -1.1311879
43.340935 24.518625 -1.2367848
41.617287 23.849857 -1.192286
42.576897 24.262192 -1.3208914
41.785587 23.956663 -1.2476883
42.510082 24.246531 -1.1453381
43.53196 24.571405 -1.2114997
41.75687 23.930325 -1.2539606
42.973469 24.406733 -1.3683262
42.041061 24.069357 -1.168252
42.168179 24.163774 -1.132337
43.514248 24.559982 -1.1623474
43.261978 24.480225 -1.2241018
43.599968 24.691092 -1.1416767
41.604721 23.873726 -1.3081911
43.192673 24.464571 -1.1533024
42.751545 24.350063 -1.1352822
42.749516 24.31172 -1.048529
43.70219 24.717173 -1.0433681
41.645813 23.861397 -1.1354084
42.770443 24.322628 -1.2437454
43.321209 24.562674 -1.0074774
42.853939 24.349634 -0.97414529
43.014729 24.376883 -1.5526023
41.525818 23.804087 -0.98317468
41.777386 23.890556 -1.1798136
43.674721 24.613398 -0.92566979
43.698357 24.70779 -0.7481153
42.898598 24.376095 -1.3234563
42.164497 24.07379 -1.2566763
43.306519 24.488993 -1.1552848
43.484203 24.583792 -1.0675552
43.1991 24.483063 -1.3021488
41.765366 24.13077 -1.3430796
43.27216 24.507851 -1.327723
43.344501 24.565971 -1.2519742
42.061085 24.062784 -1.4958415
42.287834 24.158834 -1.3418082
41.775101 23.95418 -1.4497311
41.954037 24.010815 -1.2463323
42.548019 24.566898 -1.527283
41.667717 23.903379 -1.6560488
42.465012 24.196146 -1.2495462
41.442722 23.878777 -1.1572506
41.483128 23.804472 -1.4273455
41.598534 23.909164 -1.443399
42.761486 24.33033 -1.5956209
41.423599 23.930071 -1.3264496
42.644726 24.256586 -1.491889
42.094299 24.270449 -1.9023149
42.446327 24.199541 -1.48531
41.55703 23.810692 -1.4339011
43.681767 24.713589 -1.2448649
42.079613 24.18808 -1.3469319
43.231003 24.42942 -1.3770454
41.991798 24.202669 -1.9214541
43.697006 24.5709 -1.2918882
41.67878 23.898323 -1.407756
42.161819 24.211615 -1.9415636
42.221653 24.253967 -1.9003098
41.892414 23.974728 -1.4365832
42.885101 24.492468 -1.2740577
42.585732 24.279783 -1.7697785
42.563362 24.415495 -1.3576621
43.286209 24.507877 -1.4228857
42.727222 24.443937 -1.6420631
42.627495 24.393496 -1.7383256
42.165085 24.227636 -1.4422616
42.248508 24.240953 -1.4836044
42.378849 24.293789 -1.3785629
41.563652 24.021229 -1.4272934
41.444508 23.942495 -1.5616394
41.482212 23.937187 -1.7405753
43.15337 24.460402 -1.2607348
42.589466 24.400518 -1.2644264
42.679993 24.376352 -1.251865
42.769688 24.494722 -1.3723758
42.833328 24.463963 -1.3660618
42.980034 24.523432 -1.4847752
43.255848 24.631165 -1.4042698
42.478901 24.337505 -1.7433841
43.555534 24.582098 -1.4701273
43.679062 24.614452 -1.2170129
42.074112 24.194248 -1.4297348
43.002285 24.562805 -1.814748
42.539227 24.362797 -1.8048979
43.232071 24.62999 -1.72068
43.26704 24.634615 -1.8192213
41.655048 24.037111 -1.659982
42.148495 24.228962 -1.5423932
42.446686 24.328808 -1.6616619
42.979248 24.52026 -1.7448826
42.481304 24.354427 -1.8198305
42.08202 23.975256 -1.3737712
43.408775 24.51569 -1.4544322
41.477562 23.979912 -1.6993742
42.064148 24.186636 -1.8498818
42.376579 24.310047 -1.7188884
42.766735 24.310326 -1.4245687
42.021233 24.118633 -1.7692863
42.162476 24.223896 -1.7425709
43.195942 24.625471 -1.8205177
43.273903 24.664089 -1.8295656
43.341377 24.695917 -1.8221953
42.246471 24.230764 -1.8248494
42.967369 24.533188 -1.8236984
41.880646 24.113678 -1.8366489
42.030067 24.173929 -1.8941215
42.078709 24.202475 -1.7278292
42.179119 24.232334 -1.8167144
41.66539 24.07209 -1.4368713
41.858704 24.155132 -1.6973592
41.925751 24.176651 -1.4539746
42.61628 24.45842 -1.6796718
42.709373 24.468594 -1.4597237
42.777512 24.503731 -1.4417335
41.643291 24.029032 -1.7254908
42.278217 24.277269 -1.8301859
43.372196 24.69562 -1.4746841
43.46925 24.714495 -1.6134378
41.693024 24.076523 -1.7119844
43.27092 24.680456 -1.7228544
42.657833 24.41427 -1.5575775
43.283752 24.645826 -1.4358605
42.688503 24.465065 -1.636121
43.523949 24.779139 -1.6616307
41.888481 24.109245 -1.7225825
43.152729 24.624588 -1.7122874
41.980953 24.194435 -1.5672376
42.88781 24.578438 -1.7346512
41.759487 24.109705 -1.7292795
42.612663 24.449167 -1.5675806
42.770969 24.496565 -1.6471261
42.864712 24.552561 -1.8160186
42.872032 24.508484 -1.5455033
42.986023 24.573805 -1.4656062
43.151699 24.615837 -1.6432788
43.269642 24.667418 -1.6252475
43.354496 24.694931 -1.6179059
43.459484 24.726595 -1.5304763
41.975452 24.245993 -1.7281166
42.911499 24.554176 -1.5682532
42.98159 24.566139 -1.5435113
43.697319 24.802469 -0.84193617
42.361862 24.318222 -1.6423622
42.405823 24.358202 -1.5853442
42.68742 24.463823 -1.5603412
41.974762 24.169325 -1.7159014
42.062462 24.19912 -1.6335987
42.193295 24.265612 -1.6286188
41.882942 24.158453 -1.5736884
41.884644 24.156815 -1.640587
42.504017 24.134081 -1.4538434
41.465298 23.984932 -1.4381307
41.561573 24.025209 -1.556233
41.678612 24.063751 -1.6245267
41.669121 24.075035 -1.54466
42.252182 24.092424 -1.5056218
41.551453 23.82493 -1.5459714
41.863472 23.986273 -1.5101806
41.643539 23.811216 -1.509481
42.484112 24.359016 -1.6221021
42.168133 24.106716 -1.5173744
42.483185 24.368059 -1.5638545
43.039162 24.577389 -1.3303627
43.069248 24.594667 -1.6379684
41.461658 23.778307 -0.74548364
42.355354 24.094707 -1.3543826
43.6199 24.648119 -1.7539749
43.024548 24.536747 -1.4173896
41.363449 23.793365 -1.1406376
41.341373 23.89953 -0.53308731
43.353634 24.491722 -2.1266022
42.662552 24.303181 -1.904036
41.352673 23.711311 -1.1320105
43.092285 24.591747 -1.4306543
42.287312 24.111456 -1.320781
42.287651 24.281731 -1.724148
43.35453 24.49098 -1.9382323
43.520424 24.538443 -1.9050356
43.299393 24.56905 -1.9497955
42.45665 24.315014 -1.3440762
42.454357 24.32066 -1.5479435
42.460777 24.330822 -1.4473467
43.074669 24.402042 -1.8516085
41.361309 23.797377 -1.3454797
42.251217 24.295088 -1.4239811
43.026367 24.456835 -1.1654236
43.067379 24.457018 -1.2847654
43.943886 24.780952 -1.5020325
41.968258 24.180834 -1.8460851
43.163609 24.610157 -1.3584995
41.776505 24.068071 -1.8480024
42.344864 24.264914 -1.8454841
43.172997 24.622187 -1.5281337
43.062653 24.583464 -1.5450743
42.359756 24.144049 -1.5398808
41.789665 24.115591 -1.4661003
42.188293 24.257473 -1.8175606
41.817204 23.950605 -1.5313098
43.057747 24.579689 -1.8215866
41.548641 23.830631 -1.2016989
41.566204 23.802967 -1.3423145
41.76469 24.091839 -1.5353127
43.036438 24.69046 -1.4664986
42.556946 24.387167 -1.7374636
43.071056 24.521685 -1.8521181
41.266846 23.792072 -0.63925284
41.956802 23.990105 -1.1831356
43.659313 24.606562 -1.5061343
42.187553 24.278219 -1.7343148
42.168339 24.277798 -1.359205
43.768852 24.715929 -1.7476516
42.241524 24.239586 -1.5097364
42.299225 24.234093 -1.2290194
42.153965 24.231333 -1.623313
41.479786 23.806528 -1.1533841
43.046036 24.499685 -1.3700969
42.270691 24.274315 -1.1574017
42.261181 24.281212 -1.5594392
41.720982 23.876627 -1.3989716
43.72205 24.643166 -1.5904385
43.085335 24.601316 -1.7244833
43.201244 24.661285 -1.5244293
43.280548 24.507935 -1.0347136
42.59309 24.223078 -1.7335695
41.445259 23.918839 -1.3904308
43.062054 24.505161 -1.6649997
41.361603 23.807024 -0.73976743
43.074539 24.396435 -1.9465017
42.192112 24.254108 -1.5333477
42.750282 24.283215 -1.5555874
43.505341 24.59026 -1.5406709
41.709072 23.798065 -1.3933342
42.174 24.339678 -1.9124919
41.34631 23.891392 -1.3378737
43.481632 24.570389 -1.4644014
42.930283 24.335943 -1.1224107
41.783573 24.108303 -1.623554
42.461193 24.336611 -1.8381641
42.201008 24.304131 -1.2745537
42.850792 24.34099 -0.97493571
42.987198 24.417084 -1.4348145
43.426853 24.758638 -1.6344115
43.76696 24.718309 -1.6358325
43.198315 24.65447 -1.6855088
43.138046 24.653219 -1.727199
43.937584 24.730598 -1.2854122
43.95031 24.715845 -1.711043
42.852913 24.312138 -1.7097112
43.536137 24.767719 -1.5433168
43.574688 24.692135 -1.2112839
43.582611 24.667007 -1.4156703
43.185184 24.669838 -1.3406498
41.760826 23.990685 -1.7118798
43.281792 24.67314 -1.5325717
41.360882 23.797354 -1.0384543
41.986168 24.101376 -1.530654
43.081192 24.442762 -1.0515507
43.550747 24.597887 -1.3277808
43.940838 24.778183 -1.3470424
43.854488 24.794415 -1.2375818
43.944847 24.729212 -1.3470665
43.771976 24.706955 -1.5424656
43.949528 24.710882 -1.4304731
43.859356 24.794811 -1.3433552
42.186691 24.254917 -1.4736376
43.610916 24.623032 -1.8862593
43.006149 24.419449 -1.7507588
42.366516 24.198126 -1.309361
43.950584 24.700396 -1.54291
43.934963 24.722462 -1.6255162
43.590225 24.657909 -1.0140845
41.267799 23.784134 -0.53780627
43.768883 24.711632 -1.4389485
43.043327 24.417131 -1.2112223
43.042305 24.402666 -1.3088639
43.057522 24.400257 -1.5172161
42.846268 24.309017 -1.4711766
43.773659 24.699762 -1.8309244
43.1549 24.605373 -1.4543025
41.842834 24.157398 -1.3371751
41.362137 23.725954 -1.0858483
41.35799 23.803431 -0.53605759
41.760468 23.88728 -1.3408933
43.667999 24.697733 -1.3447348
43.60685 24.706038 -0.937289
41.363213 23.806465 -0.6381433
41.426777 23.800348 -1.2388539
43.944969 24.76474 -1.4489049
43.380375 24.555771 -2.0364089
43.158092 24.405422 -1.4690819
43.700165 24.811287 -1.8315226
41.376545 23.737349 -0.699799
41.363255 23.802097 -0.43741068
42.459888 24.35009 -1.485664
43.696877 24.701601 -1.6599627
43.692108 24.700941 -1.7414086
42.882774 24.432259 -1.9080423
43.772205 24.793228 -1.2377026
43.754425 24.698668 -1.9238533
43.483936 24.703135 -1.861912
43.858601 24.787937 -1.1387856
43.76601 24.718786 -1.1347408
42.502281 24.380356 -1.3521147
43.170918 24.439583 -1.3615397
43.700111 24.806776 -1.430179
43.774033 24.722296 -1.0424031
43.767136 24.80127 -0.93567532
43.700611 24.799036 -1.7535683
41.259693 23.730721 -0.64449364
42.271259 24.282648 -1.6392003
43.658928 24.60778 -1.8468243
43.49678 24.586424 -2.0542963
43.687962 24.714512 -1.8395596
43.449467 24.52133 -2.0122998
43.859974 24.791185 -1.0387272
43.718029 24.644926 -1.682844
43.863781 24.725235 -1.3465827
43.168839 24.513599 -1.7060511
43.881596 24.663721 -1.8459351
42.345997 24.397659 -1.5964384
43.76284 24.800934 -1.6337249
41.659748 24.034008 -1.5524894
43.861683 24.72521 -1.5344877
43.872227 24.710085 -1.6290479
43.694519 24.706047 -1.4192774
42.517483 24.464516 -1.2358401
43.461365 24.510012 -1.4486511
43.710915 24.70591 -1.5359792
43.436985 24.488123 -1.5382808
43.868702 24.708527 -1.7401305
43.247627 24.420784 -1.7234706
42.896168 24.56031 -1.6178453
43.709312 24.800055 -1.3410962
43.701431 24.717489 -0.93573296
43.694855 24.814934 -0.93662179
43.773399 24.717012 -0.74496138
42.960693 24.530539 -1.6267149
43.770081 24.798265 -1.3368852
43.768314 24.713755 -1.3419808
41.858204 24.11788 -1.5356346
43.860416 24.731035 -1.1317093
43.878246 24.791313 -1.528905
41.975777 24.176884 -1.6322205
41.359493 23.798574 -1.2372016
42.66201 24.419695 -1.4445002
42.082943 24.214249 -1.5343183
41.865749 24.121382 -1.6401595
42.98045 24.563343 -1.6371498
43.768318 24.80188 -1.0441666
42.586403 24.39048 -1.6342452
43.696789 24.811008 -1.0349573
43.776218 24.717241 -0.63885093
42.883125 24.512045 -1.7374424
43.708847 24.795696 -1.5427299
43.769424 24.790754 -1.1419909
43.226448 24.597385 -1.6077298
43.773071 24.719812 -0.84020209
42.77578 24.482691 -1.5395479
43.775101 24.721588 -0.93577027
42.577648 24.396891 -1.447367
42.366119 24.302608 -1.4563146
41.456715 23.978973 -1.6514075
42.882278 24.504871 -1.4543726
42.566998 24.398218 -1.550542
43.860241 24.715355 -1.4379418
43.381241 24.548645 -1.6676637
41.474628 23.983711 -1.5327413
43.854149 24.725597 -1.2510358
41.461002 23.820004 -0.51622307
43.86969 24.726744 -1.049647
42.549068 24.192669 -1.5771781
43.264572 24.629536 -1.5266889
43.232361 24.406488 -1.5270561
42.374981 24.31727 -1.5625491
41.780132 23.887661 -1.6686009
43.374638 24.710588 -1.5310594
42.27486 24.288361 -1.3487806
43.305092 24.702106 -1.2375782
41.432133 23.785439 -1.0779932
43.778988 24.868155 -0.94752026
43.358578 24.551386 -1.4926926
43.248821 24.683746 -1.3429898
43.40062 24.582693 -1.4494249
41.888512 23.980099 -1.3328619
42.567551 24.213749 -1.2384298
42.678276 24.307182 -1.4454675
43.668404 24.61042 -1.4505336
41.940441 23.969822 -1.5177307
42.327065 24.138273 -1.6544807
41.927994 23.984486 -1.456077
41.959038 23.992943 -1.3017864
42.511169 24.157423 -1.5040693
42.954224 24.374596 -1.1578701
43.925289 24.806316 -1.2309089
43.37249 24.574287 -1.335855
42.676903 24.293203 -1.252255
42.40667 24.142115 -1.4542371
43.805706 24.632442 -0.8310405
42.90036 24.388176 -1.0667011
42.860893 24.377987 -1.2485133
42.10854 24.27969 -1.5570849
42.51458 24.472589 -1.3282487
42.480007 24.500439 -1.4278432
41.857948 24.108162 -1.4377905
43.752968 24.638084 -1.2562873
43.606812 24.46093 -1.3847145
43.599762 24.697182 -1.3095756
43.032158 24.352316 -1.7349888
43.348103 24.526443 -1.1502873
43.501381 24.518694 -1.3617196
41.689438 24.059761 -1.8440698
41.187641 23.679924 -0.53604102
43.077469 24.425264 -1.6122704
41.949684 24.143068 -1.3753097
41.945847 24.139524 -1.6606551
41.936924 24.13039 -1.452258
41.323204 23.665075 -0.60835004
43.61726 24.764324 -1.0964437
43.516239 24.573339 -1.8024839
42.149246 24.091366 -1.4692583
41.848282 24.264612 -1.4768733
43.700607 24.720676 -1.1482524
42.583225 24.372171 -1.9165165
43.69212 24.822773 -0.72853446
43.702869 24.634192 -1.9083576
43.705235 24.811653 -1.1462363
41.924522 24.142853 -1.7215021
41.958347 24.137197 -1.7906767
43.697159 24.681183 -1.916604
42.148827 24.026482 -1.3251309
43.695995 24.627966 -1.7385622
43.255802 24.489048 -1.7075286
43.694363 24.799414 -1.6288375
43.748936 24.640926 -0.91842818
42.570694 24.273588 -2.016115
42.586357 24.203426 -1.9942366
42.750916 24.276527 -1.94045
43.271286 24.489262 -1.965471
43.392956 24.539593 -2.0099607
43.38726 24.708462 -1.7442307
43.519756 24.541475 -1.7333664
43.017033 24.389261 -1.6382097
42.547638 24.246664 -1.6633328
42.615597 24.251528 -1.5565989
43.489105 24.765364 -1.5394794
42.532509 24.446791 -1.9550823
41.464752 23.914444 -1.675669
41.793694 23.905033 -1.7628165
42.486286 24.502779 -1.8475552
42.202377 24.118359 -1.0666897
43.619507 24.672922 -1.9434884
42.876377 24.515644 -1.6394923
42.951481 24.51914 -1.5227562
43.416466 24.556555 -1.8522729
43.317745 24.721819 -1.9359708
42.866798 24.49074 -1.8598288
42.666752 24.428633 -1.6496841
42.767162 24.482351 -1.7407711
42.978271 24.564297 -1.7328316
42.760422 24.424898 -1.7471905
42.579563 24.197432 -1.4560975
43.150158 24.454826 -1.064777
43.771999 24.722134 -1.2369111
42.077591 24.064924 -1.3498257
42.785595 24.486809 -1.8440326
