# .PCD v0.7 - Point Cloud Data file format
VERSION 0.7
FIELDS x y z
SIZE 4 4 4
TYPE F F F
COUNT 1 1 1
WIDTH 1223
HEIGHT 1
VIEWPOINT 0 0 0 1 0 0 0
POINTS 1223
DATA ascii
36.855438 50.687168 0.62289631
37.292824 51.448914 -0.14861643
37.0089 51.543449 -0.29078838
37.111073 51.230137 -1.0169908
37.1791 51.290417 -1.4517229
36.997593 51.658104 1.667101
37.245617 51.265732 -0.83749175
37.227215 51.248932 -0.63317162
37.114166 51.22599 1.212019
37.222504 51.27858 -0.51408094
36.992592 51.659027 1.5570214
37.253517 51.181213 -0.34850651
37.075455 51.305393 2.758759
36.993832 51.658009 1.9551352
37.098061 51.214989 2.4779611
37.072704 51.296848 2.6470342
37.224613 51.155678 2.2449026
37.056168 51.575214 2.0268764
37.120026 51.200344 2.0461142
37.226242 51.301868 2.2557306
37.202766 51.204163 2.8441973
37.258133 51.171963 -0.43880641
37.060184 51.594082 1.8569989
37.178234 51.307053 2.7561188
37.046658 51.602802 1.7619205
37.235085 51.263245 -0.93375903
37.1758 51.194164 0.76122165
37.102486 51.206673 1.5417027
37.099552 51.223206 0.56037331
36.965218 51.520226 1.4616258
37.001678 51.492668 0.17515315
37.324207 51.255924 0.63740277
37.320248 51.213486 1.4801762
37.046917 51.596043 1.6650946
37.333195 51.176311 0.34777722
37.258522 51.301769 0.37999862
37.25597 51.186249 2.1299877
37.381035 51.267014 -0.83140415
37.008209 51.531384 0.48398891
37.092228 51.197845 2.2824638
37.231956 51.281849 0.56668591
37.244881 51.322105 1.1449788
37.09243 51.210022 2.1598959
37.01672 51.520287 0.35312298
37.118656 51.237633 0.34134158
36.999374 51.616543 1.6563426
37.011921 51.390606 0.96271592
37.1702 51.190544 2.6638112
37.078793 51.45903 2.1637366
37.113583 51.234596 1.4641945
36.991322 51.486431 1.3652838
37.237869 51.041176 2.5392375
37.361832 51.171829 -0.95128357
37.080723 51.188412 0.99819869
37.04211 50.985607 2.8131335
37.010891 51.531464 -0.92511797
37.005634 51.608948 0.56385869
37.007957 51.51685 0.70678228
36.997757 51.504906 -1.054414
37.147099 51.279011 0.66849607
37.244606 51.177505 -0.60909712
36.911579 51.065132 -0.98208421
37.016327 51.493431 -0.22520483
36.997627 51.062553 -0.66647017
37.180359 51.194321 -0.23313934
37.013264 51.532722 -0.047326431
37.247761 51.192829 0.15761468
37.144455 51.284294 -0.53620708
37.003075 51.409042 -1.3117865
37.016338 51.380657 -1.1504174
37.312302 51.492611 -0.017355144
36.98687 51.529541 -1.1300933
37.349049 51.142315 -0.92785752
37.068737 51.497543 -0.045966055
37.166454 51.194992 -0.44261307
37.114594 51.211311 -0.54176795
37.070038 51.492626 0.36705658
37.149189 51.283241 0.45970035
37.1548 51.29108 0.36189029
37.058079 51.490639 -0.64132708
37.120289 50.945274 -1.2176617
37.154449 51.286804 -0.71669012
37.164989 51.200474 -0.82901561
37.055439 51.493736 -0.4361771
37.176838 51.100693 2.5545535
37.005619 51.520012 -0.71281612
37.152039 51.285904 -0.039347798
37.154217 50.943348 -1.1366427
37.059845 51.505154 -0.33179113
37.158466 51.292984 -0.12900412
37.054283 51.498158 -0.73954147
37.175713 51.195713 -0.1381277
37.003464 51.523537 -0.60559756
37.111713 51.216213 -1.4598361
37.055481 51.491245 -0.53340161
37.070194 51.483822 -1.1452346
37.072659 51.49139 -0.13789682
37.157101 51.29047 -0.34043995
37.167713 51.195358 -1.3238871
37.165382 51.195831 -0.53013331
36.979126 51.539139 -1.2664843
37.068352 51.503769 0.2572107
37.152225 51.292572 -0.4370043
37.170582 51.180637 -1.0313789
37.063995 51.500942 0.059194516
37.161983 51.198311 -0.72653574
37.001228 51.604412 0.46473905
37.070309 51.496956 0.16274898
37.093792 51.497494 -1.2343482
37.151951 51.287056 0.77215946
37.179058 51.198338 0.36036414
37.263004 51.378376 -0.15637855
37.158295 51.285645 0.16204987
37.252392 51.200783 0.96138567
37.083885 51.474213 -1.3284026
37.180134 51.196175 0.46220905
37.04361 51.599293 0.86511499
37.070812 51.494854 0.46527466
37.229366 51.204697 -0.72790152
37.059532 51.499027 0.96069396
37.00742 51.518368 -0.86054617
36.991081 51.507816 1.5681107
36.972237 51.507362 -0.48328874
37.001305 51.480476 1.1718932
37.112957 51.219296 1.8669329
37.061562 51.484589 -0.83194113
37.240273 51.182434 1.054963
37.064674 51.491352 0.66640794
37.260254 51.180443 2.0328345
36.982811 51.493912 0.55873573
37.175518 51.178749 -0.33524734
37.174572 51.186302 -1.4550228
37.164227 51.181335 -1.1316658
37.180664 51.198063 0.16230282
37.17675 51.191563 0.26763469
37.177399 51.192566 0.066530913
37.151039 51.289513 0.56911987
36.998501 51.583683 -0.7410621
36.996429 51.502384 -1.3407717
37.186043 51.098694 2.4524167
37.163731 51.198349 -0.64147079
37.242649 51.173401 1.9963068
37.151237 51.2976 0.067789659
37.230164 51.261642 1.8740575
37.220276 51.38842 -0.020975986
37.141357 50.938461 -1.518528
37.237762 51.29229 -0.34219754
36.852684 50.836697 -1.4433706
36.851196 50.833908 -1.5320779
37.321945 51.061214 -1.0977731
37.22324 51.384502 -0.40854913
37.254791 51.181259 -0.53789443
37.016102 51.334805 0.4876413
37.23452 51.399063 0.2808561
37.235203 51.302483 0.053275291
37.248302 51.170921 -0.15108085
37.166378 51.200928 -0.93266493
37.17527 51.295628 -1.3527465
37.157715 51.285694 -0.62892401
37.173706 51.203579 -0.038536143
37.067421 51.497551 0.56208843
37.083778 51.202312 2.3635693
36.991943 51.46656 -0.16088721
37.075245 51.494385 1.9564221
37.242332 51.204769 2.3351333
37.08297 51.494678 2.0554349
37.01017 51.613564 0.26264116
37.049786 51.593067 1.9530144
37.079041 51.18795 2.5540617
36.985626 50.986031 2.4638886
37.273266 51.276428 0.92894214
37.242687 51.206322 0.86504287
36.952099 50.924786 1.2546561
37.24791 51.183445 1.5647777
37.234932 51.154419 1.8614728
37.25869 51.185833 1.6550107
37.238785 51.170177 1.770064
37.157761 50.924683 -1.8540593
36.97686 50.978676 1.2654355
36.972889 50.974327 0.35935739
36.80415 50.983589 1.5563604
37.000843 51.397385 0.48111612
37.176468 50.907089 0.55349332
37.125977 51.489227 1.3196385
36.973808 50.97337 -0.036285445
37.087769 51.07571 2.254534
36.727024 50.738319 0.61833709
37.066513 50.985405 2.6518939
37.166649 51.200764 1.3649358
37.100677 51.324177 0.97495186
37.246754 51.183907 0.77672744
36.999763 51.61013 1.358667
36.837967 50.791351 -2.0713847
37.141384 51.383877 1.0709959
37.101208 51.319118 -0.25573722
37.081268 51.068432 2.1561694
37.090424 51.310871 2.2564645
37.25856 51.280266 1.7730091
37.171432 51.195591 0.66526544
37.072025 51.077362 1.9668385
37.249348 51.040947 1.8975654
37.067574 51.00441 1.4522951
37.254406 51.252075 1.2522391
37.119545 51.218163 -0.13485782
37.09853 51.322269 0.55689096
37.18959 51.470825 1.5674539
37.153473 51.468262 0.37786019
36.871143 50.870495 -2.0188818
37.143066 51.378647 1.2566539
37.103134 51.302029 0.84632754
37.081158 51.071369 2.0642016
37.103153 51.30518 0.045302555
37.348812 51.154263 1.6383076
37.096359 51.305161 1.46232
37.236938 51.097546 2.6381264
37.104591 51.30418 -0.54348075
37.167408 51.189697 0.86235029
37.052639 50.922852 -1.4343897
37.132896 51.57513 1.2993755
37.109516 51.304882 0.16844821
37.348827 51.081856 0.37112981
37.142487 51.492985 -0.64693224
37.125534 51.478359 -0.43209854
36.881741 50.703785 -0.15387952
37.244022 51.31319 0.69999295
37.076694 51.412128 1.5490946
37.149109 51.48428 0.06185478
37.135418 51.480091 0.17072378
37.128662 51.494347 1.1820189
37.163544 51.020992 1.3579221
37.154488 51.025692 1.4598769
37.161415 51.024136 1.2592236
37.155247 50.974564 -2.2252946
37.141216 51.47451 -0.11744134
36.977154 50.995968 2.2608473
36.832188 50.734615 -0.60013241
36.760395 50.741474 0.71259284
36.758812 50.816551 -1.3359994
36.76627 50.894161 0.96125901
36.997654 51.61298 1.4651016
36.87212 50.693348 -0.24060951
36.992546 50.981148 2.5602679
37.136944 51.389465 -1.1545686
36.787361 50.731419 1.267308
36.756752 50.820061 -1.1402248
37.272926 51.27187 0.73416001
37.020069 51.432224 0.56797576
36.878998 50.882401 -1.9456837
37.159149 51.020947 0.86657697
36.895035 50.985722 -2.136025
37.177132 50.920532 0.77140319
36.86269 50.811802 -0.82541281
36.96069 50.924267 0.45773605
37.14492 51.47739 0.88079983
36.959949 50.923798 0.56504071
37.167156 51.003952 -1.0409899
36.983059 50.97382 -0.5339247
37.08252 50.985172 -2.1310134
37.174057 51.561966 0.92733091
36.960102 51.055786 -0.76300037
36.951286 50.925343 1.5646623
37.128418 51.377842 -0.9163034
37.001244 51.418819 0.19534338
36.769119 50.897106 1.4589281
37.061043 51.077084 2.3550551
37.190807 51.070507 0.35955504
36.937431 51.080399 -0.87194484
36.848541 50.82729 -1.2570268
36.87817 50.82618 -0.46140343
36.974983 50.810524 -1.7558684
37.168941 50.938408 -0.6368053
37.107521 51.288723 -0.34960347
36.944328 50.926834 -0.14388803
37.105408 51.308971 0.76429576
37.138706 50.927048 -0.94414544
37.148899 50.928741 -1.4273877
37.254028 51.350456 -0.36041155
37.262691 51.288765 0.47737429
36.996738 51.070488 -1.1340828
36.804924 50.736221 -1.5426214
37.188847 50.810619 -0.15044345
36.766136 50.722588 -0.42376155
37.129299 51.482655 1.2525196
36.878471 50.819035 -0.53044605
37.163059 50.915787 1.1429685
36.952694 50.800228 -2.0423305
36.947262 50.784916 -0.92481887
36.78537 50.720592 -0.53814059
36.966961 50.92028 1.6544372
36.767418 50.896839 1.0626199
37.098354 50.828098 1.474949
36.970158 50.799332 -0.1240037
36.777355 50.957294 1.3494451
36.767704 50.807377 -1.7395669
37.105457 51.228752 1.9573425
37.295002 51.253788 0.26333609
36.717358 50.724834 1.0117848
37.10059 51.302834 -0.63766187
37.160694 50.911121 -2.043314
37.236408 51.09605 2.2541306
36.970997 50.976852 0.96378165
37.155727 50.934971 -1.6511097
37.165482 51.01461 -2.0285735
36.886951 50.963253 -2.2584782
37.105549 51.327663 0.6600827
37.161369 51.28569 -0.23356107
37.006657 51.481819 1.8809466
37.190399 51.069824 0.1579828
37.065075 51.496731 1.3588922
37.205185 50.896511 1.5342807
37.169456 50.906929 1.8538865
37.157547 50.945396 2.1920958
37.171432 51.093002 1.9600813
37.102135 51.315529 0.35574636
37.268173 51.513363 1.1638329
36.865376 50.906971 -0.63747972
37.136585 50.91449 1.6290902
37.072598 51.488022 1.8519926
36.867966 50.90358 -2.1662047
37.037193 50.83091 0.55479252
37.171459 51.086601 2.1590779
37.245609 51.177303 0.26470596
37.050941 50.980568 2.7544787
37.073982 50.981987 2.9539618
37.062199 51.489544 -0.93453419
37.236259 51.186993 0.35684428
37.036732 51.240192 -0.39307511
37.094742 51.397377 0.56297129
37.168716 51.033455 2.8386979
36.986713 50.967461 -2.0434759
36.801121 50.737068 -0.18622951
37.273632 51.296104 -0.42322209
37.186417 51.124058 2.7600303
37.166794 50.931171 -1.3108124
37.127121 51.070007 2.9496465
36.768074 50.895653 0.86518037
37.059113 50.929569 -1.2391253
37.067455 50.927467 -1.0471561
37.13995 51.392105 -1.3275601
36.679993 50.809422 -1.4396797
37.175236 50.933796 1.9910774
37.247536 51.192047 0.58389854
37.150158 51.396042 0.95351493
37.334381 51.175613 -0.62049365
37.245682 51.107903 2.8576159
37.174618 51.390648 2.2708764
37.167152 51.096943 2.3529918
37.058777 51.082073 -0.21927708
36.878719 50.968124 -1.0400366
37.107803 51.057243 -0.39977831
37.078957 51.066353 -0.32450336
37.237442 51.092457 2.1443868
36.869244 50.917919 -0.040718213
37.061195 51.496235 1.4629978
37.073944 51.073944 -0.14097248
37.094604 51.069241 0.056392565
36.763531 50.890137 1.1601596
37.223221 51.309311 1.6638107
37.090893 51.388794 -0.43974301
36.883366 50.958824 0.96932817
36.861347 50.981361 2.2511551
37.236343 51.030655 0.16116093
36.993187 50.884197 -2.6766248
36.777916 50.962746 0.659684
37.158909 51.466801 1.6465687
37.164284 50.924351 0.4246839
37.087444 51.068287 0.54671937
37.052113 50.925446 -1.1413602
37.11105 50.952946 -2.628926
37.251625 51.083626 2.9900174
37.19442 51.05719 -1.7455823
36.886311 50.96962 -1.3324624
37.096394 51.309261 0.45250934
36.995808 51.512955 1.9753114
37.111275 51.294254 0.26081872
37.148384 50.944195 0.93071556
37.203499 50.909283 0.36906004
36.86628 50.89267 -1.1431677
36.867279 50.899261 -1.028427
37.258896 51.165081 1.4466889
37.176514 51.201771 2.0575151
36.75951 50.823429 -0.83015066
37.096107 51.312752 -0.13281338
37.096298 51.398674 0.45783886
36.851299 50.887291 -2.2440045
37.163113 51.026005 1.0565294
37.171562 51.015682 2.6490681
37.167744 51.020367 2.1612968
36.862751 50.917114 1.1623536
37.251682 51.181519 1.2796878
37.081406 51.303116 2.5524237
37.253113 51.094501 2.7374587
37.160328 51.295265 2.4669166
37.166088 51.013367 -0.64018577
37.230328 51.164692 2.4513316
37.257343 51.013309 -1.1410456
37.165672 51.189621 1.9500239
37.240627 51.18409 1.1425936
37.043842 50.885452 2.572926
37.235867 51.12215 2.5538046
37.110256 50.919117 1.7414747
37.24789 51.027424 0.56362075
37.080757 51.059494 0.35488313
37.164688 51.298187 2.3593307
37.162788 51.019733 1.6663032
37.165375 51.02129 -0.44023448
37.14362 51.393879 -0.33095378
36.860016 50.915615 1.4669347
37.234245 51.168617 2.5743041
37.075893 50.982685 -1.7388204
36.760201 50.813915 -1.544485
37.090023 51.075096 0.46268627
37.156982 50.916367 0.14691824
37.24585 51.286591 1.0780056
37.168404 51.019142 -0.54093945
37.095284 51.370972 2.6799011
37.088963 51.203785 2.7622566
37.100212 51.304222 1.8689296
37.132851 51.459709 -0.031787768
37.146572 51.022217 2.3595004
37.224335 51.199005 2.6509132
37.163254 51.01165 -0.73783523
37.190132 51.0765 -0.4307704
37.243279 51.030464 -0.14217119
37.234253 51.371284 -0.78444076
37.152229 51.374187 1.3562669
37.101398 51.306244 1.3531108
37.154114 51.021709 1.961938
37.18586 51.073105 0.76700372
36.882912 50.966633 1.3540101
36.987644 51.370235 2.1485894
37.191917 51.069527 -0.2405549
37.24287 51.167793 0.080613919
37.241196 51.081093 0.65789151
37.072643 51.223019 -1.1364404
37.153168 51.307243 2.1728709
37.18671 51.074203 0.66371006
37.377201 51.228271 -0.20524861
37.005451 51.614494 1.7648872
37.222378 51.158695 -0.99221611
37.163445 51.016449 2.2642148
37.070267 51.381062 -1.1382468
37.154278 51.309505 2.0569563
36.979076 51.432098 -0.72386026
37.253922 51.181656 1.4028825
37.241009 51.19397 -0.23358913
37.152054 51.488514 -0.89160824
37.147427 51.471939 -1.0317891
36.759598 50.809479 0.85486561
36.867977 50.890118 -1.4475204
37.191071 50.94228 0.21308626
37.139053 51.482559 -0.75298363
37.068771 51.319576 -1.3342361
37.276142 51.208355 0.47166824
37.161987 51.287518 2.2564199
37.098442 51.320412 1.1748227
37.322624 51.111408 -1.386542
37.346886 51.154011 -0.1863395
36.944942 51.063072 1.7884665
37.155758 51.283646 1.9545224
37.128582 51.460011 -1.2709206
37.326675 51.156372 0.53268838
37.247967 51.157059 -1.1235092
37.047485 51.665466 1.7735919
36.961399 50.801434 -0.03342998
37.333954 51.159615 0.061491817
37.242367 51.061852 -2.1964114
37.167271 51.024147 0.56267595
37.18964 51.068535 -1.0388246
37.055332 50.927071 0.37630022
36.946167 50.925865 0.96200877
37.133976 51.386658 0.057521179
37.042294 51.595722 1.2636667
37.147339 51.290459 0.25636449
37.237438 51.190781 -0.82549524
36.952087 50.926399 0.66322905
37.054436 50.958305 -2.458787
36.879417 50.879421 -1.5297354
37.153515 50.993458 2.9497144
37.264244 51.157379 -0.017938415
36.903751 50.729023 -1.4921472
36.756927 50.803696 -1.6321373
37.157974 51.391068 -1.2560759
37.089031 51.06916 0.85209191
36.977615 50.969276 -0.43890139
37.153496 51.383774 -0.051675983
36.863022 50.779079 0.65442133
37.15097 51.497078 0.59569991
36.93853 51.141293 0.23854227
37.246155 51.088284 1.6622455
36.865162 50.919525 0.76218712
37.135456 51.547722 1.9166206
37.166946 51.086315 2.0595999
36.84412 50.791813 0.15251736
37.2421 51.170422 0.67859739
37.168034 51.084759 2.2593837
37.190228 51.062939 -1.5425708
37.244987 51.076904 -0.034358967
36.897755 50.958736 -0.037158802
37.366016 51.09256 0.1989339
36.983829 50.795216 1.1339557
37.167984 51.02655 0.26023784
36.846081 50.738369 -0.47221783
36.768841 50.889961 1.2572331
37.094769 51.083683 0.15812126
37.163994 51.02528 1.1684335
37.004803 51.05241 2.6287456
37.227711 51.394077 1.5785573
36.766018 50.896278 1.3624603
37.265778 51.053032 -1.849678
37.004452 51.591702 1.9525319
36.977566 50.986168 1.7572193
37.165554 51.019154 -0.14039978
37.190487 51.071075 0.054154579
36.845802 50.780006 -0.30271947
37.058636 51.222263 0.8832469
36.830833 50.813011 0.77825427
36.788193 50.972008 0.76629901
37.129028 50.908188 1.4193293
37.191528 51.072289 -0.038178544
36.753307 50.823463 -1.2433565
37.081429 50.9203 -0.24267739
37.136185 50.930363 1.022727
37.175262 51.266884 -1.2674937
37.154438 51.022388 2.0593739
37.091522 51.063053 1.8650818
37.129906 51.572525 1.5564384
37.091175 51.058723 -0.042413883
37.162159 51.026417 0.36035138
37.082382 51.073261 2.4448044
36.990559 51.469612 1.2971178
36.762497 50.956684 1.2589145
36.904083 50.834122 -0.26655746
37.138618 51.384613 0.15748218
37.230782 51.108475 2.3508971
36.997768 51.605728 1.8396178
36.970634 51.0457 0.056214377
37.166393 51.465843 1.0715992
37.17033 51.002239 -1.1411222
37.192291 51.474747 1.4696124
37.241306 51.022549 -0.44123527
37.166206 51.199829 1.2597311
36.932243 50.803532 0.38338855
37.154892 51.385376 1.7646512
36.992672 50.98951 2.658396
37.164551 51.017784 1.7624375
36.967537 50.968441 -1.3273335
36.972427 50.834118 0.75632787
36.904419 50.957619 -1.529778
36.77478 50.963634 1.4530946
37.18808 51.064072 -1.6565335
36.759373 50.722664 -1.7180924
37.350124 51.037884 0.4773038
37.17606 51.191147 1.0627367
37.172707 51.196507 1.454324
36.898529 50.82618 1.0753291
37.048054 51.600212 1.3559561
36.885262 50.965443 1.2595791
36.88369 50.960442 -0.93606651
36.752083 50.826786 1.0593559
37.101952 51.195976 1.6643355
36.866058 50.914268 -0.24186116
37.071671 51.114296 2.6723022
37.016197 51.408039 -0.80336696
37.094246 51.399246 0.26578531
36.974167 50.97842 0.86070693
36.976677 50.970798 -0.23562135
37.239056 51.092426 2.4598548
37.077412 50.987701 -1.5367686
36.796394 50.955341 0.85514987
37.158752 51.023945 0.96919602
36.868885 50.910316 -0.53759128
37.069511 51.070576 0.26847214
36.968811 50.988529 1.8603833
37.349895 51.165833 -1.3201499
37.159618 51.021694 1.5586102
36.978172 51.363579 -0.20256858
37.19762 50.834713 1.9321115
37.241238 51.033298 0.46212471
37.230373 51.027306 0.66590112
37.057491 50.885944 2.7640617
37.166519 50.837696 2.0206919
37.236431 51.034157 0.05461422
37.232864 51.032036 0.75656855
37.170525 50.980305 -1.6442654
36.845055 50.820923 -0.72638482
36.748398 50.807175 1.4653823
36.983166 50.957935 -2.4436555
37.229408 51.273819 -1.7278984
37.140846 51.378479 -0.1301399
37.149158 51.374157 -0.44215119
36.976353 50.973171 -0.13976674
37.158489 51.38052 -1.5258536
37.147507 51.287666 1.3586547
36.873211 50.969128 2.0682614
37.257992 51.009811 -1.4469641
37.082691 50.888866 2.8523197
36.974533 50.97385 0.064019643
36.982273 51.664967 1.761176
37.068909 50.999126 0.55834734
36.768158 50.891319 0.56440061
36.881618 50.828949 1.6781086
36.947727 50.925194 0.26174632
37.048016 50.890018 2.3652773
36.955528 50.92923 0.36639068
37.072201 50.999477 0.060015686
36.841427 51.062172 2.3245575
37.253487 51.021133 -1.032402
36.853733 50.823498 -1.0389726
36.866741 50.802521 1.3874006
36.76112 50.823887 1.347852
37.240784 51.02692 0.26379332
36.870815 50.908405 1.558979
36.877304 50.965137 1.056257
37.075291 50.904911 0.95440423
37.167671 51.023846 0.7617889
36.890911 50.957119 0.5580442
36.870209 50.901402 -0.94047719
36.847416 50.815918 1.2713783
37.169662 50.994282 -1.8435886
36.899055 50.730633 0.50051832
37.142223 50.915909 -1.0173905
37.062725 51.500099 1.2624717
37.105328 51.300911 1.7570555
37.103279 51.324421 1.0418099
37.15527 51.469589 0.94270086
37.070034 51.070404 -0.54110897
37.187729 51.073429 -0.32942304
37.193428 51.07795 -0.13417858
36.984818 51.096439 2.018548
37.155113 51.390373 1.9714019
37.165421 51.022083 -0.23977482
37.143555 50.988129 -2.325197
37.15062 51.395947 2.0551879
37.162582 51.017681 -0.33768818
36.753273 50.811821 0.56718963
37.237881 51.032688 -0.048501365
37.070084 50.975872 -1.6432576
36.87027 50.908417 1.9574963
37.173008 51.000004 -1.3369799
37.067112 50.935204 0.24410652
36.868038 50.912453 2.154954
37.341225 51.164078 0.28182432
37.047176 51.598167 1.5652379
37.164875 51.027893 0.66509658
36.884949 50.964745 -1.4450494
36.876862 50.908852 1.7653348
37.133556 51.393669 0.87706792
37.33498 51.311131 -0.18688881
37.001526 50.898262 2.6493673
37.089451 51.396736 -0.23055778
37.093056 51.404045 0.86842805
37.174816 51.194447 0.95564687
36.796127 50.952885 0.54337478
37.066444 51.494568 1.159941
37.081993 51.064518 1.7601919
37.08099 51.395679 -0.53858453
37.172424 51.186623 1.550588
37.15593 51.295013 1.4659842
37.147919 51.28643 1.1613288
37.138153 51.289272 1.2624356
36.876087 50.872021 -1.6357603
36.829472 50.797558 0.38409734
36.954586 50.929546 -0.044810399
37.137863 51.015877 -2.1269996
37.151436 50.829029 0.38679543
37.163452 51.297852 1.8665045
37.172665 51.200432 1.1576426
36.846565 50.676083 0.54942
36.877235 50.802498 0.87622577
36.848038 50.671429 0.23785949
37.227249 51.049911 -1.9971823
37.152893 51.295937 1.6629732
36.867828 50.907879 -0.74213797
37.145592 51.307377 1.5667351
37.188324 51.461716 0.77243257
37.066631 50.922001 1.2572736
37.196011 51.175133 -1.2633718
37.213139 50.895699 1.3379583
36.976517 50.976116 1.561361
36.902248 50.888153 -2.4493594
37.073883 50.991817 -0.93725419
37.058578 50.919617 -0.14446341
37.070038 50.99762 0.26166651
37.040104 50.93005 -0.74394536
37.005287 51.325027 -1.0762254
37.090221 51.222549 -0.74092519
37.06675 51.002457 2.1675591
37.332077 51.042305 0.35367879
37.190578 51.076996 0.46209335
36.76054 50.805962 1.2748404
37.143784 51.395683 0.56667733
36.824585 50.796638 -2.3415937
37.336781 51.037193 0.26383349
37.192627 51.070854 0.56173348
37.136738 51.057011 -2.3013701
37.106567 51.316219 1.2645861
37.101585 51.228584 -0.92552286
37.102921 51.292652 -1.1416999
37.221512 50.909042 -0.83874434
37.161556 51.194794 1.8680924
37.150845 51.292175 0.96350157
36.765354 50.894218 0.75863892
37.152924 51.294876 -1.0508169
37.134182 51.383247 0.46986344
37.099262 51.4048 1.1621081
36.999035 51.054733 0.17364176
36.89846 50.972172 -0.6441564
36.845234 50.785294 0.24935794
37.241184 51.30191 -0.13295954
37.15691 51.298351 -0.93525702
37.062851 50.918308 -0.048350163
37.050564 50.898827 0.54741704
36.761974 50.797974 0.76103652
36.879475 51.112808 1.1751153
36.976078 50.976406 1.3664113
36.979107 50.969501 -0.34156421
36.969433 50.922707 -2.3488255
36.863316 50.920475 0.86465448
37.066364 51.494656 0.7624566
37.095261 51.398701 0.16472067
36.866539 50.919666 0.65874189
36.827919 50.83353 -0.61222899
36.767632 50.891026 0.65945083
36.883289 50.961952 0.85996187
36.878296 50.982044 1.7504512
37.170845 51.084286 1.6670824
36.865891 50.835533 -0.11382021
36.770863 50.82119 0.96284759
37.225304 51.152802 -0.98050201
37.17865 51.086224 1.7655352
37.173328 51.304272 -1.4947661
36.858383 50.913204 1.0524659
36.747101 50.810265 1.1496465
37.071144 50.994762 -0.13932873
36.745918 50.826969 0.66848463
36.946892 51.070358 1.3782558
37.2645 51.032696 1.7980319
37.226238 50.990902 2.2756071
37.241806 51.031448 0.35858938
37.236015 51.08382 1.7676743
37.042168 50.911194 1.1527861
36.769539 50.889194 0.46128461
37.00914 51.052166 0.95635408
37.166138 50.99514 -1.7223672
37.144447 51.391369 0.77074474
37.082668 51.397617 -0.15051201
36.864204 50.916882 0.45662966
36.882332 50.96727 2.3789852
37.086109 51.083237 0.76769286
37.266991 50.918785 -0.16240573
37.084568 51.408718 0.054679081
37.234715 50.917515 -2.0483677
36.863056 50.909977 -0.43741801
37.230129 50.918972 -1.9028722
36.889946 50.954758 0.17329688
36.865604 50.913364 -0.34062979
36.867558 50.906078 -0.83585292
36.874367 50.87661 -1.7364097
37.138897 50.917061 -1.9388529
36.920563 50.834995 -1.4345498
36.922356 50.729206 -0.07229536
37.200516 50.898903 0.86418688
37.081192 51.403439 -0.64196563
37.089046 51.395889 0.76554769
36.961411 50.909111 -1.1394397
36.803505 50.816124 2.4440324
37.089027 51.402653 0.66936076
37.181015 51.191956 -1.5425402
37.178185 51.192524 0.55959296
37.296165 51.473175 1.0734379
37.227036 51.345623 0.93381864
37.08794 51.389893 1.8511908
37.089642 51.391052 1.765139
37.085445 51.402245 1.3605847
36.885315 50.977188 -0.73122722
37.098358 51.39019 1.0642536
36.876869 50.957306 -1.1486427
36.893082 50.974525 1.9580946
36.856216 50.884571 -2.3127909
36.894894 50.958176 2.1552305
36.902428 50.949875 -1.6557375
36.890316 50.977623 -1.2289212
36.886436 50.972191 1.8559134
36.880932 50.980167 1.6788929
37.090164 51.404179 0.96032459
36.887512 50.966518 -0.53807598
37.120373 51.041073 2.807369
37.087673 51.365616 2.5519331
36.883312 50.961617 -0.34961429
37.24379 51.078224 0.35789225
36.765774 50.786705 -2.1528916
36.967617 50.914818 -1.0353481
36.8652 50.6824 -0.024405314
37.172085 51.09742 2.6592231
37.13813 51.383484 1.5771455
37.159275 51.022339 0.15868284
37.15517 51.319454 -1.142749
37.222488 51.391727 -0.20760725
37.176384 50.937454 -1.7085043
37.082855 51.403271 -0.34412578
37.156223 51.389568 -1.4527248
36.762192 50.891716 1.9613008
37.190983 51.220028 2.7426934
37.131729 50.822025 0.83352238
37.070381 50.771812 -0.61624569
37.184692 51.077354 1.1600635
37.193352 51.203102 2.5501561
37.151539 51.284874 -0.84709215
37.194248 51.1693 2.4546366
37.167088 51.308079 2.654783
37.068626 51.499969 1.7546062
37.102322 50.787357 -0.72981256
37.068985 51.398705 -1.042886
36.973774 50.97226 0.46309289
37.068539 51.495178 1.5504613
36.979389 50.972656 -0.93675858
37.257294 51.015488 -1.2348663
37.070015 50.994896 -0.33394864
37.072845 50.922668 -0.44579217
37.064034 51.065437 0.65599227
37.073059 50.999928 -1.3262705
36.879536 50.975967 1.4639194
37.110886 51.064922 -1.2945981
37.14439 51.391327 1.4499059
37.060844 51.492538 1.6595324
37.080215 50.982998 -1.4320263
36.891193 50.957428 0.36222422
37.069973 50.992573 -1.0375135
37.16201 51.02562 0.062521517
37.072475 51.000362 -0.036059968
36.883507 50.96077 0.26101699
37.067333 50.998291 1.6569134
37.071461 50.998627 0.6640957
36.974964 50.979538 1.0551703
37.182449 51.075157 0.96193653
37.06345 51.006756 2.3594067
37.071705 50.994152 -0.43414026
37.064835 50.998898 2.2583261
37.07024 51.00312 0.96545315
36.975784 50.973278 -0.73172271
36.853756 50.827717 -1.3354652
37.166721 51.006477 -0.84165227
37.061443 51.014076 2.4603021
37.068272 51.004406 0.75775939
37.073372 50.996292 -0.63777167
37.09602 51.069569 1.0637944
37.093033 51.314548 -0.458285
37.079067 51.196335 1.1884919
36.869457 50.890583 -1.2390736
36.862843 50.918205 0.16074771
37.244793 51.081116 1.5604808
37.045532 51.599613 1.1574398
36.833008 50.822319 0.049226739
37.181435 50.911041 -0.030338326
36.863808 50.920292 0.56301397
37.012077 50.829365 1.3729665
37.074722 51.364956 2.3506377
37.049706 51.602699 1.4629154
37.0742 50.930439 1.3318954
37.077187 50.90419 0.67772675
37.080997 50.925133 1.9829868
37.060863 50.913811 1.4461538
36.768536 50.891861 2.0538802
36.866344 50.919003 1.2597018
36.886597 50.963688 -0.24530689
37.05027 51.664387 1.9708741
36.830456 50.826717 2.469244
36.955391 50.919357 1.4566423
36.946388 50.93166 0.15710083
36.976215 50.97612 1.1584381
37.062599 51.497993 0.86022747
36.945854 50.814484 0.6908772
37.340759 51.074554 1.0253729
37.146259 51.300983 1.0595698
37.334686 51.075672 1.2693882
36.875984 50.669807 -0.84398919
37.078209 51.316856 2.3496211
37.252968 50.984135 -1.8461004
36.866268 50.8092 0.97642356
37.074989 51.375431 2.4310503
36.865963 50.921047 0.26219556
37.069622 51.072578 2.5520892
37.15406 51.389153 0.66553426
36.931248 51.049046 -1.0810497
37.012714 51.047615 2.3989615
37.006325 51.061874 1.2544868
36.955193 50.931438 -0.44067398
37.089893 51.40979 0.35667956
37.186222 51.07021 -1.1377803
36.878799 50.896194 2.433116
36.766819 50.877251 -0.83370799
36.842476 50.803066 0.57545638
36.859825 50.827553 -1.7431828
36.944927 50.83815 -0.57241768
36.832653 50.764694 -2.4531691
36.978203 50.983532 1.6665881
36.948833 50.924664 0.86851734
36.959518 50.924553 -0.73920441
37.078785 50.929935 -0.36580208
36.888733 50.906998 2.3802247
36.865387 50.920067 0.062027004
37.046547 50.908043 -2.2470036
37.044788 50.928413 0.061616298
36.937263 50.901245 -2.1206708
36.984119 50.888733 -1.9466263
37.076897 51.200142 2.6698182
37.063946 50.917671 -2.4177408
36.943535 50.915955 1.3655303
37.055405 50.931133 0.16544017
37.013779 51.336742 2.5382233
37.063175 50.923237 -1.3401886
37.070934 50.906036 1.0488114
37.063614 50.92767 0.7514869
37.072311 50.988655 -1.2345598
36.959751 50.924114 1.1663244
37.170422 50.99976 -1.2385714
37.071079 50.915348 -1.6448343
37.162746 50.92601 -0.4597058
36.946198 50.92503 0.76037216
36.961918 50.903271 -1.3328139
37.069523 50.998997 0.45692989
37.065926 50.999218 1.2653869
36.971977 50.97464 0.76357955
37.077682 51.066669 1.2657342
36.767807 50.896515 1.5560948
37.083065 51.067696 1.4630988
36.975983 50.909164 2.0618155
36.959183 50.92408 1.8563863
37.063725 51.004818 1.5587755
37.071129 51.004025 1.1644269
37.067539 50.992439 -1.1377792
36.886295 50.956768 -0.143048
37.063511 51.013382 2.0679395
36.954273 50.923695 -0.23763563
37.068943 51.497036 1.0692631
37.053162 50.914307 1.5707573
37.159695 51.002136 -1.537119
37.078129 50.887726 1.8434305
37.18219 50.940411 -0.35356238
36.872162 50.918068 -0.13636041
37.098152 51.310902 -0.93102789
36.978172 50.974159 -0.84253097
36.938541 50.99387 -1.9238278
36.954945 51.071365 -0.94551522
36.945946 50.928726 1.0597358
37.163258 51.027119 -0.042780414
36.869278 50.913261 1.6542243
36.978439 50.975842 -1.2391969
36.948128 50.930206 -0.34047472
36.957947 50.93359 0.068248607
36.975658 50.972504 0.65808725
36.879154 50.96484 -0.43595579
36.893444 50.955433 0.056680698
37.165829 51.024925 0.45663291
36.873604 50.912296 2.063863
37.071796 51.00742 1.3596069
37.067898 50.995708 -0.23404223
37.088676 51.374355 2.2347379
37.06881 50.930012 -0.83444601
37.05088 50.934822 -0.62912071
37.171947 51.291912 2.5484519
37.049274 50.891754 2.6643569
37.063526 50.900955 2.2419221
36.958008 50.918827 -0.83699918
36.878372 50.844757 2.3940897
36.858223 50.901054 2.5526617
36.972054 50.844727 1.2334285
36.878944 50.965408 1.158618
37.073711 51.367199 2.1720951
36.97509 50.971989 0.1611416
36.891361 50.966057 2.5513883
36.867413 50.911022 1.8575505
37.151443 51.295788 0.8695941
37.086079 51.387405 -0.83513099
36.958073 50.825958 -0.44136271
36.935337 50.799049 -0.23863375
37.099472 51.29475 -1.2588938
37.091057 51.175617 1.3583406
37.041855 50.82513 0.46767727
37.067745 51.002762 0.85896605
37.067089 50.99765 1.8625336
36.861233 50.919743 0.96350002
36.862141 50.915928 1.3650371
36.879505 50.896591 2.2635355
36.996967 51.067112 2.1733031
36.975483 50.839741 0.45715687
37.362324 51.062885 0.26265207
36.962402 50.91898 1.9567176
37.03754 50.909309 -0.93794537
36.836697 50.828369 -1.1514314
36.964581 50.911171 -1.2408684
36.977837 50.982143 1.4597272
36.881336 50.962421 0.76632041
36.969788 50.902737 -1.5409608
36.974487 51.081581 1.0201848
37.137001 50.93322 -0.80237752
37.074257 51.001545 0.35858738
36.97908 51.055893 1.4724035
37.148422 50.870266 -0.12657838
36.943119 50.760292 1.4177024
37.365578 51.245659 1.153518
37.0853 50.909939 -2.1158457
36.965862 50.989151 -1.4296378
36.886459 50.961369 0.66331619
36.970062 50.966042 -2.2386749
36.977276 50.974323 -1.5137526
36.9618 50.896866 -1.443459
37.093266 51.398396 1.4610609
36.957176 50.915573 -2.0247259
37.254417 51.391712 0.34989291
36.967144 50.886078 -1.7301784
36.95892 50.960663 -1.7236997
37.181641 51.074272 1.0605803
37.265995 51.438557 0.1265194
37.152092 51.408161 1.1535051
36.969837 50.982563 -1.0315614
36.975079 50.826637 -2.3457627
37.043789 50.922379 -0.53339916
37.142166 51.395065 1.6619979
37.004681 51.103607 -0.031908005
37.080631 51.071671 1.3712722
37.01683 51.06749 -0.45229596
37.006714 51.068588 0.46746773
37.249756 51.017517 1.5370991
37.072414 51.000198 -2.0368176
37.25956 51.012623 -1.3338641
36.990536 50.980289 -2.3472133
37.24633 51.024261 1.3585573
36.978188 50.88834 -1.6386144
37.070225 51.000313 0.16015002
36.955051 50.880474 -1.8251442
37.169712 50.991215 -1.4503155
37.082199 51.076725 1.1456375
37.111439 51.057304 -1.4334608
37.073345 51.004894 1.060618
37.061722 50.915146 2.0782406
37.254044 51.19289 -1.3292439
37.071396 50.987 -0.73694456
37.152859 51.585434 1.159255
37.059288 50.974716 -2.2513599
36.997955 50.949432 -2.1850941
37.231518 51.032196 -2.1828885
36.971718 50.973495 0.55799681
36.96143 50.929134 -0.5359984
36.90863 50.966488 -1.9536188
37.104431 51.300026 -0.84970969
37.238281 51.038387 1.0543166
37.081261 50.985622 -2.322284
37.238945 51.081581 0.75652373
37.245499 51.08046 1.2632442
36.971603 50.969955 0.26217693
37.067047 50.90992 -1.8259697
36.955372 50.92165 1.7687281
37.164673 51.06057 -1.4403468
37.104042 51.312458 -0.74884182
37.117901 51.04607 -1.9938087
36.864063 50.917381 0.35913748
36.960327 50.926983 -0.64021993
37.107628 51.288132 -1.0359772
36.869946 50.889828 -1.3388381
37.090878 51.389858 1.6595541
37.245682 51.033184 1.6721785
37.22942 51.044136 2.1384745
37.054203 51.487591 -1.0382377
37.231247 51.185787 2.7570066
37.253399 51.026146 1.2590621
37.323895 50.960754 1.5119489
37.001858 51.621815 1.5620736
37.087009 51.397774 -0.72573608
37.09161 51.397442 1.2565346
37.140823 51.389019 0.25747636
37.131752 51.476364 -0.34315655
37.086426 51.404907 -0.038692001
37.063641 51.670555 1.6518737
37.139618 51.384056 0.35818055
37.16238 51.366322 -0.63670683
37.100811 51.294968 1.6586257
37.100353 51.323013 -0.047259957
36.86467 51.059292 2.0176997
36.885971 51.067554 1.8011609
37.085888 51.064056 1.6705831
36.997269 51.060642 2.2801075
37.04393 50.921272 -2.3294225
37.092735 51.242138 -0.23795299
37.064011 51.403847 -0.94734305
37.138233 51.479958 -0.25410545
37.101665 51.067989 -1.0636493
37.098904 51.409561 -1.4421135
37.137047 51.501614 -1.4318779
37.06675 51.388199 -1.2384343
36.819534 50.955437 1.9449363
37.100971 51.296463 1.5731775
37.075554 51.066582 -0.95195365
37.242718 51.076359 0.96431273
36.971329 51.094933 1.5631094
36.999313 51.08176 1.6779019
37.244308 51.035034 -0.33282954
37.240776 51.035217 -0.23913112
37.2467 51.076553 1.454411
37.158806 51.015236 1.8521475
37.25864 51.093903 1.8505514
37.169407 51.011169 -0.94077742
37.185806 51.072304 0.85829121
37.179161 51.078499 1.4610624
37.241341 51.079372 1.367888
37.136742 51.351494 -1.0484494
37.254051 51.033264 0.98366219
37.238064 51.446892 -0.19005339
37.250877 51.033524 1.4537576
37.246223 51.076096 0.15521954
37.24123 51.071667 -1.0365808
37.148792 51.395786 -0.52970207
37.246891 51.074245 0.45510748
37.354118 51.07309 -1.4401532
37.246609 51.075062 0.555287
37.168217 51.088535 1.8670864
37.128956 51.388966 -0.85260481
37.160576 51.378368 -0.71962595
37.341213 51.066917 1.4933861
37.223568 51.178814 -1.4382811
37.044384 50.929314 2.1813681
37.139389 51.41011 -0.23583035
37.069408 51.495403 -0.24537972
37.085697 51.068054 1.5706156
36.988716 51.073254 -0.21167506
37.176567 51.189072 2.3645158
37.069244 50.919556 -1.7314891
36.90892 50.772251 0.50866586
37.082882 51.306187 1.9548615
37.068241 50.996937 -1.9452851
36.850651 50.699627 0.15452357
37.055706 50.887341 -1.9395915
36.944946 50.835236 1.0603981
37.234806 51.094044 2.0724659
36.756115 50.807789 -0.54051161
36.96051 50.81498 0.97823024
37.13821 51.011856 2.571104
37.052364 50.981258 2.5720415
36.882805 50.961868 1.5581226
37.164196 51.010612 2.4507797
37.073544 50.994305 -0.83674794
36.764008 50.815578 -1.4403787
37.072376 51.000191 1.9556364
37.034946 50.940144 0.49265662
36.983944 50.972248 -0.63341731
37.086117 51.312931 2.146646
37.182117 51.080269 1.2566028
37.18095 51.083645 1.5602491
36.990799 50.898125 2.5629563
37.237835 51.034077 1.1536524
37.092644 51.058285 0.97222763
36.985832 50.99189 2.3679276
36.79438 50.700958 -0.98394334
36.949188 50.92131 -0.94378632
37.136444 50.916527 -0.72100103
37.240677 50.941551 0.62367666
36.990585 51.076126 1.9741566
36.959137 51.081448 0.35533178
36.782753 50.738453 -1.6196957
37.242828 51.081474 0.86400288
37.177994 51.078377 1.355062
36.854782 50.820736 -1.6251775
37.26416 51.003628 -1.5333846
37.092564 50.907562 -2.0222561
36.892189 50.96006 0.46099371
37.080132 50.989628 -1.8290679
37.251026 50.967972 -1.9484112
37.154404 50.999783 -1.9339449
36.868462 50.820904 -1.8508092
37.066864 50.920685 -1.5270436
36.969563 50.975082 -1.134078
37.147182 50.905399 -2.1008427
36.862854 50.820564 -1.944741
37.250748 51.078709 1.1659521
36.83506 50.834061 -2.2617807
37.164566 50.936646 -2.2481077
37.300011 51.3489 0.68328941
36.876442 50.87281 -1.8298836
37.006275 50.974087 -1.8431723
37.251572 51.032368 0.87817842
37.264767 50.99955 -1.7167488
36.867599 50.798889 -2.1004469
37.239933 51.071564 1.0602765
37.084297 51.308102 2.0664487
37.074638 50.934383 1.648439
37.092514 51.311256 2.4538484
37.253571 51.029724 2.0596609
37.045605 50.943581 0.87097895
37.018105 51.428345 1.7071066
37.339909 51.120239 -0.13438289
37.233341 51.04467 1.9617262
37.175449 51.205029 2.1554897
37.169537 51.196384 2.2593172
37.235538 51.169891 -1.4992827
37.064175 51.683464 1.8822933
36.986713 50.987751 -1.6388814
37.259491 51.002464 -1.6350414
37.331783 51.070751 0.082180403
37.227409 51.067871 1.9782727
37.342941 51.082272 1.3424945
37.343018 51.0383 0.11482821
37.346588 51.075859 1.1769402
36.951866 51.521843 1.7693918
37.401855 51.073208 0.55535471
37.330482 50.958546 -2.0304234
37.049896 50.823082 -2.0823033
37.327137 51.034386 0.096895844
36.931221 50.840755 -1.9448495
37.156044 51.296589 1.7657268
37.327995 51.108513 0.48297682
37.276985 50.957478 -2.4113324
37.166855 51.187305 1.6588514
36.930874 50.853657 -2.2554965
37.164223 51.193153 1.7531147
37.243587 51.24118 -1.727349
37.228924 51.462841 -0.60519415
36.938427 50.829311 -1.8462838
37.259415 51.49699 0.051968835
37.320808 51.097061 -0.80117267
37.353252 51.100117 -0.65912795
37.241489 51.285995 2.1395164
37.040623 50.880726 2.4725556
