# .PCD v0.7 - Point Cloud Data file format
VERSION 0.7
FIELDS x y z
SIZE 4 4 4
TYPE F F F
COUNT 1 1 1
WIDTH 879
HEIGHT 1
VIEWPOINT 0 0 0 1 0 0 0
POINTS 879
DATA ascii
-5.6005259 23.771675 -0.16040693
-5.5644903 23.790218 0.69121164
-5.4282823 23.210728 -1.8339672
-5.4148927 22.897545 -0.22705716
-5.5018034 23.404615 -1.8440727
-5.5182633 23.422718 -1.6418524
-5.5047212 22.927895 1.4520447
-5.571312 23.618013 -1.2427038
-5.544487 23.674974 -2.0412228
-5.536202 23.388382 0.55983251
-5.5122933 23.199266 -0.038202293
-5.4991379 23.23572 1.6452006
-5.3909321 22.91864 -0.63043165
-5.3936262 22.718523 1.0723028
-5.5048127 23.187374 -1.339113
-5.3430119 23.003193 -0.22411406
-5.6519594 23.774204 -0.24826565
-5.4281321 22.993523 -1.3437233
-5.6241035 23.748404 0.46173811
-5.3153787 22.78829 -1.9304333
-5.4425516 23.09656 -1.6330594
-5.5584869 23.48736 -0.74150676
-5.5535498 23.658255 0.062798977
-5.3572812 23.069916 1.2183766
-5.3946619 22.710344 0.97618699
-5.4518881 23.192886 -1.6429372
-5.5212889 23.382233 -1.3261522
-5.5456581 23.400888 0.7511344
-5.3399024 22.732079 -1.41838
-5.6862931 23.492163 0.32929587
-5.326797 22.740011 -2.0411584
-5.6103282 23.613018 0.56015444
-5.6178517 23.616682 0.16261818
-5.6039858 23.613361 0.86043024
-5.5992022 23.595732 1.5539376
-5.6306524 23.506029 -0.95688832
-5.6158214 23.61236 0.46067131
-5.6118026 23.373793 1.9204768
-5.6146998 23.61602 0.26173422
-5.3626757 23.192013 1.2571673
-5.4481301 23.19408 -1.7419958
-5.628109 23.614906 -0.44087863
-5.614635 23.607248 1.6570637
-5.5354872 23.372364 2.0564244
-5.3892179 22.791445 0.96043801
-5.5432258 23.365635 0.36799759
-5.7512379 23.768368 0.10168774
-5.2136731 22.87862 0.27160758
-5.3510838 22.891911 -0.22010507
-5.3957357 22.853245 -1.6821135
-5.6058035 23.603888 1.3621371
-5.516294 23.202559 0.95514917
-5.6063199 23.615625 0.76032758
-5.5155702 23.200098 -0.34166518
-5.4368405 22.992243 -0.046178713
-5.3304729 22.621313 1.1489078
-5.5099339 23.198709 0.15342505
-5.4400287 22.884417 -0.32799232
-5.4128394 22.970552 -0.71389312
-5.5558438 23.61846 -2.0395589
-5.423141 22.903381 -0.4441641
-5.6287193 23.615101 -0.33878565
-5.5964031 23.611038 1.8498906
-5.4502573 23.722261 0.49550006
-5.6083827 23.61371 0.6585049
-5.5455217 23.657494 1.3639083
-5.5417786 23.392729 0.85167205
-5.5209765 23.291962 0.47265592
-5.3687844 22.540451 -1.2267829
-5.4217663 22.716679 -1.9307094
-5.5649629 23.599325 0.063255496
-5.4161863 22.890615 -1.4475622
-5.2670588 22.720129 -1.4393861
-5.4978509 23.209278 1.2263082
-5.5206428 23.276184 2.0605497
-5.4552717 23.042528 -1.2116653
-5.3115864 22.79446 -2.0207455
-5.5189915 23.302786 0.86611527
-5.6073422 23.420279 0.24514684
-5.368443 23.150854 -1.3759552
-5.5296278 23.286009 0.25524646
-5.5955982 23.429985 -0.75213474
-5.4540806 23.252905 -1.6201234
-5.4649978 23.196663 0.72635919
-5.6436687 23.668144 -0.84385592
-5.5806208 23.131607 -0.78888571
-5.5509295 23.527235 0.4787122
-5.4517875 23.28516 0.7606144
-5.4546795 23.280954 -1.5066383
-5.2606077 22.713173 0.66811138
-5.2708454 22.694284 0.43749827
-5.5476546 23.386377 -0.22520956
-5.5651655 23.388062 -1.035513
-5.5927916 23.186771 -0.92561448
-5.4991198 23.333406 -2.043313
-5.4756918 23.364552 1.1990293
-5.2624364 22.708294 0.77165079
-5.538034 23.506937 1.2623
-5.3731351 23.046326 1.3318301
-5.5504541 23.386513 0.25473395
-5.41082 22.877462 0.26785654
-5.6035204 23.240082 0.2409941
-5.5970964 23.400146 -0.16730694
-5.6329274 23.213444 0.37321529
-5.5987873 23.205505 -0.87124133
-5.6283951 23.417858 0.3443656
-5.7143555 23.579292 1.810986
-5.7246275 23.695398 -0.04367223
-5.4921451 23.129881 0.45203444
-5.5402689 23.463802 1.5598714
-5.5609417 23.609655 1.4588933
-5.5463829 23.391655 0.45188189
-5.5458131 23.664444 1.2540028
-5.3503814 22.848572 -0.98618782
-5.6141243 23.667847 1.5612828
-5.4671841 23.266823 1.6305642
-5.6264949 23.673311 1.4624339
-5.5796514 23.811918 0.8066417
-5.5538611 23.39484 0.1642476
-5.5075645 23.203133 1.4515653
-5.5489621 23.504135 1.4670676
-5.5138545 23.397921 1.5660841
-5.5029306 23.209785 1.5873245
-5.2749181 22.723782 0.36980096
-5.2692232 22.708874 0.55772454
-5.4465599 23.089647 0.37027028
-5.5019383 23.283894 1.3684806
-5.5136704 23.112932 0.25866395
-5.4301801 22.987873 0.86367303
-5.3296251 22.728382 -1.3369402
-5.5853825 23.50964 1.3710446
-5.6314979 23.538803 1.2569085
-5.5289645 23.410664 1.2555504
-5.3399477 22.854683 -0.74828005
-5.5604525 23.612581 -1.1375515
-5.4165339 22.887939 0.45408249
-5.5199242 23.297401 -1.2185506
-5.568264 23.760515 0.45308357
-5.5073104 23.288385 -1.4407587
-5.5998297 23.609726 1.4573305
-5.5064545 23.306402 -1.6304678
-5.6396561 23.662615 -0.63941759
-5.4008355 22.887161 0.86452115
-5.6256123 23.664804 0.26163387
-5.6302195 23.663252 -0.43028823
-5.4175749 23.080059 1.9347421
-5.6055908 23.4056 -0.34182134
-5.6004357 23.209404 -0.31505263
-5.4203272 22.889328 -0.13529187
-5.6021152 23.220032 -0.54184115
-5.8434324 23.903793 0.21045205
-5.6245317 23.616667 -0.036136188
-5.6226015 23.233089 1.5741019
-5.2491884 22.788918 0.56690127
-5.6133089 23.614326 0.36065239
-5.3888369 22.813408 1.9152836
-5.265193 22.715612 -1.6275549
-5.5733666 23.609564 -0.8393029
-5.5435162 23.275486 -0.5316239
-5.4527583 22.983749 -1.0368956
-5.459928 22.998459 -1.1125417
-5.5468292 23.493591 -1.0426781
-5.4350042 22.781618 2.1017623
-5.4198389 22.875164 0.75413841
-5.3021865 22.862494 -1.049629
-5.3365488 22.881172 -0.86466527
-5.5033669 22.998838 -0.42010993
-5.6348104 23.616163 -0.53870517
-5.3626132 22.89986 2.1892085
-5.3991737 22.79178 1.1457359
-5.2675219 22.756979 1.4391637
-5.3446321 22.981771 0.15268084
-5.3702364 22.858576 -1.3121749
-5.4237895 22.98037 -0.4343335
-5.551609 23.593025 -1.05908
-5.5300608 23.292736 -0.44250429
-5.4777274 23.613064 0.043339938
-5.3284717 22.72451 1.2506843
-5.3202958 22.739834 2.0305693
-5.2538576 22.810055 -1.2394084
-5.3489504 22.873854 0.97755063
-5.4516635 23.110424 -0.63298899
-5.343359 23.083841 1.0182093
-5.5495176 23.291842 -0.64070863
-5.7427969 23.792698 0.198488
-5.2531219 22.610786 -1.7284031
-5.6048374 23.501087 -0.707789
-5.3359299 22.726486 0.96636003
-5.3640757 23.011913 -1.6649941
-5.3309488 22.861948 -1.4455947
-5.5332403 23.273506 -0.23570073
-5.3382244 22.772646 1.1545782
-5.3761082 22.879786 -1.2551593
-5.3978128 22.790798 0.85297132
-5.3287277 22.727345 1.1522948
-5.3275256 22.706209 1.8262142
-5.5330558 23.291819 -0.71629357
-5.5246577 23.1924 -1.0351191
-5.2712731 22.801373 -1.8179181
-5.5969696 23.192877 -0.24719816
-5.6196523 23.668489 0.45851606
-5.443748 23.080902 1.4589348
-5.6359038 23.661768 -0.34205684
-5.4506049 23.112564 -0.052101839
-5.3408732 22.79014 1.6413987
-5.5532165 23.50104 0.74555552
-5.6157041 23.515135 0.24354689
-5.5857954 23.190212 -0.07005471
-5.4457297 23.096542 1.3626326
-5.632987 23.755314 2.1372952
-5.4599848 23.188307 -0.93723166
-5.6346531 23.664913 0.058364935
-5.4540029 23.103777 1.0886055
-5.54849 23.395071 -0.044113778
-5.5356407 23.394333 -0.7418071
-5.5240378 23.121443 -0.33177966
-5.4294825 23.070377 2.1731491
-5.3783584 22.972849 0.6685735
-5.5877409 23.226767 -0.11907025
-5.4748316 23.289505 -1.1168776
-5.4903626 23.005255 -1.1082457
-5.5814557 23.224665 1.0783422
-5.3554201 22.96114 0.059510425
-5.3363385 22.887976 1.5986155
-5.3587971 22.882593 0.47925764
-5.321774 23.213551 -1.4581249
-5.5122914 23.199024 -0.13769196
-5.3704948 22.572033 -1.2437805
-5.3583508 22.960451 -1.9347718
-5.55375 23.676418 0.4494361
-5.3384266 22.780464 -1.2360398
-5.5493512 23.666815 0.34719256
-5.5187845 23.197792 -0.43955123
-5.520112 23.099478 0.15601735
-5.4562087 23.263235 -1.0546629
-5.5539083 23.605457 1.2601001
-5.4520779 23.121746 -0.32878917
-5.4572115 23.116812 0.96172273
-5.5113673 22.964254 1.3968359
-5.4143267 22.895828 0.55248958
-5.5458117 23.389822 -1.1272305
-5.2392507 22.864779 -1.04195
-5.4181123 22.87962 0.66150784
-5.6336279 23.613848 -0.74041671
-5.4700823 23.363962 1.449281
-5.5602913 23.515896 -0.2333318
-5.5212722 23.188501 0.47592723
-5.4339867 22.868292 -0.93009299
-5.2633376 22.949728 0.065629184
-5.2700791 22.759304 -1.4540825
-5.2254958 22.887226 -1.5202327
-5.442697 22.887823 -1.0420499
-5.5214214 23.300404 -1.5277537
-5.562243 23.607141 0.96739733
-5.2473373 22.77759 1.5731752
-5.337718 22.775139 -1.3385296
-5.5255203 23.284107 0.071831226
-5.5565577 23.67063 1.0556232
-5.698245 23.694702 0.14668149
-5.498147 23.034731 0.59098572
-5.6247377 23.664953 0.16013967
-5.58603 23.289581 -0.25785187
-5.5033302 23.133087 -0.42624223
-5.5651059 23.66964 -0.63630831
-5.3328891 22.726339 1.0585209
-5.4163976 22.86603 0.97958827
-5.4981732 22.983027 0.45444328
-5.5297704 23.268072 -0.13216396
-5.4364719 23.102976 0.76778895
-5.4653096 23.193462 -0.34170526
-5.41432 22.89291 1.2233105
-5.5525842 23.616909 -1.6417247
-5.5541773 23.67635 0.76163119
-5.4623075 23.199646 -0.23354448
-5.5692596 23.499043 -0.037418593
-5.3343697 22.874634 0.86769152
-5.5145674 23.103622 -0.026459249
-5.4093523 22.772177 -1.8429638
-5.2563658 22.718195 0.84857655
-5.3075781 22.82472 -2.1290193
-5.5090227 22.989491 0.07244502
-5.3131771 22.718645 1.732893
-5.6120253 23.505522 0.15815961
-5.3546109 22.870165 0.75762695
-5.6375408 23.744717 2.123477
-5.3765888 22.959068 -0.064804539
-5.4274702 22.982275 0.46605033
-5.5659385 23.60623 0.76565003
-5.6355467 23.506298 1.88629
-5.4456906 23.090034 0.85353768
-5.3650837 22.980398 0.74942243
-5.5596318 23.656866 -1.2428237
-5.5934687 23.327675 -0.34532151
-5.5312881 23.38516 -0.91445768
-5.3411851 22.738152 -1.9170617
-5.54074 23.616152 -1.9325213
-5.1913023 22.522131 -2.2490637
-5.4469061 22.995689 -0.81788111
-5.5675435 23.607306 0.47121534
-5.5641179 23.606388 1.0644346
-5.3401823 22.869967 0.068265565
-5.5638752 23.604677 0.26056963
-5.35323 22.849604 -0.1314276
-5.4873238 23.122791 0.75904024
-5.4016457 22.906321 -0.71281439
-5.5608296 23.609661 -1.4432901
-5.516264 22.987539 0.66647774
-5.4310846 22.98455 0.36548364
-5.5536437 23.396505 -0.82728344
-5.4644003 23.102955 0.56349552
-5.6178565 23.668083 1.8313799
-5.4201264 22.887657 -1.1294445
-5.5192704 23.100967 -1.0476674
-5.5615873 23.606737 0.85980743
-5.5542331 23.654144 0.28242606
-5.5445843 23.401943 0.066919088
-5.6493888 23.488186 1.6702411
-5.3497834 22.858934 -0.032762788
-5.566359 23.60841 0.36141106
-5.4620776 23.195444 -0.65231597
-5.2073689 22.625488 0.26335102
-5.5179744 23.102499 0.048730329
-5.503231 23.098047 0.34346491
-5.4120636 23.015112 1.8304471
-5.4349675 23.323795 0.38982573
-5.4487243 23.122261 -0.72961038
-5.5671439 23.599609 -0.9371708
-5.6340876 23.611578 -0.63840681
-5.2494669 22.782042 0.051140126
-5.330986 22.715689 1.5616894
-5.475771 23.266502 -0.83698916
-5.4117608 22.789457 1.2628862
-5.2605443 22.797852 -1.0365798
-5.6052504 23.281815 -0.021145625
-5.2548847 22.764936 0.26937062
-5.3480825 23.002024 -0.63241851
-5.4443278 23.209408 1.2564461
-5.5148401 23.128933 -0.52573472
-5.3643813 22.878361 -0.61336446
-5.5554876 23.008188 0.15426213
-5.4963236 22.994709 -0.98329973
-5.4524331 23.088867 -1.0527761
-5.2539511 22.69791 1.2404177
-5.6252432 23.378574 1.1689937
-5.563467 23.600286 -0.72371823
-5.3970528 22.799026 -1.5395693
-5.4123139 22.794491 -1.4297142
-5.6132956 23.666164 0.65785283
-5.461277 23.259399 -0.24584806
-5.4771352 23.28726 -0.73101783
-5.4126654 23.291664 -0.13815084
-5.3266807 22.868679 -0.33493
-5.3398013 22.721416 -1.237639
-5.6129999 23.533627 -2.0635798
-5.4309325 23.082819 0.25428924
-5.5531263 23.59721 -0.53529179
-5.2492018 22.800167 -1.3594283
-5.6382995 23.664764 -0.54008394
-5.3993287 22.793385 1.3375096
-5.4604368 23.185505 0.47563121
-5.6671801 23.768461 0.19112757
-5.4197946 22.787279 1.8635898
-5.4254222 22.892006 -0.8537451
-5.3240733 22.73196 -1.5450655
-5.4145341 22.790276 -1.7607521
-5.3289604 22.784065 -1.4331861
-5.4743257 23.386436 0.77705276
-5.4438238 22.978388 -0.95245868
-5.2569847 22.754787 0.78663546
-5.4644804 23.671747 1.5250244
-5.3429728 22.880966 -0.46206671
-5.2410131 22.771339 0.69276386
-5.5932655 23.205379 0.053313188
-5.5198131 23.199156 -0.53390533
-5.6188669 23.665421 1.3605641
-5.3282733 22.723314 -1.6457829
-5.3528109 22.862988 -2.0054798
-5.6058931 23.240276 0.51116693
-5.609664 23.605747 1.2554584
-5.5429401 23.289307 -1.0483296
-5.3455162 22.854422 -0.53351831
-5.2703314 22.770199 -1.7479923
-5.4090037 22.885773 0.37622991
-5.6211443 23.616131 0.060519744
-5.251195 22.760891 0.37352955
-5.4262581 22.984634 -0.65588069
-5.4100752 23.109539 1.5694584
-5.4529123 23.394276 1.2673724
-5.4114456 22.90522 1.0808764
-5.3795824 23.312725 -0.90393484
-5.6363697 23.665609 -0.74231547
-5.3981304 22.892954 1.1550162
-5.5176139 23.273865 -0.92434388
-5.4634099 23.186907 0.2446883
-5.458837 23.188316 0.048194308
-5.4186182 22.894812 1.3494812
-5.5653496 23.672129 -0.5505718
-5.5632386 23.595549 0.66132265
-5.5711398 23.661764 1.4997184
-5.5728421 23.676472 -0.34033147
-5.5654416 23.521118 -0.5394581
-5.6204028 23.515255 1.7508886
-5.5710211 23.672844 1.1643997
-5.5715418 23.673037 0.66879904
-5.5636692 23.494822 -1.1373509
-5.511838 23.126307 -0.63707507
-5.5741663 23.658888 0.5617823
-5.5687857 23.66795 -0.24868831
-5.5793915 23.678341 -0.43553177
-5.4333935 23.255182 -0.41542086
-5.5260196 23.032663 -0.14524135
-5.415719 23.086597 1.2683339
-5.505527 23.124552 -0.74060774
-5.5169301 23.12554 -0.84230208
-5.5243864 23.198841 -0.73477995
-5.4441004 23.291897 -1.3673092
-5.6038117 23.602791 1.7679526
-5.3515334 22.863213 0.34550822
-5.5211892 23.0856 -0.94137955
-5.6207228 23.666477 1.7718406
-5.4478006 23.099722 0.1593271
-5.5628858 23.670382 0.1628114
-5.5600452 23.607193 1.1599404
-5.2377224 22.852604 -1.1513333
-5.5830879 23.150042 1.1601378
-5.5310502 23.293243 0.565611
-5.2701454 22.670734 -1.0506434
-5.4215178 22.985947 1.2555381
-5.6353364 23.615332 -1.2430948
-5.4444366 23.096786 1.1517915
-5.6220708 23.39632 -0.96071911
-5.6888127 23.347376 -1.140152
-5.5256076 23.09762 -1.4603249
-5.44175 23.106298 0.075147048
-5.50635 22.992926 -0.26035175
-5.5234089 23.196404 -1.1252289
-5.4511828 23.172953 0.82977825
-5.3942986 22.789747 1.5626421
-5.5699434 23.604382 -0.441019
-5.5208392 23.288326 0.16231503
-5.4295621 23.55662 -2.0696993
-5.3847828 22.864471 1.9505572
-5.4359574 23.118145 -0.14664207
-5.459981 23.19466 1.08163
-5.5047326 23.010838 -0.34418243
-5.5109577 23.295181 1.1470199
-5.5016403 23.00584 1.2442155
-5.4031777 22.739525 1.1759098
-5.4136524 22.876524 0.066507243
-5.2167711 22.859518 0.68223298
-5.4126883 22.710278 1.26262
-5.4207335 23.001791 1.1432539
-5.6198597 23.624552 -2.0409255
-5.3384004 22.778584 -1.5447673
-5.4446077 22.99082 0.65001529
-5.5206995 23.120285 -0.24714373
-5.5530038 23.493704 1.150811
-5.4515615 23.088821 0.67632794
-5.5377417 23.506586 0.85615373
-5.5401835 23.664539 -2.1438181
-5.606349 23.222878 0.8504734
-5.4648576 23.191135 1.157734
-5.422924 22.696817 -1.5275935
-5.5161304 23.131613 0.85810041
-5.5027905 23.218372 1.1397618
-5.5506139 23.577885 -2.3148084
-5.5071969 23.196636 1.0618781
-5.5375071 23.282974 -1.1336747
-5.5088663 22.902611 -1.139173
-5.5234203 23.019053 -0.54386091
-5.4327316 22.971561 1.9114169
-5.4777837 23.422049 0.046815183
-5.4075108 23.012745 1.4749762
-5.3930058 22.788256 1.0583721
-5.4157906 22.891193 1.631206
-5.5576119 23.608551 -1.3435941
-5.4992208 23.012918 -1.0427608
-5.4172797 22.865139 1.6033075
-5.6141839 23.495842 1.0674366
-5.649045 23.757044 -0.331375
-5.6420722 23.613501 -1.1445347
-5.6087317 23.21508 -0.44563991
-5.5870428 23.185923 -0.66130435
-5.5918984 23.124733 -0.6484074
-5.5990653 23.383389 -0.53943819
-5.3302846 22.851032 -1.6678659
-5.5926642 23.40262 -0.2432884
-5.5883827 23.107069 -0.25403929
-5.5525131 23.389507 -0.64510077
-5.3354206 22.87373 0.23162821
-5.5943995 23.410862 -1.12893
-5.529655 23.38731 -0.54889214
-5.4509282 23.183329 0.9714306
-5.598094 23.17646 -0.72810006
-5.6209984 23.507732 -0.34487504
-5.545702 23.395624 0.66473532
-5.3398604 22.806259 1.8741174
-5.3946905 23.013756 1.6605142
-5.5564966 23.507254 0.66862726
-5.4210095 22.898363 -0.033459287
-5.3839736 22.711485 1.3480977
-5.5151739 23.199049 -0.24002536
-5.413847 22.876616 1.466453
-5.5527802 23.497101 0.5756312
-5.5335979 23.29199 -0.33957773
-5.5642095 23.503664 0.060992673
-5.5511971 23.478069 2.2077863
-5.5178261 23.095322 0.67247736
-5.5502205 23.475269 1.3602502
-5.5576224 23.514637 -0.44057763
-5.5541825 23.510553 0.25493622
-5.5147638 23.134727 -0.13687158
-5.4341755 23.231701 2.1259935
-5.6566873 23.780575 1.9946576
-5.618175 23.506491 0.45945981
-5.5386705 23.508579 2.2175567
-5.5560794 23.48719 1.0845793
-5.335319 22.782822 1.9656518
-5.5603218 23.516354 0.15329222
-5.3256683 22.875465 1.3440101
-5.3462224 22.90066 1.264693
-5.4180965 22.982525 1.5511115
-5.3850894 22.667355 1.8135959
-5.615798 23.772345 -0.64421219
-5.4503813 23.164509 1.4751452
-5.4355445 22.908274 2.0814118
-5.4594269 23.201878 -0.13439737
-5.2915382 22.641037 1.2176449
-5.5122113 23.200581 -1.2276589
-5.4642816 23.03702 0.9787066
-5.5292649 23.284922 -0.016140532
-5.5119748 23.114584 0.55008578
-5.6012106 23.183136 -1.0458851
-5.2640643 22.700232 -2.0117843
-5.4472437 23.203417 1.3371868
-5.4569025 23.185162 1.6490092
-5.5292187 23.28738 -0.83457601
-5.4478607 23.234274 2.1106808
-5.4650326 23.223516 1.5870452
-5.4646597 23.175919 1.7789463
-5.4481173 23.156424 1.897145
-5.614038 23.359493 1.6590326
-5.4117689 22.991884 -0.52396739
-5.432766 23.113161 -0.52754688
-5.5730095 23.489603 -0.34172076
-5.2716532 22.793015 -2.1288478
-5.2249203 22.571445 -2.2483444
-5.4259491 22.854322 -2.2352612
-5.5595431 23.606369 -1.8376788
-5.5047898 23.483183 -1.9157895
-5.486517 22.986927 -0.004104984
-5.5185089 23.370245 -1.4595792
-5.4457159 23.103163 0.45541221
-5.4046307 22.878479 -0.55159861
-5.4072046 22.781336 -1.9356737
-5.4146299 23.177366 -1.9140482
-5.3114128 22.743156 -2.1582212
-5.5576043 23.596844 -1.5529916
-5.1626863 22.52416 -2.2802293
-5.5516329 23.500977 -0.63890517
-5.3157916 22.730679 -1.848049
-5.5154104 23.383387 -1.7238705
-5.5589366 23.61614 -1.7213113
-5.3857713 23.081018 -2.0333674
-5.4638138 23.322685 -2.0396488
-5.3133988 22.731045 -1.7349355
-5.4198747 23.121513 -1.819533
-5.4684663 23.286438 -1.7403774
-5.5471611 23.396597 -1.2449713
-5.4162893 22.98171 -1.5328044
-5.3253293 22.705042 -2.1994014
-5.5427122 23.491997 -1.8419875
-5.5648303 23.510141 -1.2585106
-5.411027 23.099049 -1.7496487
-5.4076672 22.984993 1.3769704
-5.6197953 23.384403 0.56754994
-5.5011258 23.239204 1.9099513
-5.6003876 23.310715 -0.83908665
-5.5622411 23.497297 -0.8131606
-5.267478 22.680487 1.9774785
-5.5505204 23.518383 -0.14942221
-5.5413132 23.491993 -1.7510533
-5.543016 23.510429 -1.3399346
-5.3196797 22.776566 -1.7319331
-5.3866177 22.927124 -1.925912
-5.2717152 22.688349 -1.1251292
-5.5656433 23.499475 0.35831589
-5.4452305 23.329027 -2.223176
-5.6051607 23.348705 -2.2295847
-5.3826685 22.929012 -1.8027772
-5.4364347 22.97835 -1.6392617
-5.4753323 23.349943 -1.6370888
-5.2682996 22.703503 -1.3530943
-5.5516405 23.387302 -2.1474044
-5.5540609 23.496449 -1.6216785
-5.5724444 23.508026 -2.0652277
-5.4120326 22.978075 -1.7242255
-5.6182318 23.528301 1.5593264
-5.3770428 23.103174 -1.8314935
-5.4157281 22.959879 -2.1790047
-5.2610006 22.707088 0.95177317
-5.5146236 23.401018 -1.9000385
-5.6158581 23.678799 1.6478814
-5.5081892 23.276505 -1.3368692
-5.357007 22.990995 -2.1032753
-5.3426547 23.023525 -1.8503695
-5.4332142 22.993696 0.07302741
-5.5715532 23.269222 1.6013654
-5.4575624 23.008762 -0.15956217
-5.5181484 23.277958 1.4488791
-5.5570679 23.302158 1.0028211
-5.4220939 23.005487 0.76074284
-5.423316 22.883081 0.14852145
-5.6038256 23.307068 -1.0251827
-5.4942369 23.265114 1.851037
-5.5528827 23.512115 -0.92602122
-5.57057 23.640984 -2.2285585
-5.3324714 23.163733 -1.7233397
-5.2654452 22.727575 1.169912
-5.2521791 22.730867 1.3455169
-5.5268474 23.245844 2.1784303
-5.4659252 23.529263 -0.29449755
-5.5574384 23.429289 1.6756434
-5.5163732 23.3792 2.2336106
-5.5160084 23.45203 1.617855
-5.5661116 23.564941 1.8324649
-5.5709634 23.648514 1.5879871
-5.3676848 22.915668 1.4758487
-5.2840757 22.643883 1.7613308
-5.6298623 23.499149 -0.55098462
-5.5244241 23.198343 -0.63192362
-5.4196792 22.863338 -1.3129188
-5.5749688 23.509995 0.97427046
-5.5367899 23.375937 0.98001409
-5.4442534 23.111225 -0.94278437
-5.4167228 23.105431 -1.4552038
-5.5239396 23.200838 -0.9358108
-5.3172784 22.586824 -1.7768945
-5.3669949 23.225327 -0.4495177
-5.4604344 23.123686 -0.45226979
-5.2238569 22.809959 -1.1148974
-5.3449917 23.117344 -1.9781094
-5.4508786 23.18314 -1.4388487
-5.4487996 22.996655 -1.4533937
-5.2452068 22.875725 -0.10247017
-5.4806576 23.122486 1.3165369
-5.6117015 23.30784 0.16833937
-5.2285957 22.640808 1.2283009
-5.4213924 22.974144 -0.3488571
-5.4560866 23.179728 0.60288846
-5.5948091 23.316412 -0.63458079
-5.5058966 23.002663 -0.71258378
-5.6850257 23.684481 1.9303678
-5.5275669 23.291733 0.666022
-5.3921542 22.701252 -2.0421064
-5.6124916 23.401455 -0.84381533
-5.5742207 23.659081 1.9962246
-5.5010853 23.10244 -1.1474088
-5.4674335 23.327017 2.0849748
-5.4985003 23.338537 1.9363825
-5.5238547 23.373711 1.9151828
-5.4313726 23.004446 2.0460143
-5.3115411 22.709557 1.6574972
-5.5325899 23.424192 1.8678044
-5.4952512 23.136255 -1.3851339
-5.6117067 23.657267 1.9496355
-5.60602 23.388632 -0.42180926
-5.6084347 23.282421 0.055177927
-5.3416514 22.76705 0.86131287
-5.3396831 22.766235 0.96527135
-5.4679084 23.199165 -1.1415126
-5.583005 23.302425 0.24506629
-5.2625103 22.692999 -1.5352464
-5.4510336 23.511248 -0.88686436
-5.5884662 23.397318 0.51072961
-5.5870099 23.29884 0.65602553
-5.5141277 23.141754 -1.2442884
-5.6285982 23.517563 -1.122808
-5.6112447 23.272404 0.53004849
-5.6050262 23.397078 -0.65142161
-5.6014628 23.322418 -0.93319166
-5.5403576 23.516178 1.7546229
-5.3301787 22.770527 1.3588799
-5.3377571 22.768684 1.4560082
-5.2705879 22.697273 -1.2795361
-5.4523582 23.130732 -0.84953785
-5.4622431 23.090393 -1.1501517
-5.7881203 23.770924 -0.56113958
-5.3981714 23.046362 1.708584
-5.6009073 23.304762 0.37363636
-5.3382916 22.789 1.5546994
-5.4558125 23.268585 1.3724331
-5.4608822 23.190763 -0.83763433
-5.3977814 22.8638 -1.232245
-5.3389206 22.627457 -1.082058
-5.5788145 23.664034 1.744145
-5.2773829 22.846903 -1.3951139
-5.4642458 23.19767 -1.0209054
-5.4638839 23.290705 0.64048159
-5.4499149 23.254427 -0.33026341
-5.2653694 22.790827 -0.031923931
-5.6109953 23.130297 -0.72864985
-5.2684593 22.768045 1.0411228
-5.2500496 22.762831 1.1758842
-5.4755177 23.251671 0.22105247
-5.2482982 22.778473 0.8528173
-5.536571 23.372494 -1.5319703
-5.2562594 22.788998 -0.14862916
-5.3195553 22.720079 1.3616359
-5.4989405 22.998871 0.37133747
-5.241888 22.777981 0.95106745
-5.5626793 23.608961 1.6180375
-5.461277 23.280773 0.1740758
-5.4715772 23.292929 0.84305555
-5.5232158 23.388821 1.0736338
-5.4791222 23.411261 -1.8230476
-5.4953547 23.227722 -1.8092606
-5.4826455 23.030523 -0.62975478
-5.622561 23.500725 -0.63972521
-5.626864 23.740957 -2.2858381
-5.354857 22.89723 1.9452685
-5.5674071 23.582832 1.5430195
-5.6530037 23.132362 -0.33058044
-5.6274796 23.497431 -1.0429877
-5.6123171 23.525881 -1.5167332
-5.476634 23.245752 1.0825105
-5.6096163 23.100082 -0.46044603
-5.6086259 23.504953 0.36023021
-5.6281233 23.509567 0.54182476
-5.6238279 23.51963 -0.83656275
-5.5968347 23.508436 1.1412748
-5.6174769 23.497927 -0.23525669
-5.4545555 23.132803 -1.2099851
-5.2783499 22.785656 -1.6127584
-5.4603019 23.188419 0.1472505
-5.4584794 23.520256 -0.59066379
-5.3265486 22.772963 -1.6445127
-5.3273549 22.783903 -1.8489723
-5.465735 23.186466 0.66475052
-5.3891573 22.879053 -1.5779864
-5.4798598 23.355932 1.5589244
-5.5175891 23.395582 1.3704798
-5.3146253 22.713696 1.4679925
-5.5303755 23.385616 1.1523021
-5.4677343 23.466139 -0.27704513
-5.4433126 23.301271 -1.8691459
-5.528419 23.512466 -1.5359674
-5.4440842 23.025785 0.56691206
-5.4497256 23.267006 -0.53470165
-5.4617372 23.27702 -0.63070273
-5.4485688 23.261522 -0.93987828
-5.4806075 23.13106 1.1868066
-5.315824 22.737074 1.9754988
-5.6252503 23.288212 -1.1512119
-5.5279789 23.201155 -0.83684272
-5.4583664 23.272617 0.06001861
-5.7100978 23.80117 -0.2325854
-5.6518412 23.751554 0.09406402
-5.5052791 23.281574 1.2370713
-5.4518986 23.185846 -0.53419733
-5.7213817 23.476139 0.26512718
-5.3532481 22.890808 -1.7519813
-5.4352393 23.28928 0.57462448
-5.560101 23.553265 1.961026
-5.5318031 23.295799 -1.7651857
-5.4371691 23.203899 -1.5133736
-5.5635624 23.6215 1.3633609
-5.5652599 23.610163 0.56330013
-5.4535985 23.267817 -1.4293711
-5.4495244 23.447397 1.2596396
-5.5570674 23.392071 -0.33510575
-5.299458 23.011477 -1.7475518
-5.5306883 23.666691 -0.73220599
-5.4506321 23.188154 -1.2302648
-5.6979628 23.791349 -0.35109732
-5.7432899 23.81419 -0.39073685
-5.7246957 23.790236 -0.5303117
-5.5403175 23.498478 -1.449407
-5.4027243 22.830311 1.464558
-5.4539967 23.130449 -0.24503714
-5.4649386 23.1896 -0.73626184
-5.5597816 23.706444 -1.16436
-5.5670505 23.674541 -0.14413036
-5.5585713 23.673433 -0.057358559
-5.5692325 23.604635 -0.65625596
-5.5652361 23.605398 0.16995975
-5.5670362 23.586765 -0.24388358
-5.5672874 23.604397 -0.34623024
-5.5718174 23.698877 -0.84059501
-5.579792 23.724745 -1.0510956
-5.6189799 23.268906 -0.55650055
-5.5677037 23.587782 -0.14526835
-5.5485373 23.672668 -1.340422
-5.2523298 22.704218 -1.747395
-5.5613823 23.593767 -0.033781171
-5.548316 23.386782 -0.43848544
-5.5561237 23.393124 -0.15715201
-5.3616848 22.877747 1.1457633
-5.2699509 22.778214 -2.0410492
-5.3413115 22.900787 1.054106
-5.3420377 22.99498 1.2744071
-5.3612924 22.918699 1.6536043
-5.3705416 23.037952 1.3421204
-5.3600702 22.874086 1.8812041
-5.342988 23.025593 1.2027404
-5.4951282 23.144239 0.95899981
-5.4857035 23.143429 1.0726379
-5.352138 22.867514 0.67862964
-5.5225897 22.924171 1.0440217
-5.3593602 23.014095 1.0343714
-5.3495445 22.88002 0.57110965
-5.4574494 23.306442 1.5447589
-5.5131407 22.930515 0.41638437
-5.322876 23.021969 0.50472057
-5.5121789 23.200727 0.56365275
-5.5219727 23.187954 0.25585896
-5.5120573 23.195477 0.65356219
-5.5072651 23.195881 0.3537333
-5.5121474 23.200899 0.056345876
-5.2417803 22.800341 1.2513509
-5.4865913 22.87937 -1.0279368
-5.503552 23.19817 0.87053633
-5.3929834 22.897076 -2.0163136
-5.4280896 23.525467 -1.1191096
-5.4019108 22.887716 -2.1052566
-5.4367833 23.51335 -0.98137933
-5.4606504 23.181973 0.368081
-5.523654 23.209398 -1.4338559
-5.4292445 23.295465 -2.3359001
-5.4328814 22.989111 0.25713694
-5.4583793 23.389099 -0.81398582
-5.5116262 23.284899 0.75398004
-5.6026468 23.499624 -1.3698752
-5.5908031 23.407249 0.048799068
-5.5644407 23.607571 2.0592196
-5.271543 22.691757 1.4505299
-5.522799 23.218948 -1.6335732
-5.244925 22.71941 1.0611899
-5.6237311 23.511692 -0.43561512
-5.6075191 23.505039 -0.027728003
-5.4329081 22.982189 0.16615371
-5.6030211 23.400208 0.64948785
-5.266777 22.873812 0.7451055
-5.404242 22.719494 -2.1446078
-5.6215334 23.344707 0.74925679
-5.6014132 23.387323 -1.0381675
-5.5417829 23.124891 -1.5516855
-5.1968622 22.559721 -2.1308169
-5.2124453 22.85635 0.58325982
-5.6237869 23.515671 0.071132183
-5.2545447 22.727228 -1.8501571
-5.2789192 22.840834 -1.5340072
-5.5199542 23.305412 1.0823817
-5.3387523 22.765623 1.0597194
-5.3241487 22.766283 1.258083
-5.707654 23.764416 0.34024021
-5.2993374 22.85437 -1.9406567
-5.4595342 23.18873 -0.032280326
-5.577961 23.563309 1.802616
-5.3269186 22.80912 2.082093
-5.4156704 22.990578 1.0900919
-5.4262848 22.981617 -0.22754106
-5.6029525 23.510956 -1.2399315
-5.615612 23.42382 0.16794924
-5.5845952 23.3981 0.92420995
-5.5701485 23.567125 2.1800249
-5.4717174 23.379908 -1.9191941
-5.5337801 23.296604 0.35987967
-5.4890323 23.23229 1.9746383
-5.4538641 23.194239 -1.3244098
-5.463079 23.196135 -0.43922201
-5.573329 23.819794 -0.077034973
-5.353179 22.886841 0.15929866
-5.3970079 22.992535 -1.8715136
-5.4636216 23.265722 1.1632321
-5.2595057 22.770176 0.4532204
-5.2627888 22.782274 -2.2312644
-5.5709295 23.682701 -0.93901241
-5.2760072 22.778885 -1.9390237
