# .PCD v0.7 - Point Cloud Data file format
VERSION 0.7
FIELDS x y z
SIZE 4 4 4
TYPE F F F
COUNT 1 1 1
WIDTH 1095
HEIGHT 1
VIEWPOINT 0 0 0 1 0 0 0
POINTS 1095
DATA ascii
-1.3356487 5.574235 0.010122321
-0.91222757 4.4410453 0.68831557
-0.64630449 4.0883231 -0.44411069
-1.0900253 4.9362936 0.56708938
-1.0484476 4.6805506 -0.40262938
-0.99299484 4.6933975 0.37912926
-0.47786248 3.3797281 0.087385736
-1.1644338 5.4475193 0.18632142
-0.91705948 4.5571833 0.28329095
-1.2790203 5.7067647 1.5580359
-0.86995649 4.5684414 0.44347778
-0.16476122 2.5788271 -0.17817686
-1.282372 5.4991369 1.2707675
-1.0548605 5.1785765 0.091350727
-0.68403214 4.4043345 -0.39296323
-0.65356278 3.8636327 0.38334337
-1.2512259 5.4927711 0.88095737
-1.0739301 4.8637366 -0.13936217
-0.36139959 3.0695658 -0.52053136
-1.2942615 5.5957108 0.89292723
-0.74635619 4.0814052 0.48120368
-1.2407179 5.2651424 -0.101896
-0.17472814 2.4597316 -0.40685195
-1.3124688 5.5217299 0.073589496
-0.93333995 4.5840998 0.78598338
-0.569175 3.5595434 0.19996653
-0.84526873 4.6787167 -0.21552184
-0.71461999 3.9826403 -0.005545266
-0.7713964 4.0631857 -0.61699587
-1.2707473 5.3622394 0.05709013
-1.1691873 5.0660062 -0.12307815
-1.1352429 5.4557438 0.28643435
-1.2690964 5.3789654 0.17332204
-0.9197104 4.3845448 -0.51992577
-0.77195507 4.0573645 -0.55436963
-1.1409693 5.4573159 0.3488428
-1.2669553 5.5759768 0.9469738
-1.2855012 5.5411692 0.99228716
-1.2968345 5.4185343 0.25654063
-1.3199213 5.4890809 0.28022403
-1.1398352 5.4085994 0.36368811
-1.0878897 4.8247294 -0.24615037
-1.0087452 4.7898498 0.46469194
-1.2084322 5.3022633 1.2438244
-1.0476453 4.8909984 0.97774225
-1.233902 5.4125361 0.85596067
-1.101007 5.0176129 0.64377737
-0.94879568 4.7060575 0.45412946
-0.99731904 4.7106299 0.44895709
-1.200834 5.3005638 0.77674127
-1.1504775 5.013669 -0.12841305
-1.0983124 5.0014758 1.0397635
-0.71879923 3.9809895 0.45712748
-1.3089763 5.5934038 0.97968239
-1.0526766 4.8953519 0.57225621
-0.92715108 4.5936956 0.37109053
-0.89333963 4.4186821 0.74366838
-0.56250525 3.5911701 0.26316035
-0.9018873 4.4442329 0.40251681
-1.0162215 4.7900157 0.96449351
-1.083415 4.9259381 0.99598235
-1.0709223 4.9339609 0.33097476
-0.61669487 3.6896434 0.29272717
-1.2384787 5.3780966 0.35710314
-1.171241 5.42693 1.1151609
-1.258051 5.386939 0.27238604
-0.75014955 4.0952711 0.56587434
-0.90032423 4.3236709 0.38228559
-1.3589665 5.3408661 0.23025307
-0.71082401 3.827527 0.065432414
-0.97942036 4.9547324 0.71361142
-0.937029 4.6019101 0.85674345
-1.3309845 5.5641308 0.11252993
-0.77075559 4.2665215 0.76144505
-0.58920312 3.5318902 -0.67976034
-0.10125168 2.8196635 -0.68161827
-0.092287555 2.2180729 -0.44091859
-0.95868653 5.07968 0.38315576
-0.30783138 2.8919361 -0.53320426
-1.2616591 5.5689421 1.320379
-1.064526 5.2338686 0.6528998
-1.093429 5.0016503 0.97313738
-0.99164557 4.7178984 0.73885906
-0.96310556 4.5525346 0.072456703
-1.2477021 5.631249 0.6999917
-0.6950804 3.9099224 0.061838843
-0.66195846 3.8811581 0.45056164
-0.47014615 3.3686254 0.15779305
-0.3917197 2.9084582 -0.045097902
-0.94482726 4.6622725 0.043173663
-1.3359325 5.8514242 1.5046625
-1.2528763 5.4902301 1.2707334
-0.67601609 3.966553 0.67071652
-1.1681303 5.3867135 1.227851
-0.96077347 4.6925821 0.85428333
-1.0962081 4.9289055 0.4432584
-1.2671474 5.6904697 1.4583977
-1.2178588 5.3980212 0.78729689
-0.94840252 4.701097 0.74851954
-0.93533981 4.9374933 0.56707925
-0.85102141 4.3994732 0.66950798
-1.033942 4.8697934 0.46388212
-0.76906663 4.2783308 0.46619558
-0.76677197 4.1761179 0.48158646
-0.9208855 5.0105791 0.55045021
-1.056915 5.3219404 0.74623966
-1.2962432 5.6123686 1.3617309
-0.95624524 4.7028108 1.2947191
-0.94715303 5.0522223 0.66494089
-0.91130733 4.5001388 0.76692069
-0.85856879 4.7808046 0.44323343
-0.84494197 4.7118001 0.49440622
-1.3398279 5.6253405 1.7486705
-1.0980529 5.0371494 1.4313495
-1.2312543 5.3968258 1.2632582
-1.1062992 5.0955763 1.0454463
-1.0108902 4.8033614 0.87229252
-0.8984102 4.4965043 0.67153293
-0.87007207 4.7689242 0.37808344
-1.0699675 5.3153667 0.58688056
-1.2706327 5.4133224 0.67328387
-0.32214931 2.8884568 -0.12174188
-1.0874516 5.1411185 0.50141114
-0.69551051 3.9072263 0.73701417
-0.58966357 3.3880031 -0.52447873
-0.35792553 2.9821186 0.25722021
-0.332775 2.903034 0.24635512
-0.33463317 2.9757864 0.3553282
-0.23965815 2.6836634 0.14704515
-0.053515483 2.2048957 -0.46258193
-0.81896406 4.7590551 0.099296995
-0.89595044 4.2809095 -0.60485542
-0.36500216 3.0815666 0.057734005
-0.2841242 2.8286054 -0.55469912
-1.2992909 5.5024762 1.3735782
-0.86308163 4.484673 0.35633433
-0.87770325 4.5189543 1.0516827
-0.64878201 4.1524429 -0.50716001
-0.26866901 2.8313789 0.23612568
-1.0148401 5.2484412 0.64058781
-0.42028055 3.1896126 -0.43489498
-0.15195219 2.5310514 0.020632604
-0.76903433 4.3417945 0.53610259
-0.72210211 4.3930964 -0.32052672
-0.69850171 3.9108577 0.44667619
-0.76067948 4.1631732 0.66495943
-0.76722085 4.1701908 0.57205921
-0.057496108 2.2755637 -0.37682542
-0.028469082 2.1624379 -0.49508965
-0.21831825 2.6025479 -0.22954372
-0.82806444 4.2924404 0.65201551
-0.22366075 2.5866761 -0.31178406
-1.0946096 5.010571 0.57637322
-1.4043045 5.7475133 1.4428794
-1.321467 5.5972128 1.2339013
-1.1965483 5.2385507 1.5830106
-1.1873156 5.2748947 1.5583692
-0.50755894 3.1733932 -0.56458938
-0.52892601 3.3841021 -0.75530988
-1.1277217 5.2338734 1.633072
-1.1655258 5.2254047 1.5371572
-1.0656625 5.1225085 1.1010773
-1.0938569 4.9949613 0.77005386
-0.65994209 3.8914418 0.57322204
-1.2107955 5.3396811 1.6143776
-1.0448724 5.0693364 0.6270743
-1.0614839 5.0842304 0.98122513
-0.39458644 3.477325 -0.5996052
-0.69455665 3.8823316 0.37499896
-1.075604 5.1031718 1.2103851
-1.1175953 5.0928006 0.65598196
-1.1400404 5.2776051 1.6457342
-1.0689189 4.9897413 1.0337458
-1.1533544 5.28967 1.1725734
-0.27929088 2.8590415 -0.10017579
-0.8623051 4.5865054 0.7047388
-0.78436118 4.0293918 -0.59967101
-0.97224867 4.6355844 -0.070714511
-0.90566146 4.5106397 0.3477352
-0.39942607 3.4269772 -0.62925559
-0.31369302 2.8500154 -0.59374249
-0.6219787 3.4673321 -0.51898998
-0.20616634 2.4984367 -0.33100462
-1.1882039 5.2030983 1.1511341
-0.35343567 3.0057597 0.14795935
-0.90360743 4.492259 0.28949746
-0.29886883 2.7742646 -0.21283199
-0.47136509 3.4728279 0.35725856
-0.36604616 3.0851932 0.14264117
-0.34425685 2.9875221 -0.039934091
-0.33123061 2.8879976 -0.2303251
-0.85010165 4.5486135 0.57952499
-0.83823615 4.1959195 -0.63169783
-0.35325304 3.4831901 -0.33757553
-0.57255495 3.4904172 -0.84785962
-1.253324 5.4877825 1.6391549
-1.2063335 5.3088493 1.1884207
-0.15481575 2.4841394 -0.32001883
-1.2262144 5.4900875 1.7576048
-0.94849092 4.468307 -0.5083679
-0.24138731 2.6749592 -0.30849689
-0.17060207 2.5677907 -0.23854811
-0.24178569 2.6912959 -0.22279546
-1.2067676 5.4248581 1.7967038
-0.61809421 3.6199899 -0.74474519
-1.1318443 5.3959532 0.77948546
-1.2220356 5.3985658 1.1609601
-1.2260131 5.3879061 1.3522311
-1.2312771 5.6122127 0.76794273
-1.2587737 5.4854074 1.4577578
-1.2524269 5.4746428 1.3690064
-1.2663902 5.4043431 0.54820961
-1.3315213 5.9039521 0.87355977
-0.90201485 4.3162656 -0.24124151
-1.224849 5.4031615 0.96527988
-1.2264016 5.7019701 0.74809206
-0.90207851 4.3121586 -0.52523887
-1.0531925 4.9062872 1.0615151
-0.59115207 3.5983963 -0.21990414
-1.2238948 5.6903596 0.86116368
-0.80497313 4.1953969 0.58652246
-1.0416529 4.8945203 1.2605231
-0.52750295 3.4968319 -0.23843539
-0.74038154 4.0636129 -0.15895578
-0.61415106 3.7070868 -0.13158892
-0.73155469 4.0921793 0.17836611
-0.49793023 3.7693279 -0.41697043
-0.55234146 3.590723 -0.21893124
-0.52760041 3.4728758 -0.30771318
-0.64571005 4.1665936 -0.44656953
-0.57643086 3.4905181 -0.70021254
-0.67435497 3.7624726 -0.6519354
-1.1940272 5.2385473 0.8989448
-0.40713906 3.5048807 -0.53577399
-0.42844006 3.192699 0.059813268
-0.35191914 3.0840316 -0.4287332
-0.33215898 2.9789364 -0.51154459
-0.29740274 3.2844641 -0.5331533
-0.35425112 3.4167557 -0.51491773
-0.09645047 2.8051329 -0.69919837
-0.15673578 2.8373857 -0.45926288
-0.62011164 4.209312 -0.22711776
-1.1441267 5.1933022 1.3601611
-0.14563076 2.3944936 -0.40506056
-0.61136109 4.1054397 0.12359956
-1.0358649 5.0881972 0.19437806
-0.7948662 4.0050678 -0.72269464
-0.52450383 3.3660212 -0.80846995
-0.73851639 4.0968485 0.3387377
-0.67448312 4.2509398 -0.29591155
-0.41415337 3.4936249 -0.16984659
-0.5374983 3.5114448 -0.048619524
-0.34823158 2.995204 -0.33368033
-0.55991066 3.5075119 -0.5608092
-1.0093887 4.8013806 0.74878019
-0.67281282 3.9530923 0.43520224
-0.32814351 2.9020557 0.050191246
-0.61089611 3.7011826 0.35553882
-1.2909068 5.5381398 1.0790569
-1.0569807 4.9857149 0.97861928
-0.84581834 4.3984365 0.45274898
-0.16304949 2.9042587 -0.44026506
-0.69413477 3.8134987 0.45785069
-1.0106422 4.8018022 0.662265
-1.0638615 4.9789701 1.2565758
-0.95471954 4.4883351 -0.44371739
-1.0798033 5.0894737 1.4259751
-1.3916503 5.638658 1.5650766
-1.2084895 5.2022839 0.62985611
-0.69185734 3.8148978 -0.82374871
-1.0839902 4.9394822 0.79665905
-1.2438635 5.281014 0.34739661
-1.2143919 5.1726389 -0.10447036
-1.2018354 5.1674986 0.56335998
-1.1091715 5.1166925 0.95037735
-0.37378865 3.5541959 -0.48043591
-0.11447674 2.3059552 -0.41068408
-1.2492448 5.2970524 0.24600461
-0.56915629 3.6659031 0.38087675
-0.17087223 2.9378235 -0.38753405
-0.21897832 3.1189549 -0.54107428
-1.3919519 5.6428714 1.4485793
-0.99358225 4.6980543 0.64545119
-1.0800819 4.9203653 1.0528301
-1.1423985 5.4124641 0.65009844
-1.2677772 5.415916 0.46434024
-0.32590604 2.9001606 -0.34013185
-0.93320757 4.5909238 0.9665128
-1.1394308 5.1600256 0.34291536
-0.3467505 2.9880097 0.065991625
-0.90309489 4.3073711 -0.34869155
-0.27369693 2.7727387 -0.19832827
-0.3242577 3.3965056 -0.42586088
-0.31315187 2.9136193 -0.45798823
-1.1697075 5.2869864 1.3779333
-0.61054295 3.6847906 0.13605112
-0.35865328 2.9897623 -0.095607027
-0.88616234 4.4200497 0.20326111
-1.1445206 5.6264162 0.7824077
-0.14730582 2.465317 -0.60197163
-1.111623 5.1013379 0.86075783
-1.2300423 5.461843 0.96581191
-0.73701 4.4101324 0.16084389
-0.20421395 2.5019424 -0.23825432
-0.20624729 2.4966426 -0.13908654
-1.1465921 5.4700079 0.47074208
-0.6120553 3.7046912 0.053860925
-1.1391556 4.995739 0.15132436
-0.63009465 4.2009158 0.13770401
-0.14183496 2.1818948 -0.31316048
-1.0387026 4.8946342 0.74770349
-0.10639305 2.1944895 -0.23861137
-1.2161752 5.1912389 0.078632437
-1.2892379 5.5160651 1.5658214
-0.57512403 3.6598973 0.28173018
-0.84789312 4.3954592 0.27246797
-0.16540001 2.4981496 -0.56845742
-0.71159846 4.0098939 0.24618371
-0.26480201 2.703553 0.055977128
-0.70093334 3.9140959 0.23505372
-1.1003616 5.0104413 1.3442962
-1.382834 5.7736197 1.6683474
-1.2527933 5.5026231 1.1419362
-0.64598304 3.7988451 0.64671344
-1.312312 5.5898552 1.4628171
-0.25217518 2.8195505 -0.56833851
-0.36892 3.08811 -0.24671763
-0.75741684 3.9885926 -0.64090824
-0.72301656 4.2972331 0.15800968
-0.84187716 4.4187989 0.032796029
-1.2447636 5.043726 0.035442531
-0.99679273 4.6154423 0.57042813
-1.117728 5.19344 0.47216555
-0.25955388 3.1977122 -0.35699511
-1.1369146 5.4730406 0.5634858
-0.85584444 4.4831305 0.64301223
-0.24432489 2.6989748 -0.44619936
-0.72545534 3.9070716 -0.6541
-0.93176758 4.908627 0.15170513
-0.6699307 3.9960985 0.23525384
0.042113476 2.5059247 -0.64674193
-1.1623096 5.3486848 0.92124188
-0.83956397 4.7648411 0.14638829
-0.07187517 2.1821642 -0.23832306
-1.1481889 5.1840677 1.1696653
-0.58877546 3.5222127 -0.86336118
-0.9125731 4.6267853 0.20548353
-0.16865151 2.5060356 -0.067009374
-0.50584072 3.3979349 -0.32238778
-1.1461468 5.197155 0.95921284
-0.73636568 4.0610652 -0.23876515
-0.32746279 3.3111255 -0.27985635
-0.89645612 4.8316827 0.13754341
-0.027469372 2.5861459 -0.60927927
-0.13605312 2.384886 -0.62051952
-0.30059797 2.7879221 -0.14388116
-0.34424099 2.8994088 0.14824815
-0.57752568 4.0620804 -0.045708701
-0.90351295 4.7879128 0.27792349
-0.19396682 2.5012319 -0.55667853
-0.86199915 4.3970785 -0.038663652
-1.149664 5.2026496 1.4317842
-0.96642816 4.7526374 1.1530592
-0.60991061 3.6933517 0.46789646
-0.78267282 4.114254 0.088733681
-0.56542802 4.2138824 -0.15984733
-0.54302466 4.0885582 -0.14700742
-0.9188087 4.3885651 -0.23324308
-0.18573739 2.1879933 -0.27342743
-0.79342556 4.4656405 0.093457595
-0.43822378 3.3933005 -0.32300293
-0.94175607 4.6848598 -0.067096539
-0.96350747 4.7781892 0.65708166
-0.97064084 4.7581868 1.0703884
-0.89988482 4.7956862 0.36460239
-1.0343879 5.1044602 0.56134152
-0.5484497 3.5047905 0.042680316
-0.75137132 4.1030202 0.8344385
-1.0237288 4.8905039 0.84755403
-0.92580944 4.8922768 0.44992742
-0.6170789 3.7602684 -0.33713612
-0.40492371 3.4283955 -0.46017691
-0.29289687 2.7287111 -0.42370909
-0.96160269 4.6957726 1.1449997
-0.70447683 4.0199013 0.33004171
-0.55806494 3.5984333 0.054634355
-0.36047077 3.0098367 -0.23794833
-0.094093367 2.1293333 -0.25975102
-1.1317487 5.190239 1.0640272
-0.72517031 4.4015946 0.23666924
-0.43134344 3.2021971 -0.15690848
-0.86339062 4.467411 0.7645275
-0.032533392 2.0760953 -0.319399
-0.22003357 2.5117018 -0.040654369
-0.60332644 3.6216185 0.27552909
-1.1648264 5.2843695 1.2382219
-0.31541172 3.3146923 -0.62632191
-0.84346902 4.4923987 0.27357173
-0.19779792 2.3997753 -0.14005348
-1.2841463 5.5215411 1.1202816
-0.30894485 2.8066781 0.14504917
-1.347375 5.7017446 1.55827
-0.6046406 3.5400069 -0.9745577
-0.73797876 3.8399329 -0.37289935
-1.2449406 5.4818711 1.0587614
-1.1446953 5.1803904 0.67108798
-0.57617164 3.6032479 -0.7390818
-1.2882527 5.23703 0.34165752
-1.23555 5.3985591 1.4684573
-0.068558589 2.1111856 -0.24646232
-0.87270248 4.4781194 0.95843917
-0.53266579 3.4961009 0.25681144
-0.72862875 3.8322988 -0.43520111
-0.15952341 2.39871 -0.13408698
-0.85907251 4.3607197 -0.16766223
-0.92517406 4.9720678 0.18504998
-0.50887418 3.62483 -0.53818351
-0.8953312 4.2981844 -0.43170875
-1.1564269 5.2763786 0.86302578
-0.62838542 3.593065 -0.53511715
-0.35217392 3.4909046 -0.42810494
-0.95349854 4.6991205 0.64656729
-1.3575498 5.7815685 1.6444651
-0.68164003 3.8451164 0.11300489
-0.14284505 2.4050384 -0.26238984
-1.2730924 5.6998658 1.2543604
-0.54782683 3.3899455 -0.64381397
-0.41167331 3.1034026 -0.16025893
-0.29896143 2.6303494 -0.14023492
-1.2452228 5.6085138 0.85305476
-1.2708281 5.5683255 1.0685769
-0.19539288 2.4204104 -0.21801421
-0.55232406 3.632436 -0.65018892
-1.2650912 5.5563335 1.5039831
-0.93258917 4.679822 0.36885729
-1.0229578 4.9095106 0.25554097
-1.1446424 5.0805798 0.14638421
0.0021106391 2.4788058 -0.62433696
-0.43067372 3.5996385 -0.15598769
-1.0431561 5.2631588 0.4791941
-0.75632364 3.923182 -0.23864073
-0.92830491 4.6119919 0.63600737
-1.1641371 5.2810354 0.75435221
-0.86879826 4.4781952 0.88173807
-0.99903321 4.9926162 0.25573075
-0.78357828 4.1352577 0.13760751
-0.89700323 4.4283791 0.54706389
-0.65285927 3.8933158 -0.036104556
-1.1975143 5.3033834 0.86366445
-0.67007875 4.5004463 0.044731148
-0.28784999 2.6122334 -0.060584251
-0.53785789 3.6931179 -0.13814719
-1.2589684 5.2940607 -0.033359531
-0.65827864 4.4235225 -0.026201928
-0.67003489 4.4678278 -0.14171207
-1.1149323 5.0933843 1.2771144
-0.51719451 3.4067857 0.43431953
-1.3484224 5.8074341 1.4720423
-0.90173829 4.2996221 -0.16096406
-0.45251378 3.396667 -0.2336182
-0.73894167 3.8963134 -0.35568842
-1.3637198 5.7029605 1.4531119
-0.52487534 3.9024005 -0.3296313
-0.61381119 3.8865104 -0.11638036
-1.4128268 5.7513514 1.5765004
-0.15894191 2.4993913 -0.24371347
-1.1472492 5.1814995 0.7723037
-1.1872246 5.2213969 1.3678991
-0.92558193 4.9823065 0.27789617
-0.7929666 4.4989414 0.16028397
-0.82777357 4.6241012 0.36338356
-0.5023576 3.7141886 -0.23942648
-0.42579889 3.206285 -0.24382806
-0.59416157 3.5992699 0.44233993
-1.036702 4.9926124 0.55794734
-0.68093121 3.6401756 -0.51069361
-0.88176942 4.234971 -0.26799482
-0.83387053 4.6971459 0.16029163
-0.63207847 3.9971623 0.045171734
-1.0410057 5.188838 0.35521084
-0.54390413 3.5954363 -0.14716576
-0.12326875 2.8836184 -0.50527191
-0.92818171 4.4008827 -0.33172697
-0.36238736 3.1053665 -0.33751154
-1.0577321 4.98139 0.76359022
-0.91676348 4.3958139 -0.050014839
-0.64402491 3.5988722 -0.46188536
-0.79070008 4.1239047 0.74341804
-0.56733328 3.6856189 0.55818009
-0.6021533 3.6165996 0.52533448
-1.0057025 4.6343145 0.04235658
-1.0466921 4.9486675 0.043583792
-0.41078338 3.0978317 -0.023969002
-1.2068709 5.1658835 0.3624073
-0.65118337 3.9035714 0.24024595
-1.290682 5.49859 1.6476595
-0.61857069 4.0952659 0.040277857
-0.84593803 4.1967669 -0.14335847
-0.17050985 2.5522532 -0.32953352
-0.61115676 3.9991963 -0.033870798
-0.31195816 3.3051128 -0.3513082
-0.90050834 4.4932208 0.46330935
-0.4959608 3.3928812 -0.25006288
-0.4095476 3.5917909 -0.43577465
-0.19935365 2.4093676 -0.062839404
-1.0685434 5.0744963 1.2469237
-1.1594019 5.269906 0.95309114
-0.8556605 4.7686505 0.25337332
-0.74028289 4.4124351 -0.03460009
-1.2670553 5.5823445 1.1638154
-1.2555441 5.300899 0.16455081
-1.314495 5.5961156 1.5692308
-1.2894354 5.3970675 0.17998976
-0.74001086 4.0946655 0.259085
-1.183687 5.2294583 0.9258638
-1.0654484 5.4168839 0.67397469
-0.98166871 4.5208731 -0.33472556
-0.18520975 2.4382029 -0.55763155
-1.2935674 5.3855643 0.37943295
-1.407876 5.6989169 1.4640975
-1.1796978 5.3533082 1.4583294
-0.60557199 3.9032838 -0.3357408
-0.89178479 4.4183793 0.27212566
-1.2139627 5.1865931 -0.021895044
-0.86370063 4.4869266 0.53070819
-0.70754492 3.834146 -0.52389699
-1.4122242 5.6972537 1.556483
-1.1444219 5.1810899 0.87565064
-1.3154713 5.6100287 1.649358
-0.79723394 4.1956973 0.28014886
-0.54057962 3.5026135 0.43686289
-0.90511525 4.5080695 1.0571798
-0.50545317 3.8168292 -0.14339365
-0.29149991 2.7049065 -0.12299243
-0.45554128 3.2799261 0.080412306
-0.23547821 2.60429 -0.037848972
-1.2435426 5.7755823 0.84649312
-1.0162435 4.6680832 0.045312453
-0.76567113 4.1853714 0.76128405
-0.49191803 3.292572 0.073426425
-0.27405 2.8603516 -0.052313875
-1.2124658 5.1776032 0.25262395
-1.1705819 5.293376 1.5405712
-0.8908841 4.4210787 0.9467786
-0.87959999 4.2457056 -0.2247128
-0.69981515 4.2948904 0.062354218
-0.61724591 3.7104945 0.54571646
-0.60015315 4.0896778 -0.13641363
-1.1654046 5.281992 1.0437405
-0.56278861 3.5941906 0.53286356
-1.254864 5.4947124 1.5525349
-0.68477041 3.8310447 0.57828069
-0.46247709 3.3893545 0.33439827
-0.24126418 2.6896236 -0.14450693
-0.8551417 4.2954593 -0.14440151
-0.29073188 3.1412261 -0.68602771
-0.8207193 4.1113768 -0.14192238
-0.3639214 3.0911794 0.22192508
-1.3029966 5.4109907 0.47320092
-1.4049395 5.702158 1.2674882
-1.1900678 5.1271091 0.06561058
-0.95438904 4.4972963 -0.34533474
-1.3596332 5.7111578 1.3591413
-0.95836139 4.686801 1.0564123
-0.82368422 4.298624 0.85375011
-1.3253403 5.7896357 0.83484894
-1.1911632 5.1208282 0.14981869
-1.0299932 4.6851368 -0.040839113
-0.64237833 4.1940842 -0.031697948
-0.51076221 3.4087346 0.34443146
-0.62300438 4.1003089 -0.22075903
-1.2408032 5.3998289 1.5361716
-0.61100495 4.0978856 -0.034520347
-1.1436315 5.0004606 0.048942484
-1.3024061 5.2025852 0.22899292
-0.65531564 3.7886202 0.26052198
-0.59136659 3.6086464 -0.036029235
-0.66344249 4.4635167 -0.21527031
-0.40213484 3.1045265 -0.33692673
-1.2016938 5.2987261 1.3837231
-0.51751655 3.4048359 0.10079694
-0.50826752 3.3977261 0.27154154
-1.2236055 5.3745661 1.6612698
-0.85385591 4.4082842 0.9577409
-0.75942266 4.1948338 0.34186482
-1.1822244 5.0266185 0.1291801
-0.34670496 3.3935974 -0.25034487
-0.85102475 4.1871581 -0.34403706
-1.1004384 5.013392 0.84825045
-1.4040275 5.7067838 1.0675074
-1.2817613 5.3325381 0.1740133
-0.75386214 3.9788883 -0.42656472
-1.0742396 5.0623932 0.7888658
-0.74594015 4.0938077 0.74629796
-1.1344477 5.4814939 0.65440112
-0.84010351 4.6793389 -0.030749755
-0.75926226 3.9863322 -0.34205213
-0.8548848 4.1949401 -0.43693724
-0.92510045 4.3939176 -0.13855112
-1.1471086 5.405066 0.46376097
-1.2086706 5.1639318 0.4570618
-1.125952 5.1097522 1.3503766
-0.93771791 4.9743934 0.36855224
-0.3910329 3.011879 -0.31333408
-1.0688245 4.8228617 0.18917532
-0.55690551 3.9858317 -0.048013706
-0.8074156 4.1051874 -0.54484057
-0.20941456 2.9078789 -0.43856093
-0.72663265 3.8958116 -0.43953452
-1.3370626 5.7022867 1.6556357
-1.4042825 5.6992741 1.3549247
-0.71719629 4.0000587 0.65822268
-0.30115479 2.7898016 -0.41175544
-0.89053702 4.4146399 0.87673742
-1.2039758 5.1288319 0.2637648
-1.3644836 5.7053614 0.96094704
-0.56395084 3.6835055 0.046509437
-0.95708251 4.4733987 -0.17012841
-0.99235266 4.5227518 -0.16935307
-1.114942 5.0917535 0.78146571
-0.88904798 4.4192224 0.45860684
-0.98859799 4.5311756 -0.24417159
-0.63193113 3.7915118 0.0629187
-0.69636148 3.9007702 0.15027119
-0.95898968 4.4859104 -0.24661386
-0.4755187 3.3311467 -0.015410764
-0.36644593 3.4987798 -0.25007421
-0.85816652 4.4831371 0.46952909
-0.40773576 3.0995975 -0.23757437
-1.1127377 5.2999902 0.56017625
-0.21645501 3.0151756 -0.42880958
-1.0048019 4.7903829 0.56821847
-0.81878674 4.1140194 -0.44185388
-1.1944462 5.2963114 0.95837176
-1.191034 5.318707 1.0669266
-0.81383538 4.1215739 -0.32925549
-0.52413398 3.4916844 -0.12904848
-0.70129061 3.9127758 0.65431291
-0.70740235 4.3106661 -0.024972914
-0.56436104 3.6817222 -0.040995218
-0.84181792 4.695735 0.25415936
-1.0931427 5.0044813 1.2515464
-0.65036798 4.1857333 -0.33886468
-0.53444064 3.4936438 0.36394602
-0.24307328 3.0995114 -0.36915135
-1.0039476 4.5978193 -0.23360197
-0.41048622 3.1063242 0.15632892
-1.0279765 4.6901813 -0.23159762
-0.19784531 2.2896821 -0.23001564
-0.071032077 2.7701175 -0.52016115
-1.127846 5.3800263 0.56242442
-0.91861224 4.5889988 0.46978661
-1.3531425 5.7002325 1.26355
-0.58511573 3.5383227 0.38266018
-0.90826374 4.5100489 0.55404043
-0.60027897 3.6881936 -0.027190099
-1.102249 4.8962698 0.16207641
-0.99105227 4.4874563 -0.49690267
-0.43214664 3.2866619 -0.33496889
-1.1955234 5.2086353 1.2472692
-0.9969722 4.7095428 0.58401167
-0.74762166 4.4138956 -0.14928891
-1.05615 5.0004711 1.3585761
-0.49281213 3.3106556 -0.21470714
-1.0564156 4.7863479 -0.051101133
-1.1137022 4.9010224 0.25856394
-0.35649121 3.5890946 -0.17218614
-0.82653677 4.1261158 -0.24883987
-0.46779257 3.3807237 0.26728433
-1.0070461 4.6233697 -0.049261574
-0.53695118 3.9927077 0.03484251
-0.6325779 3.6819048 -0.64158356
-0.74514085 4.0825944 0.66817367
-1.1168519 5.0942979 1.1705441
-0.91149223 4.4953456 0.87296045
-0.6505962 3.8959639 0.15258043
-1.0163988 4.6547432 0.24395931
-0.75886357 3.9855902 -0.53360349
-1.015816 4.8012028 1.1482184
-0.26838687 2.792273 -0.42408502
-0.74852824 4.4108973 -0.25688928
-0.26494616 2.785542 -0.040330864
-0.40277579 3.5118763 -0.33663899
-0.39622867 3.0167789 -0.047802355
-0.4141725 3.1083643 0.2492353
-0.84580278 4.6949129 0.36357024
-1.2225759 5.1970983 0.15050441
-0.91130447 4.3947539 0.031962186
-0.43984514 3.2956963 -0.41069645
-0.70736784 3.9932137 0.16957137
-1.0734329 4.7860756 0.065857485
-0.37403131 3.5708826 -0.31824815
-1.269188 5.6889882 1.1344448
-0.33677444 3.3985159 -0.34224111
-0.72296697 4.1906419 0.079425387
-0.69844908 3.8894315 0.57500088
-0.4950839 3.7864189 -0.33345065
-0.40503207 3.0962481 0.067097008
-0.66753656 3.9804986 0.15680203
-0.40194124 3.1075356 -0.42217419
-0.91888481 4.9122691 0.27504131
-0.78576291 4.0083733 -0.34276608
-0.919734 4.6002703 1.1625674
-0.45248407 3.281533 0.34330833
-0.99371636 4.7123346 1.0515318
-0.65095985 3.8866158 0.067605615
-1.2232183 5.4037962 1.0539731
-1.1080271 4.895596 -0.13698488
-1.1568863 5.0694718 -0.041842047
-0.81274039 4.2791023 0.16035971
-0.76447779 4.2689114 0.26738134
-0.27815109 3.3504717 -0.44622216
-0.30396333 3.298084 -0.43592405
-0.44629297 3.297744 -0.24114199
-0.59663713 3.9978898 -0.22143573
-0.53489727 3.8986855 -0.13307549
-1.0371375 4.6935158 -0.13564931
-0.94883418 4.6762633 0.97230864
-1.0413294 4.8843222 1.1620842
-1.0854099 4.9320335 1.1638
-1.191409 5.2296462 1.4423602
-0.55404234 3.5829566 0.36175179
-0.1168128 2.3022213 -0.64682734
-0.92901009 4.9125066 0.076020293
-0.59288234 3.5945616 0.37262541
-0.45395747 3.3100536 -0.14553636
-0.40184149 3.5085008 -0.25159404
-1.0307453 4.893281 0.66524768
-0.46490201 3.7783043 -0.23543289
-1.0806607 5.2279782 0.51459241
-0.991606 5.0136137 0.38476735
-1.0603499 4.7841597 -0.24512273
-1.2690406 5.5789576 1.58904
-1.0336268 5.1950989 0.48033556
-0.72708988 4.3987632 0.068410061
-0.41598624 3.4715788 -0.45311916
-0.59229517 3.8987999 -0.62620246
-0.8431235 4.184629 -0.23401195
-0.76814079 4.2713175 0.38683566
-1.1089858 4.9053588 0.34015736
-0.97311819 4.5179086 -0.031536091
-1.3106201 5.4475837 0.38777268
-1.2098298 5.3033471 1.4489881
-0.55221111 3.5907838 -0.041410621
-0.81627709 4.6271205 0.075551458
-1.2023009 5.4767976 0.48772633
-0.11734155 2.7902124 -0.52312714
-0.76136154 4.1884675 0.84639764
-0.38887063 3.012718 -0.26340002
-1.0641674 4.994597 0.85247266
-0.95100778 4.6812344 0.57654297
-0.90602392 4.4995008 0.95277596
-0.93606567 4.9903679 0.43142906
-1.0696095 5.4173794 0.5466994
-1.060392 4.9813232 0.63941789
-0.96647888 4.76684 0.58516771
-0.61799365 3.4153433 -0.4697789
-0.98948193 4.7249036 0.96183503
-0.54396713 3.3289647 -0.56102043
-0.37059373 3.5868614 -0.25167117
-1.1522835 5.0685892 0.075203463
-1.4035611 5.7062283 1.1603152
-1.1420184 5.0066438 -0.040977415
-1.0998565 4.9998631 1.1601179
-0.79853582 4.016644 -0.40644717
-1.0936251 5.318841 0.64466619
-1.1483446 5.1866841 1.2579956
-1.2510461 5.289835 0.066361502
-0.59276205 3.6079388 -0.15703882
-0.19227225 3.0251892 -0.62971622
-1.1907474 5.0945892 -0.12303888
-1.112016 5.0975952 1.4374046
-1.1961865 5.1249714 -0.049106725
-0.59810781 4.0059171 -0.12288447
-1.2015896 5.1406927 0.35384899
-0.53746009 3.9913249 -0.24066257
-1.2094983 5.1395578 0.43403438
-0.58652943 3.9330394 -0.19152062
-0.38979724 3.0076618 0.074486397
-0.32201838 2.8956618 -0.036450166
-0.24989431 2.7054121 -0.52284551
-1.1182536 5.2001181 0.2706877
-1.0076296 4.6596603 0.14336614
-0.78483629 4.0359797 0.74717915
-1.2036539 5.2388496 1.0284336
-0.88655275 4.3261309 0.92322272
-0.53264129 3.3606572 -0.51056629
-0.73053646 3.985934 -0.23143435
-0.55498767 3.5977266 0.44622025
-0.92978042 4.5961909 1.0468163
-0.94535017 4.7462883 0.084436856
-0.27920905 2.7988021 0.11496774
-1.1808475 5.0288625 -0.12410594
-0.42832893 3.1955864 0.16763768
-0.54935575 3.9864452 -0.13561434
-0.40019414 3.0315142 0.21921514
-1.043026 4.9040155 1.3572216
-0.087370157 2.1552966 -0.5024004
-0.42686319 3.1744719 -0.0035239975
-1.2540091 5.5598211 1.6588047
-0.18943492 2.3686414 -0.39374968
-0.75552148 4.1915121 0.28028432
-0.80599612 4.2122626 0.85266697
-1.0145071 4.8205862 1.2519093
-1.0304505 4.9056668 0.18394947
-1.1538311 5.6437893 0.7108807
-0.71031183 4.1965528 -0.15131649
-0.26478842 2.8883476 -0.53879094
-0.24824356 2.852515 -0.58986771
-0.19108962 2.4094043 -0.33977327
-1.0602878 5.0653219 1.5223125
-0.10952162 2.3179266 -0.35485792
-1.1937103 5.5188265 0.63181275
-1.3096379 5.5968885 1.0589892
-1.0342269 5.105597 0.2723307
-0.71665448 3.8923707 -0.53410757
-0.81845188 4.6032596 0.26208684
-1.1676297 5.1726642 0.15734062
-1.0507025 5.1970606 0.54755676
-0.3804279 2.9273868 0.019093433
-0.59926879 3.9515312 -0.46024579
-0.39472312 3.0134351 0.14144287
-1.0226918 4.6343451 0.15720652
-0.46167859 3.7876799 -0.13187253
-0.68609399 4.1563821 -0.21845931
-1.0377828 4.9152198 0.064169735
-0.6250847 4.2059813 -0.1360853
-0.42275059 3.6943667 -0.43578333
-0.30677935 2.7995808 -0.024295541
-1.3036481 5.6098709 1.1665933
-0.99575621 4.5916114 -0.3529098
-0.68571627 4.2106361 -0.30664393
-1.0962931 5.2720604 0.35264239
-0.052427955 2.6887851 -0.54886639
-1.2610035 5.581378 1.2511622
-0.92274171 4.5938826 0.55451882
-1.1074754 4.8937879 -0.032011777
-0.69434488 4.1989379 -0.062440556
-0.76226461 4.1984482 0.15049729
-0.66752249 4.48487 -0.03072753
-0.68202138 3.8422496 -0.088253446
-0.22374542 3.0242906 -0.34521875
-0.53275573 3.9072585 -0.23844352
-0.45128381 3.2884207 0.25235668
-0.23763025 2.7794812 -0.61971569
-0.2586498 2.7742891 -0.13927832
-0.13057218 2.0934706 -0.32978404
-0.50499511 3.3319943 -0.062795676
-0.51308268 3.4034996 0.16357626
-0.96983695 4.5685053 -0.17519915
-0.80037665 4.0277786 -0.57808268
-0.92574984 4.9023237 0.35642233
-1.1743971 5.2768822 1.4455564
-1.1596991 5.3470583 1.5402136
-0.54153556 3.9079146 -0.05480266
-0.74878037 4.6674976 0.14415681
-1.0925183 4.8268313 -0.050421055
-0.39000455 2.9984999 -0.1130057
-1.0883651 4.8134155 -0.13742931
-1.1092916 4.9009218 0.072979264
-1.3989526 5.636797 1.6676103
-0.4573859 3.7958257 -0.065080985
-0.26753199 2.7937286 0.041704651
-0.19142658 2.3085232 -0.15859795
-0.56830257 3.6621759 0.44973275
-0.83817756 4.6826506 -0.14154834
-0.81547362 4.6247482 -0.13954528
-0.73383492 4.0810785 0.07569214
-0.91612691 4.3873987 -0.43943864
-0.88146687 4.2009153 -0.64333069
-0.69861186 3.8266118 -0.74906099
-0.99055743 4.5255952 -0.4435426
-0.69322067 3.8326769 -0.67961133
-0.75784093 4.4687901 -0.19200069
-0.87143886 4.3233442 -0.34903827
-1.0321472 4.8466754 -0.04046515
-1.0749917 4.8526769 -0.26159585
-1.339371 5.7979212 1.5606495
-0.96795684 4.5695992 -0.33508164
-1.0287716 4.6839366 -0.33585155
-1.1027453 4.8828683 -0.24199808
-0.81176013 4.1012931 -0.70131862
-1.0085608 4.6053457 -0.1356584
-0.74441898 4.6837325 0.21271974
-1.0018687 4.5915437 -0.41060078
-1.0916412 4.7995453 -0.3072865
-0.94925785 4.9477305 0.046795063
-1.0417717 5.1171088 0.079357319
-1.2906159 5.3886952 0.076808847
-1.2833796 5.414186 0.0085260188
-0.72262293 4.4745016 -0.020108515
-0.49188083 3.3219135 -0.35083857
-1.1827185 5.2046914 0.78546858
-0.66679281 4.3601294 -0.38795835
-0.16270187 3.0752218 -0.54022866
-1.1481893 5.7080231 0.74017769
-1.1575335 5.3586264 1.660766
-0.43405527 3.2083681 0.24375795
-1.0582317 5.0343609 1.522436
-0.61614001 3.6116731 -0.64045817
-1.2935497 5.5056434 1.4536681
-1.0039238 4.7936869 1.0660831
-0.59481293 3.5836363 0.2070518
-0.63125199 3.7963197 -0.039463308
-0.74982005 4.4736719 -0.1569785
-0.4596025 3.390605 -0.15211433
-1.0690005 4.769227 -0.29358044
-1.0046519 5.0659671 0.38743085
-0.52602065 3.3734293 -0.46942189
-1.0268741 5.1071205 0.46091321
-1.0501853 5.1945515 0.28616872
-1.3461699 5.6995373 1.160234
-0.14444941 2.4069512 -0.57835293
-0.087713517 2.6883235 -0.5471046
-0.49745423 3.8055983 -0.22539458
-0.41197664 3.2020624 -0.34044135
-0.5402922 3.4819801 0.18388903
-0.19651741 2.5183136 0.05311843
-1.2775759 5.7545929 1.4331763
-1.0419017 5.1804624 0.16436708
-0.83469492 4.3914809 0.19700223
-0.78958309 4.1696534 0.50848335
-1.3611323 5.7080011 1.0626807
-0.74345583 3.9351201 -0.79714847
-1.0699416 4.9821811 1.1685505
-0.76667082 4.0085621 -0.73256576
-0.592098 3.5241828 -1.0038691
-1.0044724 5.0202379 0.45291811
-0.97601962 4.578423 -0.41050699
-0.6506933 3.7047243 -0.736431
-0.29535958 2.7220557 -0.21630657
-0.72911006 3.883328 -0.72181606
-0.86935812 4.2783475 -0.44852662
-0.70016378 3.9155016 -0.024710735
-0.50183666 3.7050242 -0.55555165
-0.64188772 3.692771 -0.44470686
-0.53355348 3.4873915 0.52978289
-1.0612051 4.7704558 -0.1409404
-0.69201994 3.8388662 0.39104581
-0.63364738 3.6683021 -0.53851676
-0.13703032 2.3953815 -0.33545798
-0.60583502 3.5695713 -0.8210333
-1.0723063 5.081636 0.89167213
-0.10342403 2.2042975 -0.17565712
-0.40624142 3.5956521 -0.32522023
-0.044422489 2.6181006 -0.55583996
-0.98648244 4.5162787 -0.040065728
-0.73604429 4.7767348 0.098763525
-1.1014961 5.2964025 0.43802637
-0.42255723 3.6059685 -0.24710926
-0.71211058 3.9977829 0.043355398
-0.54873872 3.3266883 -0.64389288
-0.49919379 3.3317802 -0.7847746
-1.1345069 5.3817415 0.8598873
-0.63750905 3.8097408 0.15523878
-0.14775221 2.3971207 -0.05641469
-0.80421913 4.2018042 0.14527105
-0.068236426 2.2821841 -0.41794938
-0.78995585 4.1191068 0.56139177
-0.84415036 4.2068734 -0.54047185
-1.1397316 5.4860682 0.83235562
-0.73741436 4.4809356 0.05309388
-0.64598924 4.3972697 -0.14036389
0.048651189 2.4139261 -0.65865445
-0.34031275 3.1927946 -0.43017203
-0.36992255 3.0772386 -0.020517636
-0.90919369 4.9371433 -0.049304791
-0.96192384 4.7905307 0.76496994
-0.96961915 4.7866893 0.86200643
-0.96472925 4.7896681 1.2928112
-0.96365213 4.7783804 0.46536773
-0.68092883 3.8145504 -0.13759173
-0.97276092 4.7516813 0.95908523
-0.49271038 3.3075683 0.26180092
-0.50041896 3.7170293 -0.32655391
-0.75021547 4.4862556 0.1482331
-0.33074948 2.9927461 -0.44329685
-0.12481795 2.2941227 -0.23929185
-0.45485058 3.700491 -0.15096946
-0.17060658 2.4821246 -0.16219734
-0.75938708 4.4844828 0.25565085
-0.44666991 3.692543 -0.23640868
-0.17002778 3.0863721 -0.62330079
-0.29072019 2.7088561 -0.061132628
-0.81772912 4.2795033 0.77282798
-0.58295447 3.5399106 -0.25830966
-0.4824751 3.2129707 0.22227208
-0.54411036 3.934737 0.011719874
-0.30051818 3.2050753 -0.54823542
-0.64325589 3.7830424 0.36442214
-0.35850543 3.1527877 0.21692988
-0.71397221 4.5702057 0.073571578
-0.83994347 4.4264526 1.0640554
-0.49742904 3.3177924 0.16669884
-0.80119258 4.2115898 0.35080558
-0.17260188 3.0244915 -0.38153395
-0.50878721 3.4024589 -0.14819933
-0.80097777 4.2001052 0.65304369
-0.79650104 4.1606746 0.077287614
-0.25336123 3.2772071 -0.50564468
-0.80296248 4.5801983 0.16528133
-1.1294401 4.9822512 -0.20472232
-0.46256346 3.3041925 0.45848683
-0.66821569 3.9641576 0.56618834
-0.70229036 3.6618886 -0.26888391
-0.30988455 2.8033581 0.055927716
-0.66251516 3.8992913 0.64346057
-0.38422868 2.7825491 -0.15536456
-0.81501687 4.289834 0.26354358
-0.44692251 3.286875 0.16343476
-0.43859571 3.703156 -0.34107259
-0.28548211 2.6916273 -0.33346391
-0.22831608 2.6071265 -0.13051756
-0.67571837 3.7608745 -0.83854133
-0.24291958 3.1969264 -0.52613974
-0.23850147 2.6105154 0.051529288
-0.64107311 3.7941298 0.55284017
-0.66265637 3.7658732 -0.75816983
-0.31022498 2.8163922 -0.34474805
-0.48513645 3.3421071 0.41141817
-0.49285594 3.3081634 0.35879043
-0.63706982 3.7949638 0.47903347
-0.27787817 2.8900142 0.046690069
-0.50180197 3.3094449 -0.1525882
-0.25177625 2.6950028 -0.055911761
-0.21305218 2.5984099 -0.52318686
-0.29864541 2.7920794 0.25929376
-0.50952882 3.4064758 -0.044936154
-0.66869956 4.2866926 0.13311562
-0.6694299 4.2818637 0.048573695
-0.64184982 4.2737312 -0.032604776
-0.78935105 4.1354027 0.32443488
-0.80631167 4.29424 0.048620112
-0.85029942 4.3907642 0.76343089
-0.64679253 3.6984086 -0.83039653
-0.80350763 4.0972495 -0.62741107
-0.8184104 4.2981291 0.36506778
-0.59245801 3.6081433 0.075137593
-0.85175741 4.3867745 0.86592722
-0.64716339 4.4111304 0.057566676
-1.1036659 5.0685592 0.60226405
-0.21003276 3.0097847 -0.52908611
-0.72383654 4.0065928 0.73353142
-0.64992332 4.1938386 0.044934101
-0.70579374 3.7025514 -0.4521516
-0.86890435 4.280365 -0.53080666
-0.82170594 4.3090043 0.4472664
-0.70928615 4.4646883 0.32411182
-0.87622082 4.5489511 1.0067382
-0.51709712 3.8018456 -0.05901416
-0.99753612 4.6848388 0.87488973
-0.86009002 4.4121313 0.53791893
-0.84062278 4.3811245 0.37265331
-0.97990453 4.6437197 0.81077433
-0.35806164 3.1785383 0.17695498
-0.17888805 2.675751 -0.67990321
-0.1588334 2.9747097 -0.44630957
-1.129596 5.4120579 0.28230533
-0.96797848 4.857275 0.89319128
-0.48383892 3.2412217 0.04548303
-0.60539758 3.678678 -0.2040109
-0.13265529 2.3022761 -0.15786684
-0.50094032 3.2315867 -0.1534927
-0.63756418 3.7885866 -0.1101926
-0.79038453 4.1134419 0.25786915
-0.79655623 4.105237 0.69417334
-0.21892092 3.1088533 -0.43797866
-0.97569615 4.8717027 0.77954257
-0.55172563 3.706856 0.12447435
-0.28902802 3.174304 -0.65073866
-0.6546222 3.9140821 0.73328376
-0.17689984 3.1715412 -0.6631766
-0.22437279 2.7095468 -0.65044498
-0.29845122 2.7038774 0.047524229
-0.7129035 3.9838679 0.56107789
-0.32960814 3.1863687 -0.34430686
-0.70262885 4.017364 0.81769031
-0.15198605 2.9990897 -0.5590294
-0.80240262 4.205771 0.76134992
-0.64496762 3.6818316 -0.91083479
-0.68257844 4.2491169 -0.14707157
-0.80615079 4.3009558 0.95435911
-0.81030715 4.2773285 0.583875
-0.45594081 3.0955172 -0.65389627
-0.40009812 3.1022875 -0.51197952
-0.64385837 4.1168694 -0.32138941
-0.1519832 2.9904039 -0.63034368
-0.24756142 3.2031455 -0.4530077
-0.78369111 4.1345782 0.84062481
-0.62323546 3.7148261 0.61372185
-0.45932439 3.2193508 0.33057407
-0.6136241 3.5963066 -0.91886675
-0.21834673 2.6099927 -0.46257368
-0.26701012 3.2909181 -0.43824935
-0.27271122 3.2884526 -0.35192704
