# .PCD v0.7 - Point Cloud Data file format
VERSION 0.7
FIELDS x y z
SIZE 4 4 4
TYPE F F F
COUNT 1 1 1
WIDTH 1593
HEIGHT 1
VIEWPOINT 0 0 0 1 0 0 0
POINTS 1593
DATA ascii
48.782959 18.889818 2.7544584
46.146717 25.885693 -1.8380238
47.311031 22.714655 2.675786
47.645504 22.22975 1.5209675
49.103813 18.390432 1.3787506
46.269012 25.616243 -0.93558943
46.007305 26.165775 -1.8462795
46.102303 25.907484 -1.8309121
48.907604 18.867386 1.2504972
46.201992 25.809072 0.25858358
47.849121 21.690109 1.456902
48.029335 21.274004 1.5771627
48.196545 20.766226 1.3970575
46.071438 26.174995 -1.337764
46.336273 25.778616 -2.2558823
48.738022 18.981865 2.9669347
49.211784 18.900051 2.3498673
47.81694 21.240803 2.8440509
46.193424 25.700542 -1.6461344
46.253204 25.610601 -2.6140337
46.093163 25.905842 -2.6691704
46.249516 25.686245 -2.2309563
46.16024 25.892712 -2.2538335
46.133789 25.988556 -1.8351784
46.099617 25.917225 -2.9159303
46.485416 25.102716 2.2719522
47.88501 21.59411 1.1317663
46.249168 25.908257 2.8815279
46.302769 25.77755 -3.4234018
48.499722 20.001806 1.3314116
49.043289 18.571848 1.1293046
47.903988 21.512867 1.0729587
46.249519 25.653095 -2.6126215
47.045269 23.496565 2.6597381
48.961231 18.396017 2.94977
48.080505 20.694885 2.7630844
46.277431 25.617321 -0.34069544
46.153126 26.098248 -1.4468277
46.152569 26.078312 2.5670917
46.136986 25.862488 -2.6166186
46.181675 25.804119 3.686033
46.2393 25.870148 0.56680763
46.909508 23.910658 2.3715448
46.07193 26.180281 -1.635115
46.058502 26.100092 -1.7311405
46.086651 26.104807 -0.44058967
46.152382 25.987972 -1.2378638
46.236126 25.883289 1.2731816
48.231735 20.38813 2.7512569
46.24572 25.67263 -2.511003
46.078232 25.909363 -2.5330298
46.055969 26.09536 -1.8459066
46.071083 26.106817 -1.3383031
46.203659 25.807301 0.36209881
46.074131 26.100334 -1.2360792
46.313255 25.817244 -3.1020648
46.256111 25.610636 -1.6489449
46.171909 25.794422 -1.7402103
46.098068 25.902737 -1.7367339
46.262924 25.597969 -2.249877
46.150677 25.80068 -2.2458553
46.280014 25.617838 -0.24249309
46.941254 24.980314 2.3522449
48.197838 20.73464 1.144207
48.830742 18.670357 3.1759365
46.255085 25.611612 -1.5373355
46.093426 26.111403 0.66432738
46.751358 24.396387 2.3616745
47.528748 22.492895 2.0966377
46.650364 24.546879 3.0982859
46.874741 24.991199 2.1840656
46.438553 25.862886 -3.9543335
48.546474 19.860233 1.5775295
46.233437 25.865753 0.057913039
46.072842 26.100536 2.0598989
46.283432 25.608799 -2.7208967
49.12167 18.317585 1.4211435
46.234478 25.882895 1.0614544
47.340481 22.671471 2.7593834
47.786644 21.776394 1.5693986
46.955097 24.973557 2.1402879
48.044514 21.1723 1.8081912
46.878536 24.990818 2.3682814
46.211376 25.725397 -0.13975967
48.221012 20.757025 1.0537758
46.860237 25.261719 1.7514169
46.093555 25.893831 -2.1503854
46.153194 26.088671 -1.0361046
46.142212 26.087833 -1.2388893
46.24559 25.787495 0.86406183
46.202358 25.722198 -0.43799555
48.274982 20.719515 1.7082199
46.068726 26.101437 -1.5353472
46.138195 26.081078 -0.036630493
48.74509 18.986649 2.8576655
49.213539 17.912989 2.180934
49.437073 18.19672 1.6891534
48.601711 20.511057 2.4582107
47.398643 22.507778 2.7574809
48.902168 19.093767 1.3148165
46.151611 26.088709 -0.43554229
46.14753 26.0867 -1.5374204
46.209095 25.702137 -0.034108844
46.205856 25.709801 -0.54771936
46.796741 24.314587 2.0683053
46.09306 26.107023 0.26114208
46.198639 25.706619 0.36418268
46.245853 25.78756 -0.83808756
46.204929 25.633863 -2.8371983
46.204037 25.87709 3.2655516
49.127201 18.453751 1.7378162
46.17585 25.892036 -0.43417898
48.910984 19.689981 1.634798
46.247643 25.782667 -0.53733814
46.241154 25.779827 -0.42955545
48.99107 18.294088 2.8674002
48.644806 19.482206 2.4570563
47.165665 24.30863 1.9708451
46.207123 25.702454 0.56477499
46.208141 25.714911 0.25318703
46.147469 26.099127 -0.6385805
46.902924 23.814606 2.4779067
46.129097 26.014673 3.3407817
46.183327 26.136139 -2.9394958
46.510765 24.808983 2.9231687
46.10371 26.005556 -0.43415686
48.95396 18.787094 1.5964298
46.083996 25.997196 -1.6447853
47.249138 23.09264 2.4618001
46.076946 25.998972 -1.7320986
46.086998 26.107239 -0.33849925
48.322784 20.254456 2.5730224
47.142731 24.471117 2.2542238
49.486542 18.192322 2.4606836
46.343479 25.389256 2.6441836
49.19083 17.910292 2.2553654
47.411079 22.732382 2.0986347
46.096828 26.004841 -1.1342514
46.208847 25.713825 -0.7554599
46.281029 25.618759 -0.13994543
46.199207 25.806845 -0.13237602
46.280823 25.618418 -0.035752032
48.641418 19.479904 2.5520914
47.394966 22.700146 2.3597436
46.104599 25.912567 -0.83234078
46.054256 26.095543 -1.9471657
46.006165 26.11869 -0.95515049
47.674126 22.99296 2.4620228
47.397011 22.605476 2.4674611
49.265179 18.788715 2.4568951
47.420563 22.671324 2.4934993
48.784939 18.89707 2.645916
49.133991 18.18693 2.2376559
48.858009 19.798857 1.6824285
46.097813 25.915401 -1.5478612
46.091122 25.743559 -1.5217063
46.109867 25.805227 -2.0429924
46.079987 26.001068 -1.8395884
48.315239 21.133385 2.1787028
46.098766 25.911016 -1.6406983
48.216576 20.516373 2.2987297
46.282486 25.617916 1.4589097
45.994076 26.030542 1.2150748
47.918449 21.103943 2.5830529
48.028393 21.423309 1.4706266
47.40818 22.711155 2.1650045
46.179699 25.796778 -1.2362951
48.672367 19.385544 2.06688
48.366413 19.876728 3.0660253
45.973595 26.19281 -2.6403008
47.905571 21.116875 2.7603092
47.002136 23.60988 2.565892
46.104107 25.989351 2.2450995
48.352196 21.036028 1.793852
46.198418 25.624325 -0.23195383
48.635925 19.459364 2.6170228
48.688381 20.051733 1.6564285
47.306656 23.04405 1.9611976
47.240952 23.09313 2.5536401
48.082874 21.261253 1.7296336
48.402973 19.912182 2.484309
48.27116 20.488998 2.0743458
46.094238 25.908812 -1.9357873
49.167812 17.9149 3.0463643
48.746864 19.197868 2.1679778
46.220825 25.947535 1.1312383
46.77673 24.307526 2.3720956
47.908806 21.101498 2.6694493
46.227791 25.957912 1.0777047
46.144245 26.098133 -0.54673457
47.075104 24.58387 1.8543196
46.034706 26.180296 -2.6301403
48.224369 20.681496 1.2430425
47.474377 22.674446 1.8830369
46.078983 26.102158 -0.94483352
49.207973 17.897287 2.3517113
46.82988 25.040403 1.6835304
46.270988 25.694546 0.9591819
46.971878 23.891285 2.0583932
46.267429 25.587727 2.5679383
48.789627 19.804308 1.4843106
49.100914 18.968187 1.6706088
48.614639 19.415432 2.1433597
48.624355 20.124535 1.7826989
48.653999 20.07655 1.8562887
46.796135 24.191162 2.4768066
46.284939 25.497562 2.5675249
47.827839 22.675125 2.3363285
47.140495 23.377928 2.5515349
46.878853 25.00243 1.8029529
46.191082 25.806179 1.4586248
47.484886 23.399939 2.2819076
47.424629 23.669031 2.0157714
48.496941 19.592606 2.864877
47.795906 21.390932 2.9334984
48.819218 18.945265 2.3425922
48.189529 20.503775 2.4715328
46.158951 25.894958 2.8465726
46.852806 23.993814 2.6545668
46.84182 23.989027 2.7562103
48.775173 19.015205 2.4555717
47.706394 21.860161 1.5145327
46.978889 23.69043 2.5593648
48.207245 20.241669 3.0243316
46.059799 26.191221 -1.9235294
46.774883 24.394329 2.1761546
49.090351 18.669111 1.5647808
47.039169 23.487917 2.7601371
46.049923 26.109385 -2.5391591
46.234741 25.878695 1.5564966
46.231339 26.004961 -0.15798512
46.235374 25.885567 0.96580774
48.124699 20.584339 2.8412192
46.231247 25.886509 1.4504339
47.650856 22.3025 1.9413421
46.253906 25.797903 -1.2455959
48.907661 18.725372 2.1482008
48.690071 19.300138 2.2643027
47.580803 22.287552 1.6648678
48.69717 19.412945 1.3872106
46.107635 25.817577 -2.7006457
49.248531 18.891544 2.8343027
47.939976 21.189032 2.5599847
47.36705 23.69561 2.2662704
49.039852 18.40349 2.0644851
46.964664 23.854609 2.7373493
49.097919 18.618921 1.9537213
46.730579 24.35614 2.8883948
48.705776 19.444851 1.2820369
46.872917 25.011354 2.2633061
48.847271 18.690006 2.8563917
48.862206 18.682966 2.7548652
47.529938 23.484795 2.6785026
46.198341 25.715073 1.4626261
47.382172 23.696878 2.3643823
47.605965 22.887175 2.036937
48.585567 19.59972 2.2556355
46.320541 25.950771 2.5659959
47.381542 22.598154 2.5705423
48.589962 19.60689 2.1599348
48.901443 19.156834 1.8299128
47.681721 21.994326 2.1647561
47.797066 22.492523 2.37082
46.232098 25.85467 1.8662393
47.95937 20.955261 3.0266201
47.809128 22.507938 2.2657726
49.09074 19.300463 1.9004588
46.233936 25.884666 0.45890564
47.937378 21.48423 1.5914917
48.934803 18.585424 2.6718774
47.805088 22.505293 2.1702247
46.264263 25.991316 1.5469424
49.213894 18.219332 1.3635596
46.248726 25.980124 0.14325446
46.223366 25.965637 2.047209
49.184059 18.005785 2.3619061
47.829803 21.655499 2.0851216
47.087669 23.399563 2.5602183
48.192692 20.599798 2.264169
48.215633 20.620533 1.9476888
48.234241 20.582655 2.1618445
46.155704 25.97871 -1.9448439
48.807472 18.900026 2.2954259
49.296177 18.202158 1.3323241
48.383373 19.895185 2.8510878
47.656532 22.923212 1.8860838
46.052017 25.878637 3.2919052
48.350159 20.403889 1.7498156
49.086029 18.287827 2.2687209
48.814362 18.725489 2.5865655
47.899227 21.471609 1.2447412
49.37907 18.123154 1.4075044
47.490707 23.305809 2.3578699
46.50774 24.82835 2.7518308
48.997898 19.376009 1.7721342
47.087952 23.505991 2.3549347
49.073971 18.294729 2.4726033
46.93108 24.088352 2.2507956
47.940006 21.085783 2.8418982
47.948948 21.091957 2.6671913
49.548298 18.062601 1.859596
46.965015 24.876236 2.2665563
48.005688 21.005096 2.3605494
49.141247 18.171183 2.4581254
48.994141 18.507492 2.2473099
47.711147 22.730593 2.1590729
48.263172 21.214642 1.5117542
48.351383 20.811289 1.4656512
48.588272 19.395298 2.660362
49.077568 18.09267 3.1576653
48.974087 18.407141 2.7482347
47.86499 21.293539 2.6556783
48.498848 19.593109 2.465476
47.099094 23.497604 2.2659297
46.265133 26.045542 -1.7702092
48.833954 18.693027 3.0483699
48.185894 20.296297 3.1191773
46.15625 26.113436 2.0588582
46.098877 26.011381 -0.83202511
48.812511 18.643076 2.9112945
48.145947 21.794094 2.2675381
48.101875 20.593607 2.9594767
49.063931 18.084078 3.0521204
49.000622 18.674084 1.6134701
46.154194 25.988449 -0.33677846
48.344166 20.625225 1.169215
49.241261 17.886768 2.3621614
48.094219 21.885031 2.7693686
48.448444 19.66923 2.9882181
48.483776 19.880188 1.9887626
46.24725 25.807718 2.5413725
48.941345 18.689659 2.1803348
47.999222 21.855812 1.820592
46.171268 25.858257 3.3319795
48.988808 18.41432 2.4735928
46.169907 25.793287 -1.6373432
48.992737 18.395061 2.5624068
49.025673 19.479437 2.5394177
46.148323 26.101648 1.9625988
49.152084 17.966843 2.9405122
46.074703 26.174318 -1.1395817
49.037163 18.266016 2.9488554
48.686089 19.469025 1.3038194
49.002209 18.684107 1.7524252
47.545002 23.386835 2.2620661
47.812748 21.223749 2.6939044
49.407295 18.307673 2.3537374
46.193989 25.803888 1.3639421
46.152367 26.086508 1.6616499
48.206158 21.137072 1.7605681
47.591114 23.098545 2.3611786
49.299259 18.696955 2.3562336
46.202599 25.807714 0.16379243
48.786327 18.785269 2.9649241
47.532234 22.196218 2.653584
46.082413 26.105988 -0.63759911
49.053177 18.28397 3.1860361
48.90921 18.509712 2.7775669
47.943092 21.305008 2.5492477
46.050694 26.095461 -2.0274258
46.272331 26.102234 -3.842329
47.966343 21.195312 2.4546444
46.163586 25.89044 3.0796502
46.780186 25.247711 1.4599067
46.087265 26.105188 -0.53388822
46.69873 24.405308 2.5557683
48.698536 20.21925 2.3716583
48.498402 19.594372 2.7531838
46.198666 25.802505 1.2595806
47.958282 21.390903 1.3520229
46.906174 24.904444 1.9273448
48.489258 19.701363 2.4890461
46.166767 25.891619 2.6801925
46.157448 25.991501 0.55783916
48.552383 19.801783 1.9519583
46.154289 25.989544 0.2593413
48.202587 21.193739 2.0228946
46.138538 26.090652 0.56399083
46.141708 26.087566 0.26079717
46.139668 26.093513 1.1587312
48.879875 18.701576 2.5680456
48.792683 18.775909 3.0490375
46.164555 25.995424 1.6571252
48.995884 18.531715 1.9290931
49.157578 18.098927 2.4619062
49.491066 18.18627 2.3674281
48.143898 21.785999 2.5500262
48.406708 19.82637 2.5843863
48.956493 18.495823 2.6671536
47.958309 21.912195 1.5513729
48.560341 19.699574 2.2457116
47.804096 21.299526 2.8902695
46.179779 25.768171 -2.529887
46.172573 25.898014 -0.54009724
46.267967 25.617022 -1.4381329
48.482388 19.710859 2.5754533
46.846245 24.991482 2.0665464
46.159481 25.888346 -1.2365955
46.241085 25.874651 -0.043992326
48.816982 18.731968 2.7457464
46.182964 25.897816 0.26155686
46.191158 25.796968 1.5654901
46.180195 25.901958 -0.039479647
48.68869 19.086451 2.8642054
49.075344 18.939358 1.9443616
49.109615 18.024832 2.4598525
47.076454 24.498005 2.3689053
48.498508 19.728273 2.3543556
46.204193 25.729971 0.95775378
47.938065 21.404148 1.4532582
47.500641 22.202547 2.8516314
46.269382 25.692783 1.6628091
48.934425 18.478899 2.9407904
46.352676 25.297874 2.7574875
48.645233 20.490942 2.7560968
49.000095 18.497833 2.0556281
46.097595 26.001482 -1.2353116
46.237507 25.954576 0.55660093
48.330601 20.562708 1.3704243
46.001484 26.113531 -1.7237208
48.450058 19.981735 2.2551792
46.175701 25.898972 -0.24109055
46.771912 25.257858 1.5302193
46.154182 25.886021 -1.5332025
47.651413 21.986147 2.4590821
46.170109 25.898935 -0.63572758
46.147659 25.984505 -1.5344473
47.736313 21.572725 2.8673978
49.078194 18.10545 2.6669824
46.937794 24.99399 2.2706976
46.285149 25.620863 0.76355118
48.856094 19.662365 1.7680362
47.633198 21.983648 2.5506535
46.18 25.898911 0.16678374
49.388439 18.093557 1.501631
46.143543 25.909124 -2.4298942
48.001068 20.899967 2.7692547
47.103271 23.271717 2.9302459
47.553268 22.100756 2.6586521
48.670303 19.196882 2.6587002
48.351543 21.195869 2.2773356
47.344162 22.894461 2.2540803
47.734276 21.900139 2.2432098
48.006378 20.908672 2.5620439
48.619133 19.320013 2.4590764
47.668285 21.991205 2.2708366
46.263939 25.784615 2.6579521
46.74501 25.392757 1.9578751
47.553177 22.091846 2.7595665
48.8932 18.797876 2.3520465
48.087372 21.806847 2.4577084
46.210331 25.613644 1.6481755
47.904652 22.199486 2.3763976
46.15176 25.896769 2.1637936
46.274239 25.615349 1.5568987
48.553802 19.582743 2.646873
48.548271 19.985563 2.156601
48.114532 21.634953 2.276993
49.002354 18.216303 2.954895
46.191204 25.790438 2.4441583
46.27216 25.694736 0.76249713
47.573959 22.096661 2.4732349
48.476837 19.696667 2.6501796
46.152981 25.996395 0.16544093
47.515659 22.07836 2.7056842
48.530411 19.570242 2.822449
48.514557 19.73658 2.2583423
46.201378 25.809755 0.56228411
46.74131 25.403736 2.1523018
48.185764 20.993958 1.2900093
47.429127 22.657703 2.8391361
49.013596 19.058222 1.4757432
48.944778 18.676352 2.3629968
48.665188 19.196537 2.7556572
48.701759 19.023123 2.9491978
48.792355 20.004824 2.4622905
47.142384 23.079821 2.9528594
49.032974 18.506313 1.3314334
47.574291 22.092356 2.5510712
46.23798 25.771313 -1.8662907
48.994057 18.801321 1.6989588
46.174538 25.898748 -0.34018451
49.205658 18.898819 2.4548945
48.70298 19.006088 2.8847446
48.167351 21.702507 2.9761314
48.862915 18.785719 2.5517592
48.717003 19.033632 2.7737985
48.713768 19.489578 1.5925319
46.896923 24.001644 2.2763171
47.60157 22.019251 2.3689115
48.138691 20.585571 2.7554007
48.573055 19.826523 1.8742954
47.682629 21.985138 2.0675848
48.676731 20.319822 1.5267546
47.829155 21.477846 2.7437701
47.158016 23.39012 2.1764245
47.305485 22.711178 2.8426628
46.18557 25.800406 2.5875154
48.689426 19.784924 1.4352385
47.66309 21.996342 2.3650644
46.0783 26.102343 -0.74185199
47.940605 21.319239 2.7823696
48.339359 21.279972 2.3757782
46.278862 25.517563 -0.12458805
46.17009 25.696568 -2.2319992
47.873501 21.298294 2.5664415
48.511326 20.152384 1.7721709
48.640018 19.416769 2.8698554
46.069805 25.995316 -2.4216657
46.265381 25.609968 -1.7393003
46.240086 25.879303 1.9833252
46.239689 25.874388 -0.24066769
46.989788 23.597288 2.8493469
46.358517 25.579556 -2.3447897
46.744419 25.377499 2.3605618
48.416069 19.895954 2.3589659
46.893154 24.966633 1.8882415
46.270802 25.689692 -0.23869371
46.137718 25.885502 3.4541798
46.189785 25.703209 3.4268961
47.022251 24.746534 2.0039318
46.091526 26.108053 1.0637782
47.688305 21.963696 2.9022346
49.079918 18.101515 2.7608151
46.264896 25.690073 -0.33740887
47.548679 22.183609 2.5611072
47.943306 22.071447 1.5047177
46.203094 25.804838 0.057230502
48.158653 21.704441 2.7522709
48.447006 19.976175 2.7801051
49.059582 18.186136 2.8652303
47.339958 22.977127 2.2500308
48.800922 19.921225 1.964206
47.887196 21.302332 2.4638188
48.071964 20.901726 2.3537095
46.157337 25.89385 -1.4420114
48.203957 20.409494 2.5719626
49.263702 17.782125 2.5501337
48.029068 22.185904 2.7100124
48.687939 19.103891 2.750102
47.626431 21.946575 2.7725668
47.437904 22.482613 2.6533737
46.188095 25.687757 2.7498558
46.981834 24.796438 2.3667061
46.764 25.378923 1.8233516
48.71159 19.008554 2.675674
46.198299 25.805792 1.1606381
46.182922 25.761538 3.2616928
47.990822 20.99427 2.4673581
46.888145 25.091204 2.7435544
47.202564 23.113403 2.3728194
46.145802 25.887562 2.3778598
46.334545 25.809746 -1.5935833
46.094349 25.986561 2.9676583
48.099751 21.705742 2.2559419
46.067032 26.090437 -1.4424995
46.094646 26.074661 2.8897979
46.09779 26.107281 0.8627708
49.381912 18.494427 2.4561498
46.160904 25.888166 2.7629132
48.248966 20.459438 3.1317625
47.581757 22.195955 2.3528626
46.162548 25.904856 2.5853558
47.311932 22.710787 2.5887241
48.357662 20.188114 2.4559379
47.736729 21.859997 2.4582992
46.075195 26.081755 2.7607629
48.855537 19.157322 2.028791
48.051323 21.172066 1.9651986
47.992897 22.013325 2.1609287
46.090897 26.11264 0.9606061
48.641891 20.402681 2.1776154
48.043079 21.52746 1.6230712
48.324017 21.176779 1.9084545
47.401592 22.60755 2.292742
48.250725 20.562349 2.0684688
49.033272 18.803205 1.4325838
49.391438 18.087872 1.676857
46.162636 25.892897 -1.1402994
46.244659 25.859259 0.36371389
47.990936 21.02858 2.2458992
46.201645 25.803986 0.96056485
48.869804 19.029318 1.7526708
48.492821 19.703733 2.1631594
47.331005 22.974501 2.1662908
48.216724 21.434505 1.4860108
46.269699 25.694748 0.26358917
48.399052 19.904558 2.5772796
47.18959 23.193054 2.3605428
46.799877 24.098896 2.6669674
48.14212 21.779263 2.1637037
48.732376 19.278677 2.0632985
47.301544 22.903772 2.0921824
49.073719 18.093153 2.9441686
46.275127 25.894629 -1.8262589
46.160511 25.794453 -1.9333327
47.975723 21.000782 2.6571369
46.261581 25.683357 -1.1354601
49.099075 18.006538 2.6722472
47.964836 21.19182 2.363745
47.27459 23.098181 2.1679432
49.118 18.041849 2.5697358
48.811478 19.691971 1.4778547
48.236683 20.487047 2.5490086
48.804535 18.797747 2.6630738
47.279572 22.897758 2.5595634
47.179653 23.326275 2.0641673
46.230957 25.789009 2.7671432
46.256374 25.675871 2.6528869
49.172333 17.890833 2.6579955
48.646282 19.281788 2.7543132
48.392227 20.393486 1.3328642
48.927322 18.764708 2.4585054
46.228802 25.679749 -2.823638
47.60014 22.169147 3.0600247
46.146507 25.885845 -1.9307438
49.396637 18.477909 2.7589164
47.399475 22.613478 2.3679893
46.284065 25.617016 0.061140083
48.419895 20.111618 1.9181498
47.662708 22.99876 2.2781725
47.454041 22.397343 2.6593583
46.186588 25.898155 0.76010942
46.246925 25.780607 -0.6345042
46.168453 25.89333 -0.8389349
46.802696 24.779049 1.6204771
48.414948 20.971416 1.9858311
48.240925 20.268459 2.9497397
46.163647 25.8915 -0.94150609
48.848427 18.690134 2.9445908
46.156685 25.994745 0.96134448
49.475964 17.982679 1.7824931
46.280643 25.621862 1.1582609
47.556953 22.296604 2.7578139
46.197929 25.800213 -0.53857875
46.189106 25.797476 -0.93835908
46.14669 25.985628 2.4342792
46.178383 25.702694 -2.1493449
46.682072 25.498571 2.4732642
47.577065 22.388847 1.859174
47.542809 22.381809 2.0711732
47.77615 22.604429 2.2770188
48.010044 21.498636 1.5112575
48.653759 19.277025 2.8488591
48.099503 21.703316 2.3647342
47.11306 23.221977 2.832516
47.341583 22.90707 2.713834
47.674309 21.682245 2.9531248
46.273449 25.687933 1.5648022
46.163742 25.995447 1.2646821
48.628132 19.48698 2.3428874
46.161705 25.990101 1.4575299
46.14518 25.893915 -2.5114462
47.532677 22.466366 2.1528194
48.744057 18.917797 3.0522382
47.791225 22.594374 2.0519373
48.601997 20.509047 2.5440717
46.259228 25.683231 -1.3419237
48.89473 18.73901 2.1035619
46.238583 25.783487 -1.5339918
47.784328 22.581512 2.1716316
46.150211 26.096008 1.7600369
46.241081 25.784704 -1.3481059
49.100666 17.907015 3.0571475
47.642754 22.091909 2.2672036
48.279121 20.296244 2.458216
46.254436 25.783815 -0.72936231
46.085472 25.997087 1.8555412
48.092236 21.897327 1.8621969
46.185207 25.900156 0.86443621
46.234913 25.892944 -0.93937516
46.169693 25.889482 -1.0337132
46.075417 26.176222 -1.0402938
46.101833 26.007238 1.4648831
46.236858 25.966101 -0.52643323
47.154682 23.294262 2.4610331
46.14772 25.989193 -0.53954417
46.250381 25.793722 1.4547266
46.189552 25.803289 -0.74069476
47.548786 22.28529 2.5588276
48.408154 19.820007 2.767544
46.247997 25.804182 1.8526777
49.196133 17.785669 2.6629515
47.767784 21.50214 2.9377272
46.152058 25.887285 -2.1425996
48.307056 20.025564 2.8610711
46.236553 25.486586 -1.9112164
49.070492 19.188507 2.0598834
46.078983 26.109467 1.5600141
47.347862 22.994188 2.076046
46.263065 25.598333 -1.9326433
47.950256 22.190557 1.8649464
46.09042 26.008625 -1.3473928
46.234589 25.878998 0.15815881
47.911102 22.040493 1.8757213
46.283215 25.618965 1.0531839
46.001892 26.100189 -2.1152887
48.445728 19.919973 2.9272439
46.795425 24.207182 2.3656788
47.548916 22.273863 2.640084
46.23782 25.694864 -2.3402388
46.084179 26.001326 -1.5408632
47.479332 23.485586 2.6513057
46.092491 26.006132 -1.4436409
46.253052 25.690876 -2.3979394
48.699261 19.115055 2.6656702
47.806583 22.086212 2.003145
46.246368 25.780245 -0.33388045
46.177795 25.794718 -1.34376
48.0648 21.797426 2.0996084
48.451618 20.065449 2.3896794
46.24379 25.787832 0.96165353
46.159344 25.994228 2.046514
49.141464 18.178717 2.7422681
47.13419 23.495352 2.0589585
46.375359 25.497604 -0.54271632
46.090549 26.103039 1.3617051
47.478828 22.296021 2.7565234
49.188984 17.915087 2.5799713
46.240639 25.791761 -1.4478347
48.872543 18.69223 2.6599534
47.130661 23.2675 2.895597
47.542236 22.086493 2.8515046
46.245209 25.871908 -0.55206805
46.246838 25.878712 0.66704959
47.507023 22.239517 2.3802667
46.25174 25.788866 1.7609428
46.147087 26.092424 1.3600634
46.14938 26.087816 1.2663686
46.199635 25.773254 2.8386526
48.904583 18.505806 3.0665855
48.328571 20.182579 2.6515656
46.249947 25.682812 -1.8400729
46.259144 25.687283 -1.4351733
46.283382 25.620991 0.36280078
47.474419 22.290194 2.862932
47.795616 21.499674 2.4665816
46.265614 25.689156 -1.0415342
49.070408 18.707607 1.6279881
47.509441 22.211065 2.7440341
48.707386 19.101635 2.5643394
47.135845 23.555258 2.1986041
47.480202 22.29936 2.6661677
46.234184 25.888153 -1.1252296
46.231956 25.974188 0.38975811
46.257481 25.999886 -3.2701359
46.137829 26.004362 2.8555942
46.203678 26.091686 -3.6603403
47.144505 23.186087 2.7541089
48.032402 21.081984 2.0658302
46.127712 26.092417 -1.9159056
49.234051 17.914934 2.6587999
49.473412 18.108757 1.8283892
47.582367 23.102137 2.258657
48.793571 18.912868 2.5755746
47.330662 23.082666 1.6744322
49.144455 18.926277 1.5251042
46.223907 25.893997 -2.1215377
46.189812 25.797991 -1.1364744
48.138306 20.678467 2.6474121
46.826515 24.09716 2.7397497
46.098873 26.006065 -0.74982327
46.280167 25.995798 -3.3351018
46.247643 25.603142 2.7605824
48.449932 20.614197 1.2667854
48.241867 20.386089 2.5633616
48.798141 18.798956 2.8717375
47.99641 20.882887 2.9554884
46.153927 25.881596 -2.0423179
46.142479 26.088854 1.0590756
46.267429 25.590336 2.9303422
45.908684 26.120119 3.129472
47.491329 22.299046 2.5640631
48.850842 18.783102 2.7581234
47.93346 21.377216 2.3704791
48.630356 19.281466 2.9718392
46.250359 25.785894 1.3626299
46.148186 26.001776 2.7820761
46.200207 26.130535 -3.535048
46.251751 25.788078 -1.1409717
46.010784 26.016315 -1.9164503
46.24118 25.788414 0.65906942
47.444237 22.556599 2.6552687
46.10313 26.003538 3.1286335
48.712944 19.755835 1.614525
47.985428 20.910101 2.8516536
47.294537 22.912901 2.3621659
47.693195 21.695616 2.7568343
46.233265 25.870426 -0.3146562
46.249763 25.785379 1.0624225
46.260181 25.680885 -1.534518
47.856449 22.499344 2.2769742
47.535706 22.175169 2.7377279
46.227257 25.704332 3.0683875
47.414814 22.424324 2.6518514
48.685608 20.216814 2.4330132
46.264984 25.691048 -0.13856009
47.996155 22.00971 2.4585586
46.147221 25.992771 -0.63397014
46.081173 26.107 -0.83482713
46.242096 25.786356 0.46421102
48.935814 19.691223 1.9625266
46.194374 25.803915 -0.43915349
46.24049 25.875324 0.75886971
46.27351 25.625629 3.2287912
46.1395 26.083578 0.16461746
47.847218 22.577246 2.361661
46.170391 25.797663 -1.8410994
46.535759 24.98048 2.4571755
46.269646 25.693953 1.4631917
47.52132 22.167818 2.9352698
48.171608 20.496866 2.6663711
46.100986 25.987724 1.9608331
47.273006 22.755947 2.9622891
48.274979 21.362326 1.9362284
46.067822 26.174389 -1.4346998
47.555798 22.195557 2.4701731
48.005634 21.171738 1.9678067
48.050098 21.984276 1.6706192
46.136669 26.087563 0.061203431
46.257465 25.604881 -2.0287402
48.132858 20.793507 2.6254051
48.193565 20.397593 2.7534518
47.727669 22.019388 1.3807019
48.114147 21.521156 1.9767361
46.152351 25.881638 -2.3366823
46.227959 25.769104 -2.1625586
46.279526 25.615957 -2.5263305
46.069656 25.991007 -2.1337371
46.922962 24.11565 1.9977893
46.244278 25.78307 -0.037753467
48.89957 18.501242 2.9510772
46.267563 25.69413 0.36231196
46.762634 25.288301 2.267391
46.267742 25.692789 1.7606061
46.277149 25.691393 1.0614179
46.185963 25.8948 1.059952
47.286587 22.891127 2.4666052
46.283459 25.617073 1.3615394
46.250919 25.785315 -1.0468566
46.20089 25.813784 0.85983491
46.146248 26.102863 -0.75010085
46.096748 25.831608 -2.8537207
48.134861 20.661303 2.7138028
47.708862 21.718596 2.3784895
46.244282 25.784878 0.059414845
46.078087 26.173851 -0.94247431
46.260391 25.682489 -0.93880022
47.654861 22.095936 2.1631668
46.253899 25.593704 -2.1407895
46.092255 25.80328 -2.3454595
46.239216 25.790098 0.16086438
48.146477 20.865902 2.0384486
48.842335 18.994305 1.9563887
46.244621 25.759352 -2.4389307
47.741707 21.879206 2.3750155
46.137032 25.989801 -1.6352243
48.225967 21.340887 1.668106
48.202831 20.598377 2.0872335
48.154152 20.693941 2.3540862
46.09499 25.82893 3.41659
46.883942 24.866034 1.6296506
46.240261 25.698538 -2.1288862
47.886833 22.406036 2.7538655
46.246021 25.671007 -2.0319228
47.850769 21.839905 1.3021317
49.265099 17.821844 2.0766597
47.609451 22.212437 2.0580013
47.466141 22.521912 2.9170172
46.261055 25.689508 1.8562959
46.244015 25.7864 -0.13710891
47.187531 23.097206 2.6671419
46.148849 25.993902 -0.43417624
46.267605 25.690519 0.062768012
46.348839 25.591974 -2.2107301
46.138454 26.084917 0.85943604
46.240612 25.977634 0.24034555
47.363686 22.796053 2.3541009
48.075775 21.04405 1.1163843
46.152119 25.995434 -0.93385881
46.225399 25.952824 0.83348018
46.232101 25.79055 -1.7440941
49.175308 17.80752 2.8612454
49.289272 18.70064 2.2957406
48.003494 21.997246 2.2591388
46.191082 25.801788 -0.83427984
46.2318 25.878977 1.1646904
48.306274 20.226126 2.373369
47.343037 22.778673 2.6425676
46.138489 26.089815 -0.13827261
46.243225 25.786875 0.26097894
48.244595 21.408484 2.0887718
46.19191 25.684486 -2.3354774
47.168751 23.291937 2.3598263
46.274632 25.620596 -0.73999918
46.076958 25.994801 -1.9375472
46.262119 25.686476 -0.63973618
46.15546 25.983583 -1.332481
46.265015 25.686148 -0.73742855
46.252377 25.781042 1.6707344
48.173569 21.10087 1.0885231
48.654404 19.536818 1.443115
47.666214 22.968647 1.9923842
46.982861 24.793707 1.8504939
46.072987 25.997309 -2.64677
46.095543 26.00407 1.5672817
46.246494 25.789553 1.258696
46.052971 26.092646 2.9744904
46.154648 25.993721 0.86028701
46.043762 26.005781 2.6723228
48.163334 20.394478 3.0459895
47.07571 23.577955 1.9776146
46.246346 25.788036 -0.94407511
48.541878 19.804018 2.1630237
48.345947 20.173691 2.5538933
47.455372 23.5893 2.4640024
46.16864 25.99618 1.5652041
47.194828 23.285662 2.1716084
46.249382 25.79179 1.5668628
46.334763 25.593332 -2.1387184
46.278557 25.617126 -0.63942254
48.509533 19.541353 2.6322343
48.481277 19.899647 2.1755867
46.277493 25.617615 -0.43849444
47.574268 22.001057 2.8507526
47.208473 23.023891 2.5646729
48.023727 22.055653 2.2011027
46.890079 24.902264 2.3541586
46.171375 25.897429 2.0444374
48.649616 19.354761 2.7574716
48.661995 19.110268 3.0622218
46.244202 25.783413 -0.23771125
46.26606 25.693151 0.16107738
46.273632 25.693844 0.8591584
47.042496 23.476809 2.9625924
49.269627 17.796522 2.1752594
46.270458 25.690094 1.2636591
46.148968 25.982544 -1.4381902
48.937828 18.468487 3.1523218
46.08107 25.970896 2.4555936
48.449226 20.877163 1.6221421
47.863777 21.839787 1.5871576
47.44693 22.388371 2.8588655
47.437199 22.596046 2.4572573
48.893665 18.793341 2.0806665
47.852924 21.748337 2.1577885
47.583561 21.994701 2.7549508
46.373188 25.527353 -0.71760929
47.965378 22.033255 1.742857
47.863476 22.395456 2.1566
47.674767 21.704622 3.0329742
48.22081 20.359598 2.8182449
46.247467 25.791788 1.9751483
46.270748 25.690531 0.66367418
46.28323 25.61949 0.85732388
48.04071 20.871302 2.861104
48.429852 20.47113 1.1400855
46.238781 25.698524 3.5856135
47.031311 24.609072 1.9817857
47.285072 22.810743 2.7565472
47.454918 23.603729 2.2718401
46.153431 26.086166 1.4594053
49.208504 17.804398 2.5697892
48.63628 20.482868 2.5448432
46.286911 25.620632 0.66149521
46.103359 26.007978 1.3556262
48.243763 20.364843 2.6487334
46.282738 25.618843 0.26022363
48.359169 20.092922 2.8381264
48.856125 18.900976 2.2445676
48.337402 21.189133 2.0721102
46.865746 25.13509 1.8076993
47.464302 22.400085 2.5627367
46.088142 26.017628 2.5981536
47.964149 21.006159 2.8606243
47.514809 22.486528 1.9125526
47.703762 21.693016 2.6538463
46.269707 25.688292 1.357897
48.973145 18.631245 1.9762549
46.272755 25.692722 1.1616735
48.410511 19.831638 2.6491373
46.184246 25.895185 1.2613477
46.0937 26.006948 2.0605872
46.073311 25.964573 -2.9876211
46.061913 26.060839 3.3318222
46.103203 26.005436 -0.5493899
46.002949 26.105022 -1.9287618
46.091732 26.109489 1.2593346
46.06596 26.180071 -1.5284311
46.23584 25.872992 -0.14655788
46.969334 24.828722 1.7271185
46.177441 25.892458 -0.14312206
49.155331 17.901815 2.7594371
46.941833 24.992853 2.5647528
46.170212 25.99275 1.8562473
46.090343 26.112518 0.36292189
46.180317 25.898588 1.1580487
47.886814 21.088728 2.9746282
47.685703 21.700335 2.8470485
48.011974 21.132133 2.0729048
48.948521 18.672228 2.4503567
46.038441 26.002159 -2.7879972
47.153358 23.385021 2.3590474
46.094887 26.014328 1.7622396
46.139061 26.084679 0.4554151
49.290684 18.672668 2.1583309
46.854183 25.092056 2.2766862
48.961319 18.605579 2.0431852
46.193176 25.803814 -0.63696247
48.864494 18.892391 2.3508148
48.973927 18.681845 1.9602872
49.098164 18.123322 2.5900819
48.143837 20.700424 2.4527397
47.830132 22.568914 2.0519948
46.147739 25.992407 -0.74023592
48.345798 20.290829 2.3496103
48.304466 20.106169 2.5568142
46.73101 25.404228 1.6371272
47.76099 22.528978 2.0382707
49.118549 18.310602 1.4427625
49.002411 18.211699 2.8699303
46.096218 26.110523 0.76079369
46.085609 26.101257 1.7596383
46.134377 26.084791 0.6691134
46.268158 25.688051 -0.042804509
49.039665 18.377493 2.5583081
46.280014 25.534256 -2.3346305
46.270283 25.692257 0.46080649
49.345192 18.579557 2.2602043
47.174213 23.1001 2.8524847
46.109741 25.712738 -1.6298385
46.147438 26.098938 1.8613343
48.53019 19.577026 2.917151
47.189358 24.203842 2.4589736
46.169167 25.890003 1.9564513
46.773701 24.290356 2.4596252
46.283115 25.621405 0.46281195
46.260799 25.679132 2.2624445
49.346916 18.576773 2.3499093
48.231216 21.485954 2.0823557
48.860542 18.924999 2.0762525
49.102051 18.087151 2.4643259
46.240273 25.902416 -0.8212412
48.443401 20.542212 1.6499308
48.436764 20.186174 2.1467202
48.304867 20.110418 2.6642034
48.064396 21.703184 1.8562458
46.103245 26.021921 1.2500333
49.328716 18.574575 2.1901574
47.312325 22.723244 2.7490592
47.436142 23.502258 1.9740207
46.249817 25.688154 -1.7392067
48.235435 20.484919 2.4688337
48.991592 18.297375 3.0621607
48.892796 18.805534 2.2627232
46.166283 25.992285 1.7650015
47.178307 23.092772 2.7583137
46.188545 25.802465 -1.038071
46.140434 26.09202 -0.23491484
47.9482 21.297434 2.2540841
46.849342 25.080647 1.8909886
46.268757 25.690006 0.5598166
46.990101 24.699085 2.7517776
45.90955 25.994661 1.0864804
48.011387 20.830204 2.8634958
46.835381 23.985785 2.870522
46.24556 25.871183 -0.74634135
49.03878 18.365574 2.8670621
47.133991 23.845272 1.5613434
48.903507 18.519354 2.6681485
46.240646 26.035782 -1.5984944
46.069908 26.111357 2.6704485
46.258583 25.669584 2.563272
46.244682 25.904419 -1.337831
48.229328 20.603218 1.9042827
46.257687 25.688757 2.8698049
49.129848 18.471638 1.4742622
46.086636 26.105917 1.159084
46.259399 25.680424 -1.2418501
46.201195 25.80611 -0.2406407
48.234695 20.601957 1.986082
49.048229 18.393272 2.2561495
46.253075 25.68087 -1.6311007
46.136204 25.996712 2.2494125
46.9646 23.895309 2.2614894
46.197315 25.794672 1.8622948
47.782909 21.70225 2.2531164
48.247658 20.482924 2.3697312
48.844944 18.784681 2.6558621
48.037373 22.088177 2.4699738
49.235008 18.954651 2.3528891
47.490997 22.487532 2.0718915
46.257877 25.774036 2.067965
46.149513 25.89307 -1.6330515
48.906143 18.490065 2.8506787
48.505177 19.605556 2.5532417
46.181808 25.899374 0.35877472
48.511513 19.817913 2.2264671
47.195087 23.100767 2.5574846
46.305851 25.527716 -2.5112352
47.472149 23.48941 2.2634025
48.353058 19.916553 2.9581852
46.064869 26.102982 -1.6349612
46.262665 25.691711 -0.44151494
46.241913 25.678783 -1.9359593
46.171722 25.894993 1.6581386
46.241615 25.693806 2.7619407
48.654102 19.286961 2.6598601
48.394497 20.583044 1.7066013
46.166348 25.903595 1.7544901
48.677448 19.292204 2.4601324
46.241905 25.871367 -0.44857782
46.092293 26.10899 0.16191365
47.304775 22.724127 2.94735
49.033726 18.485189 2.1746373
46.44738 25.751062 -3.3155527
49.05003 18.385035 2.4395406
46.154236 25.886021 -1.7331959
46.272278 25.537725 -2.4820032
47.572289 23.113136 2.0796773
49.24234 17.892262 2.2666793
49.021225 18.355259 2.7283571
49.239685 17.889061 2.4630766
46.163666 25.895927 -0.7390058
46.702217 25.404102 2.2657626
48.70586 19.309282 2.0745008
49.053394 18.572002 1.3400743
48.773636 18.795341 3.1496284
49.054371 18.294403 2.7455301
46.258144 25.593567 2.8597534
48.224293 20.563114 2.4836698
47.902695 21.314417 2.3007424
47.887123 21.442171 1.5297629
48.264542 20.290674 2.5574169
46.171463 25.897083 2.2738764
46.209694 25.614218 -0.71147943
48.046207 20.873985 2.6552091
46.201302 25.805948 -0.037432786
46.178848 25.794783 -1.4355011
46.15802 25.796421 -2.0356627
48.470234 19.896103 2.267153
46.265446 25.687912 -0.53806973
46.10955 26.01823 0.55269873
49.308533 18.374043 1.8775383
46.238937 25.784151 2.1471887
46.243439 25.786194 0.36077923
46.098011 26.017342 -0.23017806
46.743057 25.39547 1.736454
46.087452 26.112617 -0.23513047
49.09412 18.130173 2.4065888
46.150539 25.802532 -2.1366656
46.202702 25.808214 0.45741883
46.16235 25.992352 2.1537311
46.108822 26.017792 0.75248039
49.062618 18.106602 2.866338
46.178688 25.895802 0.06153002
48.228447 20.584038 2.3627126
46.155396 25.810139 -2.8525679
49.34602 18.534065 2.1682649
48.21331 20.32708 2.6909032
46.085171 26.112253 -0.13623552
48.0812 21.082026 1.9612114
48.1045 21.802755 2.5571187
46.243248 25.69628 3.3067427
46.154327 25.985554 -1.0353241
46.156315 25.992342 1.9589573
46.195457 25.791992 2.9388523
46.075535 26.107788 2.1620791
48.559006 19.911934 1.2996601
47.201954 23.103754 2.4749584
48.90176 18.809048 1.9700187
46.177143 25.899519 1.4553332
48.099495 21.680401 1.7649528
46.237015 25.886578 -0.63454789
46.184586 25.792988 1.7568511
46.279602 25.621271 1.6618633
46.094021 26.004025 1.6610889
46.078903 25.995901 -2.3187752
48.833946 18.788202 2.8585331
47.184483 24.202097 2.3638284
49.047516 18.331558 1.6889203
48.221676 20.58268 2.5860045
46.751759 24.467161 2.1012945
46.159817 25.885704 -1.3359224
46.181988 25.895294 1.361834
49.200603 18.902863 2.5461328
48.208538 20.323334 2.9578547
47.706177 21.705847 2.5655403
46.17054 25.871384 3.6495371
46.193279 25.60293 -2.4255257
46.087414 26.009518 2.7971449
46.182404 25.897528 0.66222221
46.191643 25.686287 -2.8237646
46.15485 25.565599 3.4583769
46.894272 24.887079 2.2582595
46.135166 26.000719 2.6738045
48.141529 21.785446 2.4496319
47.710743 21.712 2.4696462
48.21146 20.333302 2.765543
48.832321 19.82851 1.5763097
46.988789 23.879269 1.9826109
46.145477 25.991323 2.5671773
46.205364 26.124462 -3.7259531
46.043484 26.090309 -2.1249654
46.194038 25.701031 0.45145667
48.185825 20.366276 2.9223964
48.197063 20.401098 2.6693432
46.901817 24.018456 2.0563464
46.227119 25.97628 0.75984466
48.936054 19.693964 2.4648576
48.041397 21.076281 2.2619154
46.89249 24.900078 2.1537957
46.106041 26.010466 -0.33960044
48.262062 21.389986 2.274708
48.034489 21.182482 2.0819402
48.370785 20.001839 2.561656
47.790337 21.604111 2.362329
46.116177 26.042919 2.9022779
48.70118 19.20616 2.1018162
48.192955 20.393423 2.8337677
47.603535 21.815819 2.8315737
49.105415 19.132921 2.3598573
46.056614 25.997999 -2.2356775
46.206512 25.808228 0.65809345
48.162556 20.490753 2.7528837
46.872902 24.185694 2.0595357
46.150272 26.096869 1.5601517
46.093616 26.017931 3.3486824
46.173706 25.834269 3.3433213
46.046196 26.090414 -2.2174709
48.692005 18.884012 3.1891875
48.387405 19.896296 2.7442687
47.406483 22.530769 2.3671379
47.897709 22.307463 2.6515739
49.025551 19.483263 2.2692804
47.60878 21.919645 2.6758411
46.112301 26.029541 0.87628859
46.101978 26.019041 -0.1286799
49.141636 18.184809 2.6823595
46.202145 25.569975 -0.099722825
46.072803 26.114164 2.246887
46.014004 25.979229 2.910867
48.088303 20.970779 2.9757853
48.037674 21.094027 2.1591597
48.403877 20.095112 2.1597846
47.721222 21.630634 2.976634
48.39465 21.007029 2.2447662
48.689857 19.296545 2.158226
46.099663 26.0026 -0.94158322
46.713406 25.40164 1.4745922
46.197063 25.80657 -0.33850417
46.096085 26.009354 -1.0327083
47.247162 22.982494 2.6580689
46.073189 25.992611 -2.0285556
48.065533 20.886374 2.45962
46.087101 26.108797 0.46464428
48.486465 19.585752 3.0277371
48.440468 20.577543 1.70102
47.436546 22.687452 2.1792927
46.839252 24.185688 2.4549043
49.136845 18.091818 2.8678601
47.49889 22.188528 2.4428058
48.415276 20.491676 1.3599122
48.369419 21.112305 2.1647935
46.226437 25.645594 3.1922438
47.247993 22.894804 2.8490849
48.406586 19.82637 2.8624008
48.509464 20.582233 1.5330603
47.004536 23.842196 1.753563
46.206257 25.708967 -0.83312261
49.026611 18.469561 2.2838831
49.026138 19.478712 2.3614607
47.433811 22.681391 2.2523882
47.424644 22.688065 1.9226696
46.089497 26.10977 0.062049363
48.368492 21.091673 2.0716171
48.476128 20.805151 2.0582485
49.056614 18.394875 2.3928366
46.000031 26.134302 0.14471555
47.866199 21.386637 2.4551623
48.38324 21.098675 2.3725026
46.870079 25.098265 2.0503695
47.316822 22.803093 2.0934072
49.299404 18.697725 2.5530906
48.480736 20.803066 2.2695544
47.830994 22.65041 2.2921393
48.132843 20.849581 1.9864162
47.432186 22.681198 2.3563728
48.121895 20.872364 2.1510148
47.435535 22.486954 2.734442
48.352142 20.088985 2.5609107
48.376274 21.124973 1.8723547
47.318153 22.83083 2.3414273
46.178318 25.70829 2.6578259
46.895908 24.859356 1.5925333
48.209564 20.323088 2.8688092
47.648998 23.167404 2.2786021
49.251678 17.825867 2.8412633
48.406281 19.795126 2.9408121
46.111057 26.009283 0.17149608
47.822979 21.907145 1.4259976
49.297073 18.594307 1.8066761
46.088833 25.999887 3.737807
46.070766 26.093369 -2.3255153
46.184704 25.897713 0.45922893
49.002502 18.119326 2.9767241
46.178268 25.706238 3.6531034
47.549091 22.291994 2.4697649
47.008293 23.826462 1.6633594
47.316612 22.81049 2.1879609
46.936295 24.928007 2.0463972
46.812099 24.033108 2.7746115
47.379498 22.793203 2.2725589
49.006111 18.225304 2.6645985
48.125271 20.555824 2.9432704
46.994568 23.518436 2.7395549
47.001385 23.511957 2.8560381
48.405869 20.003292 2.259654
46.110443 26.011484 0.059590355
46.039196 26.105392 -2.5944467
47.802536 21.612185 2.1562803
47.110451 23.199551 2.9680383
47.746773 21.595102 2.6685889
46.211758 25.619959 -2.5481341
46.186192 25.683054 2.3765454
46.950493 23.904102 2.3683853
47.095982 24.300413 2.5535812
47.535023 23.459023 2.3449316
47.595516 23.108721 2.5622263
46.23011 25.671358 3.3208601
48.446236 19.689249 3.0340207
48.267246 20.402519 2.3681841
47.730247 21.976267 2.0399559
47.694981 21.915169 2.0734015
49.085899 19.046989 1.8746727
47.316231 22.831417 2.2851231
47.066547 23.580677 2.7778125
48.216892 20.334541 2.588659
47.291729 22.994122 2.2656279
48.634087 20.481384 2.365051
46.23727 25.980244 1.2521613
46.174179 25.678001 2.2604511
48.041531 20.883965 2.7481618
48.22316 20.475662 2.7376056
49.143486 18.092306 2.5607204
49.486847 18.092892 1.7432412
48.108326 20.622673 2.6743629
46.182663 25.895962 0.55914038
49.205364 18.912672 2.2715285
47.361279 23.784107 2.2674239
48.514996 20.662397 2.012275
48.106537 20.609068 2.7599249
48.099533 20.611656 2.8509417
48.875553 18.801203 2.4742568
46.088482 26.113604 -0.038936891
48.203297 20.495121 2.3622012
46.503761 24.897161 2.6622772
46.844845 23.969584 2.9542322
46.95145 23.886263 2.5646653
46.051651 26.081324 -2.4273946
48.560635 19.593906 2.4736388
46.078159 26.108278 1.6631213
46.06633 26.087193 2.4313588
47.656696 21.897442 2.558748
47.634087 22.165907 2.3920603
49.155735 17.894211 2.9577112
47.061649 23.456112 2.060462
46.9883 23.805033 2.2615752
48.218582 20.982492 1.6893349
46.080471 26.099747 1.9528195
49.510941 18.120975 1.9850689
46.171642 25.796057 -1.5367533
48.998642 18.199884 2.765321
49.036564 19.367064 2.0840983
48.76865 19.970165 1.523546
48.478504 19.803854 2.4691133
49.254745 18.603296 1.8617117
46.078251 26.101837 -1.0395023
47.187065 23.010864 2.9573045
48.732487 19.354675 1.2585295
49.098389 19.206676 2.2639606
46.712605 25.506704 1.5829039
46.797394 25.45624 2.3426356
46.002285 26.168758 -1.339404
46.083939 26.103344 1.8571852
48.869228 18.969515 2.0779696
46.092052 26.101254 1.4535661
48.145077 20.927389 1.3620027
47.380291 22.785608 2.0773818
47.65641 23.002682 2.1700006
48.460789 20.901567 2.2643533
48.108227 20.825232 2.157095
48.781597 20.002094 2.1698055
47.810711 21.551113 2.0497053
49.081245 19.17226 2.1515932
48.742382 19.7334 1.5696361
47.752785 21.680511 2.5551023
47.75473 21.697468 2.4579518
47.798615 21.610683 2.2688904
49.506828 18.101112 2.2599657
47.739174 21.659288 2.6646171
47.808819 21.680914 2.0823078
46.313 25.912283 -3.3900239
49.175068 17.803474 2.9513597
49.188095 17.791523 2.7671113
49.517765 18.042103 2.3914278
48.369244 21.122959 1.7659738
48.65332 19.638773 1.2559021
46.29644 26.006414 -3.0292087
48.557037 19.589333 2.5623851
47.306805 22.816942 2.4716539
46.960728 23.636625 2.9496872
48.205803 20.417 2.485261
46.887527 23.901669 2.5573809
48.79863 19.912764 2.2494442
46.766499 24.396128 2.074692
46.766327 24.397873 2.2685041
46.180992 25.703169 2.8915536
47.65461 22.09565 2.0581019
47.466579 22.60132 2.1647809
47.930222 21.395283 2.1762023
48.336315 20.002831 2.9556139
49.153778 18.091827 2.3624477
47.989563 20.998787 2.5597537
48.383736 21.020889 2.1640568
47.541134 22.117153 2.9835892
47.293835 22.774906 2.8532453
48.029224 21.809879 1.5300972
48.066929 20.800095 2.5595345
46.182659 25.691355 2.5612624
47.06213 24.499092 2.1710801
49.101696 19.199205 2.4502044
49.057453 19.290344 2.1881547
49.123535 17.972906 3.1364834
47.646225 23.07444 2.0501413
49.180981 18.000761 2.457042
46.705975 25.438643 1.8094618
47.299885 22.792645 2.6616256
48.978722 19.295033 1.8308413
49.134037 17.978706 2.8481741
48.942966 18.762671 2.3507452
48.944454 18.492409 2.7675371
48.140434 21.779415 2.3784692
47.009384 23.517509 2.6660941
49.165348 17.990965 2.6497095
48.361984 19.990967 2.7565496
48.007729 20.909985 2.6694701
46.263557 25.685137 -0.83726436
47.757229 22.798956 2.3762262
48.4786 19.798729 2.160233
49.155678 17.988028 2.7488592
49.178425 17.991232 2.5553346
47.47905 22.619488 1.9418061
47.986465 21.304476 1.4125441
49.186581 17.911531 2.4535816
49.150463 17.898703 2.8648458
47.92561 21.476202 1.2320902
49.085018 18.497826 1.466607
47.27816 22.995872 2.3636072
48.651577 19.723707 1.2902324
49.09874 19.089052 2.0366035
48.838787 19.057747 1.581401
48.046074 20.887642 2.5591516
48.630497 20.396669 2.0506155
46.160797 25.789623 -2.4285338
48.919128 18.736212 1.9741536
48.784805 19.907679 2.457062
49.48159 18.069109 1.5465472
48.517609 20.272995 1.8877091
47.774864 21.604391 2.4640012
47.743961 21.664845 1.98476
47.160381 23.39064 2.0826559
47.804451 21.301651 3.0420494
47.760128 21.697971 2.3741028
46.175777 25.903601 1.8553199
47.762089 21.590343 2.5616167
48.946304 18.475712 2.8528438
48.645061 19.203236 2.9562917
46.250187 25.750343 -2.4907234
48.068592 20.617239 3.0707891
48.664513 19.293591 2.5455699
47.60429 23.007738 1.9824549
46.877472 23.989733 2.4561467
48.706287 19.207161 2.3462551
48.692066 19.204275 2.4560375
48.385303 20.2747 1.7494137
49.085056 19.108673 2.4756613
46.074093 26.10788 -1.1385573
46.883965 24.995508 1.9434956
49.107422 19.220728 2.641494
48.715824 18.980593 3.0293655
49.152573 17.901051 3.1494958
48.627277 19.594988 3.0124047
48.345253 20.297018 2.1642559
46.241379 25.773838 -1.9376211
48.456032 20.848372 1.5737323
49.02623 19.471436 2.4587646
48.030243 21.080584 2.3713768
47.975868 20.992815 2.7513077
49.265205 17.793797 2.4583323
47.180264 23.294899 2.2690983
49.239506 17.888969 2.8029091
48.011307 20.942221 2.4913864
48.322964 21.043682 1.4977841
46.528595 24.891884 2.7511151
46.171883 25.696663 -2.4338598
46.952366 23.886984 2.4602089
47.77562 22.698206 2.3691342
46.702484 24.406082 2.4692461
48.811924 18.71377 2.889535
49.059738 18.638826 1.6363347
48.50238 19.607698 2.6759958
46.955784 23.783567 2.5627675
48.471867 20.811323 1.8626134
49.09655 19.207985 2.3579504
46.173 25.902483 1.5644959
46.932892 23.976337 2.354105
46.252197 25.783508 3.3174844
46.082954 26.103821 2.346869
49.053455 19.192133 1.4835174
49.251774 17.794483 2.6530182
49.253288 17.806789 2.3632419
49.079449 18.399492 1.6290976
47.985588 20.881321 3.0518513
49.239681 17.879894 2.5734506
49.041027 18.38427 2.6515644
48.803078 18.802549 2.7572851
48.365704 19.979351 3.0889657
47.948242 21.005816 2.9659047
47.700634 21.920546 2.1559205
47.753735 21.587015 2.7687931
46.850178 24.160952 2.6351056
48.396999 19.90353 2.6555345
46.953102 23.778584 2.6552284
48.63591 19.490856 2.7459667
48.970802 19.591597 2.552799
49.244667 17.778488 2.7523546
46.212021 25.708544 0.87593591
48.709274 19.213446 2.2685981
48.67609 19.213461 2.5575335
48.478931 19.690285 2.757571
47.661865 21.900009 2.4656107
46.889812 23.995272 2.357836
46.842102 25.214703 1.8748813
48.663803 19.168262 3.0690513
48.653633 19.204771 2.8664923
47.444221 22.384554 2.7572489
49.242336 17.764614 2.9964826
48.794781 19.014515 2.2725599
47.392998 22.700893 2.2677426
48.517067 19.527409 2.5877137
47.907116 21.519255 1.5032519
47.64035 22.083614 2.3609092
46.967567 23.786146 2.4591439
46.331371 25.801285 0.57584751
47.441566 22.588604 2.5570807
48.460373 19.702318 2.8565025
48.709488 19.026978 2.5668616
49.150063 18.078758 2.6630757
48.7314 19.279091 1.7512438
48.728905 19.321905 1.4355797
49.16399 18.079618 2.7744057
49.11985 17.918282 2.6566248
46.319275 25.892721 -3.9813874
48.952034 19.564085 1.8597088
46.090885 26.110668 0.56255901
46.662273 24.684349 2.1625543
47.473404 23.360115 2.0596876
47.460987 23.397919 2.1753581
47.471222 22.586441 2.0752516
49.00436 19.416618 2.352277
48.732784 18.98485 3.168047
46.988644 23.601116 2.7596314
47.056725 24.490103 2.0743594
46.925003 25.052734 2.3741336
48.957577 19.614162 2.1867135
47.987495 21.509611 1.6913316
47.05479 23.691801 2.0623941
46.906242 23.800196 2.7594688
48.629463 20.18858 1.6235281
48.852631 19.108932 1.9608476
46.255516 26.065735 -3.4715586
48.685497 20.191332 1.5701551
48.537716 19.976131 1.1094484
47.006821 23.606335 2.3658285
48.36129 20.181561 2.2628384
48.05674 20.794922 2.6641791
48.348061 20.603588 1.5633352
46.2342 26.099741 -2.9490371
46.998882 23.590994 2.6625726
48.58395 19.667389 1.4410686
46.908104 23.806728 2.6571069
46.738342 25.310335 1.786518
