# .PCD v0.7 - Point Cloud Data file format
VERSION 0.7
FIELDS x y z
SIZE 4 4 4
TYPE F F F
COUNT 1 1 1
WIDTH 676
HEIGHT 1
VIEWPOINT 0 0 0 1 0 0 0
POINTS 676
DATA ascii
28.691895 48.10136 2.7569463
28.602459 48.462276 -1.6402876
28.600307 48.32209 -1.0558681
28.613451 48.313599 -0.17846361
28.510279 48.51965 1.6161147
28.841471 48.145863 -1.6053205
28.599319 48.190487 1.4632864
28.596054 48.122761 1.8827343
28.861732 48.220966 -2.2329884
28.614985 48.116249 1.7752867
28.859098 48.098213 -2.0549228
28.637581 48.577618 1.3884376
28.601173 48.20425 1.6034899
28.846731 48.096191 -1.8305501
28.473839 48.448875 0.72771168
28.60721 48.227497 -0.42976052
28.721592 48.453671 1.2331946
28.834875 48.375645 0.41479576
28.778427 48.512856 0.41931498
28.547161 48.244572 0.48359847
28.615202 48.213024 -1.6042188
28.596985 48.15028 -0.56668228
28.671658 48.577744 1.2986896
28.738045 48.491627 0.21905148
28.742817 48.431187 1.2661234
28.836756 47.926025 2.814569
28.870251 48.2864 0.75215971
28.823666 48.222328 0.42652366
28.87446 48.171215 0.39290768
28.617975 48.298973 -1.2621071
28.829531 48.193108 0.24655005
28.755396 48.28244 0.26853803
28.592163 48.211143 -1.4222258
28.576435 48.226814 -0.80070919
28.606682 48.290592 -1.4209571
28.593607 48.311672 0.07014063
28.590149 48.20047 -0.66287798
28.59429 48.345131 -1.533734
28.591232 48.227173 -1.3474629
28.603739 48.330246 -0.35025305
28.673838 48.125835 -1.7499335
28.604591 48.333801 -0.75844091
28.671017 48.109047 -1.9545364
28.683464 48.203247 -1.2541714
28.608601 48.321281 -0.41595623
28.747849 48.163754 -0.43778986
28.684862 48.094212 -1.04012
28.692636 48.106419 -1.5320292
28.576647 48.244755 -0.050438251
28.753113 48.272655 0.57350308
28.596773 48.212276 -0.27595964
28.661398 48.300034 -1.149615
28.681868 48.293205 -1.2383331
28.790714 47.99712 -1.7319015
28.594643 48.469421 0.25858995
28.594427 48.464828 0.35690928
28.648813 48.394318 -0.43058243
28.761219 48.401314 -2.0343299
28.843607 48.194939 -2.0353112
28.755608 48.181835 -0.91365409
28.754559 48.197102 -0.33356875
28.774023 48.193569 -1.7396014
28.842789 48.16338 -2.0909977
28.829746 48.159729 -1.7342746
28.644333 48.393692 -0.34105965
28.781521 48.096344 -0.92898178
28.838614 48.084023 -1.7435867
28.64142 48.394341 -0.24319315
28.587635 48.477661 1.5476574
28.639948 48.464031 0.25824752
28.633455 48.474052 0.96029878
28.586535 48.320637 0.23609875
28.650108 48.473412 1.4533526
28.830114 47.976501 0.9678188
28.581333 48.462982 1.7372625
28.586075 48.465919 0.86045295
28.580074 48.463303 1.1505293
28.588711 48.467285 0.75850236
28.599285 48.463547 0.46171695
28.595417 48.466206 0.66230887
28.64155 48.446842 1.7785293
28.643593 48.481453 1.0511367
28.640972 48.396034 1.5580819
28.640999 48.488388 1.144212
28.660877 48.491619 0.65227848
28.827751 47.885674 2.6610641
28.707653 48.007381 0.66807085
28.686424 48.193146 -0.23520833
28.701756 48.105309 0.6660949
28.599794 48.29879 1.2582465
28.599056 48.410297 0.65921903
28.697557 48.008232 0.87927389
28.609062 48.319023 0.86441183
28.601814 48.320602 0.15318504
28.702503 48.110897 0.75448525
28.632193 48.405926 0.86059058
28.597725 48.465828 -0.04127403
28.765856 47.993275 0.16321562
28.606865 48.213108 0.92922634
28.604206 48.326477 -0.23934424
28.598293 48.310986 0.46058276
28.677521 48.201622 0.46804553
28.601532 48.310692 1.1708901
28.685013 48.19453 1.055874
28.608601 48.206127 1.7562002
28.655958 48.493088 0.76253253
28.632957 48.457916 0.052272424
28.639374 48.466492 0.45194745
28.760689 48.18058 -0.2372641
28.82789 47.971703 0.46147883
28.642584 48.394341 -0.13696949
28.676807 48.186489 1.6598226
28.686789 48.195915 0.060754649
28.598246 48.318539 0.56894785
28.640013 48.389904 0.65478051
28.750242 48.517143 0.82594734
28.64279 48.400787 0.16263096
28.639624 48.403404 0.5628044
28.608324 48.217751 1.0539668
28.637012 48.397789 0.95557129
28.639009 48.461315 0.16583869
28.642805 48.468483 0.86991978
28.646696 48.39888 0.057522561
28.594784 48.307827 1.0592066
28.695179 48.105412 1.0609939
28.677738 48.104424 1.8528246
28.596376 48.308178 -0.042355534
28.611927 48.218956 0.67195833
28.673454 48.195721 1.4609208
28.606401 48.320095 0.35883605
28.734064 48.448635 0.93813586
28.643122 48.396347 -0.040920194
28.637348 48.39938 0.76162517
28.755548 48.459412 0.76892233
28.687962 48.199306 -0.024761993
28.680071 48.192081 1.5657586
28.601889 48.31068 0.95995414
28.643969 48.4963 1.3545241
28.584766 48.479416 1.2528456
28.580246 48.480667 1.3612734
28.680807 48.205376 0.35614508
28.587336 48.314648 0.76489776
28.608376 48.235092 0.8314482
28.581175 48.46978 1.0579022
28.574625 48.470661 1.458059
28.636717 48.398952 1.1573409
28.832684 47.995987 2.1095221
28.592363 48.213097 0.76189023
28.68194 48.198704 0.76669687
28.689264 48.094635 1.7667155
28.64131 48.403358 1.3651723
28.599958 48.407986 0.56099159
28.664173 48.306164 -0.75437152
28.755501 48.272625 -0.038677905
28.677639 47.880127 1.8509284
28.768206 48.083767 0.16408256
28.849499 48.109497 0.24147892
28.596048 48.411324 1.4576322
28.605759 48.162941 2.0669916
28.614763 48.118752 -1.368374
28.764414 48.404316 -1.9582715
28.677923 48.20591 -0.73950201
28.793568 48.079071 -1.7556994
28.611404 48.14167 2.1652241
28.639742 48.39188 1.4687144
28.768192 48.189842 -1.6325581
28.683283 47.728535 1.8631911
28.778143 48.099525 -1.4450277
28.752913 48.408703 -1.5441239
28.667459 48.101173 2.261452
28.765869 48.092716 -0.55158597
28.846424 48.140965 0.48700035
28.692398 48.10619 -0.44549894
28.696697 48.119106 0.069757335
28.698658 48.108494 0.961981
28.863077 48.099892 0.16872248
28.635393 48.401646 1.667907
28.641287 48.470989 1.2602764
28.845116 47.822319 1.7760464
28.635662 48.406651 0.36835426
28.773376 48.189003 -1.451568
28.774458 48.292404 -0.22554246
28.602646 48.410904 0.7630344
28.637514 48.467888 0.36558816
28.674999 47.715446 1.758983
28.784206 48.115379 -2.0283091
28.615879 48.203548 1.6507376
28.635227 48.476528 1.5703712
28.684887 48.202278 0.56267208
28.858677 48.26656 -0.93697351
28.679588 48.201317 0.86249089
28.694195 48.104881 -0.93561316
28.59531 48.407433 1.2627139
28.600071 48.409454 1.7553892
28.638214 48.392193 1.0627683
28.836664 48.081303 1.1012034
28.883827 48.109386 0.93760276
28.601288 48.182278 1.3208503
28.659639 48.292564 -0.43657437
28.664759 48.302517 -1.5362766
28.673365 48.298473 -1.4334486
28.838085 48.195457 1.4077926
28.688606 48.199173 -1.0263025
28.665676 48.295662 -0.13761014
28.684343 48.198467 0.26490071
28.738171 48.09531 1.162563
28.698074 48.106007 0.86428672
28.667587 48.093826 2.1542139
28.764095 48.087555 -0.1343901
28.740681 48.176632 0.66089356
28.609524 47.966248 2.45981
28.743738 48.090218 1.9527334
28.600441 48.406673 0.16182655
28.678448 48.199814 -0.83753216
28.672638 47.800678 2.4649899
28.744114 48.082199 0.9552294
28.762705 48.321838 -1.6153817
28.741224 48.08432 0.75970548
28.564054 48.242146 0.52104813
28.778864 48.084152 -1.1371881
28.766747 48.288128 0.66565061
28.838062 48.288666 0.38436884
28.730709 48.294716 -1.0202904
28.755737 48.293785 -1.565892
28.694201 47.994911 1.6534948
28.69018 48.266605 -1.6311733
28.743444 48.180519 -0.021757107
28.691914 48.116272 -0.23749284
28.743479 48.283978 -1.9231898
28.682476 48.200817 -0.53783405
28.732754 48.318985 -1.1382949
28.6147 48.203407 2.3402762
28.653898 48.298409 0.3616536
28.78508 48.104145 -1.5348591
28.754831 48.112583 2.578593
28.757177 48.168373 -1.3534181
28.673971 48.098473 2.0641327
28.787592 48.421974 0.38059837
28.742134 48.090607 1.2590187
28.69603 47.871357 2.3632019
28.735394 48.185585 0.76277834
28.765966 48.17028 -1.0256027
28.708923 48.381039 -1.9356579
28.74 48.278313 -0.9312858
28.542004 48.567955 1.3947437
28.76058 47.798382 2.7679646
28.707827 48.007755 1.0787416
28.679634 48.095684 -1.3270562
28.689243 47.88533 1.7597678
28.691116 47.892036 1.9558365
28.691282 48.097893 -1.2449083
28.754171 48.185928 0.35532299
28.725109 48.350418 1.4110088
28.609989 48.315681 1.765873
28.765682 47.813385 2.1513445
28.757236 48.200241 0.26180691
28.602432 48.384033 -0.63647938
28.75708 48.196484 1.0509639
28.655689 47.709713 2.2740934
28.757387 48.25555 -1.4505295
28.65625 48.306431 -0.63861269
28.602968 48.471867 -0.13775235
28.690422 48.09697 -1.6183883
28.759342 47.987682 1.1583413
28.703671 48.214062 -1.631313
28.682518 48.179691 2.157023
28.600292 48.407875 0.26117036
28.655775 48.301716 0.054541923
28.749811 48.177311 -0.13507462
28.763067 47.986374 0.86019176
28.598953 48.394123 -0.23586337
28.753147 48.284935 -1.2626885
28.743782 48.290482 -0.84672815
28.733492 48.183258 0.96319628
28.593632 48.462479 0.56360996
28.61702 48.40744 -1.6535933
28.753675 48.300987 -0.55145913
28.741148 48.290203 0.99531299
28.732338 48.281113 0.085675552
28.666674 48.197468 -0.93291098
28.654707 48.303181 0.46955287
28.596874 48.463272 0.055042252
28.702486 48.023731 1.1571974
28.857012 47.877178 1.7681603
28.735662 48.391197 0.58357751
28.679008 47.777245 2.660809
28.746546 48.18755 1.6552228
28.708424 48.017403 0.9584676
28.670353 47.804718 1.8539051
28.674091 48.18541 1.8530618
28.749027 48.306812 -1.3246679
28.613949 48.408852 -1.4234569
28.598063 48.405674 0.96474028
28.729385 48.305206 -0.75771147
28.759027 48.293907 1.2744032
28.598011 48.397366 -0.43857729
28.671213 47.803246 1.9593271
28.759411 48.281311 1.0956976
28.684475 48.098785 1.6621966
28.736906 48.315323 0.90165955
28.75845 47.996353 0.96197224
28.764084 47.99173 0.56232357
28.791546 48.194763 -2.2374184
28.880707 48.075447 0.86883539
28.735786 48.081543 1.3620378
28.594135 48.464825 0.16037835
28.74552 48.19186 1.5443358
28.596127 48.302456 1.5652725
28.695526 48.100937 -1.1302047
28.626377 48.587498 0.92912352
28.783312 47.865219 2.8381152
28.604074 48.472988 -1.0929258
28.637388 48.484879 1.6615655
28.763123 47.821255 1.8486506
28.584909 48.469772 0.95813626
28.772284 47.885227 1.6614313
28.748857 48.092674 3.0471907
28.665672 47.79245 2.3627152
28.657545 48.295353 0.26362246
28.776974 47.890118 1.7646657
28.944462 48.180965 0.40791628
28.739365 48.276627 0.73927176
28.767023 48.101433 2.7509034
28.672148 48.288147 -1.0417686
29.070583 47.854969 1.9469846
28.724186 48.276611 1.1577089
28.788559 48.095654 -1.0273409
28.742031 48.088432 2.2664638
28.772987 47.890297 1.8587403
28.742634 48.190281 1.2686176
28.686865 48.105877 -1.4372532
28.66547 48.111927 2.5368242
28.638578 48.464378 0.57534432
28.60873 48.089989 1.4181525
28.693729 47.697395 2.7546792
28.88146 48.090549 -0.037868198
28.660366 47.797443 2.1587658
29.046038 47.851166 2.0910952
28.683098 48.001251 2.5609124
28.660419 47.795742 2.2611542
28.761353 47.809525 2.4531493
28.761921 47.802456 2.6515565
28.67803 47.887367 2.258291
28.844933 47.822903 2.5696588
28.739609 48.09264 1.4574099
28.840389 47.811584 2.3665659
28.803032 48.219673 -2.135483
28.740635 48.080849 1.556481
28.678659 47.879066 1.6608226
28.8332 47.91256 2.7669582
28.766226 48.283768 -2.0210941
28.666359 47.80196 2.0600822
28.693338 48.322868 -1.733351
28.783569 47.886635 2.4605782
28.767538 48.202518 1.7699976
28.733953 48.188213 0.86236048
28.607504 48.402161 -0.13582885
28.601774 48.407871 0.062738307
28.605707 48.394711 -0.51790655
28.60132 48.463131 -0.23425183
28.697222 48.106407 -1.8221159
28.690487 48.039009 -1.6091764
28.627563 48.406067 1.7609136
28.736052 48.193821 0.54324222
28.634869 48.404469 0.46110454
28.747183 48.403057 -1.6233276
28.748516 48.190853 0.16382292
28.65102 48.293549 1.0610707
28.675604 48.301025 -0.83553952
28.740658 48.080746 2.0555062
28.765966 47.995739 0.76195896
28.676813 47.883278 1.5639364
28.586916 48.294907 1.6627233
28.656366 48.29361 1.5587747
28.675373 47.885944 1.4668388
28.666859 48.2826 1.8582698
28.652771 48.294563 0.86094153
28.659134 48.297447 0.65713423
28.666819 48.300167 -0.032682385
28.65449 48.290405 0.96623814
28.656984 48.292645 0.76593167
28.659111 48.297771 -0.23374526
28.659285 48.290619 0.56326854
28.66004 48.299381 0.16517104
28.601362 48.406773 -0.037022438
28.673191 48.29483 -0.94114566
28.766829 48.293282 1.446524
28.80459 48.316517 0.20252474
28.592026 48.307209 1.3684638
28.696108 48.087448 2.6295836
28.69821 48.116714 -0.34371063
28.741638 48.277885 -0.12517391
28.655655 48.283878 1.4553921
28.658112 48.290901 1.3642082
28.762104 48.288136 -0.43286607
28.686117 48.176743 2.4426908
28.663841 48.328613 -2.0509284
28.600571 48.408428 0.85685158
28.595119 48.408001 1.3635856
28.75478 47.99168 1.7599763
28.759102 47.991051 2.0660288
28.826435 47.972668 1.1707203
28.771629 47.888874 2.1594949
28.602316 48.404785 1.6568466
28.688257 47.987026 1.2607548
28.694435 47.996422 1.8670483
28.685822 48.196507 0.66102612
28.600809 48.369598 -0.96135187
28.767567 47.813564 2.3544738
28.760418 47.823502 1.7627027
28.828514 47.815109 1.8661609
28.59691 48.406689 1.1576121
28.602867 48.407837 0.36376831
28.834568 47.741821 2.1393118
28.614229 48.158047 2.4162302
28.634586 48.399055 0.26391512
28.844948 47.831593 1.6630133
28.706087 48.304768 -1.969363
28.774883 47.885071 1.9567896
28.679218 48.195732 0.96332991
28.77215 47.895184 2.3605888
28.690643 47.887829 2.1593187
28.770256 47.986717 2.5613384
28.673899 47.887409 2.0615821
28.73411 47.712322 2.5751801
28.683632 47.886539 2.4613185
28.830914 48.169006 0.63962919
28.762745 47.888103 2.5704405
29.029043 47.874611 0.30729634
28.685286 48.200703 -0.14093706
28.820919 48.153938 0.81780708
28.793915 47.985645 2.8647649
28.696865 48.007111 2.6675112
28.761105 47.976921 2.9386208
28.601688 48.397079 -0.34829345
28.743378 48.095013 2.1722808
28.742815 48.298031 0.37676349
28.74943 48.090378 1.0563654
28.676895 48.200485 -1.3302194
28.636314 48.395275 1.2650985
28.668329 48.30188 -0.53361595
28.688978 48.385967 -1.5524609
28.604584 48.57663 1.2506167
28.764809 47.735847 1.9793098
28.852612 48.129932 1.3680086
28.96287 48.173813 0.27739418
28.761539 47.821175 1.9708812
28.744116 48.089169 0.863132
28.75835 47.993591 1.2579808
28.599609 48.412014 0.46236062
28.761259 48.193153 2.0720558
28.845165 47.825554 1.9660254
28.69367 47.992317 1.5566465
28.760992 47.8158 2.065587
28.946482 47.992863 2.2155757
28.763607 48.222088 -2.3110576
28.832565 47.828686 2.0447917
28.940731 47.901093 2.1662884
28.767515 47.885963 2.05567
28.764891 48.112122 2.647212
28.767792 47.893764 2.2582428
28.824043 47.967175 2.5094836
28.847439 47.826046 2.1542916
28.678844 48.203678 -1.1433376
28.826357 48.315605 -1.7618338
28.77499 47.720203 2.2920146
28.687872 48.284443 -1.3266542
28.680077 48.209568 -0.44959626
28.842466 47.857048 2.5392537
28.835268 47.834652 2.4717312
28.690207 48.214146 -1.7372346
28.727068 47.686962 2.6637132
28.768826 47.996658 2.3622637
28.743311 48.37508 0.94792008
28.677603 48.197178 -1.5327089
28.841501 47.977276 1.2896998
28.758249 48.084633 2.4513304
28.856836 47.882668 1.6558822
28.6796 48.196033 -1.8284137
28.68902 48.306854 -1.8284043
28.767603 47.993443 0.36250526
28.94286 47.802666 2.0014119
28.757647 47.986031 1.8553518
28.733038 47.69722 2.4036992
28.743795 48.196133 1.8732649
28.763607 47.981892 2.149668
28.841125 47.875767 1.8539619
28.660183 48.29752 -0.34164685
28.692261 48.003616 1.4524271
28.755451 48.203098 1.9683917
28.7491 48.084148 1.7529531
28.755011 48.201778 2.2626882
28.669077 48.191818 2.0517645
28.758751 47.993141 1.5593871
28.760824 48.087162 0.063447796
28.873148 48.098339 0.063954726
28.673695 48.102455 1.9631079
28.611446 48.106209 1.1924988
28.691271 48.112698 0.15616515
28.700918 48.104397 1.1597188
28.770142 48.100353 -0.84109044
28.756039 48.084724 0.56687719
28.84984 47.882839 1.9622126
28.675411 48.194241 1.7621106
28.672401 48.099106 -0.65375739
28.692997 48.114853 -0.046972129
28.759766 47.995117 1.6576574
28.780346 47.803982 2.5572822
28.840166 47.879028 2.0485256
28.607925 48.134972 2.3246269
28.598894 48.113979 2.0646455
28.691538 47.70129 2.6553152
28.612556 48.181763 2.1559322
28.675236 48.186829 1.9564815
28.608873 48.181988 1.9512006
28.681904 48.00996 2.0622096
28.694632 47.999401 2.1623557
28.763964 47.985313 1.9626168
28.761209 48.090137 -0.034445535
28.6903 47.99754 1.9598936
28.84889 48.080441 1.2313185
28.666437 47.71143 2.1575708
28.774666 47.892517 2.6732123
28.692797 48.112595 0.46758446
28.681984 48.002029 2.2592397
28.847795 47.984051 1.8611336
28.83403 47.999329 1.5765829
28.611107 48.259262 2.701045
28.770916 48.089504 -0.73803419
28.602837 48.145481 -1.7530714
28.684586 48.110523 -0.83147085
28.610828 48.234272 1.1708491
28.828451 47.979198 1.7484474
28.683657 48.184242 2.3506455
28.669426 48.146545 2.6239412
28.717184 48.024731 0.2941691
28.694481 48.109432 1.2670017
28.838144 48.3424 0.81972027
28.703785 48.105839 0.24730718
28.653786 48.296215 1.2570188
28.694326 48.107002 1.3573985
28.678284 48.202801 1.2629367
28.684015 48.192196 1.3616171
28.961092 48.113663 -0.050161198
28.935362 48.166779 0.045912966
28.828659 48.08247 0.34110999
28.955992 48.110229 0.2613343
28.844528 47.973251 2.7668142
28.750431 48.197262 2.163064
28.755564 48.080822 0.35938638
28.756979 48.078579 0.4618178
28.583984 48.319584 -0.52831984
28.69079 48.095535 -0.53765887
28.680159 48.181488 2.269773
28.851494 47.821991 2.2810886
28.83708 47.952747 2.3043396
28.594276 48.404625 1.0594617
28.742161 48.077961 1.85094
28.764954 48.093784 -0.33683348
28.700001 48.112312 0.56685233
28.92807 48.265148 0.51145369
28.875349 48.001709 0.87047285
28.752621 48.401302 -1.7429551
28.742857 48.257656 1.6661153
28.841412 47.961361 0.5493775
28.9597 47.902233 0.45515537
28.774553 48.175678 -2.0366557
28.823483 47.960983 0.25907785
28.746269 48.187714 1.3555683
28.687286 47.699619 2.5542531
28.735163 48.215393 1.4569576
28.615519 48.139053 1.5788836
28.694229 48.108631 1.4612712
28.763819 48.088757 0.27031994
28.681049 48.176117 2.5739048
28.679247 48.101452 2.4517033
28.728945 47.846828 2.7845397
28.835655 47.872795 2.3686225
28.684158 48.087955 2.3587615
28.836487 47.91684 2.1794205
28.760466 47.997532 0.65728188
28.751514 47.991615 2.2636933
28.972279 47.837517 1.8092523
28.843958 47.877174 2.2669592
28.752998 48.303917 -1.7411417
28.777082 47.999973 2.4739306
28.937166 48.094372 0.36946452
28.772247 47.993134 2.7729001
28.921808 48.063026 0.57034922
28.687737 48.191452 -0.34623888
28.582298 48.475422 1.6455697
28.945894 48.095943 0.14278843
28.861641 47.948349 1.7086394
28.838182 48.096344 -1.6272382
28.94249 48.099789 0.047483288
28.611065 48.302528 -0.63579494
28.744873 48.101765 2.3741071
28.761604 47.994259 1.4651287
28.767756 48.08992 -0.24117342
28.999155 47.749126 1.6228343
28.701418 48.116829 -0.13838936
28.835194 47.821777 2.6619322
28.676205 48.19796 -1.4299833
28.737497 47.719772 2.4269292
28.804947 47.81498 2.8741992
28.764988 48.190296 -1.5450605
28.827347 48.160694 -1.5576303
28.69739 47.999073 1.7667581
28.761185 47.993702 1.0635647
28.742491 48.385487 -1.4244585
28.84374 47.819092 2.8486059
28.769207 48.392727 -1.1425496
28.690123 47.878601 2.5538478
28.775705 47.976482 2.6737077
28.837023 48.080166 -1.529207
28.759188 47.992001 1.3552217
28.756121 48.195198 -0.74678171
28.770826 48.198437 -1.9490787
28.853233 48.098465 -1.9424249
28.616646 48.087368 1.6324291
28.681751 48.384186 -1.6416724
28.779221 48.096115 -1.849336
28.683624 48.399384 -1.4441613
28.688877 48.10075 1.5583565
28.68523 48.381943 -1.7350222
28.84479 47.985493 1.3972236
28.657581 47.890427 2.6115732
28.679346 48.404911 -1.2388277
28.649853 48.296474 1.7530398
28.861227 47.979153 1.0675737
28.923531 47.913601 0.41085264
28.778688 48.10664 -1.6441389
28.828953 48.002357 0.34454972
28.774294 48.094135 -1.2312603
28.954884 47.884911 0.27266845
28.737333 48.084621 1.6672696
28.661898 48.284882 1.6611266
28.767834 48.199631 -1.8274301
28.827589 48.172787 -1.8376732
28.777454 48.123039 -1.9553764
28.825481 48.182518 -1.9532034
28.766184 48.090565 -0.63243043
28.906984 48.097038 -2.1083751
28.698874 48.386215 -1.8342996
28.756119 48.403767 -1.838263
28.706848 48.386051 -2.0062928
28.762903 48.187592 -0.83344376
28.763229 48.303696 -1.8635452
28.858166 47.978687 0.63404655
28.593092 48.202362 1.8740789
28.769453 47.997543 0.26452944
28.941528 47.828812 2.6437612
28.989796 48.088909 0.46585023
28.8556 47.992298 0.76467156
28.863964 48.090115 1.9140043
28.680042 48.194386 1.1596478
28.768522 47.822578 2.2687311
28.700018 47.993484 2.4381742
28.877272 48.166328 0.16079359
28.695538 47.996105 2.3592887
28.754183 48.273254 1.3672857
28.746553 48.083542 0.66617799
28.841087 47.880829 2.4655364
28.851488 47.971691 1.4311819
28.917921 47.988029 1.9216001
28.947191 48.172367 -0.048335146
28.756533 48.185741 0.051486049
28.681074 48.197533 0.16208245
28.65642 48.295761 1.1590401
28.759188 48.183968 0.45564252
28.75074 48.192242 1.1593806
28.931717 47.999901 0.77362412
28.870991 48.169876 -0.13278615
28.597315 48.317097 1.460988
28.601273 48.317703 0.64710277
28.59271 48.404552 1.5611094
