# .PCD v0.7 - Point Cloud Data file format
VERSION 0.7
FIELDS x y z
SIZE 4 4 4
TYPE F F F
COUNT 1 1 1
WIDTH 1438
HEIGHT 1
VIEWPOINT 0 0 0 1 0 0 0
POINTS 1438
DATA ascii
10.394824 22.257854 0.90633374
9.4233341 21.502958 -0.32175925
9.4240828 21.653372 1.7222402
10.437593 22.266884 -0.19209184
10.068277 22.061634 0.79375297
10.24967 22.030909 0.5664677
9.3388824 21.593279 -1.6189618
10.480661 22.175005 1.5963771
9.0661163 21.776136 0.34571043
9.0977058 21.776352 0.96379614
9.1039991 21.790607 0.42250109
9.0762815 21.845303 2.8958712
9.3271341 21.694668 2.5259826
10.203455 22.152388 -0.5243991
9.2868319 21.851589 -0.64629483
9.2194748 21.886053 -0.54565269
10.080773 22.035845 1.6611881
10.089293 22.104998 0.67087227
10.463523 22.203108 1.6637099
9.2751703 21.855635 0.34685868
10.186734 22.035025 1.5364821
9.3637657 21.816484 0.75606984
9.335722 21.583345 0.86229479
9.3844767 21.865456 0.067130119
9.1630163 21.89493 0.26742673
10.086598 22.095594 0.15899771
9.3459826 21.584204 0.059599221
9.2952385 21.854488 -0.40782511
9.2929611 21.597992 -0.23962004
9.3752794 21.882721 2.0562878
9.2905979 21.286901 0.58696353
10.247476 22.09936 -0.040014677
9.8480177 22.097914 1.4460651
9.5969715 21.95722 -0.93864977
10.263719 22.103621 1.6586955
9.5633669 21.812305 1.9736329
9.5450506 21.815826 1.8417823
9.5788574 21.964298 1.0684102
9.4900227 21.968748 1.2547529
9.582077 21.962889 0.17240542
9.9658508 22.001339 0.091565609
9.5778399 21.962099 0.070967168
10.245832 22.099043 -0.53818935
10.26867 22.190578 -0.41623944
9.7868166 21.898432 -0.042356644
9.3237371 21.947378 -0.98383451
10.357039 22.107122 1.5573786
9.5886526 21.959494 0.26199302
10.264471 22.176466 0.067649961
10.423133 22.164995 -0.51362646
10.111496 22.15045 -0.32061934
9.361968 21.792826 2.2578449
9.3429241 21.68609 0.63600492
9.2581215 21.695312 -1.3290823
10.184638 22.030008 -0.82512385
9.9361238 22.078762 0.8456468
9.4149036 21.96117 -1.0839285
10.246387 22.096909 -0.44032785
9.4020844 21.827583 3.0711408
9.2715788 21.700378 2.5675604
9.2472715 21.689623 2.6546507
9.9776449 22.059961 -0.42482018
9.8903666 22.180035 0.96647328
10.09096 22.092232 1.5514436
9.2714281 21.875923 2.4615312
9.3652039 21.889666 2.4618988
9.3643789 21.965055 -0.71951991
9.8390722 21.972889 -0.43786716
10.257237 22.1082 1.2606047
9.8350096 21.982687 -0.33981365
9.8530607 21.972034 0.24886641
9.4406452 21.921352 2.9480364
9.6509094 21.928692 1.9838653
9.983201 22.029627 0.73850864
10.392509 22.25526 -0.18222024
9.2991543 21.60519 0.66032338
9.2934952 21.602671 -0.13774513
9.4143963 21.948452 0.089134529
9.3371458 21.678759 0.17547582
9.8774605 22.105898 1.6551008
10.371857 22.250084 0.1574927
10.179592 22.170486 -0.33245945
10.426826 22.229864 1.7397122
10.249608 22.104794 0.86006933
10.252466 22.027815 1.6595032
9.5736923 21.974552 1.8673433
9.2934637 21.603712 0.06096565
9.5624266 21.984787 2.0600948
9.5835629 21.965225 1.5496919
10.074383 22.106768 1.8540059
9.8482676 21.895134 -0.13947736
9.9565687 22.062895 0.38824245
9.4567566 21.386034 0.06517408
9.3351164 21.576731 0.26001078
9.5799274 21.970543 1.7656032
9.38515 21.868057 -0.23560695
9.3459845 21.592558 -0.43414241
9.3742914 21.394363 -0.43705559
9.4470949 21.382841 1.7557877
10.009237 22.105148 0.41962409
10.371875 22.25054 0.40539965
9.4588938 21.821281 -0.54779243
9.9663486 22.072479 0.75367069
9.4563446 21.824144 -0.43577582
9.458744 21.820333 0.26121297
9.951335 22.079712 0.62570816
10.259941 22.167686 0.25470179
9.3830166 21.863958 -0.4314993
9.3758354 21.400295 1.5636412
9.3416853 21.590912 -0.34874478
10.338067 22.103458 1.4596765
9.3601942 21.499693 1.0645499
9.4602041 21.823532 -1.1417447
9.368825 21.49848 1.6601869
9.7624302 21.982029 0.16063793
10.337716 22.196259 1.3371515
9.3607512 21.491808 1.1602542
10.267063 22.100096 1.9547052
9.4583073 21.832607 -0.34421167
9.3412123 21.590527 1.0607314
10.246264 22.098948 -0.23624426
9.187396 21.614084 -1.0288646
9.3802109 21.865744 -0.74271882
9.2140141 21.725996 -0.74505043
9.356534 21.487413 0.058567081
9.3768187 21.86326 0.36026627
9.2884617 21.327938 -0.93500543
9.3952751 21.136045 0.78289992
9.1843061 21.700581 -1.4417892
10.099612 22.085056 1.7794676
10.305003 22.26708 -0.44600374
9.4000263 21.208347 -0.04884823
10.076068 22.103609 -0.049765624
10.369294 22.264435 0.071780369
10.049728 22.085773 0.35803005
9.3651686 21.493311 1.2560616
10.049485 22.02256 -0.35651159
10.257604 22.167377 0.36191207
9.6599846 21.925407 0.25381115
10.061635 22.082844 0.048339419
9.0850573 21.764654 1.2133825
10.187881 22.019344 0.65509176
9.4002562 21.20336 0.26635367
10.257229 22.101252 1.3606733
10.244431 22.103571 0.46347067
10.266834 22.103285 1.7598455
9.4457512 21.832014 2.5304623
10.180953 22.017668 0.2669099
10.343213 22.10668 1.7711674
9.3821659 21.864952 -0.63424051
10.072894 22.07564 1.9666643
9.1985235 21.695456 0.45783496
10.185478 22.042694 1.7678887
9.2084684 21.713898 -1.0369294
9.2412815 21.591486 -1.4400073
9.1915121 21.704508 -1.3345652
9.2686291 21.588163 -1.1345323
10.265787 22.179296 0.6682508
10.044018 22.034441 2.0692964
10.112402 22.033295 1.8867215
9.8578138 22.09152 1.5432893
9.8858528 22.156883 1.4601429
10.177919 21.943703 1.4111558
9.1958809 21.613134 1.5169699
9.4024086 21.21143 1.45971
10.246115 22.099775 -0.34034142
9.4078302 21.210165 1.2649039
9.4530525 21.816536 1.9680495
9.4527903 21.810772 2.2856147
9.833951 22.002028 1.7699826
9.2777309 21.684027 -1.4279047
9.4213657 21.092091 1.3402108
9.1937304 21.776628 -1.3432395
9.4054441 21.134901 0.90913922
10.364796 22.260746 1.6518601
9.265007 21.699196 -1.2271451
9.4751768 21.74412 1.9866736
9.2195997 21.55895 0.34818482
9.3011837 21.398993 -0.44434518
9.2949305 21.411591 0.056595575
9.3684626 21.078272 0.18002109
10.158009 21.915909 -0.41157711
10.128181 21.907181 -0.17045227
9.3604879 21.105854 0.60398179
9.2015467 21.599335 0.56906307
9.3125076 21.444544 1.0191425
9.1959124 21.727652 -0.22941734
9.210618 21.724661 -0.63995451
9.219121 21.575523 -0.24837461
9.1786776 21.611061 0.032194231
9.2060041 21.60631 -0.48407298
10.239786 22.029179 1.1686029
10.084934 22.031937 1.9886413
9.1955986 21.54566 0.7610029
9.1799345 21.621218 -0.92387259
9.4541683 21.82008 0.76047593
10.164098 22.021544 -0.74702919
9.1914454 21.579039 -0.76967806
10.247327 22.02006 1.565405
10.224513 21.995541 1.0679648
9.4715862 21.879198 1.0586877
10.245259 22.019493 1.3735213
9.2032566 21.512428 0.16339821
9.202117 21.727844 -0.33671868
9.2072496 21.719841 -0.12810658
9.3841448 21.129993 1.0613257
9.2928619 21.413851 0.2827715
9.4079456 21.12491 1.2455453
9.4618378 21.826206 1.2694117
9.391695 21.126968 0.39380568
9.374506 21.299389 -1.1288028
9.188776 21.783388 -1.4409913
9.2020655 21.71822 0.23479053
9.8490553 22.080544 -0.017912447
9.5571918 21.838316 1.2264546
9.4632587 21.827093 1.4561708
9.4376001 21.816494 1.0637776
9.3086052 21.41901 1.2674381
9.310503 21.327904 -0.27988216
10.109628 22.191549 1.4507349
9.4013977 21.196957 0.45486003
9.2948465 21.406326 0.74032456
9.1962099 21.712337 0.15764864
9.4040022 21.206587 0.37023684
9.5520363 21.829302 0.98494631
9.466217 21.821812 1.6607382
9.8682413 22.151833 0.50640768
9.8804312 22.168625 1.2013007
9.6895247 22.081167 0.51740181
9.6528273 22.068027 1.439582
9.6098948 22.048054 0.72089303
9.483283 21.559557 0.10217962
9.4545736 21.800179 0.97054666
9.8955936 22.170433 1.017971
9.8718376 22.154715 0.066243358
9.8707047 22.152248 0.55401701
9.4660358 21.973553 1.0569597
9.4176607 21.95577 1.0398407
10.348401 22.216457 1.5431297
9.687294 22.062916 0.86023343
9.4855871 21.989719 0.77789795
9.4626122 21.956413 0.67086643
9.4552917 21.821373 2.4531803
9.7058182 22.050123 0.69964612
9.2903204 21.852531 -0.21216011
9.4691296 21.952984 -0.32839105
9.4385004 21.573851 0.63004398
9.4220018 21.631472 1.2157677
10.296472 22.247328 0.43690705
9.6665287 22.050797 1.0382502
9.4201202 21.665983 1.3048483
9.5939579 21.967499 -0.44095984
10.356226 22.279369 0.77153015
9.457303 21.580593 1.1631093
10.202381 22.148819 -0.63462722
10.364547 22.221449 1.6612124
9.5143833 21.953573 -0.017517032
9.4328175 21.59782 0.98897022
9.144002 21.625639 1.7731878
10.330302 22.107117 1.0564965
10.358082 22.219879 0.48344314
9.2844858 21.59202 -1.6119272
9.50741 21.956257 0.15118572
9.4717913 21.503729 0.34518254
9.4611206 21.597813 1.0725454
10.231444 22.010582 0.95594954
9.4608917 21.585587 1.566466
9.4698677 21.454226 0.82581258
9.4278727 21.556446 0.85499585
9.7877455 22.064602 0.054467943
9.8000498 22.074253 -0.44681665
9.4491014 21.600807 1.662755
9.4637384 21.952808 1.4567142
9.4527054 21.45755 0.035636641
9.2939091 21.85754 0.035866823
10.256351 22.178341 -0.2359851
9.4876699 21.974947 1.1784617
9.4507132 21.467943 0.25156486
10.330817 22.124586 1.3950008
9.3857975 21.137428 0.077675402
9.2793627 21.8633 0.65153849
9.5899668 21.964645 1.4631228
10.314388 22.250443 1.3976806
9.4591551 21.577881 1.4742122
9.2880154 21.858521 1.2783023
9.2851849 21.867365 0.55264473
9.3062572 21.852818 0.17764974
9.8476486 22.098024 0.95860958
9.2995501 21.52556 0.26624361
9.4732895 21.881289 0.75950015
10.342724 22.206886 1.4721676
9.800292 22.066847 -0.25221315
9.2158661 21.852903 1.4824926
10.361156 22.191885 1.8547781
9.5856018 21.966644 -0.019193675
9.4740009 21.884369 0.86220604
9.3721323 21.795809 2.1570766
9.8049507 22.059181 -0.11373714
9.5798483 21.971302 0.4481419
9.3032541 21.394753 -0.36655217
9.3573847 21.695797 0.97086895
9.4484015 21.825562 0.15201315
9.79568 22.075974 0.27630273
9.3542871 21.678802 0.061380289
9.7757816 22.081713 0.54261702
9.3706226 21.791451 2.4568281
9.4288254 21.470474 1.1737927
9.8050985 22.065243 0.16154739
9.3423805 21.714184 2.4547558
10.201939 22.020531 1.2474045
10.202706 22.171602 0.25195
10.203363 22.006611 1.1560993
9.2780294 21.873234 1.8498218
9.4758682 21.881336 0.95730114
9.3625603 21.111763 0.67206275
9.3867912 21.294416 -0.94118011
9.4669008 21.879335 1.1601691
9.2503834 21.392059 -1.5387272
9.8379278 22.078453 1.3599648
9.8278322 22.069893 0.86773396
9.4743986 21.880507 0.65772849
9.341012 21.689104 1.7689867
10.330002 22.084747 0.34432769
10.043466 22.13298 0.46303234
9.8456593 22.087654 1.0456998
9.2827129 21.86348 1.6630088
9.2794218 21.858269 1.5513906
10.236472 22.030991 1.4524611
9.5392418 21.508673 1.2648994
9.2899265 21.879347 0.7823621
9.7860489 22.060921 1.1722963
9.5834589 21.9706 1.6535504
9.3386383 21.588903 -0.64833641
9.3839645 21.96446 2.6327286
9.3567247 21.779877 2.3559713
9.3499336 21.698425 0.44677895
9.7904758 22.061087 1.048807
9.3030453 21.513174 0.4641149
9.7928724 22.064831 0.76433748
9.5082321 21.975687 -0.91167849
10.030548 22.043579 1.528603
9.2013674 21.710476 -0.036807157
9.2033615 21.717518 -0.53786922
9.2014341 21.718634 -1.1389059
9.2043228 21.567297 -1.1518108
9.2944937 21.50132 -0.54316133
9.4746771 21.880146 0.56005287
9.2639027 21.591236 -1.2357231
9.3001137 21.511421 0.96288836
9.2975912 21.516253 0.66470629
9.3455896 21.699282 2.0615394
9.4413157 21.478376 0.75402802
9.456584 21.220465 0.26068297
9.8371067 22.09561 0.54910034
9.3712978 21.886848 2.1592059
9.8439341 22.076214 1.2591231
9.1806049 21.597284 2.0643752
9.4377899 21.48596 0.46925032
9.2114744 21.712788 0.77412486
9.1984653 21.717463 0.57861829
9.6254892 21.842228 -0.56129473
9.5391636 21.829592 -0.24688405
9.2914486 21.386206 0.35255066
9.7993593 22.065584 1.4519205
9.465168 21.823139 2.3505821
9.2904005 21.866463 1.954235
9.2007532 21.774267 -1.2318283
9.5660877 21.905952 1.5660105
9.7672644 21.993753 1.2599331
9.1926508 21.718782 1.9715486
9.5662346 21.905127 1.2641866
10.330083 22.200403 1.2837255
9.5640097 21.904083 1.6678193
9.3827534 21.2941 -1.0360816
9.8750324 22.059269 -0.10276298
9.1982956 21.711735 -1.2285525
10.232259 22.032019 0.45955467
9.4847536 21.989155 1.7780646
9.6929331 22.166584 -0.65991127
9.3946829 21.303646 -0.44152454
9.2722473 21.700422 1.9526613
9.4494181 21.826527 0.55641824
9.2791138 21.864002 3.2908607
9.1992903 21.730583 1.1603959
9.3626976 21.992447 -0.8809678
9.1903515 21.775944 2.2644999
9.4861526 21.998285 2.4595554
9.4873238 21.991039 2.3684273
9.2317181 21.732153 3.0935917
9.4747267 21.982258 1.9649283
9.2852392 21.880276 3.1682706
9.195652 21.712141 2.4619725
10.329572 22.203339 0.87646341
9.1951532 21.72542 1.8474905
9.8358946 22.105326 -0.43358061
9.2556229 21.710644 2.7743816
9.4907894 21.958057 1.6545491
9.1916046 21.709097 2.15731
9.3512669 21.473886 -1.0366691
9.2082977 21.721554 1.5668975
9.7894926 22.0634 0.86221123
9.8407316 22.001263 0.55513149
9.4705029 21.961252 1.8619496
9.191906 21.786547 2.161468
9.5529108 21.836605 1.6702433
10.069855 22.107962 0.58004725
9.1988716 21.779099 1.5621022
9.5489006 21.814692 -0.53707767
9.2104845 21.740149 1.0614593
9.1953821 21.709734 2.0420933
9.2010679 21.725761 1.7700033
9.5933342 21.957844 -0.13326544
9.204257 21.723186 1.4701346
9.1968288 21.638319 0.25201049
9.2060461 21.612892 0.1500369
9.2165823 21.441597 0.15364441
9.8030777 22.067242 -0.50328803
9.5871391 21.95899 0.35008457
10.195184 22.091488 -0.7402944
9.3790941 21.395512 1.3622195
9.2768049 21.486383 -1.1398716
10.257839 22.17281 -0.33765793
9.1940985 21.720881 1.6581638
9.6657124 21.913456 1.1561083
9.4566116 21.469971 1.5617669
9.5902424 22.094749 -0.71097845
9.3466053 21.698013 -0.42143032
9.343833 21.584476 0.56247926
10.351255 22.201065 1.7639952
9.6557016 21.926704 0.1578566
10.245352 22.102859 0.362775
9.6583691 21.92358 -0.33977386
9.0810061 21.663017 2.6505187
9.7773113 21.910929 0.46299356
9.2739363 21.786421 2.4534926
9.9983807 22.062437 1.7338032
9.2941675 21.395784 -0.05655067
9.290823 21.595984 -0.43540406
10.2345 22.023195 1.2766064
9.3590765 21.69466 0.35768569
9.33957 21.685444 1.4590424
9.3587608 21.688341 -0.75367063
9.9756107 22.066193 -0.25489053
9.7882576 22.075979 1.2438669
9.4725046 21.881943 1.2581836
9.5858412 21.9611 -0.75158513
10.262643 22.180538 1.4577324
9.3697224 21.820372 2.881186
9.2716122 21.698915 1.85522
9.1995792 21.697357 2.6677125
10.268663 22.246304 1.0492678
9.3994846 21.300098 0.059853718
9.2560024 21.804005 2.8707604
9.4627895 21.815723 1.7612249
9.4698496 21.906679 2.0572996
9.3404303 21.581085 0.76277274
9.4024544 21.311296 0.85601473
9.2574825 21.787552 -0.93525088
9.4630814 21.224405 0.75668067
9.2860689 21.597336 -0.63613367
10.266721 22.174326 0.96125835
10.344329 22.113256 0.27674842
10.326212 22.255417 0.66330379
10.365053 22.090534 -0.23531157
9.8086491 22.069874 -0.35891864
10.337867 22.112043 1.2591845
9.3034782 21.511435 0.86809558
10.326575 22.09071 1.6732079
9.4508114 21.380653 0.35440871
9.1857243 21.793327 2.453068
9.4346027 21.370768 0.76563823
10.366734 22.283669 1.4507054
9.2957087 21.516935 -0.041375216
9.4371033 21.503559 -0.21873888
9.3986073 21.208563 1.3544577
9.4509401 21.27915 0.76082397
9.4999323 21.955704 0.94898212
9.4518156 21.28211 0.56455135
9.4529867 21.829597 0.062694311
9.4029436 21.970793 0.53198922
10.324014 22.26943 0.2600064
9.4617281 21.225384 0.95999116
9.2622194 21.800827 -1.3343443
9.5548878 21.899754 1.8533024
9.2996502 21.501129 1.6605251
9.8618393 22.087368 0.16453572
9.2117958 21.621664 0.66313028
9.449975 21.279146 0.46276426
9.2110624 21.720877 1.2499504
9.3684645 21.798042 2.0595872
9.4530029 21.277281 0.65680587
9.403039 21.212797 0.77097929
9.3026276 21.505625 0.56975341
9.3324022 21.596294 -1.1364548
9.4730816 21.912657 2.5553091
9.4467812 21.391232 1.5613757
9.5662651 21.910545 1.0610504
9.6815701 21.970854 0.35987034
9.4015379 21.214375 1.0506155
9.2940369 21.518009 0.75651401
9.2083511 21.727299 1.3610692
9.6795988 21.969006 0.46558446
9.6587486 21.922243 0.45487118
9.5694399 21.907421 -0.038148366
9.6783133 21.981392 1.357656
9.6836395 21.973671 0.95633405
9.3457308 21.690006 1.9769853
9.3506947 21.697433 2.2658591
9.4474421 21.827757 0.86240691
9.2853308 21.602259 1.4638157
9.6749601 21.977358 1.0618261
9.344574 21.691544 1.5543669
9.7690401 21.995045 1.5602965
9.3560257 21.590109 1.6583947
9.3854856 21.869247 0.86298996
9.4693613 21.893017 1.6603725
9.3666401 21.811975 1.1612943
10.060802 22.09049 -0.4533239
9.5708065 21.977098 1.9641066
9.3419876 21.583258 0.15671654
9.2045412 21.778854 0.96235341
9.252697 21.701103 -1.0349625
9.3040915 21.959215 2.5304854
9.3689995 21.493103 1.3593488
9.7788944 22.069925 0.94822472
9.4473 21.601398 -0.43231711
9.2590723 21.3825 -1.4581088
9.2908058 21.402103 0.66858816
9.2568312 21.969347 0.40003768
9.2055101 21.775635 1.0665774
9.4517326 21.826538 -0.1446258
9.2811012 21.873663 0.46836776
9.4706068 21.826618 2.1743612
9.2106323 21.729483 0.85526747
9.3411102 21.71051 2.152966
9.564394 21.899185 -0.83583426
9.203228 21.781879 1.167707
9.4554033 21.37529 1.0678234
9.775877 22.06876 0.36786151
9.2750225 21.878227 -0.53821415
9.1838293 21.896526 2.9465601
9.4562788 21.823853 2.0530894
10.190786 22.163641 0.9599148
9.1883745 21.777859 2.3611932
9.4229279 21.141281 1.1106013
9.2804089 21.600708 -0.74172044
9.4512377 21.495161 0.16571379
9.2582998 21.704664 -0.73384911
9.4409838 21.370842 0.85940516
9.2034111 21.77401 1.3524797
9.4518347 21.922039 2.8676167
9.1982059 21.702057 0.37263322
9.325491 21.595684 -1.2186444
9.9535332 22.071913 0.1631221
9.3172989 21.326059 0.77970338
9.2059708 21.781071 0.66801679
9.4613476 21.827705 1.1508586
9.2015352 21.785418 2.5561194
9.4789639 21.889704 1.5635613
9.4677076 21.888124 1.4579295
9.3543091 21.683422 1.2658257
10.340103 22.217079 -0.014218622
9.4286108 21.500772 0.64342237
9.4462786 21.477808 -0.15605834
9.2896118 21.602785 1.2572538
10.327354 22.259445 1.1511054
9.9935112 22.036879 -0.24074632
9.4725218 21.876564 -0.64518553
9.4311991 21.548418 1.3359869
9.5873461 21.963846 1.2552676
9.3776464 21.395912 -0.038077746
10.346916 22.192417 0.083576173
9.1975307 21.773735 1.7735406
9.2052336 21.716354 0.055442583
10.330989 22.24185 0.96203685
9.2716799 21.697607 2.2642553
10.325918 22.196991 1.0613025
9.3025932 21.499165 1.5588312
9.4513817 21.52634 -0.46378958
9.4495888 21.382629 1.2711393
9.304904 21.22426 0.3107489
10.271237 22.184879 0.55539608
9.44491 21.377653 0.46818972
10.344294 22.10882 0.86595362
9.37117 21.399269 -0.33941785
9.3701143 21.876066 1.4641157
10.34197 22.224388 1.187229
9.2986603 21.519648 1.0625719
9.5670862 21.905733 0.96302831
9.68435 21.966232 -0.43502864
9.2021942 21.777391 1.2559839
9.8561821 22.101088 1.1787823
9.4530678 21.496416 1.2563238
9.3928499 21.298372 -0.53703761
9.469696 21.883837 -0.53608268
9.4033766 21.125443 1.3340557
9.5576458 21.976746 2.2567813
9.3987274 21.306015 0.16598919
9.1963711 21.778492 1.6572695
9.4434919 21.785624 3.0877335
9.3647051 21.82225 -0.34231943
9.4488258 21.913414 2.7582331
9.3396645 21.679537 -0.14647339
9.770237 21.990522 1.6615939
9.2795219 21.876953 2.7621927
9.7645998 21.981243 0.063013226
10.343554 22.283676 0.9576385
9.2892065 21.601971 -0.33678183
9.272891 21.700998 2.0577219
9.295948 21.603909 0.35778883
9.206811 21.778273 -0.034314197
10.250113 22.031401 -0.35650194
9.4731579 21.876019 -0.14110436
9.2989902 21.604355 0.45875293
9.2720041 21.705385 1.5601476
9.343894 21.490089 -0.63921046
9.4991999 21.953819 0.41988072
9.4039888 21.205359 -0.13834855
9.204689 21.777479 -0.63579673
9.2503052 22.033257 -1.0358672
9.3854942 21.395908 0.26123175
9.4395485 21.381306 1.3654776
10.208075 22.1537 1.0604719
9.4739103 21.908037 2.2419035
10.249697 22.105478 0.9617672
9.3421869 21.692959 1.8613079
10.246544 22.1035 0.66165125
9.561903 21.90662 0.35996163
9.4358587 21.824909 0.34839723
9.934989 22.005352 -0.12926099
9.8708239 21.995968 0.073754467
9.3455648 21.588028 -0.53778905
9.2929144 21.603903 1.1656138
9.3448315 21.486912 -0.74680769
9.474287 21.881393 0.36440924
9.2553864 21.702232 2.8446338
9.6611681 21.914392 1.3640559
9.6823654 21.985331 1.558918
9.4755297 21.909916 2.3618557
9.9228516 22.013235 -0.019378308
9.2869453 21.859558 0.85473144
9.2709923 21.594572 -1.0352515
10.350857 22.189451 0.32305485
10.362192 22.211664 0.23854265
9.3604326 21.812641 1.2639755
9.8337765 21.988937 -0.53112966
9.272007 21.699493 1.1583635
9.3944159 21.30814 -0.23631784
9.5700378 21.905998 0.058699328
9.5903435 21.965134 1.15669
9.2729454 21.79834 2.3587451
9.3855076 21.398388 0.56136096
9.2698917 21.702133 1.0606396
9.2685833 21.701973 1.6613472
9.5719852 21.899832 -0.63990647
9.2676888 21.700932 0.3618468
9.5716047 21.911804 0.46148011
9.8469057 22.081139 -0.52918845
9.3573122 21.480982 -1.1407403
10.347092 22.259407 1.2389681
9.2075005 21.777508 0.86239946
9.3838778 21.395309 1.1632516
9.3457575 21.490721 -0.33505976
9.2714834 21.783913 1.6612272
9.2652645 21.705332 0.16108514
9.4624748 21.286425 1.6606755
9.3016825 21.512506 1.4677148
9.3822298 21.395628 0.059774507
9.2698574 21.7841 1.5555328
9.3536263 21.593269 1.5532234
9.4898682 21.993069 2.5599813
9.4702673 21.898561 2.1584225
9.2902031 21.86684 -0.73978496
9.3695335 21.869719 0.56357658
9.2183371 21.555559 1.4225217
9.5682287 21.904743 -0.93747675
9.3014545 21.420166 -0.64791071
9.5853176 21.973312 1.3499433
9.349884 21.491047 -0.43997943
9.3670607 21.388956 -0.94113249
9.2678366 21.70125 1.2602875
9.3992605 21.201931 0.15701157
9.2586336 21.697996 -0.83533174
10.252596 21.939102 -0.76678973
9.4682465 21.902353 1.8629009
9.1931229 21.49264 -1.3308861
9.839283 21.990658 0.45328826
9.3837929 21.397104 0.65927315
9.2591314 21.696482 2.4571166
9.397543 21.306755 -0.14004713
9.4331226 21.406727 -1.1152167
9.6716633 21.923418 1.4632672
9.2669487 21.702934 -0.43791282
9.2618637 21.700043 -0.53856874
9.3637867 21.817316 1.3583696
10.258312 22.1026 1.4599386
9.3423891 21.677423 -0.033036772
9.3705988 21.881317 2.2651372
9.4262419 21.738766 1.90985
9.2100983 21.72983 0.95257074
9.4743958 21.920952 2.4530754
9.5711536 21.899191 -0.43919724
9.3843174 21.865307 0.65930212
9.3609095 21.393745 -1.1347409
9.2989998 21.604588 0.86070967
9.5708694 21.904219 -0.74317628
10.083853 22.015514 0.089527681
9.4600954 21.224291 1.3606986
9.4757309 21.883118 -0.33410436
10.263769 22.175116 -0.032100085
9.4008875 21.302076 1.1572506
10.178773 22.166046 -0.13757226
9.3840179 21.396542 0.16825624
10.235929 22.015715 0.8784582
9.7839117 22.067793 0.45582414
9.3558874 21.688747 0.5607121
9.1895809 21.775711 2.7478693
10.014136 22.076 0.93326378
9.2999039 21.87352 0.26298082
10.181745 22.024109 -0.3692185
9.3601561 21.493177 0.96086365
9.3855391 21.39822 0.76086462
9.3424311 21.486662 -0.83382803
9.3518744 21.494385 0.56184113
9.3834982 21.396807 0.35955846
9.4582853 21.226559 1.2626997
9.2696571 21.700581 0.66507268
10.193251 22.161446 0.14703231
10.263439 22.164627 1.046898
10.259843 22.175776 0.16695654
10.201045 22.165709 0.64901173
9.4597616 21.224195 0.66107488
10.199471 22.098015 1.7581532
9.3305817 21.716635 1.1422644
9.2065983 21.781673 -0.13450661
9.3561735 21.490463 0.25992584
9.2715206 21.698784 1.3614668
9.7805014 22.068043 1.5764724
9.2793789 21.877531 2.9659779
10.176586 21.997845 0.53518522
9.8384647 21.971079 -0.24470739
9.3343382 21.678419 -0.23605998
9.3494501 21.483986 -0.93834585
9.3189917 21.377897 1.1392134
9.4521685 21.280443 0.86037862
10.080003 22.080824 0.24885021
10.252724 22.030136 -0.44651616
9.362731 21.819132 0.95865232
9.3452358 21.591057 1.2639165
9.3978109 21.307047 -0.034592971
9.45891 21.285305 1.4626797
9.4805441 21.87467 -0.43659946
9.7684937 21.982121 -0.63670468
9.4716091 21.880169 0.25920218
9.2012577 21.774094 -1.1388218
9.2846708 21.601114 1.5598855
9.2663202 21.702806 -0.03989134
9.339612 21.687447 1.6490113
9.5914087 21.961563 -0.63934666
9.3404694 21.70318 -0.33749416
9.358366 21.816957 0.6572023
9.4460373 21.821669 1.3697743
9.9313564 22.01914 0.41576305
9.2934074 21.862343 1.3480625
9.5691957 21.907734 0.26080081
9.3643293 21.819599 0.55821532
9.3805952 21.872904 1.2651794
9.4633951 21.831009 1.5724736
9.2476196 21.79154 3.0819221
9.3763371 21.399023 1.6635325
9.5476551 21.832655 -0.83796793
9.3026752 21.858934 1.44078
9.4723988 21.877962 0.1602502
9.1922073 21.885246 2.6526103
9.2690878 21.702862 0.760131
10.138537 21.898405 -0.36813605
9.3998585 21.307083 0.96232611
9.3830509 21.864729 -0.53771496
9.3851252 21.399685 0.95423758
9.3656244 21.496817 1.4615324
9.4411182 21.609966 -0.14911611
9.345479 21.588949 1.1659968
9.3517408 21.491184 -0.037494346
9.1983662 21.708658 2.3552575
10.246243 22.160625 -0.73599029
9.3396997 21.580639 -0.14187573
9.4585781 21.826525 0.45953035
9.400672 21.308229 0.65614337
9.2813978 21.869761 2.0566816
9.3761311 21.492985 1.5570885
9.397439 21.298872 1.3610673
9.4222431 21.605801 0.73795307
10.196105 22.092096 -0.44109383
9.3531046 21.496729 0.45814535
9.6643524 21.920738 -0.64010733
9.4447298 21.380627 1.1541141
9.4366341 21.370588 0.15827136
9.2876863 21.294912 -1.3460521
9.3669415 21.487823 1.7530935
9.8510189 22.085274 -0.3660256
9.2039709 21.716452 -0.84828073
10.332713 22.260056 1.0767264
9.5574675 21.836086 0.046041179
9.254796 21.700117 -1.1382509
9.2105637 21.639755 0.43171823
9.2530632 21.701904 -0.93438709
10.336592 22.022581 -0.72964507
9.3356161 21.582708 -1.0263808
9.5709534 21.816677 0.64207429
9.4214821 21.12851 1.2200861
9.4557295 21.825539 0.67464602
9.4390049 21.40259 -0.62985575
9.2936373 21.408087 -1.0467519
9.304738 21.514505 0.16805935
9.369688 21.907013 2.9555545
9.5720272 21.956472 -0.5378176
9.4715109 21.896364 1.9576457
9.573144 21.909618 0.16279021
9.4623661 21.821823 1.8585881
9.3339262 21.700386 -0.54481196
9.4509678 21.817257 -0.03983904
9.2682362 21.699968 0.9613111
9.448678 21.283791 0.16076291
9.2613602 21.696941 2.1571023
9.3489027 21.493374 -0.53803664
9.4757137 21.885603 1.3628528
9.3005209 21.851044 1.1570001
9.3696957 21.391169 -0.7411502
9.1926699 21.775362 2.666255
9.2585478 21.782707 -0.73444498
9.474926 21.884115 -0.03436878
9.2983475 21.604475 0.76218629
9.8559122 21.985609 0.34831464
9.3861961 21.396975 0.85905361
9.3495932 21.584866 1.4641616
9.5707798 21.837233 -0.73584735
10.071384 22.078423 1.6663649
10.203496 22.105091 1.3571216
9.296278 21.60178 0.56365663
9.4010344 21.303938 0.25889945
9.3107023 21.955706 2.6940241
9.6528769 21.906889 1.6533525
9.3936157 21.294102 1.460031
9.2657785 21.704275 -0.14002582
9.3129368 21.32292 -0.77277374
9.4374342 21.382736 -0.033558216
9.5603018 21.817499 0.86483824
9.1679688 21.768244 2.9359386
10.252315 22.107985 1.0636829
9.7709007 21.981197 -0.73453611
9.4620142 21.825186 -0.24053
10.195843 22.177277 0.072491661
9.7056084 22.08168 -0.59532517
9.9824448 22.017719 1.4818578
9.3983736 21.299227 0.36237329
9.3787136 21.872801 1.6565853
9.5534267 21.909224 2.060626
9.858696 22.085367 -0.23846567
9.3943195 21.301603 1.6635333
9.5699425 21.901136 -0.23439504
9.2711687 21.603796 -0.93191123
9.2675924 21.702847 0.058567554
9.2549038 21.872171 -0.17327958
9.9686565 22.018047 1.5457144
9.4524002 21.276173 0.96031362
9.4403944 21.481184 0.58114237
9.8432407 22.10675 0.26087797
9.7646942 21.978018 -0.43572161
10.242064 22.027874 0.66448748
9.3635311 21.487782 1.8517417
10.20408 22.100048 1.5685257
9.9345617 21.952044 -0.45879835
9.5861092 21.800375 0.34119248
9.5669231 21.910053 1.7650045
9.8425627 22.103163 0.048674617
9.4442825 21.455185 0.94084013
9.3667946 21.820452 0.26197869
9.8485126 22.008144 0.65171361
10.202071 22.099485 0.4629381
9.4559832 21.282976 1.161832
9.3938999 22.118284 -1.068837
9.6663256 21.917784 1.7639569
9.2606277 21.785362 -0.84112513
9.3095903 21.43523 -0.86056286
9.2093792 21.716303 0.67739111
9.5496283 21.914856 2.1447244
9.2993088 21.603184 -0.041851338
9.3864269 21.395767 1.059149
9.2716036 21.702087 0.86053008
10.339723 22.252592 1.5338398
9.302947 21.402992 -0.94580549
9.3144035 21.321354 -0.028330082
10.209964 22.154505 1.3590559
9.5496693 21.827904 0.25433475
9.4746485 21.878222 -0.23664396
10.108459 22.008459 -0.040094282
9.3019724 21.508955 1.1579897
9.2927933 21.600845 1.0602145
10.339167 22.100239 0.75500637
9.4745836 21.87888 0.45994073
9.456069 21.819395 -0.63406533
9.5709095 21.905058 1.4623564
9.571002 21.902065 -0.53341234
9.3640032 21.396568 -0.5378713
9.9553022 22.019117 0.14637975
10.248435 22.104301 0.75929165
10.192241 21.930975 1.0517671
9.2685518 21.783602 1.7613691
10.264889 22.104132 1.8594031
9.8498526 22.085512 0.46434858
9.4518156 21.277067 0.26067135
9.3007383 21.599535 0.25736091
9.2957916 21.603636 0.96041769
9.3678331 21.818674 0.86273956
9.4717026 21.880175 -0.8384679
9.447691 21.379459 0.96665382
9.5512018 21.800625 -0.33073008
9.2605343 21.700502 -0.6381411
9.9766645 22.040745 0.88888371
9.4399948 21.497162 1.8679436
9.4517126 21.281788 1.0579165
9.2709713 21.704596 1.760534
10.24637 22.102283 0.55865169
9.2657785 21.699839 -0.23574786
9.8070469 22.058407 -0.66145617
9.4033642 21.314823 0.55869776
9.2712736 21.703436 1.4596829
9.3400869 21.585176 0.96276659
9.2954206 21.603247 0.16847995
9.347888 21.476959 1.9607847
9.4651556 21.37879 0.25962913
9.6785583 21.977911 1.4531941
9.4388428 21.474321 1.7838391
9.2145262 21.562801 1.037244
9.3787889 21.865313 -0.83994555
9.2685118 21.785181 1.860038
10.034555 22.008202 0.30007756
10.357505 22.239017 -0.14183119
9.3870087 21.395075 1.2562202
9.3765898 21.401873 -0.14165263
9.4385986 21.383476 -0.16213965
9.4380655 21.482712 1.3524965
10.251002 22.097244 -0.73897284
9.400526 21.306118 0.75182587
9.2056561 21.778095 0.057242014
9.2023745 21.780146 1.46329
9.4048843 21.302914 1.0612488
9.3547096 21.490683 0.76382446
9.4572887 21.480473 1.4774354
9.5703087 21.909216 0.86241645
9.2062492 21.779119 0.76197147
10.116156 21.95092 0.38507357
9.3785782 21.949726 0.76215279
10.196493 22.095081 2.0649135
9.3011417 21.505005 1.367227
9.980917 22.066673 -0.13772409
9.5692644 21.908508 0.7590279
10.271382 22.034832 -0.54870605
9.3497047 21.68708 0.86069083
9.3854218 21.858875 -0.13171254
9.308321 21.518087 -0.24888629
9.4709778 21.896002 1.7598474
9.3444118 21.701344 2.3485968
10.247926 22.030092 -0.060605504
9.2686758 21.698359 0.46212134
9.3386002 21.579626 0.35731873
9.2632608 21.703241 -0.33962557
9.3038168 21.511915 1.2652452
9.459692 21.223864 0.85669822
9.3828115 21.400398 1.4640378
10.264058 22.039669 -0.63595551
9.4812517 21.889542 -1.1436317
9.6641569 21.91567 1.2583648
9.4251833 21.348967 -0.82079768
10.268289 22.099455 2.060672
10.152171 21.880222 -0.23126444
9.2845993 21.59877 1.6641777
9.472888 21.880114 -0.73214984
9.2061291 21.778107 0.56720757
10.204045 22.160576 0.57738698
9.9504375 22.0378 1.2961327
9.3417578 21.580742 0.46554184
9.3575153 21.814854 -0.037852034
9.5833664 21.965775 -0.3431415
9.4735098 21.972519 2.7444463
9.785409 22.066042 1.6519063
9.2681971 21.794441 2.1568036
9.4601288 21.225128 1.4618919
9.3944874 21.299473 -0.34185022
9.2987976 21.505203 -0.32911113
9.6579504 21.921282 0.36165878
9.65452 21.921707 0.96831954
9.2655458 21.701982 0.2620101
9.7682648 21.979635 -0.13689487
9.3478642 21.493774 0.16552323
9.4703779 21.877344 0.066022098
9.6629429 21.916445 1.5596681
9.2710209 21.699287 0.55849528
10.246197 22.104813 0.16023424
9.3831606 21.398006 0.46948311
10.256712 22.011534 0.75609106
9.4631701 21.281813 1.5666322
9.83043 21.992073 -0.62887979
9.2723742 21.791462 1.9547964
9.455575 21.285767 1.3662817
9.3059683 21.507563 -0.63881433
10.342317 22.079929 0.56660455
9.6566858 21.9231 -0.23527886
9.4393549 21.388742 1.4630135
9.4624605 21.224018 1.1589851
10.25383 22.103563 1.1542249
9.6547937 21.925474 -0.033562891
9.340168 21.583307 -0.046425574
9.2894106 21.597284 -0.53900236
9.3052788 21.341175 0.27631295
9.2025242 21.779865 -0.53312886
10.167767 22.012051 -0.63925034
9.4421692 21.37468 -0.33040369
9.4656105 21.489296 1.0893302
9.6502857 21.913427 1.8452883
9.2699509 21.791132 2.0598011
9.2841101 21.854719 0.96034259
9.5617828 21.907927 1.154712
9.2699347 21.701458 2.9570208
9.4346275 21.378479 -0.25425673
9.1776533 21.911816 2.078943
9.3775005 21.397982 -0.23893897
10.264037 22.167267 1.2599481
9.3470411 21.693521 0.24173738
9.4621439 21.827562 -1.0424683
10.346987 22.026281 -0.51077139
9.452302 21.493603 1.6720132
9.5479259 21.828529 -0.43887788
9.3599625 21.81958 0.36411878
9.2054977 21.728733 -0.93030697
9.4761467 21.890791 -0.93826854
9.2869387 21.611948 1.3630841
10.263179 22.105919 1.5590882
9.3630285 21.816259 -0.14198886
9.858139 22.078365 0.76263493
9.3035812 21.503897 -0.73750317
9.3738327 21.803852 3.1459162
9.3617191 21.822229 0.1645841
10.338247 22.070974 -0.3174752
9.2782097 21.861963 1.7323612
9.1958456 21.505564 1.3482713
10.172202 22.025698 -0.028206473
9.4019127 21.289833 1.5585625
9.3389759 21.579874 0.65615135
9.3822422 21.113111 0.50280714
9.1952991 21.790405 1.9461561
9.3929224 21.298845 -0.73292387
9.6590366 21.927465 0.063867375
9.4456635 21.379271 1.6656456
9.4553509 21.28092 1.2592407
9.3610821 21.819334 0.46504095
9.360671 21.820179 0.062976673
9.2915678 21.499151 -1.0426375
10.342509 22.230375 -0.30555797
9.2613087 21.695988 2.360744
10.380015 22.081347 -0.17267759
9.2770786 21.867168 -0.36297649
9.2041483 21.78071 -0.44284722
10.062765 22.054272 2.1512446
9.5569706 21.817188 -0.94337672
9.2034874 21.785892 -0.24051155
9.2056389 21.781925 -0.34415612
9.4372644 21.372667 -0.43318552
9.1784334 21.7754 3.055347
9.2627258 21.592833 -1.5285165
9.3624411 21.812973 1.0602435
9.4641361 21.816261 -0.7450102
9.2612286 21.492788 -1.326874
9.4019604 21.303408 1.2654271
9.2886314 21.509333 -0.93879789
9.297822 21.510597 -0.83933038
9.1855774 21.706818 2.5694122
9.4890451 21.99966 2.2708337
9.7802296 21.90443 0.25365523
9.2830219 21.861414 -0.043164905
9.3708649 21.807428 1.6666636
9.5723171 21.90291 -0.34021616
9.3983927 21.306732 0.46232301
9.92206 22.011436 0.97190601
9.8536234 21.98806 -0.042333581
9.3700399 21.898054 3.0693247
9.1883192 21.708858 3.0621817
9.5670862 21.905439 0.55811036
9.2847757 21.403984 -0.75633293
9.4781952 22.009079 -0.75401735
9.5604572 21.834629 1.4404171
9.2544012 21.583431 -1.3364253
9.9221001 22.026079 0.59558642
9.3709936 21.892136 2.6705279
9.3917942 21.300476 -0.6406728
9.4564342 21.826738 -0.84025985
9.4516258 21.474636 -0.53344089
9.4616442 21.375612 0.5657292
9.0520515 21.787878 -0.23083217
9.445693 21.277176 0.35872468
9.3666725 21.818815 -0.23585984
9.3786535 21.870094 1.3677281
9.67768 21.987362 1.6547107
10.285662 22.258802 0.83197314
9.3569069 21.696356 0.75509125
9.5864887 21.971888 0.95485747
9.4025965 21.215658 1.564101
9.3506746 21.493013 0.66126025
9.2083836 21.881428 0.37540823
9.3639202 21.797783 1.758799
9.6360483 21.829155 1.4369082
9.8271818 22.100296 0.38773286
9.1816463 21.779659 2.8800259
9.2915678 21.413359 0.49589166
9.3517523 21.688847 -0.83314663
9.3435755 21.686975 1.3539951
9.4262028 21.409111 -0.93071359
10.007704 22.004738 1.8543117
9.4781008 21.894815 -1.042197
9.6797161 21.969307 0.56151915
9.3993397 21.207947 1.1641293
9.3333931 21.587925 -0.92970681
9.2574568 21.781679 -1.0325445
9.6818247 21.97237 0.6631633
10.353569 22.205856 0.17229721
10.013292 22.051527 -0.32417777
9.3405485 21.682011 -0.63144827
9.662961 21.924894 0.56286877
9.4041386 21.214149 0.061010201
9.8466349 22.103094 0.688483
10.324406 22.141584 0.92157269
9.8015099 22.061836 -0.034705527
9.1862612 21.885643 1.5292131
9.3628063 21.813072 1.5581833
9.684473 21.96694 -0.13652863
9.4701872 21.919575 2.6604249
10.200288 22.094946 -0.14099146
10.200393 22.093246 -0.040861484
9.6748381 22.050903 -0.41125995
9.273056 21.803358 2.5439155
9.6788883 21.969944 0.85851979
9.7651567 21.979393 -0.2408969
9.3019962 21.408749 0.18135947
9.3425617 21.702724 -0.93760777
9.3823261 21.861551 0.45897126
9.3619709 21.810562 -0.73921889
9.3602476 21.796268 2.5554986
9.2873325 21.882027 3.0479534
9.685174 21.967798 -0.33907869
9.362154 21.390951 -0.83937192
9.3685246 21.816257 1.4627172
9.6706581 21.989681 1.864365
9.6846094 21.964518 0.16137893
9.5769196 21.961067 0.77403545
9.1967478 21.778378 1.8570967
10.251486 22.16386 0.76677108
9.1866713 21.864391 1.785669
9.3656178 21.396555 -0.63578105
9.9732599 22.075731 0.048153397
9.1854649 21.693462 2.9658091
9.5725803 21.913626 0.65441322
10.260762 22.169807 1.1652356
9.3935642 21.218462 0.96467572
9.2040014 21.71236 -0.44703379
9.9647284 22.050953 -0.64811987
9.3632364 21.810774 -0.6384778
9.3562994 21.889271 2.8628814
10.203602 22.095236 0.7620483
9.2776079 21.875111 2.6755898
9.3609972 21.802906 1.8618275
9.2532969 21.810556 2.6597352
9.375948 21.954702 2.580318
9.2921743 21.399555 -0.25470287
9.570261 21.777065 1.3625811
9.3128023 21.41856 1.5525143
9.255928 21.792236 -1.1359111
10.186295 22.09606 1.9606169
9.659502 21.919903 -0.4316996
9.3748674 21.901825 2.7540765
10.326967 22.243006 0.75012219
9.7805195 21.914169 0.15840553
9.6825991 21.969875 -0.039643489
10.082705 22.021172 -0.24281363
9.8499641 22.00634 1.544036
10.206137 22.100986 0.8564207
9.4978151 21.956499 1.354401
9.5124712 21.952404 0.86792779
10.204817 22.100063 0.96571577
9.9741831 22.071308 -0.038446028
10.207298 22.102673 0.65848887
9.362731 21.812002 -0.53809994
9.4450846 22.08358 2.6744995
10.20613 22.097034 0.56828308
10.062719 22.060631 -0.62532425
10.05972 22.070364 2.0624747
9.3035488 21.516087 -0.14245297
9.3734846 21.868431 1.5695311
10.205767 22.098612 1.4628356
9.2645187 21.80904 2.7548747
10.204728 22.100588 1.1670778
10.246984 22.098392 -0.6349718
9.6815758 21.971186 0.75980991
10.19403 22.164394 0.84359813
9.3588972 21.491735 0.85971963
10.247046 22.099672 -0.13598001
9.6705742 21.919542 -0.13980493
9.656229 21.924379 0.6586861
9.3377047 21.576365 -0.8323862
9.3640661 21.787863 2.6553717
9.3606215 21.81789 -0.44291592
10.016201 22.09095 1.8382998
10.364215 22.076675 0.48446336
9.5906458 21.957272 -0.23364542
9.3962345 21.199039 0.8583535
9.5691175 21.906019 -0.13397183
9.2495174 21.828026 3.1844428
9.3526268 21.492996 0.36205325
10.200313 22.103844 1.6679094
10.202997 22.102264 1.0647278
9.1679554 21.602638 2.2673528
9.3470678 21.589582 1.3585671
9.675621 21.992533 1.9549801
9.6769848 21.963446 0.2589094
9.4612989 21.47937 -0.051909108
9.8604212 21.988777 -0.13771173
10.197992 22.307671 1.24031
9.5631523 21.907259 1.3630245
9.7671127 21.979853 -0.037370387
9.3617258 21.79899 1.9616367
9.7625628 21.988586 0.96025491
9.6801128 21.991199 1.7680721
9.7190533 22.13364 -0.1940262
9.4632225 21.225641 1.0602118
10.206217 22.107452 1.264491
9.6639843 21.92775 0.85758018
9.7683945 21.979586 -0.34049636
9.7640972 21.983744 0.36486027
10.19701 22.094492 -0.33854923
9.2698088 21.798725 2.2553949
9.2898455 21.876656 2.8532665
9.3509798 21.493408 -0.23548637
9.2617912 21.818174 2.9735692
9.4650869 21.826277 -0.94060308
9.2631454 21.875378 2.5521586
9.3740788 21.882332 1.86374
9.7949305 22.058023 1.3735205
9.6646023 21.923382 -0.54030037
9.767971 21.979095 -0.53886521
9.7639017 21.986059 0.56302655
9.3682718 21.891409 2.5565023
10.261866 22.167681 0.85556042
10.264195 22.172764 1.3622593
9.6027298 21.964403 0.86226624
10.267687 22.170488 1.7566502
9.761117 21.986296 0.46365336
9.9553995 21.992929 -0.64071804
9.6840372 21.97142 -0.64226013
9.3799067 21.867613 1.1723545
10.2013 22.16033 0.35601896
10.362571 22.07328 -0.43810689
9.6790752 21.967175 0.065750919
9.7755461 22.063749 0.67979401
9.7639875 21.983498 0.26121718
9.7694407 21.99255 1.4604812
10.199912 22.094236 1.8585658
10.327705 22.12007 1.1407003
9.4693069 21.982349 2.6522257
10.204709 22.149157 0.45832303
9.3406067 21.587902 -0.23880398
9.7728806 21.909821 -0.13341875
9.284111 21.87896 2.3614011
9.1942968 21.792643 -1.5388156
9.3550549 21.492325 -0.13780959
9.6727362 21.975725 1.2586602
9.431509 21.37855 -0.56351084
9.7661123 21.991449 1.3614168
9.4218712 21.83251 3.1650963
10.266105 22.171244 1.8597606
9.3841801 21.863247 0.15905832
9.3780222 21.881075 -1.1470428
10.203878 22.155821 1.1500188
10.202949 22.160322 1.6786344
10.198853 22.094406 -0.24123871
9.3747292 21.87055 1.7549725
9.7609634 21.99206 1.0614954
9.6795244 21.977406 1.1564474
9.3421726 21.584887 -0.74588931
9.7628183 21.987648 0.66209954
10.345492 22.070013 0.6571945
9.300724 21.504324 -0.44810903
10.19805 22.159607 1.4659226
9.3810148 21.863197 -0.037064008
9.3919497 21.209328 0.65940148
10.194207 22.094011 -0.54014552
9.6812725 21.969193 -0.53249311
10.206323 22.161339 1.5721121
9.3059406 21.5184 0.063832395
9.293376 21.516066 0.35949975
9.7721691 21.99391 1.7608429
9.7741823 21.996227 1.8620667
9.370121 21.395285 -1.2270277
9.297575 21.85128 1.0672597
9.7638111 21.989511 1.1634948
9.2680855 21.490393 -1.2300963
9.490612 21.975941 -0.83454615
10.1967 22.165012 1.7471021
9.3813133 21.863821 1.0591074
9.3869772 21.864174 0.76544172
9.3690157 21.880304 1.9590068
10.198336 22.156443 -0.034313779
9.6842976 21.978731 -0.83590037
9.578968 21.959152 0.66406506
9.2628345 21.800041 -1.4426742
9.6858883 21.971359 -0.24502909
10.32693 22.241909 -0.45154265
9.3020134 21.383068 -0.55219138
9.3766994 21.868063 0.95745265
9.4011755 21.203466 0.56157982
10.264385 22.178806 -0.14136426
9.2794304 21.59593 -0.83766049
9.2755909 21.407505 0.55653793
10.198819 22.096779 -0.64205045
9.1961727 21.788355 2.0589154
9.4002886 21.205465 -0.2415994
10.206969 22.163252 0.73751158
10.210459 22.152618 1.2627527
9.5691547 21.828632 0.55671287
9.4500246 21.37833 0.66298771
9.4819794 21.958796 1.5693151
10.029535 22.152401 0.3833552
9.369772 21.491859 -1.2244811
10.209072 22.018442 1.4273378
10.270853 22.177511 1.5652168
10.170937 22.02393 -0.23161882
10.197021 22.024168 0.85711086
10.185949 22.173885 -0.21067171
10.304828 22.256767 1.4879565
9.3944292 21.861555 -0.33426249
9.5495195 21.814507 0.75166017
10.271255 22.169876 1.6608908
9.6679096 21.925137 1.0573477
9.5587387 21.820526 1.5451732
9.2806978 21.393696 0.81972116
9.2800379 21.397923 1.4844273
9.2122803 21.609018 0.87177843
9.5466423 21.811535 1.1020415
9.3467817 21.684906 1.0610164
9.3013449 21.281885 0.68665016
9.2761116 21.400288 1.3386497
9.558692 21.818373 1.1589515
10.174253 22.157917 -0.44113582
9.7626247 21.987494 0.76178485
9.879674 22.003662 0.14208364
9.8462868 22.018867 0.82502502
9.7614594 21.990099 0.85773599
9.5824289 21.962288 0.56219804
9.369812 21.894342 2.3662374
9.1973972 21.635923 1.1566525
9.1859522 21.686365 2.858496
9.2628441 21.400017 -0.14148423
9.6589766 21.927303 0.75622475
9.5540991 21.839853 -0.61714178
9.4415436 21.464005 -0.67385274
9.9585543 22.074244 0.25663924
9.1952715 21.701136 2.756114
9.8275661 21.997015 1.4817835
9.2800369 21.867046 2.2668014
9.3694115 21.891436 3.1520283
10.193616 22.003599 1.3737497
10.173114 21.996109 -0.44320846
9.3852663 21.860796 0.26649821
9.1690063 21.605606 1.3561448
10.179941 22.002117 0.071235955
10.165843 22.02253 -0.53778523
10.184081 22.005129 -0.1469564
10.198294 22.02272 0.74791306
9.2023354 21.694456 2.2607474
9.1776514 21.603897 2.3537395
9.2032413 21.63833 1.001502
9.8287277 21.982504 0.74051124
10.335616 22.095446 -0.54278052
10.238026 22.040508 -0.24430931
10.239219 22.039762 -0.13778679
10.258779 22.027996 -0.75250089
9.8356256 21.903046 -0.035201941
10.112595 21.948128 -0.13737468
9.399354 22.164009 -1.0613283
9.3354492 21.790958 3.2610054
9.3197651 21.306982 0.015112824
9.2050333 21.930288 -0.19749294
9.5707741 21.816435 -1.0461793
9.2699423 21.872627 2.1698618
10.098733 22.087374 0.98107612
9.2111206 21.895508 -0.46648708
9.191452 21.857342 2.5535932
9.1171188 21.782043 2.7731323
9.1823206 21.858624 2.7816544
9.1907492 21.856503 1.8361087
9.197504 21.884556 1.956777
9.1822395 21.84886 2.1317742
9.3968182 21.957796 2.4707959
9.2187672 21.897177 2.8155458
10.050442 21.921917 -0.19998944
9.2011976 21.872988 2.3215106
9.394784 21.986053 2.9729187
9.4775324 21.95121 -1.0412397
10.049331 21.986202 1.4242897
9.3598185 22.115368 -0.98814088
9.4073772 21.820316 2.7869904
9.3140707 21.965324 -0.55979764
9.5138044 21.948048 -0.50242734
9.0961561 21.760412 -0.15171143
9.5775623 21.959791 -0.84435749
10.115121 22.016876 0.65941459
9.1773767 21.887884 2.4685991
10.067516 22.026306 1.7658943
9.1786079 21.864918 1.2689887
10.083286 22.17815 0.85178858
9.2609186 21.956459 3.0001493
9.3822346 21.99559 3.0361583
9.6488724 22.064825 1.6627603
9.3702917 21.982246 2.8343613
9.3878698 21.951416 2.1776445
9.5164785 21.948668 -0.40911871
9.4082232 21.954823 2.7481568
9.6032085 22.079824 0.91929311
10.101695 22.07633 -0.28867951
10.046075 22.115452 -0.089157611
10.097796 22.068422 -0.5310359
9.4854126 21.959988 0.51805121
9.4816704 21.965738 0.077050596
10.108124 21.978882 -0.84052408
9.3436651 22.033381 1.4536242
9.8456459 22.025023 1.0394081
9.0910788 21.76239 1.5033237
10.081818 22.151535 0.77318358
9.5998812 22.079741 1.5441186
10.114176 22.147282 -0.11932424
