# .PCD v0.7 - Point Cloud Data file format
VERSION 0.7
FIELDS x y z
SIZE 4 4 4
TYPE F F F
COUNT 1 1 1
WIDTH 1592
HEIGHT 1
VIEWPOINT 0 0 0 1 0 0 0
POINTS 1592
DATA ascii
46.372536 45.286949 0.56980383
45.13958 44.367569 -1.4085959
44.902203 44.531902 1.0754391
45.168755 44.543091 0.16735379
45.050621 44.537167 0.67685884
44.903843 44.527046 0.95915228
45.022411 44.516384 0.81904572
45.193981 44.427086 -1.1166023
46.422386 45.321201 0.77240217
45.461166 44.920834 0.36364153
45.593803 44.986336 0.279131
45.675518 45.005329 0.3685813
46.978233 45.578171 1.3542393
46.870617 45.489235 1.7443227
47.677383 45.867954 1.7705148
47.768951 45.807934 1.7662644
47.262657 45.617645 1.7534481
46.776398 45.427765 1.766103
45.075974 44.511322 1.1608156
47.642368 45.8493 1.9017732
44.940411 44.533974 1.3621117
45.122196 44.367325 0.75452888
47.385143 45.72681 2.8619215
47.360821 45.715004 2.6573095
47.462154 45.804874 2.2570708
47.471661 45.807655 2.5746911
46.362217 45.280376 0.47699082
44.707035 44.353535 2.1214604
46.126095 44.84293 1.9783006
49.296738 46.043503 -0.37937796
49.524639 46.176373 -0.73180932
49.347782 46.029831 -0.6767714
47.042744 45.535355 1.6660244
45.937916 44.717533 2.4077334
46.729111 45.034397 2.3987613
47.040108 45.522293 1.3836806
47.064121 45.556465 0.41562659
44.893402 44.526672 1.2531693
45.457737 44.536018 2.4699438
45.960438 44.707634 2.5570791
46.623352 45.127586 1.1343496
46.754997 45.026573 2.4646413
47.540417 45.319138 2.4715688
48.051384 45.541626 2.5246012
46.361931 45.289112 0.66049123
46.367836 45.298401 1.0601643
46.711479 45.058327 2.660331
46.853531 45.095863 2.6631479
47.336246 45.285938 2.6390297
44.898796 44.537941 1.1699303
45.940933 44.737976 2.1818264
47.555443 45.333851 2.0046525
47.755276 45.426529 2.5632753
47.429146 45.444401 0.71477735
45.43008 44.542042 2.2209625
47.554466 45.328648 2.2607572
46.926601 45.245476 0.78012651
48.059647 45.536308 2.1685071
47.442631 45.442871 1.3358927
47.794716 45.468349 2.6613388
47.535767 45.340374 2.3806226
44.866257 44.339767 2.0701377
49.346935 46.041439 -0.13576663
44.765656 44.346191 1.855684
45.387566 44.565342 2.5600824
46.660954 45.021214 2.4661696
47.757942 45.435951 2.6467338
47.860409 45.479767 2.6540585
45.351509 44.521912 2.463964
48.054382 45.538918 2.0890856
46.365284 45.41927 2.6800086
48.295582 45.648689 2.729471
47.265427 45.234837 2.052649
47.524422 45.332504 1.8958391
45.47699 44.589657 2.446362
47.290802 45.619026 0.67635846
44.780483 44.31752 2.4612296
44.774403 44.319481 2.062367
46.656502 45.031185 2.3676369
47.247322 45.233238 2.437135
48.037205 45.534794 2.354646
47.247837 45.23484 2.3650575
47.36018 45.298546 2.5579114
45.721165 44.711346 1.8090477
46.085682 44.833694 1.7098045
46.639202 45.044449 1.7538109
47.43132 45.348045 1.8102684
45.051434 44.44294 1.8008356
46.910793 45.1231 1.8826504
46.66832 45.436943 2.6734238
47.269463 45.230705 2.5490689
47.753136 45.428173 2.4428437
48.046616 45.535854 2.4445913
46.767384 45.482456 1.7718804
47.241726 45.239594 2.1656959
44.884121 44.519695 1.371542
44.766186 44.318592 2.2673736
46.701756 45.06208 2.5503585
49.448193 46.099861 -0.33862221
45.838722 44.722233 1.7995529
46.023911 44.793938 1.7851486
46.686741 45.060638 2.4573727
49.543659 46.106548 -0.58665639
49.324211 46.042347 -0.51410323
46.682266 45.06572 2.15623
46.658604 45.426361 2.4407434
47.548786 45.339809 2.1721635
46.390923 45.315155 2.4475107
49.449467 46.102638 -0.14628235
46.644241 45.412796 2.5448689
48.044109 45.536816 2.2643974
46.406212 45.326416 2.5849001
45.766087 44.705124 1.8686759
46.675674 45.027569 2.5558589
46.863529 45.112362 2.2697484
47.263565 45.237713 2.2611518
47.367004 45.301922 2.464638
46.66642 45.424294 2.3209391
46.468269 45.395527 2.5948074
46.476654 45.434547 2.648823
46.650787 45.246887 1.7876558
46.460938 45.329262 2.2588835
45.92017 44.734928 1.8827935
47.068195 45.594212 2.5551009
46.62862 45.41296 2.2468724
46.665051 45.403748 1.7453966
49.133556 46.035587 -0.28535074
46.366184 45.418961 2.5733337
44.942806 44.527939 1.1739591
48.143787 45.616268 1.548201
48.179226 45.60112 0.79197532
49.459373 46.084545 -0.61043918
44.969078 44.427094 1.7872918
46.759319 45.521339 2.1532185
45.178688 44.889923 1.8541991
46.438152 45.330833 2.3416669
46.470634 45.373978 2.2329497
44.708717 44.358345 2.2681108
44.80201 44.351746 1.7410582
46.477875 45.376015 1.8622056
46.151142 44.852196 1.7713474
44.857136 44.38533 1.7626079
49.443939 46.095478 -0.53367645
46.693954 45.421783 2.1733861
46.692055 45.418625 1.8703992
46.463459 45.411339 2.3565524
47.293125 45.631775 2.074296
46.096165 45.259468 1.7652705
46.370335 45.297741 0.85857004
46.359856 45.287189 1.2624255
46.368996 45.309849 0.76348245
48.086189 45.583187 1.8606527
46.364376 45.396328 2.4664545
46.591927 45.00819 2.3671951
46.680992 45.059635 2.3681822
46.772442 45.089264 1.7684923
46.854942 45.122551 1.7705863
46.873676 45.119892 2.0705137
47.162441 45.23328 1.7879015
45.267586 44.853874 0.095415331
46.368191 45.293129 0.94535589
46.889072 45.570503 2.100292
47.862404 45.852783 0.37862933
46.071117 45.200005 1.7741133
46.681107 45.478882 2.069294
46.372845 45.304749 1.5569685
47.268456 45.269726 1.7949955
46.257809 45.317272 1.8657349
45.58474 44.658234 1.9729631
46.091644 45.222271 1.6614561
46.381321 45.295616 1.4587399
47.93272 45.636925 0.59286296
45.44902 44.920071 0.67874885
45.268486 44.863503 0.38506335
46.70644 45.248322 1.0955687
46.248844 45.239071 1.8404627
45.571133 44.895916 1.6400809
47.178741 45.668861 1.8575569
46.109055 45.254021 1.6665709
47.672928 45.778931 1.8673837
45.688301 44.833344 0.12173012
47.037109 45.332954 0.4530459
46.112915 45.056591 1.4639949
45.398888 44.753098 1.234395
46.198715 45.064205 1.4582317
46.056381 45.217262 1.8584801
46.269886 45.288868 2.0613966
46.358242 45.310665 2.2490587
46.766033 45.514381 2.0694816
45.181648 44.542778 -0.0011218973
47.646809 45.537109 0.5863632
48.323753 45.639545 0.58145535
45.187237 44.857433 1.2685896
45.185638 44.888981 1.6623901
47.6432 45.543297 0.70181942
46.986359 45.586006 1.8601809
48.702057 45.742714 0.55222571
46.226871 45.241753 1.9455427
47.47472 45.327465 1.8769788
46.47044 45.164989 0.79228342
46.554756 45.164261 0.10190533
46.688828 45.260456 0.8030467
46.948231 45.356106 0.80976057
47.209522 45.446255 0.81586409
47.774975 45.649071 0.82917553
47.800373 45.645718 0.48004866
48.333469 45.791042 0.48786116
48.41301 45.754494 1.5281444
46.76746 45.497681 1.946645
46.781311 45.254078 0.63832706
46.590343 45.019768 2.5413263
48.208878 45.642979 1.1084535
46.775444 45.096191 1.8928332
46.364452 45.310654 2.359271
46.37215 45.293697 1.167438
44.857479 44.335629 2.1491694
47.088581 45.575321 1.1706302
46.871723 45.563236 1.8541076
46.742691 45.429794 1.8921745
46.814026 45.577141 2.1618085
47.767406 45.973053 2.7500954
47.466721 45.317974 2.650826
47.200127 45.249245 2.5668607
48.290077 45.747478 2.1179051
46.051128 45.350227 3.0712662
47.770073 45.98233 2.863986
46.752674 45.034595 2.5507998
46.584518 44.996513 2.651732
46.966217 45.518066 2.154206
47.331444 45.630211 2.0272992
47.491089 45.359829 2.3529224
47.500549 45.360191 2.6457825
47.573952 45.818653 2.7402105
45.58374 44.668743 2.4671178
46.37199 45.312607 2.1813788
47.552547 45.782017 2.4721079
45.152828 44.956459 2.4847195
47.484612 45.357555 2.5481129
47.476376 45.36219 2.4673631
47.571564 45.792603 2.5731394
49.281971 46.020897 -0.42601439
45.159195 44.987637 2.961405
47.777401 45.468132 2.4605489
47.161648 45.609196 2.0621433
46.0383 44.938557 0.6657235
48.046524 45.653282 2.3319499
47.584839 45.495697 2.1607795
47.488003 45.369694 2.1400695
45.165852 44.589546 -1.9878461
49.201305 46.074051 -0.75345892
45.569447 45.102505 2.5705719
49.190502 46.078869 -0.21577987
49.570168 46.173073 -0.79111445
45.575325 45.095524 2.4489994
49.377529 46.194527 -0.46326274
45.581089 45.01635 2.2854531
46.049702 45.315018 2.9527307
45.558388 45.109035 2.7619514
45.473412 45.013138 2.7570903
49.294022 46.039043 -0.5369426
46.870914 45.116356 2.3587465
46.052086 45.319664 2.7558811
45.563221 45.005108 2.363071
48.668201 45.734283 2.1765027
49.264027 46.019981 -0.80571294
46.584301 45.401184 2.3692207
46.081474 45.233765 2.8201447
46.455051 45.404037 2.1789181
46.77256 45.085739 2.2592466
47.103085 45.540081 0.35611963
45.452038 45.075668 2.4687185
49.462006 46.10535 -0.74186152
49.339249 46.208138 -0.62958753
45.586758 45.039658 2.5996485
47.070534 45.192062 2.1734173
46.768108 45.082321 2.3608837
47.783279 45.827366 2.1458178
49.212769 46.115261 -0.79377091
45.472126 45.081524 2.5859861
47.698135 45.891335 1.9632475
49.50209 46.16679 -0.83828962
46.411606 45.452999 2.7299848
45.563847 45.015793 2.4529655
46.394974 45.452984 2.596019
45.561317 45.120659 2.8846798
45.581379 45.083454 2.3781996
46.76284 45.074352 2.6168351
45.576778 45.084427 2.1681459
49.430286 46.093269 -0.80326909
45.463646 45.02243 2.6326213
49.19611 46.070282 -0.1209462
49.20237 46.072365 -0.57825929
49.198074 46.0849 -0.33917192
45.534058 45.03685 2.7244027
47.054611 45.649925 2.1968284
45.119198 44.396744 -1.6238848
49.284775 46.060539 -0.73917657
47.560116 45.783989 1.9810703
46.769402 45.086693 2.5445285
49.274559 46.062996 -0.82367432
49.466404 46.235687 -0.61524665
49.288609 46.080795 -0.62411982
49.282227 46.0341 -0.62765372
49.287766 46.02932 -0.75626862
49.347019 46.080513 -0.33087146
46.858547 45.111206 2.167542
49.286156 46.07814 -0.33561617
49.347729 46.089943 -0.43471131
49.351894 46.079124 -0.52539992
49.342041 46.083019 -0.23086907
49.283798 46.0793 -0.53598458
47.078674 45.192867 2.4490786
49.285976 46.081242 -0.24186972
49.289028 46.075588 -0.44455722
47.696308 45.812656 2.1686454
47.181725 45.763802 2.8703265
47.364571 45.693344 2.3604794
47.649818 45.78817 2.0603299
47.497963 45.744976 2.692513
47.289612 45.770027 2.4705911
47.83873 45.886372 2.7869351
47.670467 45.860268 2.0775545
47.080162 45.534081 1.597646
47.155025 45.677235 2.181921
47.393143 45.804703 2.3682804
44.9771 44.566322 -1.2403016
47.448673 45.729874 2.7480721
47.510422 45.740761 2.4914103
48.31678 45.636799 0.87715304
47.454086 45.86026 2.7794337
47.262764 45.699009 2.5592108
47.467789 45.849648 2.476892
47.26313 45.708954 2.6578305
47.639511 45.787994 2.2604108
48.280102 45.630219 0.75782037
47.072323 45.600231 2.6614907
46.354504 45.286526 0.38052359
46.337967 45.312195 1.825788
47.369759 45.822411 2.8612573
47.330704 45.696018 2.538012
46.363598 45.291714 1.3600786
47.93314 45.925053 2.9239128
47.965549 45.919289 2.4823174
47.950813 45.882938 2.1425946
47.671356 45.872395 2.1537719
47.947807 45.928028 2.6569939
47.687065 45.808079 2.3714063
47.68766 45.890144 2.3522749
44.893532 44.415161 -1.3252494
47.086575 45.712181 2.8656502
45.139557 44.52663 -1.7157905
47.947079 45.64056 0.87084734
46.090988 45.17017 0.077468969
46.393219 45.232544 0.79247695
46.980057 45.674747 3.088872
47.21759 45.75061 2.619153
47.516033 45.55629 1.1683273
46.633072 45.541527 3.0693629
46.361183 45.454941 3.0417011
46.347 45.263287 0.31044015
47.429993 45.716805 2.5117505
47.182369 45.764797 2.9528592
47.959641 45.541962 1.7776188
47.935848 45.549507 2.5719151
47.36652 45.302193 2.2693057
47.065716 45.19075 1.9611486
46.797508 45.572399 2.3706276
48.031994 45.531792 1.9587799
47.224537 45.23114 1.9754603
45.729412 44.729404 0.68149722
48.516407 45.762825 2.6936052
47.966511 45.521435 1.9667616
47.869484 45.485531 2.3588684
47.57592 45.381088 2.3594248
47.567608 45.372955 2.2655137
47.180378 45.263496 2.0698225
48.258896 45.662914 2.548322
47.493881 45.857582 2.5599177
48.082878 45.577209 1.9693687
47.781075 45.462086 2.2686853
47.381756 45.79538 2.659354
48.274971 45.702221 2.6465805
47.660847 45.417175 1.8784074
45.157566 44.81868 0.66334182
45.135731 44.82188 0.84909892
47.352238 45.792175 2.5794253
48.535473 45.785954 2.523344
48.469975 45.758373 2.585057
48.276272 45.669502 2.4655893
46.060795 44.818733 1.8671057
48.159302 45.605736 2.0606501
48.003002 45.557415 2.3449798
47.985786 45.558624 2.4655037
46.067627 44.821262 1.9701705
47.336918 45.29108 1.8556482
45.138554 44.813683 1.0761565
47.771896 45.467129 2.0646033
47.276459 45.270966 2.0813925
47.782433 45.470348 2.5611603
47.967022 45.522465 2.359962
47.869396 45.495468 2.0696681
46.785172 45.581009 2.2438543
47.977444 45.586884 1.8974334
45.158501 44.825287 0.75440812
47.368 45.802113 2.4671104
47.155117 45.219025 1.9698588
47.687599 45.818092 2.7283716
47.58073 45.382904 2.1519306
48.558865 45.774612 2.669739
45.811726 44.767525 2.586005
47.35564 45.29974 1.801898
47.369339 45.299282 1.9555581
45.880909 44.768963 2.5193183
45.860443 44.726841 2.159148
47.06308 45.529289 1.2649593
47.864544 45.48877 2.1579859
47.662563 45.815102 2.6635759
47.959648 45.524456 2.0660951
47.185703 45.257759 2.3520846
47.999088 45.570724 2.2669351
45.841286 44.722427 1.9860404
47.968948 45.524647 2.1549411
44.975544 44.402374 1.8630449
48.080719 45.572968 2.4563498
47.781738 45.464565 2.3584008
45.752811 44.700809 2.5658889
45.470642 44.588043 2.1645072
44.891411 44.518581 1.8471171
44.889622 44.378239 2.0523372
47.153282 45.707909 2.7467015
46.842426 45.621735 3.06253
45.758171 44.698215 2.441191
44.97892 44.40416 1.9780049
45.589989 44.655998 2.2645092
47.191158 45.741276 3.165731
46.765419 45.564556 2.4856191
45.174763 44.956841 2.3682268
47.202374 45.256779 2.4495649
47.863869 45.500271 1.8647468
45.890511 44.757824 2.3630419
45.772293 44.705242 2.3531482
47.126778 45.719494 3.0332165
48.540894 45.759884 2.4605532
47.5672 45.38097 2.0717423
47.645714 45.826851 2.4440219
47.253716 45.268097 1.8564924
46.098351 44.875378 2.0528522
46.002254 44.847126 2.4322922
47.148762 45.736267 2.9655077
47.651649 45.882088 2.2538841
46.902657 45.661972 3.0575724
46.686264 45.56786 2.9600124
47.290314 45.275875 2.556669
47.484142 45.359875 2.063658
48.149048 45.611568 1.8648329
45.776871 44.705727 1.957132
48.497166 45.763474 2.3651025
48.298809 45.62928 1.0487996
46.64698 45.565765 3.1466527
44.858589 44.359478 1.8658462
47.945957 45.52742 1.8747628
47.570091 45.380802 1.9628072
44.866859 44.376987 1.968846
46.814087 45.520695 2.9152613
46.866375 45.681667 3.2956393
46.083424 45.315567 2.8660982
45.580631 45.035839 2.6250162
45.571632 45.107128 2.6396596
44.770477 44.362549 1.9703469
46.036366 45.232582 2.6385493
45.652195 45.097412 2.6572273
45.292065 44.551727 2.4764616
46.035664 45.211163 2.7947168
46.919147 45.674049 3.13977
45.565018 45.154308 2.9583056
46.773712 45.097202 2.081265
46.067818 45.319336 2.65519
45.080631 44.969044 3.0607805
46.687668 45.57946 3.0297847
45.603004 45.166225 2.8807149
45.769974 44.703106 2.2643929
46.769333 45.081566 2.1603663
44.781788 44.356342 2.1589336
47.482086 45.35944 2.271863
45.641861 44.633461 1.9901069
45.640987 45.142212 2.7128949
46.587852 45.563988 3.131556
48.021393 45.943207 2.7605069
46.573463 45.51506 3.0528979
45.634094 45.035633 2.3145459
47.082233 45.191734 2.5663698
46.591396 45.523357 3.2115748
46.867317 45.110527 2.4542816
46.689323 45.06377 2.2604418
47.947426 46.000553 2.5151019
45.898781 45.115318 2.1670923
46.872044 45.125084 2.5305572
46.551037 45.498474 2.8643975
46.902016 45.638359 3.1243827
45.675957 45.17308 2.8492951
45.087563 44.470135 2.4536967
46.77319 45.089119 2.4543474
45.18409 44.536633 -1.1579953
46.10281 45.351807 2.782289
47.957932 46.020672 2.7930856
47.066265 45.1922 2.3481708
45.855927 44.843815 1.5564172
46.589409 45.064228 2.148088
47.478809 45.377384 1.9636333
45.031071 44.534531 -0.33398783
45.585121 44.66238 2.06513
48.819084 45.725681 2.2768605
45.962402 44.728809 2.7109725
48.779739 45.851784 2.3045359
46.06094 44.812698 2.0613217
48.235443 45.781639 2.0355973
47.503178 45.556026 1.6695863
47.395233 45.390404 2.130374
45.926201 44.722481 2.4546709
45.969578 44.782616 2.0665054
45.964676 44.793552 2.4414818
46.979809 45.584774 1.9703017
45.03759 44.543415 -0.12756278
46.909763 45.547501 1.7800175
48.289581 45.63187 1.1721096
48.771698 45.868542 2.0318346
46.461403 45.31377 1.0575914
45.037991 44.525135 -0.8444472
46.069027 44.8708 2.1416845
47.790085 45.667686 1.8693273
48.719975 45.854351 1.3131515
46.076641 44.883366 2.2473128
47.077988 45.544647 0.5908947
48.367218 45.638863 0.8368361
45.405712 44.755634 0.91721517
47.79427 45.652363 1.06752
45.943459 44.788143 2.5819323
45.967323 44.783192 2.3460112
46.059998 44.815186 2.1534801
46.285629 44.90638 2.3533552
45.05888 44.529785 -0.7360329
47.187336 45.277283 1.9398618
47.349457 45.41711 1.9528799
47.446907 45.440289 1.2493088
45.856571 44.719528 2.3560736
46.218632 45.04557 1.1834966
47.141705 45.341099 0.99503136
45.045425 44.530769 -0.26160878
45.746414 44.826633 0.86827755
45.478226 44.765709 1.5627886
47.857681 45.95253 2.0514128
48.375824 45.7883 1.0951002
48.502052 45.85421 1.6371819
48.553795 45.865894 1.3617913
48.611469 45.891994 1.0856682
48.380997 45.796997 1.3481324
46.992588 45.360718 1.4689761
47.2934 45.461224 1.7344152
47.784172 45.651108 1.6822159
48.668411 45.870247 1.8505436
47.06955 45.188919 2.2677565
47.947754 45.639034 1.1528666
46.767281 45.11607 1.1156107
46.825924 45.139194 0.8582865
46.93861 45.200775 1.3614603
46.974319 45.183861 1.8871541
46.996124 45.21434 1.1002909
47.051361 45.223988 0.83887732
47.16132 45.316025 1.8622035
47.257072 45.29895 0.81583655
47.465702 45.382324 1.0539042
47.524315 45.399361 1.046702
47.561287 45.377937 1.8687375
47.585899 45.431351 1.3064677
47.640533 45.425621 0.76685584
47.732491 45.977734 3.2671778
47.77684 45.520813 1.5572611
47.830578 45.503002 0.74354041
47.894466 45.531445 1.0039164
48.091255 45.625092 1.5268656
48.151024 45.625893 1.2453715
48.533932 45.606155 1.1833597
46.203644 45.054604 1.3665434
48.097569 45.757893 1.1640848
48.686787 45.901764 1.6470796
46.339851 45.041771 0.96524704
47.138523 45.340893 0.85878128
45.276974 44.567127 2.3626356
46.883842 45.167038 2.0729904
48.641102 45.73465 1.7462629
48.642315 45.735748 0.87163424
46.65596 45.401749 2.0608273
47.942772 45.622234 1.7758058
46.767647 45.219631 2.0466433
47.948418 45.636715 1.6652502
44.965958 44.404552 2.2607141
46.059181 44.810776 2.2537851
47.501999 45.582985 1.931549
47.507469 45.549416 1.0693663
47.294586 45.454041 1.3656535
48.661674 45.78487 2.1452961
48.781616 45.863583 1.8637197
44.838863 44.328911 2.3431475
44.963722 44.395306 2.4693093
48.167267 45.605679 1.955605
46.171242 45.003616 1.7653137
46.291569 45.061497 0.87324077
45.098251 44.942902 3.0130048
45.060585 44.95644 2.971236
46.05249 44.930866 1.4557959
46.686123 45.090794 1.9519165
46.869572 45.203987 1.9628172
46.96978 45.296696 1.9471909
47.177486 45.265453 2.2620761
47.647297 45.532177 1.5595578
47.671974 45.516003 1.8483055
47.936131 45.633511 1.5414996
46.145817 44.844318 2.3493953
46.775864 45.260914 1.6567807
47.270023 45.480556 1.9533745
48.193146 45.715343 1.857566
48.485565 45.758312 2.4533048
44.877224 44.373222 2.3523047
45.691422 44.851341 1.6810131
46.158627 44.835476 2.4516652
46.776344 45.263763 2.0629427
47.672371 45.578949 1.6629844
44.875771 44.373409 2.4676852
47.965889 45.998394 2.4374745
48.553902 45.757858 2.0757875
44.967728 44.403145 2.3530309
46.999264 45.351711 1.5501989
46.179153 45.288418 1.8603548
45.139713 44.823765 1.154857
46.046024 44.931664 1.8516442
47.167976 45.293636 1.791724
47.137581 45.340157 1.1590184
46.08152 45.199432 1.9654064
46.076626 45.287216 2.3591669
46.080093 45.218838 2.4702711
46.875149 45.282017 1.9562814
44.958984 44.404102 2.55071
47.976254 45.581726 2.1380825
47.173859 45.696678 2.3680017
48.500683 45.75555 2.0555046
44.823944 44.332809 2.526181
46.65638 45.520027 2.8427155
46.783062 45.481903 2.6333752
45.75412 44.831734 1.5550021
46.580601 45.172714 1.766415
46.194134 45.051487 0.76925766
46.703358 45.246765 1.5865612
46.786819 45.258656 1.2604891
47.580975 45.566319 1.8611659
48.090393 45.759521 1.7656237
45.354145 44.529205 2.2485151
46.650078 45.539581 2.7636161
46.06802 44.966114 1.8536845
46.378315 45.084846 1.753935
46.371929 45.324081 2.0858839
46.186989 45.307323 2.0497735
46.793369 45.472584 2.8605888
46.89249 45.604061 2.4680095
48.760323 45.852699 1.9462173
44.973476 44.397125 2.160414
46.49263 45.157753 1.5553391
47.297344 45.460648 1.1679056
45.119194 44.951717 2.3640597
45.10107 44.966476 2.7342637
48.471245 45.754955 1.9504805
46.764252 45.506126 2.4675968
47.942814 45.618629 0.9680419
48.338505 45.636448 1.2731853
47.402153 45.771526 2.268976
46.666283 45.499954 2.6489067
46.09864 45.297523 2.1490843
47.079674 45.370518 1.8550897
47.64843 45.537693 1.3531287
47.850281 45.624241 1.7655963
46.75774 45.486298 2.5620151
46.769588 45.481903 2.3460016
46.801071 45.495792 2.7538915
46.06139 45.304272 2.5732653
45.56506 44.780563 1.9550292
47.344223 45.431072 1.7510659
47.469498 45.49828 1.7538776
47.649109 45.533707 1.7410598
46.665318 45.550388 2.7529938
46.073177 45.271053 2.238317
47.518272 45.854324 2.28002
47.277367 45.682281 2.2585075
44.884525 44.322399 2.4459951
46.683151 45.511909 2.468128
46.773254 45.463776 2.266608
46.499405 45.157852 1.1862681
46.714638 45.266621 1.8538412
46.78344 45.261131 1.8602239
46.989777 45.364311 1.8183798
47.482769 45.572144 1.3711714
48.471954 45.746346 0.90755212
46.361626 45.32851 1.9321669
46.079929 45.266632 1.9571012
46.790131 45.259823 1.5543318
47.450363 45.704315 2.2391939
46.066261 45.220875 2.2773068
46.87159 45.240414 1.627969
46.874645 45.271061 1.2650484
46.686516 45.405281 1.9778574
44.974945 44.451653 2.2847638
46.661327 45.513531 2.3932133
46.863613 45.482872 2.6530962
46.752338 45.221497 1.8632612
46.872658 45.276661 1.8653355
47.377262 45.474129 1.7522056
47.560196 45.526215 1.7574099
47.86425 45.631191 1.6648692
49.574024 46.199615 -0.55517662
45.054176 44.93148 2.8550143
45.102112 44.963642 2.858948
44.979427 44.577171 -0.12928015
47.892155 45.672596 1.6555972
48.568787 45.764519 1.8695197
45.216606 44.949467 2.1402569
46.187572 45.220821 1.9810617
45.57769 44.777927 1.8482744
46.341038 45.039955 1.3540992
47.060642 45.325611 1.1647991
47.140457 45.339458 1.4731447
47.67128 45.584934 1.7603465
46.083958 45.297379 2.4623389
46.039696 44.938328 1.3554609
48.641899 45.733795 1.859179
48.644619 45.737648 1.1329749
44.996796 44.451641 2.1645265
45.097816 44.949005 2.6656554
46.253723 45.028812 1.1645401
46.75769 45.225079 1.7627758
47.85474 45.62677 1.5552953
46.706799 45.565083 2.6693809
47.372658 45.765606 2.0542109
47.070438 45.200855 2.0656619
46.17852 45.292435 1.9601024
46.267136 45.050495 0.45441782
47.293751 45.455513 1.5544686
47.803555 45.649948 1.774819
46.755676 45.41098 0.86676311
45.273514 44.871147 0.47693238
48.676044 45.79932 1.9557056
47.143467 45.338253 1.5540206
47.296429 45.454739 1.2375094
46.766388 45.222885 1.5545311
47.286739 45.4991 0.75568378
47.068012 45.588688 1.4526378
46.973339 45.558109 1.061556
46.100666 45.265339 1.8553008
45.382774 44.936424 2.177597
45.364731 44.909306 1.8525219
46.87632 45.274239 0.96437585
48.254372 45.625046 2.2558124
47.174717 45.59845 0.86623323
45.779369 44.864212 1.3620148
45.276489 44.886879 1.7683387
48.673874 45.789051 1.460869
46.875198 45.272068 1.0652332
48.269512 45.671246 1.8516506
46.982784 45.554092 1.1766605
46.234276 45.305328 2.8241961
47.662598 45.913151 2.5624986
47.278645 45.428574 0.15581608
45.168083 44.810669 0.55994743
47.277641 45.259735 2.6483727
46.976463 45.39949 0.30635595
46.834534 45.235268 0.96647263
45.272385 44.511517 -0.87794119
45.162041 44.653137 -0.86997026
46.381996 45.403233 2.3655913
48.284798 45.69022 0.76270783
45.161755 44.802071 0.35886425
45.163307 44.772408 -1.2497983
47.861195 45.93824 2.2362423
45.167908 44.664555 -0.53573179
46.839485 45.236092 1.2549031
45.159908 44.813007 0.94972229
46.267056 45.376953 2.5617115
47.166714 45.377605 0.077258021
45.169048 44.671215 0.55933183
48.365353 45.630939 2.4427507
45.869045 45.211514 2.6630881
45.273289 44.67477 1.2640963
45.16563 44.625793 1.1678051
45.158989 44.620434 1.3550513
46.219921 45.233952 2.3014383
45.065754 44.7827 0.76035106
45.778423 44.864632 1.462931
48.357372 45.629269 2.6690059
46.879425 45.524612 2.0781884
45.161339 44.478409 2.5525494
45.15292 44.811646 1.5491384
46.705467 45.551823 2.4227548
44.886051 44.588921 1.0608048
45.178173 44.663326 1.3588141
46.844368 45.228149 1.3524778
45.174553 44.666115 1.2590176
45.162407 44.619785 1.065675
48.467316 45.7029 2.150506
48.442123 45.631729 0.85969365
48.569153 45.769363 1.9521401
46.184776 45.239105 2.1611109
45.775127 44.875103 0.45000666
48.580227 45.767769 1.7688985
45.160168 44.678452 0.45709538
45.973457 44.782776 2.2577889
45.937923 44.910927 0.58467758
48.654442 45.860203 0.53488433
45.15374 44.835453 1.3442148
45.871063 44.952301 1.3297635
45.143864 44.498707 1.3618515
46.175438 45.057011 1.0490255
46.136261 45.22533 2.341687
46.961956 45.299023 0.76661617
45.874245 45.130981 2.4317999
48.653481 45.85252 0.37915954
48.687065 45.875893 -0.0057529695
48.669304 45.793594 0.3597419
47.442345 45.443916 1.1575511
45.894241 44.962311 1.0936645
48.67963 45.699253 0.38489386
45.180138 44.675747 1.654279
45.157314 44.61982 1.4576372
45.165802 44.619343 1.6659232
45.549217 44.733894 0.96900082
45.249092 44.627388 0.35697141
46.733509 45.417953 1.5766498
45.045578 44.505676 -1.6444377
45.072506 44.618687 0.16297247
46.278252 45.374474 2.2553453
46.964626 45.309811 1.7653507
45.965969 44.921169 1.1653607
45.987122 45.182682 2.7513659
45.861729 45.103485 1.7540793
45.990414 45.191086 2.2569656
47.102898 45.655052 1.9560487
45.973907 45.185345 2.4453828
45.081795 44.911968 2.1585622
48.639809 45.739128 1.2564483
45.960976 45.208199 2.3485539
45.163612 44.667667 0.068631232
48.270599 45.689713 1.3581719
45.860889 44.871376 0.35681325
44.944126 44.538292 0.48154867
45.504635 44.985939 0.69721544
45.961426 45.247452 2.1726093
44.963516 44.796959 0.16314067
45.653656 44.623718 2.4647248
44.928989 44.525333 1.266111
46.263206 45.304001 2.3445313
48.489193 45.714241 0.58089679
45.469463 44.985592 1.7562166
47.779835 45.801479 1.4690471
48.381546 45.777599 1.9634931
46.170151 45.38422 3.0640399
49.289654 46.077702 -0.14242363
45.958359 44.912792 0.75595236
47.965778 45.513153 2.4582214
45.868382 44.894283 0.78283262
45.907822 44.94725 1.1891237
45.950203 45.211273 2.8695984
45.86491 44.892673 0.95973772
45.941654 45.158161 2.5259631
45.518475 44.945969 0.3570942
45.484344 44.960854 0.75117648
47.080902 45.365932 1.4600854
45.964619 45.166641 0.97817159
48.54784 45.706009 0.15584831
48.343037 45.755535 2.0805864
48.637115 45.730175 -0.12548332
48.579853 45.759628 0.87020957
45.163635 44.620304 1.5553514
45.361656 44.982662 2.1656914
45.181404 44.661674 1.5548842
48.465931 45.704449 1.8588064
45.950401 45.114738 1.8608783
48.846756 45.828392 0.18214436
48.479034 45.702877 0.76768523
45.956734 44.780312 1.7568619
48.583946 45.77301 0.24745373
45.06105 44.393303 1.9005425
46.338039 45.041496 1.0197814
45.696083 44.856453 1.4460845
48.242195 45.770802 1.8368028
47.787842 45.684917 1.9287493
46.361958 45.376823 2.2663856
45.453178 44.9608 1.164241
44.903328 44.339622 -0.85193712
45.04253 44.414707 -1.5134262
45.6703 44.8153 1.3593965
45.458549 44.721581 1.4543244
45.270252 44.626011 -0.43171039
44.873112 44.496773 0.78423119
45.1572 44.662605 -0.12947682
47.828968 45.428391 2.3027456
46.882454 45.620998 2.6635115
45.160782 44.61684 0.5581792
48.671051 45.774452 0.050401516
47.170971 45.384613 1.9523352
47.166977 45.382366 1.3547292
45.962566 45.181973 1.6526531
48.420216 45.6022 1.2005717
46.150455 45.221088 1.8593004
47.173782 45.390011 1.7617266
47.801308 45.959873 2.458955
44.974976 44.887772 2.558408
45.073822 44.569389 -1.0402184
46.961281 45.306458 1.8651255
45.671112 44.814133 1.4535557
45.771038 44.868534 0.77422607
45.060261 44.795986 1.6635025
46.554272 45.130142 0.77393967
46.1609 45.214455 1.3651679
45.062157 44.686848 1.2539589
44.968018 44.561192 -1.1499979
47.76363 45.432869 2.3608978
44.946545 44.520885 0.7465207
46.074673 45.187077 1.3471829
45.780327 45.074242 0.67982823
46.865597 45.228184 0.32828933
47.284302 45.455772 1.0637597
45.980648 45.197899 1.8443203
46.88324 45.518528 2.4440665
45.051533 44.407314 -1.6978208
45.744896 45.107864 2.0562706
46.984604 45.562382 2.7509723
47.849506 45.636635 0.45545584
44.972435 44.712391 1.1702056
45.967953 44.918606 0.87533134
45.483192 44.769291 0.76293957
45.857609 44.896049 -0.08054322
48.087692 45.772556 1.5390291
46.273518 45.069733 0.66692132
46.76181 45.222607 1.6698605
48.470169 45.692448 0.16051747
46.969791 45.300385 0.96301603
47.181698 45.697678 2.2660666
45.818771 45.04715 0.30558053
48.069721 45.710823 1.1633234
48.066517 45.709724 0.96644992
45.240566 44.830524 0.4625484
47.670792 45.565552 0.16126733
47.173908 45.383656 0.86883587
48.255817 45.619831 2.4465609
45.682304 44.792648 0.056840315
46.157219 45.207394 1.2529691
45.066006 44.780689 0.8598612
45.074524 44.609669 1.6612242
47.857403 45.628937 0.66078615
45.960709 44.736855 2.2597084
47.854305 45.613182 0.55852783
44.949783 44.588524 0.85862339
47.378944 45.466133 0.76473236
46.178139 45.378262 2.9823055
48.256912 45.7687 1.7641495
46.072048 45.188652 2.0760927
49.292194 46.080784 -0.042268448
46.99091 45.368504 0.83624154
46.072197 44.970444 1.2656331
48.554993 45.711243 2.0551219
46.960648 45.385216 1.1863503
48.562389 45.727104 1.5612139
46.957645 45.124336 2.4553535
47.971035 45.679382 1.3597814
45.283367 44.673042 -0.54443973
48.63681 45.674271 0.23550385
47.153584 45.603878 1.0840396
46.870895 45.517757 2.5702541
46.980762 45.597946 2.0627668
45.077202 44.607952 1.5594722
48.258743 45.623596 2.5557065
47.870163 45.631691 0.15538853
46.949615 45.601677 2.3922205
45.072395 44.696182 0.16515519
47.2617 45.414017 1.7542459
45.073147 44.692501 0.26055816
46.970726 45.527191 2.4832087
48.338501 45.641323 2.1975622
47.56361 45.519211 1.2621137
45.63776 44.638794 2.1565313
47.267666 45.413143 1.4578435
47.262051 45.419716 1.6579605
45.955223 45.127842 1.4365309
45.570457 44.779301 1.4541517
45.661587 45.021614 1.2534415
44.922253 44.430584 0.98657078
46.983303 45.596066 2.1419673
48.47131 45.699341 0.86759865
48.453526 45.64357 1.0986011
45.568974 44.779816 0.77314645
48.59024 45.7603 0.58705616
45.763592 45.165421 2.2657261
47.271389 45.413799 1.5558367
47.056408 45.329243 0.16983908
48.552299 45.936295 1.6725109
48.368546 45.675846 1.3585702
48.466393 45.634766 0.47297987
48.084282 45.711353 0.37171906
47.17915 45.747086 2.5408432
48.266941 45.612667 2.6569076
48.349953 45.638535 1.4673057
46.979401 45.1688 1.9528184
46.950775 45.129974 2.553757
46.587654 45.016209 1.7583605
46.08091 45.000187 0.2653681
45.275974 44.664516 0.16768736
48.352783 45.632683 2.0606575
48.473331 45.707481 0.95746619
48.853401 45.872326 1.6685421
45.583172 44.783699 0.57022309
44.981411 44.888081 1.7512189
48.786907 45.803432 -0.152605
45.340435 44.677166 -1.2560439
45.271851 44.681953 -1.2327245
47.208454 45.747997 2.5108478
47.063179 45.610985 1.8558143
45.675903 45.004913 1.8780677
47.388916 45.451458 0.2689451
46.862495 45.244015 0.29966608
45.298668 44.692429 -1.3271775
48.099106 45.706932 0.089218318
48.767365 45.81768 1.4635553
48.770584 45.816956 1.6574187
45.355106 44.534294 2.0616505
47.574715 45.819004 2.3569696
45.978931 44.957691 0.95765871
45.789757 44.878098 0.58245766
45.684597 45.158543 2.4726248
47.647903 45.56958 0.46995166
45.272785 44.676319 1.5564865
47.377548 45.701431 2.1401505
47.675117 45.577431 0.65638471
48.583202 45.76757 1.26701
48.341221 45.636089 1.5622227
48.066273 45.70966 1.3670957
45.472691 45.111549 3.0666385
47.167736 45.221191 2.2644587
48.244015 45.764038 0.6582014
45.283092 44.794712 0.058614925
48.341625 45.636852 1.9544244
48.371052 45.640549 0.98039311
46.012524 44.839848 0.97410107
45.070423 44.685146 -0.53480726
47.248024 45.614067 2.1605647
47.075043 45.582466 1.2492619
46.644753 45.022152 1.2631849
47.56897 45.433857 1.3158261
46.691566 45.179466 0.36468714
45.064205 44.690525 1.5580245
45.065292 44.769852 0.25925782
48.269669 45.692871 1.468045
48.065388 45.710606 0.86456603
46.71537 45.266182 1.7098471
48.588917 45.848358 0.9519248
48.06765 45.707855 1.0656788
44.991493 44.422562 -0.89853758
48.4734 45.592342 1.620767
45.270145 44.517345 2.0578725
48.813568 45.842567 0.051395763
48.763363 45.812687 2.2489324
45.062218 44.78083 0.16420847
48.205318 45.686249 2.2401974
48.284546 45.632587 1.3642583
46.951916 45.528503 2.5688479
47.075302 45.36124 1.5596881
47.261063 45.410889 0.86532319
45.063663 44.691578 0.55965406
48.181145 45.695728 2.157949
47.6912 45.565598 0.33053249
45.073765 44.690239 0.058933854
45.054123 44.586143 -1.6202786
47.674072 45.579674 1.8654718
48.067905 45.715385 1.6625116
48.283867 45.692135 0.96828395
47.669163 45.666405 0.57123691
45.969986 44.787819 1.8744493
44.982933 44.562954 -0.45197877
48.272827 45.690769 1.166396
45.867626 45.200218 2.545459
47.684143 45.699051 0.45916975
48.153893 45.733105 0.95935977
45.479965 44.76902 0.25440571
45.056458 44.692738 1.7540487
48.163429 45.726879 1.0627416
47.171688 45.226295 2.0712917
44.97522 44.704708 0.95593667
46.783962 45.258396 1.0436031
45.272957 44.672581 1.0575873
48.159103 45.729504 1.1644559
47.784927 45.918667 2.2564034
47.751228 45.891785 1.9689729
47.862404 45.897881 2.1569483
48.671368 45.786293 1.0660353
45.063107 44.58873 2.0578694
45.064983 44.792759 1.4577758
44.980373 44.80315 2.1522985
47.068611 45.18763 2.6591163
45.159683 44.674515 0.66055489
45.06274 44.800072 1.5603459
47.258545 45.270962 1.2967523
45.969246 45.255947 2.3546672
48.336876 45.620335 2.5647445
46.188248 45.368954 2.7499731
44.96347 44.593616 0.9581399
47.974506 45.683811 1.4555662
47.563877 45.520618 1.3595328
47.457024 45.326035 2.3625281
48.24807 45.770439 0.96540862
47.15007 45.723495 2.859117
48.058819 45.646992 2.5042615
45.783287 44.865486 1.0643356
46.977028 45.299412 0.44453058
47.592903 45.565155 0.7858808
48.487404 45.760963 1.5682316
47.680824 45.927223 2.9971471
47.584381 45.557034 1.7594287
47.037041 45.586357 2.7526631
45.978683 45.170189 1.3585613
44.950241 44.585609 0.65877938
48.804573 45.84734 0.28349882
45.756607 45.013351 0.88374168
45.649483 44.622849 1.8962213
48.557125 45.726295 1.360219
46.971977 45.303349 0.85737449
47.261806 45.417759 1.8588289
45.87252 45.102814 0.75889117
46.981712 45.306862 0.67123532
45.866516 44.891411 1.9636302
48.468666 45.698788 0.67052323
46.982727 45.302494 0.35653555
45.27253 44.674202 0.86639684
48.291397 45.635132 1.2730156
45.871685 44.892971 1.6585032
48.661907 45.727638 1.5610677
45.976013 45.286869 2.8597665
45.060287 44.801483 2.0542052
46.367512 45.07962 1.4579542
47.07975 45.31234 2.3895555
48.778301 45.820564 1.9747896
48.386044 45.754822 2.3287535
45.462688 44.691959 2.3497038
48.258209 45.625153 2.169013
45.159542 44.670696 0.95486057
48.678947 45.783611 0.7532059
45.877419 44.896107 0.57160974
45.852627 45.084778 1.5664314
45.868851 45.109898 1.6481963
45.863338 44.879421 0.26579824
45.871681 44.891598 1.1683103
46.377464 45.083172 0.46386859
47.160912 45.333912 0.68231678
45.903996 44.955994 1.6384757
46.763161 45.222324 1.3583255
47.459347 45.556168 1.5952547
46.500778 45.157486 1.3429593
47.069366 45.502983 0.49468094
45.775307 44.870327 0.65209037
45.777248 44.866024 0.9607451
47.185585 45.594536 0.77016646
45.963287 45.12796 1.2760531
45.662292 44.811802 0.86753023
45.693047 45.102859 1.9427192
48.552483 45.706139 1.8629063
46.969669 45.300873 1.1640704
45.73814 45.016117 0.72851491
44.940685 44.526554 0.8679288
48.673691 45.77874 -0.013869905
47.482834 45.57296 1.4618233
48.650856 45.665108 1.6498886
46.891449 45.409386 0.72778821
44.971863 44.703682 1.361997
45.270267 44.615875 -1.1348519
46.83744 45.240162 0.019271545
48.255463 45.62476 2.0595284
45.985428 44.964287 1.6739752
45.271919 44.675255 -1.4295726
45.287365 44.669342 -0.62821728
46.390965 45.08873 0.26250356
48.7617 45.808792 2.0582392
47.188793 45.263809 2.1435046
46.678181 45.514809 2.5613263
47.184135 45.38768 0.45456895
46.373001 45.089283 1.6614068
45.161209 44.600292 -0.43818307
46.790375 45.262711 1.462986
47.399136 45.712147 2.4791377
47.563091 45.438988 0.30666095
47.151077 45.370304 0.1708615
47.968197 45.67664 1.1658481
45.772995 45.030048 0.64056736
46.779034 45.216671 0.37068132
45.955536 45.13155 0.77978319
45.284409 44.811638 0.92944932
45.864719 45.114693 1.4620076
45.296349 44.764595 1.5739284
45.70013 44.8587 0.85997921
45.280628 44.667599 0.45889497
47.567398 45.379776 2.5584748
46.375214 45.099453 0.069953911
45.783726 44.864864 0.87069595
46.841476 45.238094 0.59463191
46.370548 45.073406 0.56828284
47.170914 45.375999 0.34707189
45.276402 44.67144 0.36228257
45.280483 44.668663 -0.3346985
45.877369 45.195835 2.1894102
47.351616 45.681202 2.0538905
48.539371 45.728432 0.33544606
48.472813 45.708488 2.3578134
48.670464 45.781143 0.85831553
48.67086 45.787724 1.1715811
46.850349 45.237545 1.1700071
45.064423 44.567837 -1.7204018
48.682079 45.883011 1.4485978
48.847427 45.863251 1.5443301
45.9767 45.117073 1.5530214
48.671188 45.874844 1.7683396
48.560349 45.713924 1.7497323
47.502514 45.555115 0.73455268
45.98526 44.969551 0.77134639
46.351776 45.25267 0.19226179
46.852379 45.237785 1.7565883
47.157925 45.70488 2.449028
46.972118 45.312244 1.6614705
47.567486 45.574352 0.83639371
48.099918 45.761173 1.4722923
47.058228 45.346565 0.070303082
46.888092 45.26474 -0.033443324
46.974728 45.305374 1.066046
46.576244 45.163738 0.4619951
46.670174 45.195335 1.4631199
48.264862 45.672962 2.1516843
46.969624 45.298325 0.58543926
45.779362 44.864315 1.2590424
48.556416 45.724644 1.4549353
48.555393 45.722836 1.6520561
48.462162 45.691448 2.5534692
47.690746 45.669121 0.8369956
48.280479 45.632706 1.5573589
47.294151 45.330284 1.3505788
46.782494 45.389286 0.68589783
47.365608 45.440804 0.15514399
48.198166 45.769707 0.39937222
44.952888 44.552532 -1.3190929
45.057415 44.805721 1.9456038
48.26841 45.700237 1.0644799
47.778618 45.862045 2.7931614
45.867649 45.181576 1.8720276
48.476761 45.707424 1.2652483
46.882381 45.634892 2.8804195
44.970276 44.775585 1.155771
47.288269 45.679649 1.0397687
46.83654 45.235439 1.4597713
46.57634 45.160927 0.58111489
46.065086 45.219372 2.1587372
44.9655 44.787827 0.25805855
46.576927 45.168068 1.4579344
46.949059 45.297699 0.16513474
45.958862 44.775593 1.9680688
47.162964 45.382732 0.66471225
47.267471 45.414577 1.9569517
49.360107 46.075378 -0.75881875
45.159691 44.670891 0.35294789
47.974758 45.677872 0.86605936
46.701408 45.552063 2.5577886
46.757244 45.214169 0.96057886
46.899689 45.596901 2.2641621
45.774265 45.072304 1.0502828
48.068199 45.710278 1.2687805
47.271961 45.2747 2.3511562
45.668777 44.814209 1.0589716
44.898239 44.389034 0.78669465
49.365616 46.050926 -0.79347199
45.349178 44.529495 2.3544548
45.280563 44.667728 -0.73822004
47.377365 45.470764 1.4559556
48.084793 45.710629 0.26981878
47.670063 45.404259 2.3604286
46.976112 45.315639 0.21473944
48.309776 45.638382 0.52045989
47.873634 45.612648 0.059690662
45.851315 45.246792 2.8025091
46.504311 45.180851 1.8511192
46.767277 45.212822 0.58466542
45.37133 44.68528 -0.045322988
45.06728 44.582855 -0.53584272
45.776653 45.218582 2.9710701
47.180809 45.483784 1.4605596
45.763554 45.122158 2.9111481
45.783211 45.074123 0.85700387
45.852085 45.085632 1.86035
45.513149 44.963608 0.471679
46.857738 45.595669 2.5629101
46.394337 45.362179 1.5354658
48.572624 45.766876 1.5539603
44.974392 44.70826 1.0675
45.786659 45.123344 2.7890892
48.070843 45.717365 0.16864252
45.77742 45.080681 0.9573251
46.955658 45.522663 2.2629349
45.668591 44.812603 0.95439315
48.463005 45.705437 0.33041441
47.865852 45.888947 2.0736232
48.640907 45.744007 1.4437045
46.808453 45.256058 0.48771054
48.650425 45.736275 1.3841213
46.653919 45.499168 2.2707875
44.880775 44.376335 2.1639268
47.488792 45.582016 0.36848974
48.579037 45.764164 1.0713023
45.668423 44.805241 1.8584787
45.160572 44.859798 1.3591256
45.13987 44.435951 2.2210648
47.359589 45.47459 0.47832242
46.875095 45.182426 2.3614261
48.697189 45.883759 0.51124513
45.179695 44.865486 0.9748233
48.674305 45.78965 1.7615669
45.863785 45.137653 2.8653345
47.071548 45.721001 3.2374768
48.667503 45.777092 0.1661987
45.674324 45.00404 0.25578618
45.744129 45.035946 1.6539373
46.942032 45.132118 2.1712985
47.383488 45.466648 0.86548561
45.168842 44.85149 0.62801659
48.38726 45.698997 2.6325588
48.308022 45.637035 0.97157747
45.072254 44.606743 1.7628237
48.572887 45.680855 2.45679
47.49622 45.5709 1.2842062
46.974518 45.531349 2.347352
45.959755 45.134895 0.092266113
48.47073 45.708084 0.45720151
47.086594 45.365463 0.76401109
48.270233 45.628387 1.9642013
44.964622 44.776226 1.0590934
47.679569 45.570618 1.1654638
45.238819 44.823296 0.37466004
47.171799 45.377384 1.1614556
46.371567 45.083321 1.564549
46.551083 45.152737 0.1545873
45.274033 44.671989 -0.040909354
45.963505 45.133183 1.1736429
47.383682 45.474197 1.8518236
45.167282 44.878353 1.7584296
47.382198 45.470139 0.96362084
46.512184 45.16077 0.26430884
48.848133 45.861355 0.4595291
46.381565 45.389168 2.0399301
47.225388 45.633587 2.6076591
45.013107 44.788712 2.4539595
44.951935 44.513348 -0.64234996
48.344524 45.632477 1.7538198
44.963924 44.788307 0.96438122
45.165722 44.889904 2.3604002
45.278732 44.670803 0.56367445
47.384293 45.467484 1.1660753
45.06451 44.688572 -0.44166201
45.995316 44.960758 1.5619453
45.902378 45.03376 1.2635956
48.252811 45.613003 2.3576264
45.904572 44.96217 1.4679279
45.063942 44.693256 -0.64404899
47.380337 45.464233 1.3555346
45.882637 45.180359 1.7576742
46.850342 45.236389 0.68707722
47.195503 45.609043 1.8439977
45.867146 44.891315 1.7671669
44.968861 44.607971 0.2676459
45.806 45.15802 1.8688295
45.276978 44.68689 -0.94747514
46.877548 45.522179 2.7441597
45.15979 44.868782 2.4603972
48.751507 45.868183 2.3675771
48.259621 45.77145 0.29415399
45.963818 44.918293 1.4589311
46.799706 45.280991 -0.057868656
45.160862 44.616589 0.76033503
45.959187 44.912827 1.8535875
48.268986 45.687115 1.5591587
45.159157 44.912556 2.0712283
45.164993 44.614349 0.36382434
44.994152 44.571804 -1.4225545
48.2728 45.632339 1.7601944
45.188065 44.898571 1.9594085
45.059723 44.773525 0.45863625
45.769207 45.098911 1.5631224
47.170006 45.375114 0.76997048
45.964973 45.205338 2.0806036
45.9562 45.125801 1.071754
45.370502 44.699585 0.96198779
45.231537 44.480919 -1.6928384
46.984333 45.547924 0.6145674
45.18586 44.90205 2.2636962
45.969097 44.924892 0.94935662
44.921375 44.438747 -1.0590891
47.4986 45.562859 0.97644627
45.767204 45.087605 1.3528093
47.800583 45.964901 2.5914898
45.279297 44.671242 -0.13767074
44.975048 44.709522 0.25841239
46.762856 45.222019 1.4567246
45.168987 44.476105 2.2539246
45.459435 44.721096 0.86366165
46.711143 45.142929 0.44200337
46.663834 45.179096 0.57425147
45.359367 44.902393 0.67072374
47.390442 45.308533 1.2744135
46.467865 45.110687 0.57368112
45.961285 44.924416 1.7587098
45.871719 44.891739 1.3605615
47.228989 45.338409 -0.039603852
45.869442 44.890141 1.2649539
45.768021 44.871571 1.864537
45.161304 44.6735 0.16704001
45.279125 44.668457 -0.84113461
45.984486 45.11953 0.35715494
45.139008 44.751476 -0.63851607
45.728401 45.03405 0.25841773
45.952545 45.124462 0.95584655
45.169365 44.613892 0.16792777
46.673538 45.262985 1.4688752
46.676796 45.191174 0.8689208
48.783482 45.86676 0.75871825
45.035206 44.991642 0.74382395
45.794205 44.878525 0.36851457
47.451782 45.565914 0.55475742
47.058544 45.327297 1.6580752
47.568863 45.517887 0.55864352
48.265209 45.684868 1.6601758
45.041588 44.791912 -0.75259769
47.361992 45.585831 0.35118014
48.367252 45.658504 2.8577905
45.868259 44.890636 1.0593249
47.179794 45.48428 0.769979
48.669365 45.782063 0.96675551
45.969292 44.921177 1.3612642
46.67086 45.20306 1.7623987
45.942711 44.951378 1.9315845
45.15955 44.879795 2.1660433
47.47842 45.579823 1.8909003
45.963634 44.915447 0.67269009
47.683315 45.700615 1.486463
48.387512 45.675423 0.25604275
47.372482 45.481941 0.56906486
45.732361 45.156216 3.1725078
45.085793 44.466377 1.9573134
44.978088 44.712765 0.65752745
47.125675 45.321346 0.8006953
45.964706 44.922752 1.0668759
45.090202 44.517677 1.2403023
49.448723 46.059425 -0.2564213
46.77459 45.260002 1.1683899
45.956821 44.919136 0.4752408
46.856205 45.224339 0.85233665
47.567837 45.515854 0.48054373
46.748142 45.204681 0.0068814089
45.86414 44.885735 0.12231132
45.34911 44.5336 2.164233
46.258812 45.373459 2.4570856
45.99036 44.960648 1.4406292
45.765396 44.857944 0.27375394
47.061726 45.326889 1.4658619
48.59594 45.789085 -0.046380062
45.169605 44.604931 -1.0337216
46.669605 45.202553 1.6630385
45.167313 44.62326 1.2648187
47.791378 45.841801 2.7060177
45.805656 45.167801 2.0023921
46.898476 45.65345 2.9684937
45.8801 44.898792 0.062531017
45.105225 44.43314 -1.1725366
48.466412 45.706017 1.1655229
46.659554 45.178833 0.29127958
46.764843 45.218353 1.1637461
45.927563 44.902767 -0.084586129
45.993683 44.984818 0.35887557
45.978359 44.953815 1.7615304
45.075489 44.696045 -0.037070855
45.989822 44.95858 1.0686055
45.955566 45.13237 1.355482
46.666222 45.355988 0.45781571
47.800484 45.706001 0.40559912
46.289242 45.070755 1.6710074
47.777138 45.604782 0.65929079
45.755123 45.028141 0.49848747
46.768665 45.219116 1.2614795
45.957111 44.925869 0.14492567
47.168396 45.511223 0.94195551
47.756004 45.43256 2.0803127
45.377262 44.859421 -0.32850397
47.765091 45.893848 2.0729005
47.167671 45.381454 1.2617066
47.165321 45.395802 1.85763
46.777943 45.222809 0.66893607
46.785194 45.241699 0.17119527
45.750778 44.831635 0.96153563
48.26841 45.679955 1.9544787
45.993015 44.962814 1.8514298
45.981121 44.940784 -0.10255463
46.007015 44.960457 0.084296688
47.019417 45.368397 0.52271348
45.868259 44.892616 0.8631022
46.968685 45.652782 2.389396
48.281704 45.631641 1.6631918
47.646301 45.535156 1.1540821
46.673367 45.192608 0.96214926
45.16394 44.60228 -0.83769017
46.572239 45.129383 0.46372885
46.769047 45.213417 0.27553833
46.377956 45.388939 2.1438456
46.852135 45.231953 1.0686221
45.798622 44.883331 0.064917222
46.876545 45.271561 1.168928
45.453926 44.726082 1.0625432
46.966385 45.661533 2.6907885
45.892277 44.896698 -0.14056978
45.778721 44.867142 0.12465981
45.979187 44.935051 0.28121877
48.271999 45.632793 1.8574913
46.973537 45.309986 1.5533557
46.634277 45.084576 1.465624
45.373215 44.702648 1.1617279
47.266766 45.26791 2.4478495
46.760719 45.23069 0.097969294
45.964195 44.924263 1.6588793
46.684448 45.287094 0.27193213
46.5704 45.170467 1.6636131
48.267673 45.625919 1.4700103
46.79174 45.271999 0.77353835
45.966084 44.922104 1.2613291
45.736885 45.116806 2.9172516
45.885159 44.95517 0.90108913
45.762997 45.201977 2.6622293
45.978935 45.166389 0.85088289
45.276634 44.753387 -1.1370842
45.864895 44.979172 1.5449507
45.965275 44.91769 1.5597932
48.058548 45.590084 2.6333423
45.67865 45.081924 1.5549431
47.187187 45.384499 0.24312732
48.52459 45.865337 1.1501923
45.260483 44.506702 2.4535587
46.01981 44.959305 0.15691718
47.168846 45.38084 0.96452433
45.992008 44.957981 0.89101666
48.264977 45.674278 2.0544415
47.335781 45.433067 0.27107489
45.757496 44.831379 0.56480604
45.063652 44.696144 0.85618013
45.995167 44.958042 1.2691987
44.885498 44.508213 2.3245754
45.756939 45.182049 2.4500797
48.10968 45.813217 0.44173193
44.951324 44.911461 0.48087561
48.824768 45.853016 0.2995491
46.863319 45.559784 1.9609114
46.662407 45.202312 1.8646643
48.475006 45.704414 2.0620899
47.57465 45.519524 1.1608616
46.774765 45.283142 0.13726826
45.9715 44.917034 1.9563944
45.987888 44.964386 0.6616621
45.961975 45.128136 0.85550165
46.672497 45.195614 0.46466145
46.873112 45.235405 0.76744461
45.870293 44.889618 1.4579391
47.064468 45.329548 1.2623501
45.957375 45.12793 0.67042595
46.672222 45.42429 1.2688972
45.990364 45.126389 0.23285651
45.786354 45.200012 2.5788908
48.340401 45.65403 0.10770863
48.174904 45.766418 0.67940563
48.261227 45.675243 1.7612039
45.985023 44.956818 1.3598182
45.984436 44.956303 1.1784811
45.674965 45.166107 2.6674907
48.827362 45.830292 -0.043342195
48.850578 45.818115 -0.16097285
47.386696 45.449799 0.079397291
45.775776 45.171978 2.0622988
48.288097 45.697762 0.17993899
47.173058 45.379616 1.0711975
46.462112 45.154423 0.65854883
