# .PCD v0.7 - Point Cloud Data file format
VERSION 0.7
FIELDS x y z
SIZE 4 4 4
TYPE F F F
COUNT 1 1 1
WIDTH 546
HEIGHT 1
VIEWPOINT 0 0 0 1 0 0 0
POINTS 546
DATA ascii
47.673431 32.447994 1.787429
48.184643 30.921522 2.6520286
47.817684 31.869379 2.57008
47.737217 32.067879 2.7128413
47.696079 32.180771 2.3355219
47.796391 31.924126 2.8361542
47.712894 32.160336 2.4292939
47.718468 32.13377 2.7921479
47.603786 32.434128 2.3837616
47.725327 32.253414 2.8837225
47.690262 32.330917 2.868952
47.494114 32.851368 2.7610419
47.418377 33.043144 2.3950751
47.287483 33.290474 2.4691327
47.404964 32.981918 2.6949975
47.303719 33.234505 2.4895401
47.282112 33.307175 2.6341324
48.260468 30.734095 2.8045645
47.408455 32.945251 2.5969839
47.27861 33.305435 2.529357
47.559574 32.597668 2.6340542
47.662212 32.676636 2.2776918
47.649818 32.71986 2.6049623
47.621922 32.786076 2.5945253
46.720943 34.750576 2.1772051
46.913311 34.242561 2.2335405
46.903702 34.185806 2.1648648
46.715641 34.712982 2.2531013
46.763145 34.711693 2.4342895
47.195831 33.503902 2.3508315
46.862373 34.397026 2.3674657
47.226334 33.454334 2.1246779
46.846424 34.406651 2.1693954
47.311012 33.224854 2.356967
47.273739 33.222435 2.1304328
47.207844 33.421772 2.1616855
47.71286 32.105782 2.1531053
47.604282 32.383247 2.2547042
47.984169 31.463324 2.0824809
47.597179 32.356586 1.9758707
48.069 31.16819 2.127768
47.810406 31.821985 2.107857
48.218491 30.77207 2.2003253
48.261822 30.694599 2.2863646
48.255287 30.700686 2.1729286
48.18203 30.893745 2.2636085
48.211338 30.84005 2.3511214
47.484856 32.790798 2.4496121
46.822262 34.586727 2.4864867
48.319134 30.600607 2.5335248
48.370541 30.614441 2.6178234
48.323009 30.721912 2.2891366
48.321434 30.807678 2.5082691
48.317474 30.8165 2.719939
48.240223 30.977892 2.4603667
48.265556 30.983786 2.6260219
48.252785 30.89098 2.3707728
47.995041 31.512302 2.4336872
48.052925 31.39719 2.4237545
47.924839 31.751602 2.301533
47.885078 31.778915 2.3916171
48.018879 31.576015 2.5767567
48.29995 30.825365 2.6505709
48.280502 30.913713 2.6331053
47.940392 31.796543 2.4994578
47.902321 31.912277 2.5607288
48.286972 30.78775 2.3588731
48.006836 31.616474 2.6423328
47.952759 31.795387 2.7335968
47.748528 32.259834 2.3615265
48.250587 30.905842 2.2665794
48.223579 31.005312 2.3473899
48.13998 31.202078 2.346683
47.822456 32.068104 2.3988426
48.362698 30.611719 2.5572982
47.94223 31.767328 2.5229139
48.344822 30.714827 2.6785884
47.553516 32.594452 2.3334339
48.176193 31.088112 2.7393851
48.102421 31.274572 2.5592985
48.295216 30.849258 2.7250521
48.249763 30.880173 2.4546275
48.333221 30.719938 2.4786992
47.67297 32.485664 2.5632401
47.651421 32.560337 2.6344681
47.447517 32.976997 2.3758478
48.04084 31.557062 2.6441033
47.751251 32.26646 2.6561391
47.861198 32.013889 2.5548682
47.430954 33.167187 2.4539018
47.460022 32.965046 2.2781029
47.997475 31.60537 2.3823793
48.17923 31.099815 2.3827441
47.490734 32.930939 2.6731455
47.829876 31.977432 2.3702719
47.362186 33.287205 2.6537819
47.177044 33.689995 2.3749599
47.145542 33.788124 2.2780349
47.097908 34.031513 2.7641866
47.281189 33.406307 2.3602095
47.222584 33.702736 2.5634506
47.106876 34.013847 2.6125839
47.622833 32.592106 2.3113227
47.1954 33.685139 2.4527035
47.350674 33.285969 2.3904743
47.920708 31.852419 2.6193841
47.87804 31.986288 2.7124016
47.556629 32.679062 2.3741093
47.29208 33.56382 2.775512
47.773354 32.191803 2.3569577
47.638092 32.62912 2.7271109
47.635368 32.583809 2.4689808
47.243332 33.605873 2.4634788
47.143402 33.887062 2.5386481
47.835091 32.064819 2.6548431
47.455193 33.018192 2.4593794
47.202652 33.687134 2.6150231
48.091568 31.363308 2.7107179
48.023293 31.522987 2.4704828
47.486088 32.893112 2.4497204
47.183544 33.621788 2.5772758
47.101139 33.914703 2.567606
47.689728 32.407974 2.7226284
47.633789 32.525139 2.3935268
47.452988 33.077274 2.5740535
47.735802 32.291157 2.4482856
47.654911 32.410858 2.4580939
48.356937 30.606756 2.3662093
47.15287 33.799477 2.3910294
47.168167 33.789131 2.6436133
47.712601 32.331123 2.7576709
47.441727 33.098763 2.6380088
47.659389 32.508366 2.6505401
48.084171 31.296856 2.3602624
47.139179 33.897133 2.6531534
46.975227 34.176765 2.3511708
46.973576 34.262424 2.3357518
47.238907 33.600933 2.3647003
47.969513 31.707491 2.532104
47.286514 33.40844 2.6259069
47.261673 33.585915 2.8285191
47.780361 32.205479 2.8361442
47.82452 32.092575 2.5946712
47.25082 33.595478 2.5597894
48.149185 31.19573 2.7693624
47.59597 32.606594 2.588279
48.046387 31.469002 2.3504686
48.229294 31.073305 2.6733711
47.361221 33.317287 2.5509236
47.327961 33.419392 2.3539131
47.330116 33.443417 2.6133735
48.052872 31.406664 2.3736315
48.07938 31.457476 2.7094512
47.338871 33.425922 2.7508414
47.330528 33.40081 2.4655218
47.923653 31.864735 2.5770743
47.847992 31.991552 2.4596703
47.94619 31.690733 2.3563063
47.246624 33.617264 2.643249
47.751984 32.249741 2.5185502
47.875351 31.874168 2.4638126
47.890015 31.888409 2.7820473
47.807632 32.085461 2.5586205
48.15147 31.181787 2.6211867
48.257374 30.911678 2.5509801
48.194775 31.077337 2.453048
48.025539 31.549351 2.4855051
48.35128 30.697487 2.545032
48.135033 31.287788 2.5515838
48.0555 31.501955 2.5710299
48.152546 31.185772 2.4466624
48.356159 30.609684 2.4649751
47.276524 33.500839 2.4671426
48.294891 30.70717 2.5432997
47.271118 33.513695 2.6606557
47.444412 33.034863 2.637325
47.860924 31.9891 2.6584444
47.959633 31.689095 2.6598563
47.355984 33.299904 2.4636374
47.479244 33.002155 2.5539224
47.470074 32.896282 2.5579386
47.902603 31.769051 2.610884
47.747414 32.209351 2.6508129
47.747517 32.214603 2.7584982
47.894722 31.831234 2.7317238
48.152546 31.098183 2.6883986
47.354713 33.200813 2.6565022
47.953621 31.689646 2.7257273
47.123486 33.891598 2.4623697
47.632141 32.577869 2.5424159
48.274559 30.823284 2.5841594
47.078346 33.98251 2.5369606
47.768818 32.186119 2.4560053
47.166023 33.788029 2.5645027
47.773251 32.383224 2.3125429
47.680969 32.307674 2.5325294
47.043335 34.105312 2.7350807
47.673035 32.40477 2.5408511
46.967522 34.217785 2.5636346
47.551369 32.686935 2.6289558
46.966461 34.280716 2.5475342
47.569901 32.667255 2.5739989
47.177734 33.702274 2.5692649
47.861202 31.887413 2.6559381
47.28775 33.396255 2.5498831
48.087746 31.210737 2.6688082
47.55954 32.69376 2.4652009
47.235046 33.486168 2.5704226
48.266087 30.716911 2.6902678
47.158669 33.784786 2.454299
48.138824 31.172823 2.5849571
47.652889 32.484814 2.4966061
47.06477 33.985039 2.4744272
48.089226 31.214127 2.5934227
47.25576 33.490681 2.3711228
48.216812 30.842102 2.5738788
47.402237 33.072514 2.7177069
48.184551 30.982538 2.6539025
47.757851 32.193001 2.5353312
47.19265 33.605286 2.4499919
48.169186 31.099316 2.5508478
48.175468 30.988045 2.4757848
47.074707 33.900925 2.4759007
47.972198 31.511862 2.5557668
48.219997 30.840782 2.620497
48.301018 30.641073 2.7127752
47.110725 33.798565 2.5504217
46.961349 34.203262 2.4678125
47.186913 33.599495 2.7181652
47.09 33.731327 2.3216374
46.666656 34.897377 2.3422172
47.159046 33.59914 2.2520833
46.834103 34.491119 2.3356793
47.056358 33.903023 2.353677
46.698013 34.719452 2.3318357
47.205059 33.389503 2.3466139
47.001389 33.977219 2.3675301
46.838333 34.492565 2.2487454
47.251331 33.534637 2.2665136
47.690201 32.198177 2.2558644
47.578564 32.506531 2.3350635
47.377983 33.09642 2.3466339
47.276657 33.307838 2.3149791
47.899075 31.632126 2.3087373
47.694942 32.126209 2.2691143
47.582542 32.488396 2.1902313
46.93758 34.255878 2.1741664
47.644852 32.304283 2.2491825
47.528931 32.695824 2.2551768
48.00013 31.413414 2.2408185
47.678127 32.291172 2.3500113
47.469231 32.898201 2.3464289
47.964451 31.493793 2.2684755
47.275028 33.297131 2.265763
47.679394 32.395752 2.2593052
47.436626 33.072994 2.2603884
47.32946 33.374771 2.2307065
46.980511 34.088863 2.2772655
47.804905 31.880175 2.2427218
47.628582 32.605179 2.2362437
47.323574 33.286949 2.2326961
47.662468 32.279572 2.1844494
47.164845 33.698025 2.2108071
46.950333 34.199993 2.2458935
47.629898 32.48893 2.1718416
47.382385 33.148903 2.1772196
47.05748 33.891449 2.1746266
46.810089 34.91592 2.1883035
47.852654 31.856062 2.2275615
47.639359 32.485424 2.2663007
46.670887 34.895851 2.2685323
47.956741 31.560215 2.1807499
46.879036 34.549797 2.1681297
48.049091 31.386633 2.1899433
46.948502 34.198044 2.1681194
47.734619 32.17791 2.2523599
47.441776 32.89642 2.2455356
48.270885 30.795481 2.1535532
47.5331 32.724258 2.06722
47.218079 33.666191 2.0251873
46.809544 34.717823 2.0206318
47.142593 33.874805 2.3775628
47.359703 33.328278 2.0233746
48.180298 30.895323 2.1493933
48.186317 30.91662 2.4655116
47.011879 33.962414 2.4603348
48.248039 30.908276 2.0575354
47.582275 32.748619 2.6379049
48.288372 30.790817 1.8824766
46.694244 34.956165 2.0338302
47.492512 32.715988 2.6401968
47.29343 33.291161 1.9600656
46.640839 35.012756 2.4188507
46.86623 34.390919 2.2605157
48.14962 31.023628 2.5629439
47.552731 32.776657 2.5501239
47.555084 32.800323 2.4955659
47.933189 31.737518 2.0050647
47.290192 33.298965 1.7441927
46.797222 34.498489 2.3300841
48.191746 30.897524 2.049732
48.339703 30.931093 1.9130909
46.651409 34.98077 2.2581892
47.365398 33.087448 2.2733333
47.03751 33.966537 2.1692903
47.044167 33.979507 2.376605
47.235775 33.554836 1.8928748
47.074631 33.975655 2.0564096
47.382359 33.187504 2.5483387
47.356682 33.183292 2.2450337
47.373444 33.183311 2.4519048
47.941223 31.731876 2.0736027
47.961452 31.568033 2.009352
47.989571 31.514879 2.35039
47.242966 33.582726 2.0569742
47.571754 32.572906 2.1612861
47.988029 31.510048 1.9427565
47.501175 32.626987 2.2726827
47.495701 32.60231 2.1580751
48.083633 31.295897 2.0590067
47.411053 32.913689 2.2535803
47.802216 31.899952 2.1553402
47.652718 32.197556 1.996999
46.754498 34.687027 2.3431058
47.784767 31.908695 2.3842697
47.723114 32.333881 1.9287841
48.25375 30.896309 2.1789579
46.844704 34.477726 2.1660905
46.944962 34.293049 2.2893219
46.80447 34.848801 2.0564344
47.08271 33.791756 2.2470381
47.592213 32.598164 2.4751875
46.939713 34.351601 2.0519679
47.56694 32.601158 2.0494661
47.964218 31.779921 2.1531589
47.046291 34.085197 2.2661688
47.376476 33.121346 2.4441829
47.068604 34.078167 2.5579267
47.048874 34.087387 2.471118
47.052235 34.045788 2.3931162
47.780163 32.00061 2.4528608
47.171757 33.58923 2.1753271
47.507324 32.698742 2.3561625
48.300526 30.880037 1.9794893
47.702564 32.39621 2.0816665
47.950504 31.747406 2.0433483
46.836639 34.568878 2.3322258
46.843391 34.613377 2.0159776
47.513676 32.860615 2.036521
46.901924 34.191284 2.3502426
47.389862 32.995522 2.257174
47.109653 33.640923 2.4792566
47.635826 32.396374 1.7699449
47.387257 32.985283 1.9657568
47.248669 33.389454 2.1729064
46.643585 34.987328 2.1648786
47.252892 33.397259 2.2514746
47.34869 33.427254 1.6408556
47.129303 33.858883 2.2394655
47.50666 32.699188 2.462626
48.171631 30.98588 2.2633958
47.974072 31.582127 2.0504284
47.957283 31.582819 2.2669477
48.034016 31.391356 2.2516558
48.287422 30.791683 2.4574428
47.385986 33.024639 2.5161297
47.483788 32.708984 2.2736928
48.273911 30.803236 2.0772135
47.39743 33.005905 2.4601114
47.596088 32.960907 2.0512962
48.082623 31.199587 2.3531237
48.049335 31.255327 1.8139285
47.265129 33.41272 2.4772754
47.351963 33.300686 2.7131917
48.07943 31.386221 2.0795352
46.858204 34.316898 2.1588709
47.177448 33.631149 2.6256583
47.510632 32.647629 1.987825
48.07756 31.213594 2.245935
47.521786 32.961105 2.2032297
46.757996 34.680904 2.2648048
47.946358 31.678152 2.2284191
48.167068 30.976484 1.936134
47.455517 32.898571 2.1906645
47.374451 33.103619 2.5334437
47.450298 33.082989 2.4693134
46.727795 34.724857 2.5387192
47.777615 32.086037 2.4600835
47.940624 31.685043 2.198163
47.356544 33.176426 2.3579769
48.169018 30.994547 2.0489886
48.273445 30.86454 1.8178694
47.681534 32.290215 2.4576888
46.995911 33.984196 2.1692743
47.858658 32.115074 1.997593
46.885406 34.395626 2.0573344
48.078327 31.303204 2.4687915
46.98629 34.084442 2.475013
48.043617 31.298313 2.1789303
48.055954 31.282576 2.2580214
47.298725 33.445892 1.8386629
47.250393 33.521286 1.9851776
47.282009 33.683655 2.145134
46.806488 34.502289 2.1715045
47.163433 33.604111 2.3399384
47.563488 32.445114 1.7753193
48.212479 31.1395 2.0018082
47.678692 32.201405 2.1725347
47.336628 33.359802 1.9403734
47.668938 32.286442 2.0854702
47.710304 32.295105 1.8933874
46.762093 34.666874 2.1738493
47.607315 32.778961 2.2701235
47.547535 32.780613 2.0561016
46.814251 34.68626 1.9674101
48.129814 30.986526 2.4071155
46.777786 34.607265 2.2619741
47.381092 32.988506 2.1708772
47.967415 31.589075 2.4631934
47.753601 32.440788 2.4780092
48.268005 30.779678 2.2600367
46.748268 34.857033 2.4744058
48.400753 30.580051 2.1204193
47.889679 31.883455 2.0429251
48.185879 30.983967 2.1766019
47.821869 31.966536 2.1496537
47.844837 32.002548 2.0678606
46.724102 34.794933 2.2901931
47.297966 33.222744 2.236722
47.280838 33.426109 1.9680282
47.589432 32.523338 2.5633569
47.050148 33.892155 2.2590771
47.071434 34.076897 2.0515597
47.545788 32.674973 2.1961076
47.190742 33.506542 2.2695968
47.540173 32.857449 2.5843329
47.830078 32.097691 1.8634545
47.583187 32.497169 2.2599254
47.402531 33.158684 1.8282291
48.373177 30.486151 2.1589899
47.671242 32.416428 1.9736818
47.325157 33.40715 2.147213
47.041142 33.979801 2.2683117
46.797504 34.507481 2.2621439
47.405979 33.125919 1.7717394
47.546906 32.607197 2.2548447
47.410549 33.142139 1.639244
47.909637 32.067387 2.0242832
47.774178 31.978498 2.5465131
47.257122 33.467964 2.0557292
48.192814 30.887436 2.3484654
47.191132 33.779305 2.7443914
47.483742 32.716919 2.1603003
46.693714 34.759266 2.4683936
48.135635 31.21048 2.0355077
48.130558 31.151848 2.1552145
47.963593 31.682549 2.4452138
47.085876 33.775673 2.3519239
47.981918 31.749626 1.9311955
47.640678 32.527855 1.812795
47.383827 33.167667 1.7224374
47.421192 33.246189 1.6486144
47.601501 32.390175 2.084249
47.602943 32.508034 2.0757594
47.986923 31.26288 1.7618003
47.446228 33.085136 1.9673297
47.374428 33.195892 1.970281
48.350407 30.586811 2.0713308
48.096523 31.085388 2.2503319
47.373611 33.141953 2.0509586
48.204063 30.787186 2.0730462
47.987499 31.415808 1.9006386
46.832664 34.737671 2.2150009
47.741711 32.088406 2.176415
47.457691 32.795483 2.1764152
47.024277 34.228733 2.6183174
47.154655 33.687874 2.2710905
48.257324 31.015173 1.9858034
47.479755 32.973831 2.0166283
48.251221 30.998785 2.0489557
47.366856 33.096531 2.6550605
47.638172 32.389153 2.165144
47.682278 32.224266 2.5246403
48.286572 30.730082 2.3601325
47.886765 31.691885 2.263979
47.876347 31.800192 2.6537018
47.635326 32.747288 2.2695131
47.767944 32.084301 2.6623139
47.301491 33.22287 2.5779471
46.77494 34.58532 2.3285427
47.007305 33.999756 2.268249
46.623192 35.079742 2.3346977
48.260937 30.618916 2.0141439
48.257915 31.087179 2.1562884
47.36174 33.304337 1.7594271
47.958954 31.519888 1.6947854
48.285385 30.633854 2.1125188
47.956402 31.704559 1.6877038
48.172413 31.069153 2.0701342
47.400818 33.120811 1.9664472
47.914455 31.5627 1.6817122
47.992401 31.286879 1.4930371
47.96899 31.288879 1.8119543
47.383717 33.167122 2.0221577
47.905449 31.706711 1.7691448
46.830296 34.654175 1.9590366
47.576225 32.508049 1.9605451
47.638031 32.487007 2.0349948
47.894417 31.819771 1.9513662
47.906631 31.70982 1.997573
47.474907 33.105705 1.8771477
48.272758 30.685839 2.0888245
48.053452 31.491272 2.0244381
48.345657 30.778183 2.0291293
47.043961 34.1684 2.1424289
46.6679 34.905117 2.1737158
47.573135 32.508411 2.4407396
48.281898 30.691339 2.4455485
47.677998 32.401115 2.3551013
47.494343 32.800762 2.5702012
47.885895 31.808144 2.4536085
47.786873 32.103409 2.3702884
47.007515 33.921711 2.361032
47.109123 33.719452 2.2720168
48.342014 30.682495 2.3514838
46.967018 34.099834 2.3467729
47.871696 31.882675 2.3628078
47.751614 32.091377 2.2604921
48.145325 31.088909 2.2414904
46.642624 34.975975 2.3459687
47.747944 32.180252 2.1655946
46.694637 34.809204 2.2550166
47.854282 31.89164 2.1705585
46.695747 34.809204 2.1758258
46.686932 34.816284 2.3333528
47.468937 33.015251 1.9560952
48.335098 30.698944 2.0384173
47.283901 33.404457 2.0656271
46.628666 35.081947 2.223521
47.902897 31.804426 2.0346038
47.475689 32.799755 2.2681217
47.013046 34.093628 2.0812428
46.660202 35.086617 2.0821662
47.433064 33.132263 2.041671
47.764549 32.080376 2.0484343
47.233047 33.562405 2.158252
