# .PCD v0.7 - Point Cloud Data file format
VERSION 0.7
FIELDS x y z
SIZE 4 4 4
TYPE F F F
COUNT 1 1 1
WIDTH 1609
HEIGHT 1
VIEWPOINT 0 0 0 1 0 0 0
POINTS 1609
DATA ascii
3.7682564 36.684662 2.7268205
4.2158551 35.335735 2.9883139
3.5801392 36.998638 2.8804901
3.5970843 37.609684 2.3732724
5.2013655 32.613197 3.0634346
3.9613054 35.993744 2.8486607
3.9780939 36.010422 2.7731662
5.2785969 32.707264 2.4640749
3.9841177 36.508736 2.5569327
4.1573029 35.69265 2.4588821
5.6587839 32.305119 2.3679619
5.4903564 32.002235 2.6624212
6.7386374 29.98531 -0.039995145
3.6026659 37.60508 2.4550636
3.6183178 36.803776 2.6526613
5.5657477 31.545732 3.0747726
6.6924839 29.892042 1.1628743
4.8003864 33.902561 2.5607812
4.9716311 33.909588 2.6539078
4.3681068 35.997475 2.0582447
6.7767754 30.218266 -1.0123193
5.5919776 31.913301 2.4650381
4.3522987 35.293667 2.5477748
6.063529 31.39706 2.5612946
3.390594 37.60524 2.5463915
3.8874154 36.1987 2.4604673
4.9519053 33.686337 2.5626843
6.1021838 31.108696 2.2593691
5.3871183 32.379772 2.2602167
5.4649134 32.387196 1.9721681
5.5512567 32.905617 3.1658688
5.4907937 31.999809 2.7705889
4.7740192 34.424744 2.4724021
4.8661079 34.392963 2.4643598
4.3030095 35.770607 1.9506422
5.7767367 31.463781 2.7573683
5.3526053 32.475536 2.7534633
6.7726703 30.189251 -0.60967821
6.0985518 31.112364 2.1746347
3.772109 37.311138 1.88232
3.5386858 37.487286 2.2660363
6.758152 29.995136 1.9650906
4.6758261 34.217136 2.1691203
3.2464852 37.86417 3.113174
5.557909 31.880928 2.9421453
5.4129405 32.362732 1.866816
6.0576553 31.381536 2.471838
4.9842296 33.397156 2.7638643
4.689816 34.222542 1.8543166
4.1426392 35.787811 2.3653855
5.340981 32.689106 2.4500399
3.6643577 37.593079 1.962938
6.0414104 31.375921 2.2615035
4.2857361 36.074951 1.9598273
6.7506027 30.287979 2.299516
4.0605302 36.495682 2.3700609
4.6717644 34.301586 2.55549
4.1489773 35.785061 2.1681378
3.4537864 37.603855 2.1700878
5.462739 32.39698 2.080116
5.0907793 33.106144 2.5694323
4.1493244 35.78104 2.7552803
3.6409719 36.993145 2.6447933
5.1671648 33.598869 2.456893
6.6962857 29.892597 0.46237677
6.0739846 31.386497 2.7581871
5.4555407 32.382774 1.5645778
4.5886006 35.011932 1.9813867
4.5460315 35.407669 1.9565136
5.2833934 32.498695 2.8546076
5.7045255 31.49995 2.1676428
5.5841126 32.00185 2.3590553
4.7330213 34.167412 2.8139682
5.2776537 32.596573 2.2740483
5.3791685 32.426121 2.0848117
4.3485179 35.407215 2.354408
3.5885091 37.506283 2.3359632
6.2464843 30.979389 2.0404251
4.9764352 33.38525 2.9468591
5.4376945 32.972485 2.4603834
5.7651792 31.999109 2.6585586
5.1884928 33.091309 2.074899
5.2968183 32.408531 2.7635748
5.4506283 32.393105 2.4484584
4.3253236 35.444298 1.9068035
4.6257091 35.252151 2.6339724
4.9782853 33.206356 2.8734918
3.9703686 36.480553 2.4363811
6.8240519 30.025259 -0.25314173
5.0810962 32.939419 3.1987343
6.7714148 29.876995 0.46260035
4.0110788 36.509892 2.6728959
5.954668 31.095181 2.5637946
3.7562628 36.798008 2.2516124
6.8415494 29.822723 1.4592022
5.1577001 32.800068 2.9584603
4.6879158 34.309338 2.1657746
4.7326608 34.283947 2.1678462
6.7500267 30.068804 0.44675967
6.771812 29.881079 1.5587714
4.6353254 35.174919 1.9033467
5.0576692 33.285812 2.7544575
4.0473065 36.088139 2.2720037
6.6458693 30.192551 0.35896215
5.0473247 33.286964 2.6588032
5.1830096 32.899761 2.6719022
5.7589798 31.674622 2.5524826
3.8466976 36.487389 2.5544877
5.1865368 32.802315 2.8685169
3.5480516 37.888264 2.8637455
3.5996659 36.912827 2.9669898
5.0671525 33.39119 2.2699683
4.7331786 34.280449 2.0709817
5.6976366 32.101192 2.437372
4.2852111 35.894218 2.4660606
4.6447573 34.485527 2.3585279
3.3365667 37.583504 2.8690169
4.3957572 35.012779 2.4538341
6.237555 31.020367 1.9370159
3.2712512 37.727562 2.2600389
4.3367987 35.386269 2.1598947
6.7744031 29.876829 1.2632837
6.7410941 29.984221 -0.24113256
5.2057962 32.800388 2.3563192
5.1997151 32.801975 2.5439274
4.250443 35.478016 2.4600594
4.540494 35.277767 2.031127
4.4901567 35.29097 2.7531686
4.5659518 35.286972 2.1438959
4.6547451 34.983971 2.7523208
3.572659 37.597279 2.7392845
6.8360138 30.192339 -1.3364024
5.2813826 32.704521 2.257268
5.5074873 31.996119 2.1581421
5.1607318 33.070385 2.8393743
4.6028008 35.003555 2.0567646
4.6959996 34.308834 2.0769033
4.8173685 34.371441 2.0163543
4.869801 34.414177 2.0604374
5.1553893 32.99054 2.7695224
5.899055 31.610567 2.6663713
3.8669286 36.562031 2.7360454
6.74299 30.08153 -0.83896005
3.8671455 36.483822 2.266134
3.9146106 36.109669 2.7202346
5.2553 33.647045 2.2443347
5.7608452 31.597672 2.5502334
5.0838156 33.097675 2.667366
5.5522962 32.59462 2.4546721
4.4488425 35.488636 2.554229
4.017005 36.511612 1.9704503
3.6482217 37.103775 2.6583641
3.5863242 37.50185 2.4732842
6.8501291 29.703508 1.5194629
7.018858 29.762661 1.4887717
3.7766094 36.894211 2.5390635
4.461947 34.782787 2.7697797
4.1758232 35.501968 2.2618108
5.9399786 31.178841 2.3597953
5.2593265 32.899891 2.3604636
3.9794667 36.194778 2.265152
5.3665628 32.590244 2.4568892
5.2824574 33.298515 2.1606197
6.6765704 30.191055 -1.2261734
5.1883693 32.800323 2.6493797
5.8856845 31.088476 2.5652614
5.7042098 31.505804 2.6630154
5.2021146 32.814945 2.4774022
5.6519146 31.981087 2.4630132
3.8955996 36.10247 2.8722196
5.7035704 31.520466 2.2650595
5.6199527 32.634876 2.9967172
5.6326189 32.550438 2.8412912
4.7434516 34.280979 2.3597424
4.7580919 34.207935 2.6675398
4.5708742 34.320728 2.9539013
4.797801 34.164505 1.8783386
4.4039788 35.505695 2.2717545
3.9568908 36.095665 2.751153
4.1535769 35.689175 2.5431814
4.9268346 34.264118 2.4661186
4.6846638 34.299263 1.5417272
3.7704113 36.29705 2.0725069
5.9355555 31.182577 2.0782766
4.9380569 34.270939 2.3685772
6.6854806 30.191401 -1.3294537
5.1478801 33.194637 2.3557935
3.8748882 36.137363 2.6764355
4.5796976 34.499336 2.0707607
5.1943102 33.407753 2.4603376
5.5632501 31.996725 2.6512361
5.572423 32.482162 2.7252073
4.942934 34.487782 1.9558456
5.8859391 31.095682 2.2740738
3.655442 36.897465 1.969862
5.0466976 33.48217 2.4529867
6.8386927 29.860445 1.36844
3.8422801 36.682198 2.2461731
4.5393767 35.284241 2.2635815
5.0753832 33.296345 2.5510743
5.184206 32.903282 2.7592645
5.1404796 33.278809 2.1713226
6.762764 29.993114 -1.1477406
4.7863541 34.599609 2.4608293
4.4761443 35.202103 2.7147255
5.87603 31.090532 2.6620619
4.4968324 34.602047 2.5504572
5.5936604 31.686152 3.0286818
3.434916 37.700207 2.3437185
3.7638609 36.578789 2.6791873
3.7803757 36.40929 3.127177
4.1052065 35.714748 2.5820725
5.0405974 34.144554 2.0656087
4.9305649 34.279896 2.5597897
5.5648241 32.096817 2.4616776
4.3888712 35.604927 2.3590667
6.7743263 29.877674 1.157913
5.073041 33.20813 2.0806108
3.8495579 36.267395 2.961982
4.4997635 35.305679 2.062475
5.1831255 32.685661 3.1476836
5.4298539 32.979858 2.362884
5.2285538 32.872147 2.7249601
5.9999022 30.713369 2.1522028
6.2360721 31.064108 2.0056441
5.8767128 30.998703 2.7332416
4.161592 35.589985 2.7508187
5.7810712 31.49707 2.3610711
5.6654611 31.611177 2.8544698
3.8715608 36.995857 2.5597081
4.7807751 34.797966 2.0742965
4.9369216 34.280296 2.6578312
4.937273 34.297421 2.8403652
4.9213367 34.363228 2.6124644
4.5613527 35.197418 2.4618561
4.7934637 33.71389 2.9037473
3.3775327 37.597675 2.6525292
4.5604572 34.693905 2.066663
4.4849033 35.200695 2.5329776
6.8370547 29.831947 1.3696204
4.6687675 34.205154 1.6777134
5.1896143 33.322365 2.7362652
5.3916607 32.407833 1.6347065
5.9656982 31.100368 2.0683634
5.1954417 33.501167 2.4639804
6.8389072 29.821238 0.86320031
5.8644261 31.304203 2.4647152
4.460772 35.4846 2.6481972
5.2475314 32.879795 2.6421397
5.5472794 32.5802 2.639528
6.7019382 29.907763 0.67392045
3.5493863 37.808998 2.1401112
4.4027162 35.511551 2.5610569
4.9383855 34.274406 2.7483613
4.5037804 35.307037 2.5556014
5.6617002 31.497683 2.9628415
3.5637572 37.796135 2.3687792
5.7572398 31.782787 2.6931329
5.255712 32.980942 2.4608777
4.233016 36.295109 2.6902468
5.1783171 32.796951 2.7851248
5.6312909 32.600044 2.7616556
4.6583433 34.877197 2.0576234
3.5901842 37.70475 2.4656794
3.8052742 37.11274 2.4729657
3.9836602 36.101627 2.3667834
3.9894543 36.09169 2.2709067
5.5810075 31.993502 2.4576061
4.1563344 35.886524 2.2776642
4.0259018 36.657116 2.3396919
6.8436594 29.816669 0.77391523
4.5608215 34.696613 2.1615913
3.5939703 36.993607 2.4729218
5.636364 31.977808 2.3531556
4.9644923 33.792267 2.271945
3.5923395 36.899124 2.3339205
4.4134579 34.725513 3.1009741
4.4796972 35.231949 2.6511898
5.5407658 32.586666 2.5614922
5.0896182 32.970375 3.1514919
3.6450834 37.191128 2.1502042
4.1265101 35.865215 2.0436339
4.0819449 35.718494 2.4454653
5.0079451 33.210228 2.664355
6.3669581 30.493349 2.4616232
5.0533271 33.390415 2.4597025
4.0932703 35.717621 2.3707628
5.8629456 31.210329 2.6573505
5.6882863 31.507357 2.7775688
4.2810264 35.205009 2.3648462
5.8586626 31.47155 2.3622789
5.7962446 31.505787 2.0747859
5.7948828 31.405746 2.3765373
4.1293063 35.878822 2.1446738
4.0011134 35.900177 2.0788903
5.3182888 32.33416 2.9525058
5.9111099 30.75985 2.7823148
4.4694018 35.190319 2.4736805
4.2880645 35.394695 2.1636009
4.2955885 35.8078 2.6649835
4.5960646 34.398792 2.5678003
4.6613932 34.893959 2.2695019
5.2818274 32.611881 2.6615758
5.2520604 32.883472 2.5438838
4.6957598 34.797733 2.6588938
4.4862857 34.590477 2.8552773
6.8437057 29.820429 1.0655122
5.3730383 32.393093 2.8414824
5.3838553 32.402752 2.5510898
5.4500237 32.480736 2.3647525
4.6282911 35.078957 2.4553807
4.6475825 34.990334 2.5586228
4.2496395 35.976242 2.176934
4.2370038 35.589634 2.4323089
6.0356336 31.368252 2.3714094
5.5575824 32.37738 1.5611058
6.6236572 30.456882 2.4503517
4.6570387 34.395203 2.656014
4.6388469 34.989944 2.4554379
4.6684513 34.597473 2.1480684
4.6819739 34.100761 2.8535528
4.2970662 35.197605 2.6589801
6.7022991 29.877941 1.2702591
4.5995827 34.391922 2.4509237
4.6968789 34.807762 2.4576819
5.0029793 33.32317 2.6744552
5.6273365 32.465225 2.3622897
4.9957047 33.340347 2.5678382
5.4034367 32.105556 2.8878083
5.7123618 32.11504 2.3645904
6.6581054 30.191881 1.2613515
5.0147505 33.193775 2.4615803
6.5922327 30.410723 2.8441739
4.0114961 35.830437 2.8874445
4.5826287 34.387119 2.9306641
5.260756 32.88781 2.4551773
5.3274498 32.294834 3.1665535
4.0020542 35.824806 2.7094367
4.0889711 35.806873 2.2439702
5.5054169 32.59663 2.5547864
4.7029734 34.037109 2.348315
5.8794732 31.971024 3.1669021
5.6579514 32.288517 2.5571644
5.4904671 32.609062 2.4474783
3.3145828 37.698288 2.4211004
4.4939866 34.699394 2.4627943
4.671175 34.899281 2.3699818
5.9778194 30.994211 2.3593252
3.6812701 36.898052 2.1674709
5.7462029 32.093403 2.2616172
4.5954237 34.328171 2.4578557
4.5817013 34.500336 2.6499825
4.1339669 35.861427 2.0061891
6.0682745 30.595469 2.7599792
4.9778175 34.091797 2.3648188
5.4980235 32.70372 2.3610601
4.9791827 33.402637 2.3564739
4.4186506 34.785416 2.5725472
5.5922561 31.811644 2.1687937
5.2906771 33.203072 2.2666945
4.1464586 35.486305 3.1803885
5.0901179 33.29929 2.3542902
5.04954 33.093246 3.0265024
5.0082736 33.919529 2.4436367
6.6187897 30.14189 1.8997629
3.837652 36.593719 2.4494505
4.3719878 35.091797 2.5667865
5.7694201 31.454927 2.8701816
6.0314298 31.520306 2.2766566
4.0386324 36.08366 2.3857722
4.8467364 33.991352 2.6618259
5.0029941 33.410774 2.458498
5.2928462 33.204453 2.5574033
6.7477212 29.985161 -0.73555094
5.3755569 32.693447 2.6553571
5.0841479 33.202026 2.2624292
5.2588801 32.897385 2.265147
5.6966515 31.500328 2.3719616
6.6674328 30.302183 2.4657614
6.5741034 30.397438 1.8608015
5.6853118 31.796942 2.1691
6.7751479 29.873493 0.65766448
5.2368112 33.074364 2.69313
3.6880703 36.705215 2.4638336
4.9733009 33.493946 2.6584108
5.9882779 30.90287 2.3658464
3.8097854 36.381367 2.7723799
3.4687593 37.696407 2.4493766
4.5842123 35.098316 2.3711038
5.6977806 32.089588 2.2885821
5.1775737 33.594757 2.8188288
5.2371078 32.979073 2.5511224
6.7736115 29.875423 1.0621636
6.5731215 30.470684 2.4641056
4.9998245 33.366886 2.8732474
5.6636786 32.28981 2.4628341
5.2543998 32.691761 2.6571894
4.8624296 34.189247 1.8964546
4.0132465 35.782555 2.1301565
4.591291 35.099907 2.4675121
4.886126 33.808186 1.6889706
6.7285147 30.07482 1.161621
3.8556414 36.49189 2.4587431
4.271409 35.202099 2.0705254
5.9251003 30.852308 2.8766813
5.3893948 32.471077 1.7649243
5.7920308 31.910461 2.6604838
5.9246516 31.255501 2.0738301
5.8400931 31.397633 2.4589689
5.5490093 32.879059 2.6891456
5.6880927 31.59021 2.5569365
6.3132339 30.818325 3.0639422
6.5980673 30.490114 2.8736243
5.6816087 31.589497 2.6636059
5.4800167 31.998909 2.8612981
5.5323067 32.890587 1.9587916
6.3553452 30.493889 2.2612557
5.8801818 31.700851 2.5593066
4.9728079 33.768631 2.5553541
5.6941042 31.594963 2.470434
4.7616796 33.958317 2.9125216
4.8932424 34.292839 2.2620654
4.0809951 35.704338 2.2666481
6.0557365 31.489342 2.3675094
6.1588106 30.99828 2.1694911
5.4920907 32.69976 2.5613713
4.5657649 34.599709 2.5661333
5.9701099 30.908958 2.5610859
3.8973887 36.80299 2.2583838
5.8717337 31.107521 2.7588303
4.3990531 34.817196 2.8622959
5.7625432 31.495827 2.558104
6.6889296 30.293737 2.7546382
6.77389 29.882175 -0.73536175
5.6842928 31.604605 2.251426
6.046895 30.511841 3.0207131
6.6315246 30.45344 2.5711074
4.7572355 34.689602 2.4606385
5.9362845 31.1854 2.4549572
6.6886563 30.296623 2.858911
4.0061755 35.884933 2.1838303
6.2002602 30.818438 2.358439
5.493793 32.084229 2.3589461
4.3304982 34.997902 2.9600136
5.4163103 32.105934 2.7982688
5.4777536 32.093452 2.763797
3.99825 35.794147 2.2615066
4.2926407 35.701954 2.4771595
5.9877515 31.400421 2.455075
5.961596 30.898535 2.6520045
3.3970685 37.476833 2.4526904
4.8835917 33.70332 2.6503649
6.5693822 30.395144 1.462009
4.5846543 34.397465 2.2491152
4.851995 34.013725 1.8926287
6.074151 31.288177 2.6510458
5.2634616 32.338692 3.1802673
4.3615389 35.697155 2.171525
5.908577 31.008356 2.1672838
4.3017097 35.110809 2.2420521
6.0617785 31.383419 2.6527781
5.6435604 32.456913 2.2875249
5.1845379 33.591995 2.0505741
4.9783487 34.113541 2.1530724
4.4837809 34.609131 2.7633343
4.4626045 34.878525 2.646168
3.7838142 36.494022 2.2763743
4.0597506 36.498295 2.2752495
4.4749069 34.699169 2.7605219
6.5812998 30.403303 2.1631935
5.0749426 33.196335 2.1670253
4.5027428 35.212074 2.35182
4.9876189 34.001526 2.2606816
5.2558961 32.593868 2.8669975
6.3072472 30.801102 2.9346731
5.4784274 32.097729 2.2659671
4.7872643 34.000824 2.4624574
5.6972957 31.507254 2.4792502
5.5032558 31.909307 2.8586955
5.5502949 32.823868 3.1618094
4.3157825 35.101986 2.6877804
4.6130185 34.321953 2.4071593
4.7835608 34.419769 2.5637522
5.5094309 31.91848 2.6731534
4.0708661 35.797852 2.5747166
5.95924 30.805191 2.8614852
5.650681 32.198711 1.4281209
4.0818362 35.604195 2.9456997
5.9468198 31.191647 2.6674128
4.5899897 35.096237 2.5495095
5.4511304 32.099869 3.044096
4.337245 35.873932 2.4763107
4.0193958 35.840496 2.7902806
3.89306 36.90728 2.5529494
5.1631904 33.593689 2.1502128
5.5257869 32.833523 2.5670543
6.5806561 30.304731 -0.63468862
5.9958673 30.61413 2.1735048
4.5347519 34.461475 3.0905342
6.0990252 30.52882 2.2890208
5.7780709 31.295845 2.6509376
5.7840309 31.285423 2.1579146
5.1608739 33.321178 2.5725732
4.5459838 34.512669 2.8658702
4.8891997 33.41613 2.8736007
5.4843917 32.005459 2.0903459
6.6310301 30.463842 2.2585092
4.7779427 34.00135 2.5643036
4.1556487 35.670189 2.7443185
4.4057403 35.502777 1.9794539
3.955981 36.289173 2.3709447
5.9383478 31.179398 2.2636774
4.8865051 33.596588 2.1706119
4.3546805 34.986568 2.8421838
5.4024172 32.299118 2.5714231
3.8527017 36.295086 2.8616498
5.885036 31.700439 2.4488525
5.6776891 32.096954 2.7647018
5.9576941 30.896107 2.7539489
5.6809549 32.189171 1.9752563
4.4175448 34.787106 2.7256029
4.3552985 35.489098 2.1942966
5.2924824 32.718155 2.3563242
4.853158 34.070126 1.865393
4.4087944 35.497925 2.3643591
5.2836828 32.602261 2.1663356
3.6946411 36.818977 2.5545139
4.4706526 35.392853 2.2677209
5.2681341 32.804836 2.5614743
4.6802101 34.115429 2.7420797
5.9921961 30.911308 2.2713914
6.2050419 30.80879 2.5814455
4.5072336 34.507141 2.6378584
5.275579 33.299072 2.5654395
5.0691361 33.295654 2.4633274
4.2536817 35.49382 2.3481476
5.9746842 30.895214 2.4601338
4.2773304 35.393951 2.7406561
3.8805971 36.394642 2.3536716
4.7663603 33.919136 2.4443119
5.7745929 31.299538 2.8548727
6.6408567 30.487494 1.9559166
4.7064843 34.102291 2.4547935
4.6591964 34.093212 3.07903
4.2919331 35.211861 2.460243
5.0871177 33.300858 2.1673241
4.7623467 33.995358 2.6583254
4.0610256 35.79435 2.8712955
4.1451988 35.594639 2.8611441
4.783433 33.906265 2.6538327
3.307338 37.705303 2.8862324
4.7995501 33.790451 2.6846828
5.5311384 32.258011 2.3543468
4.3011074 35.132641 2.7587631
6.723886 30.079947 -0.22305472
5.1011992 32.995178 2.2251534
4.7225981 34.146778 1.5804352
4.7682643 34.417629 2.8334279
5.0792832 33.195484 2.3599377
4.6216803 34.167465 3.1123562
4.7636442 33.890892 2.8654587
4.180367 35.3069 3.1237791
5.9600577 31.506067 2.4539907
5.7799263 31.299627 2.7472005
5.2939787 32.566746 2.7683842
5.1000967 33.102646 2.7635918
4.6688395 34.901413 2.5579925
6.0576859 31.289799 2.4591308
3.7861519 37.190701 2.2674112
4.497004 34.704002 2.5686173
4.610918 34.195766 3.162117
4.7721481 34.25304 1.6900109
4.9573479 33.800552 2.6649551
3.3739803 37.489647 2.8477657
5.0915399 33.300484 2.2643516
3.5922232 36.928955 2.1459124
4.7620263 34.588932 2.1660388
4.9459314 33.387218 3.0557926
6.0414753 31.298811 2.2661881
4.1966844 35.397507 2.7693129
6.1554928 31.18576 2.5529165
6.0894475 30.510155 2.359946
3.5940928 37.000706 2.361228
3.5508733 37.390663 2.258594
6.5730295 30.481012 2.5549271
6.5815349 30.399824 2.6495919
4.3527389 35.175961 2.5635228
5.4965339 32.694267 2.2835951
4.4431515 35.083286 2.5471368
6.7796512 29.994694 -1.8399184
4.4043584 35.515671 2.4634509
5.8055482 31.200129 2.4473376
5.4894323 32.605762 2.6597872
4.7526879 34.689014 2.6643243
4.6588988 34.287071 1.8553323
5.330502 33.35817 2.7219179
4.3568058 35.085102 2.7464488
5.6948867 31.609638 2.359355
5.9987807 31.440447 2.7282071
4.6739573 34.896423 2.4588478
4.1838317 35.402996 2.9866047
6.0546298 31.296082 2.1696954
5.2379704 32.786259 2.8360004
6.1556439 31.187132 2.3805654
6.0758438 31.307228 2.8501525
6.5074711 30.576305 2.3231158
4.6468883 34.995293 2.6534939
3.7893949 37.195324 2.4722352
4.504869 34.506039 2.8751407
5.170145 33.397388 2.7233691
3.6779125 37.748108 1.7523258
4.5058374 34.612591 2.4356925
4.4774714 34.895466 2.3623505
3.2705059 37.719795 2.5753303
4.0883389 36.400372 2.4609869
6.0045481 31.326103 2.7627482
4.6908517 34.794418 2.7434759
5.9706259 31.049685 2.8168242
4.2799039 35.398525 2.3537107
6.0054345 31.31052 2.4654336
4.7575755 33.991848 2.8281288
4.3971958 35.498737 2.6682975
4.3074751 34.995659 2.2519333
6.0678945 30.506432 2.7752779
5.3733959 32.193295 3.1431427
3.7598042 36.489754 3.1446407
4.6725149 34.191185 2.6550815
4.9122233 33.432076 2.9519422
3.5500126 37.885792 2.7412527
4.0135851 35.811687 2.9618378
5.5698586 31.908463 2.0410829
5.3914795 32.193745 2.8802783
3.5997934 37.607243 2.5484884
4.1727705 35.468586 3.0547478
4.2394137 35.579391 2.248853
4.0702119 35.7943 2.6485221
5.9661894 30.995644 2.5531006
4.7878351 34.002155 2.3637576
5.9086275 31.009829 2.3684847
3.9073739 36.043205 3.0486622
4.4812984 34.689083 3.1530027
4.3043075 35.076897 2.4240906
6.2934351 30.80954 2.8692875
3.7808013 36.608971 2.2529507
4.3444052 35.30912 2.4727938
4.6274033 34.178085 3.0783186
5.6661859 31.603281 2.7389362
6.0096974 30.418652 2.8216743
4.5893502 35.108654 2.7479608
6.0651908 31.298111 2.5605845
5.1805077 33.000271 2.0752692
4.4797564 34.672462 2.967648
5.9692507 31.491428 2.5572348
5.0001841 34.005848 2.4634986
4.3958058 34.895435 2.5690355
3.2438238 37.7752 3.0810242
6.0891013 30.505548 2.4697421
5.3000665 33.125416 2.5576119
6.7691631 29.878809 0.25924459
4.9827747 33.389698 2.2549398
5.3296876 33.362549 2.6062014
4.5387988 35.286053 2.5517702
5.4704161 32.600826 2.3581245
5.3150554 32.496033 2.491951
6.3368831 30.57048 2.1780715
5.4051566 32.195274 2.5678384
5.7985444 31.406652 2.2596142
4.4896264 34.615486 2.2608542
3.8462868 37.264355 2.3841958
4.6721087 34.198444 2.2500122
5.7576671 31.494995 2.6682069
5.5815554 32.499626 2.2617202
4.7928796 34.851063 2.1276586
4.6593971 35.007286 2.8356152
4.9427061 34.354504 2.7601931
4.0500407 35.889828 1.7375515
6.5990996 30.377859 2.7681837
4.0829964 35.903885 2.1554163
6.1215053 31.488359 2.3382342
4.5877995 34.512482 2.3579919
3.7463269 36.558704 2.9672463
6.1935172 30.814667 2.4493039
6.8355322 29.85977 0.96422142
5.7974038 31.3151 2.5598238
4.7488995 34.185936 2.4546268
5.0571389 33.576233 2.3792005
4.5929537 34.511776 2.2649076
4.0134158 35.767181 2.3265676
4.9695721 34.10466 2.2483115
4.7561555 34.692039 2.5551031
4.7705617 33.902275 2.7490988
4.7433157 34.273735 2.2625484
5.9082375 31.000292 2.4436259
5.2901015 32.796894 2.358218
4.6962533 34.111343 2.2500226
5.9701719 31.325939 2.5648544
4.1992617 35.240879 2.2178679
5.061058 33.592995 2.4582524
6.1604362 31.182329 2.7531986
4.4766159 35.401455 2.4606748
5.2480464 32.786274 2.739614
4.2709694 35.292416 2.0660131
4.2540016 35.57452 2.3593705
4.5625486 35.168655 2.0473468
3.360081 37.491634 2.7411017
4.3119974 35.045044 2.7291667
4.7970891 34.400276 2.7404723
5.0872931 33.202202 2.4699004
4.6770635 34.180561 2.8631771
4.177495 36.003639 2.1522455
4.2492328 35.402042 2.5743461
5.2992268 33.197449 2.3611116
5.5427251 32.278439 2.2672524
4.6414075 34.992741 2.3648753
4.7534862 34.696236 2.3704393
4.9959922 33.399307 2.5629089
4.4901385 34.598839 2.355057
5.9658499 31.499964 2.6588447
6.1893907 30.898836 2.4574389
5.3875694 32.991707 2.3669469
3.7789276 36.829998 2.7246659
5.9900508 31.406475 2.5615122
5.2013011 33.702503 2.9270623
4.2796507 35.898537 2.3700006
5.141552 33.078568 2.7686124
3.7786012 37.204475 2.3663461
5.9938669 30.995522 2.0766933
5.6708193 31.790791 2.4603412
3.6901779 37.399868 2.2636559
5.3556685 32.793797 2.4590111
3.539211 37.879593 2.3663142
4.4794865 34.598843 2.6678643
4.4667192 34.68708 2.8578646
4.4938574 35.304882 2.6548138
4.6954527 34.688114 2.458539
6.0741735 31.203753 2.6575763
5.7456112 32.091358 2.4589584
4.4498014 34.992943 2.5652008
5.693716 31.403023 2.5995677
3.9936712 35.891167 2.3659246
4.7453532 34.887608 1.9984338
3.7976456 36.601765 1.9835824
6.6354136 30.388243 -1.1323954
5.4931765 32.704468 2.4555416
4.9101143 34.199097 2.1441479
5.0829096 33.198086 2.5467439
6.6338558 30.456005 2.7553601
5.7863889 31.905336 2.5606217
4.3810129 35.577152 2.0603726
5.7025175 31.527512 2.5478787
4.5946403 34.502918 2.1633155
5.4102559 32.143509 2.2774074
4.4462366 34.70591 3.0445654
5.8884749 31.190268 2.4621828
6.7445345 29.989513 -0.63806766
4.6879773 34.183136 2.7756305
4.9088516 33.525017 2.4679739
5.2712817 32.797764 2.4621212
4.26511 35.402077 2.9606285
5.3218575 32.232365 3.2213869
3.8073797 37.119915 2.7510285
4.8090129 33.914581 2.3384981
4.2567158 35.996643 1.9515874
5.7640514 31.394238 2.6587839
6.573451 30.402708 2.3572044
6.771203 29.879047 0.56124926
5.9791198 30.795435 2.1584034
6.9339461 29.731297 1.5040821
3.6565139 37.003532 2.3654056
3.8503876 36.569771 2.5578046
5.6843019 31.404268 2.8497646
5.6245494 32.650574 2.9653907
5.9681673 31.503483 2.2626722
5.0818224 33.104656 2.3933439
4.809103 33.79277 2.3532515
5.6935163 32.093575 2.6336977
3.4843891 37.169952 2.4537461
5.5971875 31.475645 2.9825485
4.6987138 34.109871 2.3460708
4.5897589 34.362671 2.7830191
5.9995046 30.774714 2.5742199
4.3952775 35.59935 2.4636343
4.3813949 34.88356 2.8636124
5.993434 31.391399 2.3572454
5.0811167 33.095837 2.8587167
5.9668207 30.9023 2.0809979
5.1597342 32.985126 2.654937
4.7218885 34.309212 1.5629594
5.9829025 30.808247 2.6553445
5.6660585 31.511976 2.8702955
4.6771917 34.335964 1.6134373
4.7676706 33.986015 2.7588017
5.9945254 30.793844 2.2449918
4.764864 34.097256 2.6494257
5.9949818 31.401424 2.2595105
4.0693145 35.69928 2.9492154
5.2880855 32.598251 2.4648077
5.7166553 31.39271 2.7202616
4.310925 35.126118 2.8920779
4.2916622 35.082253 2.9504151
3.7554176 36.490059 3.0433631
4.3387527 35.186783 2.7442663
4.6833262 34.195835 2.364588
3.7804554 36.507362 2.3656731
4.2272558 35.266777 1.8242218
5.5541463 31.987734 2.8644228
6.1346388 31.184767 2.2661526
5.7733073 31.996998 2.462956
4.2706881 35.390919 2.4662421
6.8402548 29.860437 1.6604315
5.3677683 33.205303 2.03778
5.3968902 32.307014 2.6576955
4.2546029 35.99498 2.0653429
4.8012285 33.787922 2.754477
5.0622101 33.597282 2.7847302
5.385293 32.196312 2.9588521
5.5109601 31.920481 2.7631319
6.0811319 31.198923 2.2632737
3.3351884 37.470322 3.1331699
6.293026 30.614874 2.5690145
5.3576236 32.541267 1.3866276
4.4646587 34.896706 2.4662595
3.6131918 36.809135 2.447196
5.7033973 32.10376 2.5615711
4.5585117 34.690247 2.2722378
6.5772815 30.310535 -0.73249304
6.0814896 31.394409 2.9654033
5.697484 32.197666 2.4692192
5.0035772 33.30864 2.2449155
6.2017713 30.816668 2.260241
5.9925051 31.503794 2.8522551
5.6096401 31.804323 2.363025
6.0641561 30.996651 2.249754
4.3648386 35.195511 2.2582459
5.5120468 31.9918 2.3647647
4.3566012 35.201267 2.3684368
4.8654175 33.705494 2.2761436
4.6936398 34.210445 2.4527631
4.3804483 35.501022 2.0526578
5.5959768 31.800596 2.2435837
5.5317192 32.682266 2.4523678
6.147491 31.187651 2.4737363
4.7649903 34.095436 2.564585
6.6241312 30.448492 2.3592546
6.1026168 30.505808 2.5577304
5.6900477 32.199024 2.352428
3.7834151 36.705082 2.0814135
5.9900084 31.32649 2.6650054
5.0895286 33.105183 2.2390268
4.3837972 34.893291 2.7949877
6.1237974 30.715328 2.7602177
5.3074512 32.323818 3.0549567
4.4843884 34.60363 2.9586155
5.8543687 31.796247 2.0601182
4.964663 33.598042 2.5470421
3.405293 37.4333 2.3868592
3.9966872 36.705292 2.7625194
5.9838915 30.806204 2.7415318
4.552721 35.401726 2.0838842
6.7704372 29.877186 -0.13961527
5.8170657 31.178635 2.8804262
5.7732587 31.303904 2.437855
5.7797475 31.284409 2.2685821
5.9705324 31.507099 2.1718125
5.9666996 31.492531 2.36339
5.8019104 31.332912 2.3389935
4.5542126 35.19521 2.5434034
5.037334 33.48695 2.3625233
6.0552602 30.990225 2.3858979
5.9967499 30.798105 2.3659129
4.9634175 33.513485 2.7613814
4.3997488 34.896011 2.6615348
4.9606266 33.665615 1.8851856
5.6904993 31.445084 2.6889598
6.1078701 31.202133 2.849165
4.7109208 34.096855 2.5694118
4.9140124 33.337093 3.165715
5.2688618 32.897778 1.9809504
6.6403408 30.387506 2.1583624
6.2683282 30.892506 2.5464363
4.6862125 34.297966 1.967998
6.1365981 31.074499 2.1753995
6.1511679 30.811396 2.7532017
3.8968101 36.187912 3.1600661
6.5759258 30.303135 -0.43720114
4.362009 35.108448 2.6432426
5.3359852 33.187057 2.4514394
5.8198752 31.200802 2.3247736
6.4252787 30.585487 2.6456738
5.9839611 31.401041 2.6309211
4.588666 34.603451 2.2603543
5.8759594 31.197119 2.5589957
5.0965452 33.708317 2.2715163
3.3697104 37.489456 2.5380607
3.6860597 36.622498 2.2617931
5.1065488 33.015884 2.3579965
4.4824505 34.695293 2.653873
5.6135545 31.622084 2.8227866
4.9818296 33.219372 2.9652832
4.6972404 34.803535 2.3630052
6.8313532 29.820551 1.1498936
4.2752376 35.18536 2.7633736
3.7177937 37.319534 2.4014595
5.009829 33.904724 2.3322723
3.932529 36.382557 2.3714542
4.301755 35.812557 2.5541837
4.2943583 35.803024 2.2743673
6.4277968 30.554247 2.6044543
4.6026964 35.009712 2.552181
4.0840077 35.793091 2.3733628
4.0397253 35.809681 2.0476646
5.5819011 32.497635 2.4554691
3.6001375 37.613609 2.2610393
5.4962783 32.095112 2.4543095
3.3022184 37.681873 2.1640532
4.5810585 34.495857 2.5651231
6.0912762 31.106073 2.44047
4.2673702 35.875702 1.9655075
4.7827387 34.377441 1.9370768
4.6265793 34.577003 2.8484285
4.5922832 34.503242 2.4564188
5.3847113 32.393898 2.6594384
4.6857982 34.101303 2.6674559
4.2736769 35.20668 2.8531563
4.0854068 35.798515 2.4592757
4.2461514 35.914429 2.0685134
4.3722157 35.203213 2.1633415
5.44028 32.89642 2.4498057
4.850297 34.084496 2.3580909
5.2817664 32.487144 2.7731369
3.8856473 36.680458 2.1516652
5.403688 32.108562 2.9739842
4.6635051 34.394184 2.4579682
4.0844054 35.892612 2.0678914
5.6830621 31.708324 2.162972
6.0437503 30.892981 2.4612296
4.179214 35.591671 2.4475398
5.4728284 32.193733 2.6597788
4.3464203 35.884457 2.5734074
6.7698207 29.879114 0.75990486
4.5852194 34.416515 2.6639669
4.3604345 34.922562 3.114481
5.2914643 32.362148 3.1908481
4.6054921 34.292606 2.6708012
5.5470715 32.18 2.1715696
6.779583 29.82579 1.3599632
4.9045577 34.209198 2.3592458
4.7080383 34.718788 1.9560015
5.1075153 32.913696 2.9708314
4.484024 34.715328 2.3722394
4.6071219 34.301987 2.2536604
5.8889389 31.599878 2.3600941
5.4062185 32.311836 2.3581352
4.1539178 35.798637 2.5688145
5.34342 33.198284 2.1802275
5.387588 32.406174 2.4585981
4.491539 35.306004 2.3600399
4.1111965 35.918259 1.8715082
3.995646 35.90284 2.6614733
5.2499485 32.418118 3.22909
5.1053591 33.715019 2.4580414
4.1066284 35.514244 3.1482995
3.9149756 36.013466 2.3572392
4.7283158 34.924046 2.0807681
5.9983692 30.796141 2.469743
6.7429404 29.989384 -0.32981193
4.9954963 33.923393 2.5552967
6.175437 31.188293 3.1361883
3.6742847 36.89463 2.5542614
4.5672917 34.495205 2.7633207
4.0623932 35.91061 1.4597362
3.9893575 35.919258 2.449584
3.6768625 36.983208 2.1640339
6.1031985 31.21862 2.7639384
6.5753894 30.303965 -0.83372015
3.8548326 37.19706 1.950726
5.4969721 31.932611 2.9381485
4.9835973 33.505909 2.2544134
4.603579 35.007629 2.6477292
3.7025275 37.412235 2.5550873
4.2745914 35.884197 2.1922429
4.0746903 35.797459 1.8384643
6.7014213 30.192511 -1.5447186
6.1098118 31.40456 3.2637544
4.3054681 35.104305 2.6106849
4.1373391 35.690517 2.6477911
4.8486414 33.759193 2.883189
4.275867 35.734779 2.6505089
5.088861 34.259018 2.0481403
6.0778012 31.197895 2.4532611
5.4691606 32.581203 2.2658741
4.2942171 35.398426 2.0631483
5.8964767 31.615349 2.4704442
4.091064 36.320656 2.6505282
4.6615796 35.200069 1.9361768
4.2096319 35.367535 2.4908252
5.1465988 32.81152 3.1240454
5.4847465 32.090473 2.6524005
3.56462 36.991951 3.0303736
5.0529881 32.984791 2.4493072
5.1346517 33.873096 2.6557732
3.4556832 37.593452 2.257679
6.7030354 30.225464 -2.2140036
4.428565 35.750076 2.5589976
6.6838989 30.20311 -1.6345136
4.1438494 35.774269 2.6521177
5.5991564 31.696051 2.7359214
4.1706924 35.479794 2.7554319
3.971127 36.204266 2.3717997
4.6426558 35.204891 2.4755251
4.7536273 33.686127 2.4657552
3.3184779 37.501545 3.1384315
6.1356173 31.234842 3.2270966
5.5851183 31.813545 2.460366
5.0720353 33.794964 2.2691982
5.3575926 32.40411 2.7512963
4.1282215 35.869873 2.3517959
5.8801312 31.698954 2.0624702
6.7050667 30.206541 -2.1526418
4.1902533 36.01088 2.4541392
3.7051606 36.554268 2.3446057
4.2319589 36.06432 2.0287597
3.9652507 36.059166 2.8253319
5.6159401 31.714285 2.3582039
5.9843864 31.524347 2.7632308
4.9781876 34.099583 2.4660943
5.6898327 32.208649 2.2715645
4.2572813 35.69516 2.7712483
5.1014194 33.073837 2.4673114
4.6883883 34.205921 2.5545664
5.9348698 31.904848 2.1418908
4.8977985 33.507969 2.8546791
4.6990657 34.719421 2.3653681
4.4959583 35.304344 2.459177
6.7752948 29.879881 -0.93708366
5.8936372 31.013592 2.6659451
6.8266664 30.020132 0.3252961
6.7353711 30.082371 1.7640054
4.2789927 35.385906 2.2522962
4.2801089 35.705399 2.3573341
6.6974792 30.21908 -2.0531299
4.2429733 35.482952 3.1570597
6.6736946 30.311867 2.9621265
4.1544247 35.519165 2.9969521
6.071701 31.207146 2.1700094
6.6874609 30.197498 -1.4354997
4.0933795 35.693813 2.7651253
6.0547976 30.792793 2.4502304
5.2989759 32.422169 2.8663354
5.0009952 33.316589 2.8837574
3.9994223 35.782597 2.4891071
4.5953045 35.001694 2.2702112
6.587851 30.305885 -0.13622677
4.3853374 35.094852 2.4580131
4.6009746 34.41013 2.3619368
5.9833736 30.912466 2.176708
3.4570687 37.492836 2.5539467
5.2878847 33.199413 2.6559968
5.1905942 32.897202 1.9355109
5.0901847 32.879326 2.4900992
6.2247863 31.066374 2.0310102
6.6352997 30.451107 2.6494446
4.8763361 34.000809 2.9334173
5.2823834 32.701424 2.5647557
4.9640656 33.319775 3.0502839
4.6117702 34.319302 2.067472
4.4768004 34.689934 2.2653832
5.488801 32.1012 2.5508349
3.8824687 36.19936 2.8657124
3.6104739 37.504761 2.6560068
4.8977914 33.611423 2.7634768
5.5974298 32.102791 2.7242353
5.2567158 32.604435 2.9633298
5.6767015 31.307131 2.7137496
3.3631825 37.515778 3.04847
5.4386115 32.473152 2.4560058
4.0801148 35.799416 2.1639516
4.0537796 36.321476 2.1756802
3.3868041 37.501297 2.3199859
6.0099382 31.32222 2.3718474
4.7499208 34.190998 2.2585256
3.3768256 37.696651 2.3689435
3.6778808 36.993916 2.2697799
3.6747432 37.486374 1.9689345
3.8834429 36.395935 2.4550111
4.1627188 35.917164 2.5615137
4.9077239 34.206253 2.2878881
3.8000569 37.094894 2.1678951
5.2357426 33.60582 2.2850978
6.7362943 30.08283 -1.1455684
4.994431 33.299953 2.3493581
4.0813136 35.902412 1.9733452
3.3124042 37.799446 2.5761645
3.4878564 37.795132 2.3808243
5.2228975 32.698048 3.0700657
4.7825527 34.094997 2.167366
6.0105 30.632011 3.0558083
5.7765551 31.807655 2.3464665
5.8194575 31.729445 1.8532286
3.3605745 37.704613 2.4467521
4.0757999 35.700111 2.8549924
4.9962478 33.998409 2.3704886
6.1040745 31.111294 2.3753965
4.3811893 34.842255 2.7008007
5.0691471 33.394051 2.3552945
6.7777162 29.881252 -0.83949
4.0702472 36.495022 2.662015
6.8329005 29.832767 0.96472675
5.6934395 32.193016 2.5639503
6.7743382 29.875359 0.061676271
3.5940027 36.927544 2.2753468
3.3657203 37.508591 2.6471839
5.0078068 33.300381 2.4605732
4.8727274 33.791492 2.5515223
3.5086882 37.047325 2.3151569
6.6845183 30.096779 -1.1464658
5.2594476 33.548946 2.4863513
4.3433061 35.192898 2.4625022
3.4885578 37.187553 2.3515773
4.3383408 35.970238 1.8807967
3.5633996 37.489594 2.5427241
4.0549846 36.490017 2.0467303
4.5630083 34.682674 1.9676986
4.9147868 33.524303 2.6367707
4.0869079 35.701927 2.6671505
3.378449 37.68026 2.5580118
6.6728363 30.192179 -1.0356853
4.7409835 33.852737 3.1387315
5.2308407 33.613457 3.0316315
3.8847911 36.082451 3.0600147
5.528162 31.879257 3.1095297
4.2940044 35.382683 1.9830894
4.3834181 35.594887 2.1669991
5.2445602 32.78727 2.6514101
3.7720127 36.577751 2.7451181
4.8682737 34.110508 2.5841603
3.9458973 36.277485 2.4487283
4.4882512 34.792953 2.1480143
3.8996913 36.105618 2.2598908
5.0716214 33.587734 2.6503985
4.3754325 35.3936 2.5585086
3.7039161 36.616356 2.4782701
5.2917442 32.494377 2.5600376
4.5026155 34.892338 1.8624128
4.270565 35.317604 1.9713118
5.2488832 32.981319 1.9666479
3.8397772 37.088718 2.4682519
5.8492346 31.385036 2.3669662
3.4964769 37.822277 2.467206
5.2548695 33.584061 2.3716662
5.2068167 32.621674 2.9363842
4.2807865 35.307426 2.2610161
4.0497966 35.85368 1.6351768
5.9418826 31.58749 2.1681819
4.2795529 35.307873 2.1572042
4.9078445 33.521637 2.5998726
5.3250699 33.428104 2.9085832
5.2108998 32.906212 1.8286815
5.9474125 31.588026 2.2599328
6.3556666 30.581305 2.3673949
3.3908138 37.594589 2.4449952
4.4929752 34.693996 2.1555541
5.4702849 32.790531 2.3728399
5.4630671 32.397793 2.2663913
4.097261 36.308388 2.3621397
4.2067924 35.314705 2.8576756
4.5838137 34.285439 3.1395955
4.4500065 35.496994 2.4701028
4.1506858 35.502144 2.1680083
6.7722759 29.874643 0.1599398
5.4567833 32.167473 2.9445963
4.2928972 35.810299 2.3649573
3.9613187 36.293304 2.0663023
6.7755952 29.881704 1.4622506
4.2970114 35.008957 2.9031417
5.111866 33.000061 2.7460651
6.7670736 30.08811 -1.7494607
4.7707191 34.095013 2.4637389
5.769927 31.562141 2.8306401
5.1665764 33.593132 2.5598943
3.6616752 36.99342 2.4629273
6.1367664 30.698765 2.3641052
3.892647 36.195461 2.9585171
4.4667625 35.187126 2.1771317
4.8454361 33.856873 2.8459873
3.5330589 37.442009 2.7508342
6.4768991 30.472322 1.9756316
5.6689777 31.785585 2.6626418
6.0706611 31.091105 2.7460363
6.635438 30.480894 1.1770706
6.7420139 29.987324 -0.53671688
4.7303476 34.315895 2.9675786
3.343462 37.886715 2.4732122
4.6252551 34.497448 2.8627059
4.5013046 34.755871 3.1820378
5.1970158 32.87587 1.6169879
5.3002896 33.206375 2.4654665
4.4929004 35.29977 2.264101
4.5324717 34.874874 1.9852475
6.8411841 29.833561 1.5553533
6.811357 30.213881 -2.20398
4.6868134 34.302273 2.4616632
4.8893218 33.80566 2.16553
5.164381 32.969036 2.8635635
4.8125558 33.723782 2.8081381
4.8307862 34.080128 2.9092681
4.883266 33.799957 2.46855
4.8663964 34.391628 2.3675966
4.8455191 34.080765 2.0745842
3.8505349 36.360474 2.852267
6.6721988 30.194286 1.7623041
3.8581285 37.261723 1.8758552
5.8932605 31.204365 2.3546674
4.0833745 36.198757 2.4669476
4.0529733 36.181366 2.5947757
4.3551855 35.39938 1.9788526
6.5717626 30.49481 2.765049
4.8939629 34.40974 2.8150959
4.5505075 34.886169 2.1831708
4.3780346 35.1917 2.0822887
4.4524364 34.887856 3.1850331
5.3059649 32.399223 3.0187771
5.114913 33.904587 2.1014757
4.8269114 34.305084 2.9228537
4.7302718 34.259064 2.7214072
5.779573 31.216026 2.7641125
5.451858 32.193062 2.8659403
4.8375235 34.119274 2.7208383
4.6886616 34.303181 2.3552978
3.8508716 36.37532 2.7266569
6.5726705 30.405766 2.2604713
4.7111268 34.041813 2.5568624
4.8950977 33.513214 2.1479654
6.1652613 30.677683 2.5791972
3.7882359 36.599411 2.5533469
6.4566512 30.487183 2.6662414
5.9464149 31.29882 2.8593857
5.0625896 33.491043 2.6780009
4.7279015 34.358036 2.9625487
3.7148888 37.314964 2.5438938
4.4520974 34.978004 2.4645166
3.6906316 36.790089 2.3379931
6.5782776 30.402098 2.0600162
4.0931525 35.607254 2.8561277
4.1050029 35.604843 2.7778175
6.7430286 29.983381 -0.44042033
4.1478047 36.294449 1.9561162
4.8669515 34.390793 2.5601566
4.5407271 34.45705 2.9493172
4.117085 35.521774 2.7966213
3.9166868 36.094177 2.6051216
4.5334735 34.657322 2.8660655
5.5713272 32.084427 2.3633153
6.0608768 31.085155 2.8730731
4.4161263 34.771919 2.9545181
5.6530795 31.89715 2.3589795
3.7839367 36.605625 2.4590921
5.5932899 31.997915 2.2690585
3.2968714 37.775978 2.1717103
4.6782861 34.893539 2.6557245
6.0497832 31.003143 2.6690745
4.5401816 34.787556 1.9716117
6.1765585 30.810017 2.6719763
5.9340582 31.100368 2.7621932
4.7994685 33.841347 2.4728608
6.0844116 31.201403 2.5613229
4.6430159 35.089245 2.7759712
4.6293335 35.067673 2.5592146
4.6892214 34.810783 2.553591
3.4432297 37.687378 2.5406559
4.4263644 35.655872 2.502614
5.8330054 31.96932 2.3068368
3.892643 36.803131 2.4646099
4.7027516 34.825363 2.8512776
4.7487869 33.735752 1.9676472
6.5913663 30.30452 0.25254267
6.4486132 30.511446 2.0822792
4.8022509 33.737286 2.348053
4.4510593 35.09911 2.6384711
5.7644606 31.581213 2.6593254
4.5399809 35.370903 2.5650439
4.7824898 33.810318 2.8559246
5.88237 31.112497 2.1657715
5.4351707 33.079662 2.6344981
4.2555623 35.603596 2.7430234
6.7373638 30.081617 -1.2412548
5.8820357 31.483377 2.7913892
3.8477075 37.087257 2.5633225
5.830441 31.253052 2.8284016
4.8180165 34.132389 2.8202436
5.3905044 32.502068 2.3565042
4.3865776 34.810551 3.1244831
6.1691008 31.19327 3.0644011
3.7443712 36.884857 2.354924
4.4531531 34.987526 1.9896137
5.1115179 33.115395 2.0467284
5.9002318 31.105955 2.3649142
6.187614 30.901131 2.3633535
5.053319 33.495193 2.5506289
4.6452832 34.496593 2.450923
5.8584986 31.468843 2.5486968
5.912899 30.706858 2.7971992
4.1617541 35.594944 2.6463926
5.6449885 31.895462 2.5537193
4.3870034 35.599789 2.6549587
6.5675507 30.470938 2.3604136
4.6505995 34.59766 2.6423693
4.693872 34.696476 2.5715263
3.8613658 36.71909 2.5239921
4.4053655 34.80542 2.3633113
4.3634553 35.869526 2.2778761
3.594389 37.70055 2.5549142
4.9990535 33.289837 1.9706033
5.3735118 32.85627 2.7402897
4.0688505 36.489914 2.1659915
4.3814454 35.293625 1.8643976
4.3418422 35.89994 1.9575858
4.340476 35.298332 2.0805674
4.3555231 35.288536 1.969911
4.2310214 36.418003 2.0000594
3.4799342 37.681557 2.6217356
4.5516782 34.594929 2.6602771
5.9973669 31.618586 1.9446527
4.1973791 35.415215 1.973277
5.5481339 32.170704 2.4560423
5.8083658 31.906837 1.9787481
6.578198 30.465273 1.6629924
6.5693116 30.466747 2.1612513
5.5786219 32.495293 2.5488806
5.0081253 33.33374 2.7230906
4.0734506 36.036236 2.7231026
5.4764991 32.294479 2.354629
4.8980918 34.209621 2.6591606
5.8892365 30.895645 2.7637901
5.2512822 33.59037 3.1410284
4.1893868 35.999203 2.3573363
4.7799215 34.60112 2.3572309
5.377769 32.510281 2.4506218
5.7536898 31.694111 2.6744046
4.7285585 35.082302 1.8519152
5.2304492 32.614288 3.0649776
6.7702904 29.87878 0.9625302
6.568058 30.468609 2.2503576
4.8649449 33.690063 2.7653191
5.4867983 32.199501 2.3606007
4.1357031 35.646004 3.0219502
3.7560513 36.791859 2.6480596
4.8700252 34.086437 2.6595058
5.5844035 32.195072 2.6663816
4.6071205 35.005543 2.4613152
5.4435301 32.989243 2.6542892
3.5600932 37.789658 2.4642072
4.1804018 35.605247 2.3629169
4.5790501 34.603428 2.457396
5.6630821 31.98447 2.5704298
4.3861799 35.587051 1.9751482
3.3593698 37.499077 2.9409411
6.6898904 29.895826 0.56795549
5.4488797 32.398228 2.5450795
6.3819079 30.585939 2.6736169
5.2440777 33.394489 2.1776245
4.558774 34.695774 2.354661
6.6982064 29.911484 1.0495344
6.6336308 30.454792 0.76339483
4.79427 33.772049 2.9568906
4.2102337 35.342449 2.7553658
4.3827524 35.102024 2.2531116
4.5441818 34.788601 2.2668438
5.5609021 32.100559 2.5532105
4.9819379 33.403603 2.6738214
4.6655574 34.386768 2.5605164
3.7908037 36.407684 2.6530116
4.5374517 34.779835 1.8265569
3.6085091 36.994263 2.5546412
4.3463206 35.284946 2.6577718
6.1628923 30.683262 2.6923516
5.0366688 33.209003 1.8298739
4.1733017 35.846928 2.6388781
5.6830139 31.402361 2.9511483
6.2715378 30.696289 2.3608456
3.955678 36.200272 2.5530138
5.0594797 33.379257 2.6417601
6.0941916 31.101955 2.6605246
3.9818866 36.097221 2.4516487
6.1005096 31.106022 2.561548
4.5640788 34.893295 2.6652033
4.8938851 34.301395 2.5618916
5.8347082 31.497826 2.6547754
5.9794798 31.087513 2.6897967
6.6310606 30.380051 -0.75270426
4.0903058 35.623032 2.0558882
5.8510413 31.97139 2.0650108
4.1033521 35.585655 2.1583278
5.3405514 33.381886 2.9845583
5.6682568 31.89768 2.642379
5.9427233 31.968273 2.1386762
6.1567397 31.192593 2.8605955
4.1477656 35.789299 2.4664397
5.772409 31.998005 2.5566564
4.0634408 36.494823 2.4611576
6.8441691 29.860188 0.76036322
5.7985277 31.81979 2.8549454
6.739305 30.071823 -0.13711382
6.0449948 31.496971 2.7585797
6.0526714 31.496128 3.0521269
4.2522373 35.639263 2.6229494
4.0941186 35.62891 2.6159775
3.5383568 37.88559 2.4699767
5.4404721 32.501408 2.1560295
3.3163815 37.579277 3.1405423
3.5702984 37.797089 2.6551931
5.4056892 32.692863 2.7822361
6.7324157 30.089655 -1.0345616
5.6482458 31.571316 2.9701333
5.0651264 33.103371 2.9427867
4.0629592 36.495251 2.5601692
5.8513532 31.983913 2.3805079
5.7887635 31.186073 2.6804614
3.541507 37.886219 2.5622678
4.100781 36.306469 2.4535892
5.8571281 31.999367 2.7629695
6.1280007 31.295103 2.9898262
6.2955108 30.889669 3.0515678
4.0983734 35.58778 2.2582617
5.7925663 31.185875 2.5511367
5.3741264 32.402782 2.3561933
6.3035231 30.876579 3.1668069
5.8928542 31.403139 2.8516638
3.5611792 37.791309 2.2591617
4.4512415 34.793282 3.062794
5.8506627 31.387732 2.5566442
5.8788872 31.10918 2.4578476
5.181663 32.899239 2.3675625
5.0669928 33.19371 2.6512668
5.4520378 32.483616 1.9481876
5.4580479 32.39502 2.1785996
5.3534994 32.437527 1.763932
4.2798939 35.193027 2.1627502
4.0025659 36.606339 2.5636477
5.7693105 31.820938 2.4868097
5.4531798 32.375347 2.6590335
6.3926039 30.611198 3.1452596
5.4263477 32.961014 2.5445175
4.1273675 36.540985 2.6583629
4.8639555 34.501118 2.8604231
5.1112061 33.009926 2.6649623
5.4363689 32.398998 2.7647369
3.9671693 36.468193 1.8680737
5.2685046 33.307568 2.6512961
4.138195 36.497105 2.1158352
4.1503139 36.47493 2.479835
5.4353571 32.488033 2.0614421
5.240407 32.597267 3.1476331
3.9926777 36.477234 2.0849125
4.7127748 33.958275 2.901947
4.1761107 35.50177 2.8587453
5.5203938 32.95734 3.0027826
5.2184892 33.179733 2.7100575
5.1088967 32.891163 3.0445461
4.641305 34.500668 2.7317715
5.0616841 33.197083 2.9536049
4.7736459 33.846298 3.0144286
4.975503 34.095108 2.5604305
6.7672391 29.995937 -1.2431389
5.3408494 33.370476 2.6936173
3.5769322 36.943611 3.0156968
5.1490774 33.211575 2.0629945
4.6082311 34.215263 3.0887556
4.182529 35.506504 2.3669512
6.001852 30.617788 2.5808327
5.0495729 33.89563 2.365633
3.3752227 37.374588 2.5425427
3.5410912 37.18034 2.7500291
4.1304455 36.480759 2.0514443
4.4626951 34.594215 3.0929971
3.5879009 37.105808 2.4495749
6.3691282 30.591063 2.4596169
6.3899202 30.59366 2.9290092
6.2785521 30.884211 2.9590337
5.1493688 33.192268 2.2660561
5.5090165 32.714012 2.1591284
6.0601306 31.488142 2.9639478
4.5607538 34.686142 2.7610197
4.5554962 34.690105 2.4472671
5.1943126 33.504295 2.3673372
6.7707953 29.987652 -1.5414796
4.7814813 34.595947 2.2747481
4.5781469 34.38596 2.8505569
5.7681322 32.008965 2.2817008
4.2528954 35.493904 2.2700453
5.5645165 32.001034 2.5691652
5.7466669 32.093403 2.3616717
6.5695477 30.392075 1.658059
6.7725658 29.877071 0.86242282
6.181468 30.897079 2.2513063
6.1677227 30.692753 2.4523175
4.644485 34.486637 2.5557926
5.8645511 31.275965 2.7385719
4.9775996 33.595207 2.2595587
5.1732564 33.583817 2.2551134
5.4754291 32.192413 2.5572236
5.731339 32.159729 2.2436447
5.2983689 32.803024 2.1735315
5.1645217 32.897423 2.1671968
4.5489526 35.191532 2.1709652
5.4701691 32.791073 2.1523728
3.7481103 36.507034 2.9450388
5.6537905 31.895771 2.2628989
5.58882 31.90139 2.2584345
4.873179 33.900562 1.9863162
4.8623948 33.898586 2.2683749
5.1323032 33.180416 2.7564332
5.8700962 31.87179 2.0488527
5.7894778 31.495445 2.1546214
5.3881388 32.286102 2.74929
4.165143 36.387547 1.970794
5.206079 33.364353 2.1473026
6.0015988 31.392218 2.1754718
4.2607079 35.489391 2.085149
5.4662242 32.790169 2.2664635
5.4926701 32.199142 2.2566104
5.45294 32.18927 2.7591355
4.6429029 34.095539 3.1456809
4.9516344 34.196209 2.1772883
5.7625809 31.397581 2.7616973
5.0692353 33.193367 2.7566199
5.9662018 30.992151 2.4523442
4.1453857 35.795067 2.2542124
6.5772223 30.46666 2.0612254
4.5893822 35.098953 2.6533327
5.3745623 32.294727 2.8509929
4.6983991 33.998745 3.0774841
4.4828386 34.794743 2.4607251
5.7851853 31.397306 2.5516992
5.4666238 32.801311 2.4558539
4.8350205 33.982002 2.3546777
4.5022478 34.867073 1.9921803
5.568274 31.889868 2.5707192
4.9854894 33.496315 2.3596759
4.9571018 33.490997 2.8553677
4.2868567 35.076157 3.0792744
6.2975554 30.504078 2.370425
4.4766154 34.811745 2.0622029
4.5430727 34.774338 2.0478187
5.9023557 31.008158 2.5510137
5.3725319 32.493725 2.5691507
3.6460767 36.986294 2.561919
6.150485 30.994289 2.2561874
4.4879031 34.898216 2.0712941
4.4840269 34.891209 2.1686862
4.5708933 35.453056 1.9633391
5.1940675 32.90192 2.460829
5.1814647 33.002583 2.4598181
5.1922607 32.998981 2.2574189
5.4008217 32.907883 2.2703505
4.4813347 34.804668 2.2567427
5.1953306 33.492798 2.2626908
5.7920403 31.894711 2.2723234
5.7546425 31.597584 2.4546094
5.6949592 31.701366 2.3649256
5.1553931 33.086498 2.5490642
4.2508821 35.3885 2.6518893
5.3521385 33.079391 2.0609617
5.956913 31.58972 2.0619245
3.8921916 36.31142 2.4637153
5.3909783 32.995029 2.2775981
4.4468589 35.087139 1.9919747
5.9016938 31.002823 2.8544004
5.4528942 32.390812 2.3628399
5.6734467 31.799448 2.3640635
5.5823078 31.808315 2.5625896
5.1772757 33.404339 2.2725017
6.0815973 30.595242 2.5667152
6.0616226 30.691971 2.5580001
6.077251 30.693335 2.3668242
5.9876342 30.715469 2.7882626
5.4883289 32.201496 2.468482
5.4502044 32.284466 2.7681026
4.7670169 33.789635 3.1438806
3.6646845 37.188461 1.9886301
4.4440465 35.057919 1.826947
3.6417396 37.582981 2.2628958
6.2942615 30.602781 2.2576478
3.6211152 36.886021 3.1650388
6.0651598 30.612423 2.653239
5.3929391 32.221607 2.77666
6.8800569 30.175755 -1.6606193
5.576148 31.805513 2.7473702
5.8549237 31.798153 2.3606162
6.0662479 30.789263 2.3611226
3.6479149 37.588066 2.3552301
3.6846721 36.80407 2.4728007
3.9018419 36.302002 2.5529294
6.0760455 30.596663 2.4479327
6.0726366 30.692297 2.4554482
6.000021 30.720661 2.4774556
4.1642385 36.187103 2.163847
5.6601543 32.299473 2.1759515
4.6155062 34.987713 2.7585437
3.9624233 36.69059 2.0582113
5.7518015 31.675817 2.0742028
4.6195045 34.140388 3.1867316
5.7809491 31.394953 2.4589603
6.2456875 30.785072 2.1651721
3.6611421 37.189762 2.0794177
3.5957484 37.199543 2.0667257
3.5873821 37.088623 2.6519675
4.3850064 35.10199 2.1639555
4.3522921 35.174511 2.6532974
