# .PCD v0.7 - Point Cloud Data file format
VERSION 0.7
FIELDS x y z
SIZE 4 4 4
TYPE F F F
COUNT 1 1 1
WIDTH 1611
HEIGHT 1
VIEWPOINT 0 0 0 1 0 0 0
POINTS 1611
DATA ascii
16.232964 12.38327 2.3572264
17.077118 10.499233 1.82627
18.766344 6.3952451 1.9485998
18.392342 6.7058668 1.7847592
17.116217 10.093643 1.832278
17.666676 8.9632854 2.4292991
17.200771 9.8015032 2.1714959
17.499285 9.7879868 2.8406038
18.638908 6.8705196 2.9687338
16.843449 10.781869 2.4623711
15.90591 13.209927 1.9892232
17.167305 9.8238325 1.8865144
18.661892 6.6920862 1.8704743
18.212635 7.6749697 2.0063064
17.23805 9.7831516 2.1651793
15.881841 13.29869 2.2573357
18.198446 7.100688 2.4571118
18.63401 6.5445108 1.7870002
17.183065 9.9029064 1.9723374
16.540066 11.583022 2.253756
16.612873 11.332712 1.9750462
17.182783 9.8918381 2.0567191
17.733797 8.4912415 1.9867396
17.660669 8.682929 1.981416
15.745872 13.680706 2.1692066
18.640011 6.7715006 1.7500242
18.062923 7.5866499 1.767776
18.085892 8.0938168 2.2811027
16.530422 11.659065 2.1546016
17.608791 9.496521 2.8690124
16.997274 11.114001 2.6613662
18.279535 7.5036168 1.9723588
17.588326 8.7995844 2.1691301
17.281694 9.5988808 2.264924
18.727467 6.6581979 2.957139
17.364632 9.4086895 1.890821
17.004543 10.981835 2.1384313
17.613604 9.4160709 2.7270885
16.545233 11.6935 1.8400415
18.034323 8.35149 1.9361286
18.227158 7.1705151 2.2498717
18.836779 6.2685413 2.56881
18.449009 7.2892509 1.7941538
18.040295 8.3895159 2.5637171
18.027502 8.4611158 2.6819823
16.50386 11.616532 2.1638947
16.033535 12.972358 2.1604893
18.460348 6.4920778 2.355576
16.646183 11.380432 2.3680279
16.837339 10.790269 2.371206
18.440073 7.3912067 2.8535705
16.298851 12.893378 1.9630474
18.707415 6.3636012 2.6502101
18.570875 6.9897223 2.6572659
17.33737 9.4795198 2.2596889
18.687412 6.6865845 2.9655557
16.207216 13.188252 1.8855667
15.789718 13.501671 2.4480927
17.663202 9.3916693 2.8626571
18.678232 6.6903281 2.6541762
15.914478 13.113815 2.1583245
17.398088 10.079533 2.9472075
18.421103 7.4360657 2.430222
17.395887 9.1984434 2.4414766
17.914757 8.443716 3.102175
16.569124 12.205855 1.9659826
17.414473 9.2351294 2.0578599
17.529106 9.7549295 2.8607333
16.611464 11.326655 2.2597582
17.300936 10.32679 1.9956262
17.24942 9.6901979 2.3564415
17.971807 7.8009052 2.0696132
17.439985 9.1937103 2.4524639
18.143372 7.382853 2.3607807
17.868748 8.8269129 3.0312991
16.543278 11.593407 2.0690255
16.904545 11.319375 2.5647295
16.49881 12.282433 2.827992
15.984109 13.589636 2.2603383
18.410913 6.5372696 2.3198521
16.908594 11.208908 2.3242967
17.401819 10.012877 2.5574791
16.535961 12.386485 2.8531542
17.408857 9.8278503 3.0521686
16.194281 13.000072 2.553376
16.829569 11.395941 2.2864087
18.616198 6.7373476 2.9751105
17.570091 9.4191523 2.4691017
18.229691 7.8822742 2.4685133
17.755306 8.4196873 1.6772516
17.238075 9.7855835 2.2513769
17.728991 8.6505423 1.7725444
17.595718 9.4974804 2.5560977
17.701324 9.2010508 2.6631274
15.914366 13.142298 2.2756348
17.889153 8.0039711 2.1630974
17.59898 8.84764 1.891312
17.595699 9.4172993 2.3879309
16.588276 12.106492 2.0801136
16.046078 12.885223 2.4541478
17.679836 9.2055655 2.7483666
18.449615 6.4846621 2.5412185
18.04475 7.513196 2.5622401
18.249004 7.0007439 2.5624759
18.704458 6.4106822 2.0581887
18.03565 8.3602638 2.0535436
17.743093 8.5634146 2.3635592
18.613724 6.1788611 1.7927787
18.095312 8.2069836 2.5616865
18.215343 7.0295825 2.5936182
18.208815 7.1205559 2.2550836
15.847281 13.388824 2.2669225
16.536404 11.787243 1.8109452
17.836159 8.178381 2.1592977
18.430288 6.7981195 2.0674801
15.743521 13.683468 2.2653575
17.123375 10.857864 2.6872602
16.904379 11.084936 2.2820845
17.898081 8.7060137 2.6544311
16.637774 12.082325 2.7580295
15.915655 13.102413 2.6705825
16.939579 10.57618 2.4552472
17.094948 10.810031 2.6686931
15.807296 13.898847 2.5421669
17.601473 9.0901823 2.3873491
18.614061 6.1418247 1.976892
17.831619 8.9869108 2.8448479
16.386774 12.682947 2.1659262
16.999084 10.769067 3.0418558
16.047907 12.883861 2.1598732
17.744328 8.393095 2.5354793
15.688944 13.795534 2.262815
16.481525 12.403352 1.8905203
17.137537 10.091609 1.979399
16.493761 12.211358 2.6926234
17.782188 8.7964916 2.5638034
15.903874 13.208327 2.2694829
16.806799 10.92281 1.837752
17.305202 10.284017 2.1873126
15.714888 13.717628 2.0843978
17.793493 8.804863 2.6867402
16.792133 11.289455 2.6846037
17.542889 8.9758501 1.977887
17.992434 8.2426958 2.7661676
17.191839 10.588276 2.7523015
18.650021 6.7901096 2.6633217
16.578302 11.509308 1.9669956
17.362675 9.5091619 1.8720293
17.679852 8.6897163 1.7918634
17.94533 8.5970287 2.3768673
17.746853 8.3831873 2.2606111
16.583553 12.106021 2.7519515
17.383755 9.9007931 2.6880701
16.883432 11.335217 2.8283086
18.627117 6.857481 2.6678281
17.968552 8.0935097 1.9468714
16.047405 12.893661 2.546191
17.706692 9.1045189 2.6745691
18.14967 8.0535288 2.3753476
18.304371 7.6983318 2.9588404
18.215416 7.0212746 2.3407054
17.106609 10.01976 2.3537056
17.244022 10.497063 2.8583989
15.971928 13.326306 2.6295652
18.310873 7.7071319 3.0735559
15.798841 13.494649 2.357666
18.25433 7.1094098 1.9736872
17.613844 9.4559059 2.0435002
17.938206 7.8970747 2.4487462
17.967165 8.3076057 2.6528215
17.864006 8.1026173 2.0794215
17.45838 9.1010857 2.553375
17.306652 9.4433956 2.3709321
18.412125 7.3206072 2.7839513
18.209221 7.1060438 2.3597333
16.492731 12.31143 2.5534515
17.780415 9.0061636 2.3717341
18.152266 8.1017923 2.661195
18.261383 7.8627481 2.9343009
18.015692 7.6248603 2.1264472
17.586882 9.5922747 2.8647094
15.996796 13.610757 2.0769253
18.370138 7.0693159 2.1473475
18.196903 7.7378588 1.8665016
16.902992 11.096821 2.7730062
18.266199 7.2035084 2.3620856
16.54978 11.577754 2.5680342
17.695557 8.9860926 1.872613
18.444941 6.5949459 2.0572088
16.441967 12.466875 2.3949711
18.184128 7.7052298 2.7650046
18.36731 7.3747797 2.1561363
17.852982 8.4838696 2.689235
16.47101 12.487571 1.9425477
18.276369 7.786953 2.9437037
16.347271 12.181776 2.3499496
16.716888 11.269703 1.7873877
17.935041 8.7907076 2.0190248
16.312782 12.806762 2.5531199
16.779802 10.899452 2.3606541
16.671242 11.706923 2.3522949
18.281731 7.4661622 2.8925428
17.20503 9.8050032 2.0705173
18.414345 6.5407553 2.05424
16.997799 11.107854 2.9344113
16.785954 10.897394 2.2628732
16.702826 11.663607 2.2573156
16.004993 12.918736 2.0539575
18.035189 7.6723714 2.3543129
17.90213 7.9215083 1.955126
18.003117 7.6290903 2.2620282
17.559074 9.4941006 2.2576935
16.042675 12.960606 2.0883806
18.70211 6.3776026 2.2723358
18.551332 6.3818159 1.9646817
17.895479 8.6289845 2.7684669
17.069361 10.890052 2.6599476
17.844234 8.3645182 2.1809819
18.237375 7.8893361 2.6631734
18.696983 6.3850584 1.9377409
18.602589 6.5959554 2.0392103
17.76676 9.102664 2.965905
16.776567 10.841208 2.6113496
16.700939 11.803962 2.6648676
17.653191 8.6707315 2.4592333
16.289343 12.791557 2.3941145
16.244278 12.818363 2.9927919
18.140188 8.0832825 1.8758478
15.871972 13.300138 2.4471397
16.008411 12.911579 2.2503264
18.909313 6.1111321 2.8592458
17.599939 8.7117167 2.5609171
18.568308 6.1953964 2.3593457
17.785667 8.9999619 2.2513747
18.268475 7.2847013 1.9655005
18.304951 6.8135757 2.4461117
18.643759 6.5394955 2.2449081
16.410454 12.282296 2.7800505
16.555372 12.28814 1.9587145
16.759809 11.40493 2.0686231
16.602722 12.084412 2.8521023
16.604969 12.087724 1.9524584
17.572233 9.4080696 1.7741499
15.911674 13.136097 2.4575746
17.280657 10.292755 2.347554
17.747242 8.3738985 2.4530082
18.725012 6.5580192 2.3908753
18.165173 7.8860903 1.9406362
18.030245 8.4782686 2.8535669
18.081133 7.49544 2.2536521
17.106203 10.044599 1.9465865
17.94404 7.9774008 1.9531502
17.25091 10.471562 1.8836205
16.709835 11.02395 2.4625456
18.472908 7.0906715 1.9847726
17.762938 8.3894873 1.86491
17.332314 10.280628 2.9743667
16.400097 12.595232 2.6564972
16.561806 12.102085 2.3494034
17.036762 10.357545 2.1494255
17.674599 9.2120485 2.2840059
16.146137 13.027575 2.2030365
16.587872 12.096278 2.5691905
18.547394 6.3697782 2.3558455
17.454266 9.2754545 1.6764919
17.068115 10.885057 2.4039512
16.014072 12.778139 1.7673383
17.541203 8.9749813 2.3616292
17.128345 10.072414 2.2561452
16.833866 11.472308 2.051199
17.464794 9.3955765 2.0443521
17.562443 8.8983593 2.0605204
16.858925 10.805519 1.8373468
17.688286 8.5001669 2.3650525
16.882524 11.206024 2.5407507
17.598505 9.3178949 2.6326597
16.979282 11.202819 2.9685817
17.89028 8.0028725 1.9577988
18.238054 7.8255391 2.0360367
17.793552 9.0014391 2.6502407
17.192623 10.51258 2.4673798
17.894558 8.001894 2.0811601
15.974409 13.772353 2.46768
18.28363 6.8272986 1.8576002
17.88835 7.8985147 1.5609897
18.327951 7.1460404 2.1390336
18.329062 6.7641106 1.7356824
16.867819 10.702569 2.5344708
17.45656 9.9184952 1.871402
18.081234 7.9078274 2.4661536
17.313791 9.4100847 2.4577565
16.953472 11.185293 2.1532683
16.438314 11.891598 2.4386816
16.157867 12.588037 2.2562606
18.588076 6.8719292 2.0561018
17.710922 8.4070168 2.2580636
17.944038 7.9907274 1.8514812
16.685648 11.488634 2.6440122
16.601252 12.017249 2.5354643
17.008364 11.104251 2.8699977
16.336617 12.792504 1.969481
15.805388 13.428747 2.0713115
17.6306 8.7984781 2.3865707
16.615303 11.910903 2.3614414
16.452265 12.475357 2.0656419
15.915796 13.116672 2.3454869
18.355009 7.1143088 2.4018025
17.695955 8.4976377 2.24945
17.669849 8.5867176 2.1636734
17.227343 10.030846 1.8025135
16.203699 12.405623 2.4581096
17.091562 10.188454 1.8795414
16.203445 13.102823 2.5722537
17.680891 8.4987698 2.4580193
17.676901 9.297245 2.030524
18.777782 6.3504238 1.7751226
16.895285 11.298927 1.8807738
16.787973 10.902331 2.1638377
16.544077 12.198993 2.1624193
17.388866 10.075237 2.0690303
18.749249 6.5032783 1.8864312
18.79458 6.1793194 2.7616334
16.80718 11.491948 2.2492688
17.399822 10.007616 2.058804
17.972872 8.5981684 2.8520584
16.197147 12.405181 2.5458057
18.159355 7.4963045 2.1423683
18.453197 7.2918949 2.573833
16.540674 12.281003 2.571331
16.538177 11.609331 1.8701742
18.76152 6.3697205 2.0661101
17.540791 9.673254 1.8749238
16.576647 12.083226 2.4545467
17.401672 9.9980659 1.9764004
16.445684 12.107283 2.1642849
16.613262 11.324963 2.0687404
17.575447 9.605547 1.7776872
18.142883 8.2094975 2.9516752
18.724483 6.3891907 2.1376503
18.137321 7.3799706 2.2534847
16.29038 12.80997 2.7505634
16.240458 12.387459 2.1666877
17.786352 8.7402582 2.4666154
17.963745 8.6020727 2.9484537
16.609236 11.317793 2.3656123
17.256243 10.120001 1.9138699
17.708685 8.4106312 2.3676469
16.911339 10.529147 2.1778183
17.298111 10.325224 2.9545138
18.848564 6.2834544 2.8470743
16.643841 12.024673 2.1588407
16.552214 12.303279 2.0523076
17.475281 9.5822983 1.6882293
17.887726 7.8812866 2.6118443
18.19998 7.8850126 2.3659697
18.101982 8.1193943 2.4457102
16.929705 10.683781 2.6391792
18.353859 7.4977551 1.9549612
18.474068 6.4894533 1.9685754
18.034634 8.3112392 2.2789679
17.385887 10.106977 1.8560349
16.725977 11.15362 2.4727485
16.636147 11.368164 2.4782076
17.863928 8.3358536 2.6464031
17.299828 10.202847 2.4611979
16.59502 12.015652 2.4680443
16.86351 10.892166 1.7608714
18.555164 6.2002535 2.5245135
17.113274 9.9920597 2.5414047
16.558945 11.492329 2.5421522
16.810205 10.813981 2.5301042
16.704844 11.802862 2.567831
17.237698 9.8887987 2.0526218
18.455803 7.2894835 2.6576662
15.971163 13.428169 2.4699814
17.75769 8.4139881 1.9717573
18.048306 8.3305759 2.0508935
17.305031 10.298782 1.8655415
16.439514 12.12934 2.2248201
17.973152 7.7130971 2.5548618
18.147835 7.4017215 2.4504447
17.506554 9.7886343 1.8700002
17.256716 9.6955709 2.0681069
16.791035 10.907372 2.0631833
18.299263 7.6180992 2.6498675
17.370045 9.668541 2.2486682
18.003395 7.7004795 2.1581144
17.280359 10.202619 2.7327583
18.216448 7.5373187 1.7626432
18.509945 6.2980485 2.457649
16.436922 11.889216 1.9831829
15.921368 13.493119 2.7237997
18.136269 8.165556 2.4672444
17.956898 8.5973864 2.6623058
17.282049 10.392954 1.8567071
15.834558 13.484244 2.0715973
18.871702 6.1892977 2.7569942
16.535892 12.071779 2.1822352
18.564276 6.7948384 1.748888
17.836538 8.1889849 2.0666881
17.456919 9.1942501 1.9614168
16.65019 11.274939 2.5335846
18.128651 7.4891033 1.9295415
16.173868 12.800347 2.558172
17.298229 10.302088 2.8482223
15.907923 13.20916 2.0674906
16.076962 13.312175 2.0776877
16.415115 11.920389 2.0098648
18.637196 6.7927613 2.4625461
17.996288 7.7862248 1.8936924
18.100119 8.002737 2.0247743
18.262007 7.096302 1.8704576
15.981598 13.394222 2.2725539
18.26811 7.7993417 2.6573501
16.479591 11.651715 2.6516578
18.054543 7.7706618 1.8435125
17.921305 8.6883259 2.0116358
17.878973 8.7967424 2.5602212
17.856714 8.8943548 2.7488835
17.402973 9.3055582 2.0700805
16.908396 10.510658 2.4529083
16.751772 11.746072 2.2379806
16.680267 11.197849 2.0584457
17.332939 10.261384 2.6743901
16.201097 13.001048 2.2710447
17.439354 9.1892881 2.3623934
17.989552 8.6291056 3.0129313
18.444761 7.2995987 2.4674892
17.445959 9.8938351 2.0546694
18.474228 6.4885154 2.0947583
18.138863 7.386889 2.1611898
17.70052 9.2861977 1.8733717
18.070955 8.2872725 2.4623911
15.799899 13.498222 2.571563
17.099415 10.705121 2.9417903
17.192085 10.327683 2.7802532
17.595783 9.4344444 2.2671587
17.686453 9.2775173 1.9479543
16.852484 10.798262 1.9712758
18.582115 6.6940055 2.4329052
18.72797 6.5769649 2.6640761
16.176756 13.291059 2.2375216
18.231888 7.6180668 1.9161392
17.796366 8.7812223 2.7866161
18.55407 6.546977 2.4440022
18.316576 6.88766 2.0497694
18.532417 6.4041014 1.8901937
17.698521 8.5088749 2.0780323
17.562386 9.6068211 1.9522535
17.633722 8.6822472 2.3704548
17.324614 9.558362 2.0904276
16.378311 11.999395 2.1652701
17.564007 9.5053825 2.1900923
16.470869 12.390822 2.4772925
17.342079 9.4815617 2.3559456
18.150124 7.3831649 1.9783818
17.328321 10.284288 1.8336376
16.236431 13.005598 2.2683501
18.081596 8.2870388 2.3930359
17.775438 8.2982674 2.2595518
17.593075 9.4983282 1.9611709
16.46983 12.329298 2.2833242
15.814852 13.414238 2.2507524
17.662682 8.5900593 2.3513734
16.622282 11.355793 2.5930712
16.787451 11.165954 2.5653806
18.153597 8.0933723 2.5718968
18.461987 7.135313 2.082082
17.480812 9.1007032 2.0714738
16.388016 12.590764 2.1240928
18.457222 7.2963428 2.8483436
18.574947 6.1944928 2.2578461
18.722589 6.6604743 2.8551185
16.200497 12.405087 2.3620138
17.975512 8.584383 1.9640406
15.844065 13.387367 2.460381
16.446859 11.875631 2.3514826
16.56905 12.184162 2.3692412
18.139277 7.9427581 2.2964931
18.289984 7.348455 2.5717444
18.747332 6.346889 1.8769925
16.542837 11.58625 2.1636021
17.848885 8.296051 2.533875
16.644894 11.281654 2.3641977
15.829648 13.082625 1.8581667
17.997236 8.4251146 2.5585988
17.793249 9.0057039 1.9601187
17.773409 9.0962715 1.9646684
18.38273 7.2683434 1.9455141
18.107309 7.2993884 2.5224962
18.596724 6.2105775 1.9640067
16.470825 12.124954 2.6614802
18.841383 6.2776141 2.762974
16.367624 11.995389 2.3590791
18.17849 7.1137171 1.8478413
16.123732 12.788836 2.1715312
18.447039 7.2250104 1.7584169
16.892776 10.605283 2.3502815
17.559654 9.6092701 2.3712986
17.460157 9.5809584 2.9740727
17.866837 7.9945917 2.5659885
17.625383 8.7871847 2.0454555
17.390743 9.2923985 2.3635933
17.906305 7.9151964 2.2640729
18.452539 6.5018139 2.4488111
17.906002 7.9127369 2.3709891
17.462257 9.1814842 1.8662571
18.20117 7.7386703 2.8493907
17.225353 10.530148 2.189326
17.760386 9.0732155 2.391674
17.48525 9.8054924 2.570122
17.637781 8.7747803 2.1669285
18.774902 6.130167 2.5011241
17.642309 8.6865501 2.1641045
16.795584 10.898361 1.9548558
16.668528 11.7216 1.9759457
18.281178 7.7009687 2.4541237
17.114569 9.9999743 2.0863478
16.12558 12.746735 2.4762874
16.945599 11.258775 2.11131
17.84815 8.8754721 1.9732274
17.794231 8.3132935 1.8637973
17.718889 8.8203726 1.7217315
17.755024 9.1484089 2.3940899
15.975745 13.251337 2.5309031
17.370171 9.9960651 2.162565
15.888166 13.021996 1.8269258
16.898539 11.116367 2.6352854
17.996628 7.8055663 1.7823905
16.292534 12.182379 2.6224802
18.757153 6.2988839 2.4769726
18.514627 6.8291945 1.7767059
18.675995 6.4164519 2.5267317
17.80287 8.9003582 2.4658151
17.318449 9.4327984 2.2612822
18.02001 8.3055086 2.8752074
17.722733 9.2659264 2.4437256
17.790998 9.0059633 2.5595706
16.976774 10.39256 2.2570202
17.751144 8.9149904 1.7738529
18.269245 7.7096353 1.9374193
17.398914 9.9893522 2.2759204
16.895082 10.596465 2.4609697
16.385075 12.606401 2.4792156
17.012712 10.792072 2.5959864
18.66378 6.2934232 2.4797533
16.957537 10.592788 1.8404313
16.550543 11.424596 2.6390595
17.18652 10.493654 2.2711112
17.463024 9.8932314 1.964924
18.303553 6.8344221 2.1703854
17.030441 10.355255 2.0781281
15.985114 12.99819 2.5620072
18.161005 7.7886076 2.2430236
17.601168 8.7974224 1.9942944
16.362339 11.995632 2.5342879
16.418129 11.819447 2.1457255
17.292137 9.6208496 1.8798876
17.246586 9.8943996 2.2984638
17.672489 9.3050737 2.4866612
17.912378 7.9315453 2.0715091
17.477186 9.0981426 2.1646736
16.136093 12.779305 1.9157703
16.39109 12.586079 2.2629266
17.878544 8.8148975 1.8716176
18.461533 7.2913251 2.7620823
16.591394 12.194609 2.9495862
18.201687 8.0043297 2.9619219
17.346647 9.4820433 2.5429945
18.290911 7.6077318 2.3548999
18.306387 7.1902189 2.6361666
17.398542 10.028123 2.6559501
18.78838 6.231782 2.2871423
18.553825 6.6236219 1.6994791
17.474571 9.0908918 2.2663002
16.602432 11.159195 2.4959116
16.167038 12.49613 2.5403187
17.663982 8.5974312 2.2614081
16.442198 11.885733 2.0726457
18.638548 6.2690525 2.5714841
17.091618 10.099563 2.1742666
17.628878 8.9769344 1.7265899
17.759995 8.3957863 2.0633132
17.840685 8.1754503 1.9522319
18.19318 8.0037222 2.8519788
17.191631 9.8021364 2.4535983
16.450287 12.384774 2.2207546
16.245621 13.021736 2.3825617
17.339355 10.179558 2.3631065
15.86754 13.668245 2.6381359
17.664059 8.6941862 2.5625758
18.16744 7.5832348 2.5638113
17.430819 9.2835436 1.9569366
17.028906 10.385754 1.8809513
17.552372 8.901185 2.1682744
18.436419 7.2117634 2.2477627
17.522514 9.0592375 2.0569692
18.455454 6.8560777 2.2668118
16.483141 12.377989 2.3172743
17.214363 9.7349434 2.1042342
17.577044 9.133213 1.834304
17.094521 10.125782 1.9591625
18.019699 7.6993456 1.9045434
15.934743 13.262966 2.0781865
17.910156 8.6300631 2.41537
18.295536 7.018167 1.9930995
16.195591 13.178826 2.0807772
16.806255 10.812408 2.2618873
16.689606 11.803484 2.2842488
17.128126 10.07667 2.3578885
17.134556 10.072831 2.1589034
18.494286 6.456367 1.8600904
17.716646 8.3238506 2.4368296
16.565706 12.257358 2.2644043
16.566887 12.263745 2.3617864
16.474728 12.222219 2.2680728
17.242136 10.399639 2.2669055
17.383116 10.011899 2.37325
17.132799 10.075199 2.0696115
18.178429 7.7714329 2.0677299
16.506426 11.608771 2.0656059
18.431032 6.5860605 2.2637479
16.254744 12.897438 2.3555934
17.743002 8.8445807 2.9644835
17.728865 9.1670265 2.0298097
17.845497 8.8292217 2.2488828
18.541641 6.2908859 2.2629399
18.024225 7.9998932 1.9964232
18.250961 7.3770051 2.801893
17.75079 8.3931322 2.3631003
18.372524 7.4713459 2.3864579
17.366371 9.390028 2.1648228
16.584932 12.106483 2.66206
16.695261 11.725713 2.6610265
15.97695 13.598006 2.4471531
16.987972 11.081281 2.4653878
17.881172 8.7070885 2.4569044
17.002279 10.886443 2.650739
16.592499 12.090752 2.9225609
18.105122 8.0134506 2.4855075
17.451004 9.9929209 2.9514439
18.276896 6.9912186 2.164397
18.193615 7.8055272 2.3434796
16.415668 12.247327 2.9585783
17.643322 8.6168861 2.5359664
18.607119 6.6479025 2.3797755
18.069563 7.4943895 2.4458845
16.267075 12.825859 2.0641136
17.824501 8.9761848 2.4792523
18.151663 8.0067482 2.3443317
17.963596 8.0630207 1.8671541
17.386446 10.107395 1.8012261
16.020174 13.061858 2.3048162
17.889593 8.802434 2.8685851
17.005896 10.313375 2.1623342
16.213556 12.422554 1.954661
16.602386 12.079967 3.1112912
16.568867 11.775928 2.3715742
17.287289 9.5931072 2.1623254
16.746014 10.989378 2.5508633
16.712807 11.595514 2.5514379
18.057804 7.5922213 2.4725189
17.623409 8.7719011 1.9619837
17.568434 8.7753868 2.5437307
16.493061 12.188824 2.7741342
18.274027 7.0821238 1.7884864
16.640949 12.134214 2.3359096
18.131927 7.3779845 2.5406461
18.151134 7.2971702 2.365489
16.838938 11.221875 2.809058
17.864914 8.8956728 2.8631799
18.565193 6.9787312 2.3884208
17.934479 8.7599487 2.8601742
17.972544 7.7950249 2.1567626
18.206938 7.1324863 2.1685362
16.188742 13.188664 2.3103812
18.184351 7.1143818 2.5451567
16.277111 12.887916 2.4581051
18.456795 7.1165056 2.2913942
17.440248 9.9043341 2.3860967
18.458061 6.4906955 2.2564828
17.879572 8.0020056 2.3592381
17.478432 9.8016834 2.4594965
16.300476 12.712652 2.7607214
17.767303 8.2970467 2.3499286
15.953447 13.881921 2.339807
18.669804 6.6943345 2.4746623
17.141125 10.757745 1.9549674
16.985332 10.919942 2.4315932
18.258329 7.6714935 2.2675028
17.337936 10.155494 2.2419562
17.664455 8.804863 1.8571284
16.402021 11.906368 2.1697762
18.245075 7.0823565 2.3519442
18.28096 6.9956374 2.0666201
17.12204 10.996001 3.0795374
15.90508 13.20365 2.3610773
17.378798 10.086804 1.9526019
17.198784 10.522686 2.6511343
17.171747 10.608697 2.2652535
17.553406 9.606308 2.0618865
16.189899 13.170679 2.1820536
17.279413 10.379039 2.3802357
17.27849 9.602541 2.4445734
16.869555 10.697389 2.1687407
17.992853 8.1089048 2.7357621
18.835836 6.2826338 2.6547203
17.21155 9.7290545 2.3584919
16.365067 12.506614 2.3651309
16.660597 11.977833 1.9482112
16.36808 12.697741 2.3911591
17.041611 10.286201 2.449641
16.136158 12.751002 2.0516679
17.747797 8.2950411 2.5354068
17.945225 8.2109709 2.3852053
16.293282 12.682828 2.1373649
15.893937 13.200953 2.5636733
18.379055 7.185616 2.3480337
18.68502 6.3949423 2.7576718
17.738718 9.1891623 2.6717017
17.57839 8.8010731 2.3585498
17.604715 8.9490395 2.6674714
15.898487 13.782354 2.4840941
16.806648 10.807196 2.4487183
16.686443 11.814949 2.4858561
18.362427 7.3009009 2.5660892
18.664566 6.3291488 2.1395559
17.480785 9.004734 2.5534177
17.984798 8.4934864 2.5764673
17.487507 9.7854214 2.3768246
16.576178 12.202994 1.8661704
16.841492 10.787182 2.1635506
16.544628 11.676234 2.4441433
17.270197 10.752926 2.5664873
16.893963 10.598845 2.2623537
16.914303 10.498683 2.0716093
18.877642 6.2106724 2.9393663
18.599045 6.1942568 1.8604013
17.01733 10.215449 2.35098
16.67367 11.280226 1.8737932
16.658747 11.300683 1.9670208
16.499657 12.177696 1.9142456
18.611263 6.812839 2.4638264
17.294134 9.6107168 2.0667984
18.660221 6.7994061 2.9526348
18.377739 6.8258162 2.6675341
17.264593 9.7005253 1.9616433
18.176554 7.9994965 1.8844407
16.135769 12.689115 2.4396756
17.668413 9.4022331 2.9562054
17.64291 9.3980312 2.4616144
18.032383 7.5953803 2.5122528
18.137827 7.5130553 1.8663837
17.717104 8.9889841 2.8521917
16.485989 12.207225 2.3582807
18.009109 7.7279119 1.9641395
16.262932 12.29865 2.2529647
18.39646 7.4046226 2.5742557
17.605083 9.2945709 2.7203231
16.386337 12.518539 2.2657471
17.411768 9.2144079 1.9666585
16.359964 12.788455 2.8432953
18.066555 7.9737797 2.9349225
18.438303 7.2752657 2.3541427
16.101509 12.701563 2.2611415
17.695667 9.1955299 2.1918094
17.464569 9.7784386 2.1611633
17.895144 8.7092609 2.55305
17.059702 10.77085 2.1343539
17.991722 8.4985399 2.7592528
16.933832 10.584064 2.1625783
17.659359 9.3972883 2.7588811
16.899956 11.188667 2.6929941
17.847702 8.8849277 2.5608232
18.811974 6.2617106 2.3903284
16.452974 11.800117 2.1608434
16.347567 12.085569 2.2655029
18.24065 7.8527479 1.9391384
18.734125 6.5944395 2.7595234
17.76302 9.0978546 2.5685697
18.524883 7.1523738 2.8358147
17.763412 9.1109772 2.4630663
17.859324 8.8815851 2.9891939
16.558372 11.699308 2.5312924
17.624302 9.4381409 2.0056181
18.266159 7.3395276 2.2719007
17.649931 9.380414 2.3781853
17.653284 9.3977013 1.8638041
17.092386 10.803074 2.4610307
18.671116 6.6806655 1.7976425
17.715378 9.1221571 2.8910959
16.651674 12.069132 2.5713654
18.242712 7.3365631 1.8654513
16.729303 11.794489 2.0262892
17.487463 9.5968418 2.6503015
18.831974 6.3119631 2.457196
17.344719 10.182251 1.8850753
17.396593 9.7726307 2.9597559
15.903847 13.199897 2.1642928
17.692789 9.2031555 2.4743357
17.270771 10.027322 2.9431019
18.082886 8.2847862 2.859122
17.253098 9.6943035 2.1656578
18.296541 6.9040618 2.2632082
16.806629 11.496522 2.0639567
17.712383 9.0606451 2.3569498
17.796726 9.0295181 3.0278468
16.374573 12.410017 2.399157
18.726814 6.5706987 2.5344627
16.999655 10.299978 2.4483054
17.399853 10.017701 2.7467122
17.016771 10.978268 2.5570407
16.440151 12.370467 2.1925006
16.731634 11.779368 2.4624429
16.64333 12.094036 1.8774635
17.951565 8.5962715 2.5713859
15.847941 13.696586 2.5492618
16.651665 11.494615 2.2233577
16.736238 11.088484 2.2550387
17.952759 7.7991905 2.4487047
16.596777 11.992857 2.6353679
18.035494 7.6714263 2.2544401
16.779234 10.900347 2.5435343
16.649935 11.677057 2.5405197
17.273407 9.8924103 1.7973461
15.90027 13.210869 2.4421868
16.731428 11.772493 1.9515867
18.520519 7.0517182 2.0039775
17.661884 8.600379 2.6134269
17.671354 8.593729 2.0588591
16.627644 11.738974 2.8732738
17.167253 10.683353 1.8842125
17.09416 10.094783 2.2554202
17.842728 8.9226131 3.0481467
16.143881 12.687128 2.1695926
18.046598 7.7420936 2.542182
18.530931 6.6938095 2.5291619
17.84016 8.8796034 2.4017644
16.978085 10.895544 2.3607461
16.986477 11.000339 2.6299245
16.742695 11.765118 2.1939914
18.284805 7.4851403 2.9347603
16.172758 12.922499 2.4580636
18.094177 8.1049366 2.0543668
16.05257 13.629722 1.9553034
17.006618 11.19317 3.0234461
17.118664 9.8765821 2.6159141
16.631666 12.082685 2.6735976
15.984227 13.518411 2.5990663
16.83316 11.596644 2.7552192
17.096237 10.635046 2.754734
16.866579 11.18505 2.8870173
17.491619 9.1800404 1.7770289
18.261312 6.8844833 2.6266148
18.718254 6.4156275 1.904873
15.949807 13.5712 2.6478796
16.685678 11.620101 2.9249482
17.498688 9.6215897 2.5425608
18.095217 7.4024973 2.5583797
18.196623 7.5903902 2.225652
17.981339 8.5100107 1.9714093
17.900993 8.7584915 3.1666088
18.521204 6.5659366 2.647054
16.74678 10.998104 2.3594773
16.656733 11.554351 2.3956952
16.550175 11.78607 2.1912391
16.735571 11.074407 2.3642163
16.713919 11.482643 2.401875
17.685366 8.5964918 1.9640956
18.211393 7.9165964 2.7453129
16.944376 10.581358 1.9722292
17.22743 9.8974981 1.9948963
17.716764 8.5024977 1.862869
15.851089 13.396722 2.3610249
16.394936 11.900627 2.3608577
16.121387 13.524562 2.9165328
16.364933 11.996634 2.4563591
17.073364 10.742799 2.6017468
16.785858 11.600948 2.0438349
16.187069 12.493883 2.163512
16.637173 12.155627 2.7698085
16.79631 11.608311 1.8065553
16.478416 12.396022 2.5815382
16.637724 11.380444 2.1635997
18.224968 7.9878116 2.8718042
18.285728 7.2874455 2.3724322
16.493969 12.334793 2.045131
18.625429 6.6915579 1.6929181
18.438929 6.5825496 2.1571651
16.63846 12.086144 2.8654959
17.073292 10.20199 1.9689913
17.100977 10.100713 2.0692568
16.634501 12.07803 1.9743543
18.44619 6.5739503 1.9415731
18.389978 7.4233131 2.9213514
17.460115 9.6114063 2.84624
16.729481 11.155274 1.9828156
16.640511 11.378758 1.9614173
18.112206 7.3271136 2.4586573
17.137293 10.701902 2.3028309
15.943287 13.104109 2.5423954
16.765514 11.686011 2.5643079
16.749758 10.996831 2.4643953
17.58008 9.5968637 2.665916
16.536579 12.287999 2.4652781
17.500963 9.7022562 2.7676764
16.622229 11.471433 2.157583
16.737629 11.080921 2.1617651
17.833054 8.8818045 2.0331044
17.235157 9.8798809 2.3785465
18.721106 6.5877891 1.8674198
18.527409 7.1750379 3.053798
16.776554 10.893302 2.4469483
16.707218 11.710098 2.452209
17.655338 8.5853815 2.458317
17.597103 9.1662312 2.4608169
18.010582 8.4137058 1.973269
18.258625 7.7922649 2.5626705
18.205908 7.6598778 2.3120296
17.407909 9.9988556 2.9445162
15.809774 13.418156 2.3543329
15.7474 13.690557 2.0764644
15.80878 13.41243 2.4330103
16.8015 11.615705 1.8796341
16.476328 12.397127 1.9522773
16.880507 10.697015 1.9747486
16.287872 12.988801 1.8810036
17.424742 10.081971 1.7959948
15.705557 13.707161 2.6200614
17.991394 7.7036815 2.3552606
16.292891 12.767915 2.1783285
16.291426 12.901697 2.5686324
18.491659 6.3977757 2.2595124
18.032356 7.6733747 2.1526356
16.291348 12.200675 2.2574046
17.936443 8.6766491 2.6453784
17.906652 7.8828688 2.5469842
15.994287 13.021593 1.9795302
17.843504 8.593174 2.1181533
18.245131 7.802578 2.4757757
16.141991 12.704038 2.5737946
17.2736 9.6883192 1.8742963
16.477028 12.402959 2.0662851
16.711737 11.529723 2.7826293
17.984627 8.4820957 2.0165071
17.898256 7.9066834 2.4505315
17.859434 8.4381123 2.0081995
18.06991 8.3021917 2.5634692
18.866659 6.2866926 2.9175332
15.850885 13.492788 1.9541109
16.70035 11.177272 1.887997
16.221281 12.687755 2.4156902
17.81506 8.8418798 3.1320884
16.265141 12.293282 2.1670094
18.764492 6.7516689 2.8639479
17.684288 9.2936487 2.6555548
16.42848 12.003378 1.9764832
17.969242 8.0641928 2.0773346
16.861824 10.697908 2.360106
18.315825 7.6306562 2.8969927
17.928646 7.9650121 2.1660662
17.131161 10.443436 3.0571554
17.837317 8.9791698 2.6691198
18.70112 6.6148796 2.7591543
17.792801 8.8776255 2.5563719
18.402195 7.4044037 1.9320902
18.331671 7.1639323 2.721884
17.797642 8.9139004 2.6571507
16.180458 12.500206 2.2628498
17.803879 8.9168262 2.3596516
17.078503 10.686853 3.0229285
17.039307 10.392248 1.9700881
17.781096 9.0125818 2.944371
18.457836 6.5769968 1.8913469
17.849194 8.906271 2.477612
16.839174 11.464347 1.8865329
17.8696 8.8002071 1.9599825
17.674404 8.4865046 2.5746017
16.175432 13.275738 2.9403729
17.643896 8.5260658 2.6239293
18.629208 6.8832626 3.0532668
17.491585 9.3995008 2.2743721
17.905354 7.8147702 2.5890043
16.355026 12.79401 2.2834182
16.493231 12.073463 2.575331
18.47212 7.1961212 1.8315532
17.700943 8.4969711 2.1661263
16.398117 11.897923 2.4526966
15.677107 13.64312 1.952099
16.087955 13.381451 2.2079096
18.630732 6.866766 2.8487413
17.454008 9.0002069 2.6140287
16.554958 12.197303 2.5697534
16.573895 12.18897 2.2630789
17.733652 8.8293543 2.4387774
17.442734 9.189785 2.1661422
17.50156 9.0097284 2.16765
17.50787 9.0167027 2.0593143
17.499352 9.001749 2.3563681
17.758335 8.8007002 1.8153522
18.254969 7.298502 2.0957942
16.40711 12.607099 1.9754431
16.811157 11.531696 2.7435448
16.5986 11.401767 2.0684633
17.05616 10.839586 3.0864882
17.360727 9.3984766 2.2646928
18.551132 6.2899923 2.1593528
17.503811 9.6145897 2.4836316
16.949829 11.382573 2.8938642
17.379959 10.104764 2.4640243
17.836876 8.981369 2.7656226
18.193056 8.0068312 2.7435391
17.459387 9.9181986 1.7616634
18.482801 7.0956597 1.8509127
17.887772 8.7835684 2.7534757
17.834787 8.1785517 2.2609928
16.092194 12.970396 2.6940632
16.270786 12.300938 1.976871
18.24255 7.0966935 2.454798
17.349895 10.165577 1.9567243
16.594931 12.002623 2.855212
16.186852 12.99091 2.6480105
16.345589 12.182231 2.4468884
18.717524 6.6334229 2.9209676
16.976526 11.101581 2.3638427
17.155441 10.673018 2.0454586
18.221512 7.9733796 2.6753905
17.424866 10.053652 2.5681121
17.468639 9.8940639 2.6646833
16.96629 11.120696 1.9898167
17.194729 10.511074 2.5446992
16.263138 13.00716 1.9607581
16.974211 11.201015 2.8470705
17.219776 10.524487 2.8345535
17.851089 8.8904247 2.6699452
17.170538 9.9003859 2.4624126
17.342457 9.4870882 2.061229
18.527903 6.7937055 1.5059526
15.999088 13.492465 2.2682946
17.710247 8.517355 1.9568017
17.694439 9.3173885 2.9350209
16.866304 11.194345 2.9725606
18.25206 7.7638154 1.963207
15.701548 13.730217 2.5221522
18.2652 7.8004179 2.7608769
16.346451 12.794308 2.660336
16.035458 12.956214 2.4389963
18.866882 6.1910567 2.6613479
15.79977 13.498704 2.2654741
18.190567 7.9948344 2.6606176
18.878334 6.2116089 2.8407001
18.529308 7.1577601 2.746078
18.308834 7.6715631 2.0343165
16.992729 10.795752 2.4564977
16.788158 11.505674 2.6383514
17.55727 9.4212036 3.0865552
16.802843 11.518627 2.5519059
18.13199 8.1747389 2.7570522
17.457552 9.5954151 2.2354565
18.069462 7.7709532 2.2449994
15.894968 13.698156 2.3554397
16.675297 11.192997 2.3527033
16.506531 11.577086 2.550782
17.777332 8.9994154 2.4756906
17.066107 10.201837 2.0645983
16.463326 12.504841 2.7613277
16.300888 12.912072 2.7482917
17.202633 9.9145565 1.8622177
15.879141 13.613623 2.4087849
16.010975 13.418366 1.9258448
16.481216 11.700452 2.1679831
17.006546 10.304437 2.3581047
17.001169 10.304065 2.2509236
16.011196 13.50533 2.0507402
17.921595 7.9567852 2.3323739
16.430433 12.468342 2.2431195
17.332573 9.5776672 1.8964466
16.958344 11.119557 2.2483728
17.861401 7.9243712 1.6609229
16.203161 12.412911 2.2616074
18.045504 7.5877261 2.3588164
18.079874 7.7099662 2.4263859
16.593161 12.222878 1.7592274
16.794094 11.584724 2.9414933
17.392168 9.7825117 2.4319327
16.450933 12.771725 1.9631717
17.961721 8.5946379 2.7664602
16.853668 11.490726 2.7499473
17.206099 10.480326 3.0682864
18.543949 6.2881198 2.3497148
18.456257 6.5841565 2.4605527
16.966087 11.191706 2.4758186
18.155514 7.2943077 2.4461677
17.643768 9.4645157 1.953535
17.398796 9.2058725 2.5581269
16.078608 13.484511 2.5673704
17.909321 7.9173155 2.1498384
16.474232 12.295085 2.3564403
17.233059 10.491997 1.9825815
16.0331 12.98138 1.9592077
16.135151 12.695267 1.9598696
17.053461 10.997539 2.7594218
16.670059 11.986574 1.8551632
17.838566 8.1827106 2.7417614
16.332203 12.855677 2.56198
18.27927 7.1521811 1.7905506
17.035431 11.072552 2.6785483
17.3325 9.9079475 2.8120043
17.414192 9.9283638 2.7360423
18.554279 6.2795153 2.4510767
18.626421 6.3364153 2.6849945
17.425743 10.05091 2.8627899
17.466562 9.8901701 2.8602436
16.799255 11.495195 2.3354588
16.13834 13.260872 2.1819048
15.9297 13.258474 2.1493866
17.256498 9.9921589 2.1470511
17.987522 7.6910405 2.4551105
17.17421 10.673146 1.9730929
16.105196 13.295594 2.4473977
16.245972 12.462868 2.4558215
15.866934 13.799725 2.5797818
16.142115 12.682505 2.2537098
16.751755 11.697659 2.0493302
18.187315 7.7144189 2.4514725
18.121197 8.2473154 2.621316
17.221563 9.9946928 2.4135065
18.341827 7.5636191 1.8877106
17.94656 8.5861731 2.4627426
16.800392 11.50543 1.9731455
16.308472 12.112967 2.3593559
18.488487 6.6925893 2.5393887
16.751291 11.789609 3.0637929
16.651432 11.290423 2.167274
16.795992 11.49774 2.8746612
16.451548 12.614679 2.9461794
16.141291 13.393426 2.8331118
16.812654 11.520576 2.1406693
16.162918 13.282071 1.956808
17.405966 10.00631 2.4706099
16.201347 12.41615 2.0586636
18.460859 7.2510715 2.0034127
17.10708 10.711689 2.6381462
16.294842 12.204413 2.1739647
16.087692 13.292826 2.5645592
18.141882 7.5946393 2.1902583
16.643894 11.290031 2.2640333
16.924431 11.361137 2.6651254
17.106552 10.703643 2.3636613
16.639944 11.290233 2.4451125
15.731956 13.789735 2.0630646
16.331646 12.94961 2.9809425
17.334476 9.5611868 2.1538656
17.329332 9.5706158 1.9375654
16.24464 12.394285 1.9497362
17.469601 9.7798119 2.0525641
16.656368 11.993845 2.8638957
16.999203 11.113382 2.7599072
17.389336 9.9043903 2.2967505
17.401304 9.9194984 2.5637207
17.200979 10.617287 1.8462136
17.193867 10.594582 2.3734143
16.150524 13.278827 2.4483254
16.938875 10.573985 2.0629432
17.541252 9.8036118 2.9493818
16.114685 13.278204 2.6564298
17.880083 8.7997856 2.962925
17.72287 9.2211866 2.3071997
16.508547 11.707133 1.7195199
16.518641 11.539886 2.0581629
16.702755 11.016483 2.1737294
18.195343 7.1965146 2.1629503
17.541235 9.693716 2.5632787
17.321863 9.8915329 2.4230301
17.536137 8.9764338 2.1543145
16.779171 11.635418 3.030196
16.232389 12.391488 2.455318
17.427763 9.5752869 1.9311275
16.938679 11.28389 2.5818594
17.445232 9.94664 2.0195875
16.280136 12.208759 2.4496379
16.91062 10.521006 2.2487731
17.041008 10.963474 2.3756812
17.519327 9.5955725 2.1840296
17.410469 9.2995949 1.9562811
17.367292 9.3103628 1.8852563
16.349724 12.071864 2.4575067
17.624878 9.7484283 2.6783712
17.175253 10.601274 2.0524621
17.373505 9.2877817 2.5545106
16.893463 11.268691 2.1636398
15.960339 13.704077 2.1383996
15.800023 13.336606 2.6050017
17.391542 9.2925968 2.4543233
17.390015 9.2998466 2.2577088
17.819736 8.909996 2.840241
17.8097 8.8872852 2.7529724
16.059658 13.495355 2.8469939
16.062796 13.583992 2.6471193
15.850168 13.395103 2.1587605
15.929431 13.27256 2.432488
18.457245 7.2361002 2.3678932
16.748524 11.887086 2.7592502
18.832916 6.3713837 2.9335907
16.473238 12.493219 2.8568544
17.243799 10.597586 2.7493017
18.240244 7.8870802 2.7547367
17.689314 9.0945892 2.4622002
16.32127 12.789719 2.3577385
16.318224 12.831984 2.8472645
16.444918 11.951838 2.4227257
17.177588 10.613274 2.9695036
16.595156 12.207457 3.0767195
17.340096 9.6620779 2.4479535
15.886049 13.80652 2.2981656
16.923756 10.652217 2.2434371
17.87299 8.0363111 2.6855907
16.352465 12.470753 2.1405005
18.727037 6.5587935 2.4839666
17.251934 10.485991 3.0735157
17.2383 10.493455 2.5616212
17.241934 10.489862 2.6552413
17.226151 10.502965 2.3547256
17.268637 10.401552 2.6661484
18.747633 6.4917097 2.5742686
16.668266 12.091244 3.0704796
16.796576 10.538065 2.0498333
18.740185 6.4994493 2.4776261
18.307827 7.1727986 2.5288155
17.140327 10.79977 2.9520421
17.631432 8.8708897 2.2669723
18.823488 6.3647246 2.6922212
18.756205 6.5016904 2.7657385
18.109848 7.82022 2.1637549
18.082275 7.812892 2.378715
17.277391 10.396812 3.0799708
18.053513 8.3911171 2.7447395
16.654451 11.982091 2.4783807
16.653553 11.985644 2.7579608
17.325066 10.294654 2.482121
18.142927 7.4909444 2.5255144
16.3514 12.786099 2.5589385
16.821859 11.6467 2.5971723
18.827322 6.3501415 2.429317
17.205608 9.7055187 1.8285708
16.834208 11.57662 2.564476
16.918264 10.475383 2.5963891
16.656775 11.985862 2.5702035
17.254898 9.8195896 2.5357425
16.425179 12.596118 2.4881549
16.839512 11.580572 2.6779587
16.898045 10.946584 2.5947363
18.137789 8.1796598 2.8412278
17.509924 9.7158346 2.6567509
16.457043 12.303897 2.1834369
17.39043 9.6739616 2.6399136
17.331373 10.256014 2.5936816
18.103216 8.2055988 2.9179733
17.336239 10.26348 2.3943925
17.381063 10.102358 2.5690963
17.348682 10.193992 2.5613739
17.329498 10.266379 2.7741969
17.040974 10.293749 2.0585093
16.434301 12.590427 2.6590874
17.322948 10.329144 2.8589351
16.440758 12.599714 2.8377004
16.684483 11.894604 2.6572871
16.320934 12.861951 2.5067494
16.30348 12.051453 2.5680757
16.895185 10.906202 2.5980318
15.973411 13.57742 2.3483567
17.388857 10.094188 2.6598935
17.353584 10.196548 2.8444805
17.385925 9.9978552 3.0815969
16.468752 12.190785 2.5402732
17.373795 10.088291 2.8549304
16.446043 12.593375 2.7551146
16.906231 11.663981 3.0956686
16.841757 11.572113 2.8218403
16.378542 12.706293 2.566658
16.381367 12.759888 3.1028271
16.747711 11.332991 2.4318924
16.441874 12.585528 2.5735233
16.40691 12.613983 2.7536883
16.383404 12.7025 2.7498295
16.698915 11.7089 2.937268
18.847355 6.3602929 2.7750812
17.827257 8.2782583 2.461144
17.174116 9.8979645 2.1668468
16.386169 12.69046 2.6633399
16.37908 12.795465 2.9343321
16.307964 12.10833 2.4529166
16.705206 11.914473 2.8735402
17.78293 8.4647388 2.526845
16.96277 11.212441 2.5659704
16.237484 12.484995 2.0696466
16.000195 13.498608 2.1387691
18.74103 6.5890822 2.8598611
15.913158 13.634864 2.452549
15.879326 13.789371 2.3930283
18.608826 6.9996791 3.019851
16.690727 11.863605 2.3484125
16.688351 11.886581 2.7614136
17.926785 8.0665178 2.3849807
16.505152 11.499105 1.8862939
16.307484 12.108803 2.173718
16.545465 12.199553 2.4655008
16.82954 11.70278 3.0081034
17.523487 9.0584526 2.4301748
16.649914 11.998048 2.6512606
17.90299 7.8463941 1.8615757
16.315468 12.117378 2.072403
17.179174 10.596278 2.4577925
16.180195 12.903711 2.3672376
17.381855 10.099556 2.7642846
16.398838 12.607889 2.5509102
17.033655 11.07507 2.8350494
16.815609 11.529643 2.9234822
16.696627 11.816187 3.0822508
16.329542 12.250983 2.1015368
16.680677 11.828435 2.9546251
15.874201 13.766294 2.7007775
16.825397 11.573168 2.95854
17.925365 8.040287 2.4581571
18.23336 7.9651141 2.743897
16.381441 12.285566 2.6439626
17.837807 8.2572613 2.3927517
16.965832 11.192729 2.6547067
16.304434 12.835964 2.6651645
16.872843 11.469229 2.9353323
16.189615 13.101218 2.7901266
18.283569 7.4110799 2.4101949
17.934692 8.6498394 2.4468677
16.876427 11.383769 2.473428
16.728357 11.767598 3.125844
17.068953 10.621742 2.2943895
16.893192 11.384835 2.8450291
16.977781 11.192631 2.7722363
16.139217 13.395247 2.7704852
17.338478 9.7440939 2.5517957
16.28223 13.111032 3.0585005
16.287064 12.201715 2.3547549
16.932739 11.25561 2.3382125
16.095116 13.279644 2.1876798
15.959726 13.669637 2.3486013
15.8424 13.389854 2.5498362
16.931284 11.289925 2.0257025
16.99136 11.034877 2.3664429
18.652006 6.7958794 2.8521159
16.738693 11.836957 1.8849154
17.412832 9.8040676 2.3445158
16.233131 12.612112 2.4030123
15.8378 13.479461 2.1564858
17.404957 9.9018726 2.1588147
17.130127 10.487519 1.8306835
17.950129 8.6950502 1.8987459
17.178289 10.436169 1.8322455
17.790916 9.0898333 1.858361
16.759712 11.708708 1.9230226
17.038269 10.489739 2.2617729
16.091103 13.048637 1.8470688
17.353848 9.7484665 1.8211616
16.112331 13.319207 1.8490959
17.368946 9.9385767 2.0530057
15.885191 13.311809 1.9696562
15.877658 13.307633 2.0750155
16.504816 11.60185 2.3535507
15.924911 13.512717 2.4856932
15.875574 13.298781 2.3551724
16.168856 13.293786 2.7558644
16.928091 10.993247 1.6744921
16.224611 12.620253 2.2193136
16.287117 12.197249 2.5609403
15.966621 13.590789 2.1417308
16.458632 12.21359 2.1870685
16.318707 12.962791 3.0176504
18.377754 7.4735675 2.4563828
16.30127 12.205727 1.9682608
16.095619 12.707273 2.3647535
18.331713 7.5716987 2.393764
18.582987 7.0076265 2.9422503
16.837345 10.892052 1.9580196
18.368364 7.4996681 2.5708036
17.039551 10.988121 2.4586394
15.937529 13.181826 2.0659473
18.612011 6.4174519 2.7280796
18.340162 7.5894823 2.5633452
17.499601 9.8043909 2.7587838
16.224781 13.161424 1.9505198
16.181927 13.304182 2.8361511
17.263876 10.395257 2.4638057
18.529831 7.1627107 2.665957
17.113972 10.798111 2.0254631
17.574692 9.1029348 2.2809086
18.464638 7.0239239 3.1005073
17.156868 10.689122 2.3547792
16.223671 12.712668 2.5233724
15.944319 13.182973 1.9631327
17.568464 9.1644039 2.5183516
16.999468 11.01201 2.4364533
17.155113 10.69245 2.5592782
17.271854 10.395052 2.5658088
18.249159 7.2109532 2.4384086
16.166979 12.869841 2.7336702
18.748104 6.4959512 2.4058383
17.226675 10.734998 2.4800003
17.158779 10.678617 2.4809639
17.165865 10.687563 2.7584062
17.605066 9.3021383 2.8961613
15.93633 13.173404 2.3467634
18.254025 7.1166925 2.5241201
18.04225 8.3925114 2.661799
16.891228 11.397102 2.7442186
17.031879 11.05903 2.7702229
17.156055 10.695985 2.6617012
15.941554 13.177782 2.2725768
17.191364 10.597968 2.6645427
16.744301 11.400746 2.9530571
16.458126 12.231606 2.4772017
17.271505 10.395125 2.7562377
17.214211 10.480646 2.1565304
17.039715 10.6099 1.7458333
15.944438 13.190616 2.1569653
15.955931 13.100033 2.4510307
15.936645 13.176459 2.4378102
17.107756 10.466063 3.0401561
17.095976 10.461045 2.1545172
17.221378 10.449873 2.2153859
16.16589 12.597107 2.0678287
16.190714 13.136281 1.9932283
18.179657 7.6198139 2.0399358
18.241861 7.5961685 1.8753097
17.027985 10.44938 2.4135156
16.066227 13.436174 2.8510737
16.19104 13.095587 2.299315
17.241711 10.489367 2.4621041
17.087873 10.094504 2.3532562
16.261404 12.60016 2.1817405
16.816431 11.41881 2.7572377
17.451448 9.1896782 2.0661836
16.174568 13.114864 2.3657317
17.090635 10.900805 2.8704598
18.598009 6.887948 2.4532051
17.087523 10.90229 2.753943
17.088644 10.096869 2.4494274
17.917545 8.7039585 3.1186061
16.953962 10.488055 2.4557357
16.743467 11.789966 2.5611906
16.772503 11.400443 1.9168922
17.577906 9.5973463 2.5629792
16.952457 10.494193 2.1672246
18.176352 7.7029495 2.2327411
16.141737 13.382608 2.6454241
17.176538 10.534451 2.4110792
18.780415 6.39992 2.6551538
18.766245 6.4990225 2.881958
16.270657 12.587626 2.070111
18.829681 6.3825941 2.8883452
16.532312 12.363686 2.7618897
16.30237 12.791344 2.2515614
16.397612 12.703115 2.939167
16.804764 11.399504 2.3631742
17.830179 8.9675093 3.1095409
16.314329 12.745019 2.9373298
17.066458 10.388882 2.342521
18.264278 7.6249032 2.9905345
17.679741 9.0736361 2.1742413
17.629639 9.4799509 2.3486109
18.576097 6.9962721 2.7604685
18.271751 7.4228144 3.0732849
16.077801 13.162257 2.4502234
16.132446 13.386208 2.4148848
16.086502 13.396219 2.5605714
18.392986 7.4003358 2.4517093
16.114487 13.392493 2.7260318
17.999689 8.0777693 2.7015352
16.19791 13.112864 2.4716103
16.111305 13.297352 2.7649131
16.124615 13.460252 2.6171117
16.943581 10.702154 2.1556149
18.559605 6.3639188 2.5545626
17.24044 10.492244 2.9467266
16.087172 13.12443 2.4503965
18.562763 6.4401374 2.7037289
17.278975 10.380828 2.8560159
17.289724 10.383615 2.9473789
16.077431 13.395822 2.4666538
15.882816 13.295164 2.1565466
16.777428 11.700666 1.8678887
17.449598 9.2635317 2.6164086
16.088928 13.416834 2.3847423
16.489254 12.2936 2.4602017
17.633949 9.4808064 2.6674643
17.62825 9.4642143 2.5536585
17.990784 8.5087461 2.8541121
17.993361 8.5025721 2.6665716
17.214012 9.8271694 1.9734405
16.561981 11.765289 2.5711522
17.629097 9.4771242 2.4757135
16.052628 13.120366 2.3503492
16.110001 13.236542 2.408505
18.306177 7.7022009 2.8513286
17.321787 10.401016 3.0501359
17.235048 10.7166 2.9360549
16.25255 12.4856 2.5286639
16.875502 11.401494 2.5662284
16.480391 12.250901 2.9206269
16.099272 12.94077 2.7487767
16.825552 10.873269 1.9059283
18.558617 6.472024 2.3443513
17.033749 10.272314 2.2638435
16.581774 12.195538 2.8498065
17.135229 10.67718 2.9536312
17.055347 10.991157 2.8584738
18.33057 7.5613103 3.0551918
17.950712 7.9660416 2.561178
18.501484 7.1025295 2.3909006
18.527868 7.0733976 2.4084063
17.228489 10.592067 2.8682294
17.194963 10.610744 2.8570106
16.043896 12.883253 2.3586471
17.024609 11.181815 2.9578631
17.58729 9.5988464 2.7685208
16.749304 10.799799 1.7039852
17.066986 10.992279 2.9675162
16.528587 11.92181 2.1877978
16.27063 13.000502 2.7579985
17.042135 10.288593 2.1507459
16.053782 12.853431 2.6581924
17.142088 9.986454 2.3508096
18.596937 6.9005628 2.6520925
18.619974 6.5523601 2.1712072
18.433567 7.3668084 2.7580366
18.07424 8.1872845 2.2934101
16.610577 11.311495 2.4383762
18.367811 6.4769258 2.5383427
18.563841 6.6059861 2.2469451
16.427074 12.68558 2.5788836
18.638758 6.7793913 2.5614223
17.099625 10.80434 2.7524951
17.028757 11.128518 2.9855123
16.127855 12.633923 2.6356094
16.922594 10.681053 1.9676523
17.142794 9.9016447 2.5487168
16.149591 12.594427 2.3559716
18.034294 7.8621097 2.203794
17.084269 10.803309 2.3550811
16.985687 10.501858 1.8476799
16.934715 11.396421 2.9849761
17.244328 10.580295 2.5495
17.437994 9.3481483 2.5250959
17.242731 10.590175 2.4226983
16.58013 12.202729 2.7575507
16.007608 12.913575 2.3624413
17.806824 8.2128477 2.067734
18.479815 7.1868892 2.4683161
16.739653 11.788632 2.7765298
16.763596 11.787423 2.9453287
16.766777 11.701546 2.8469644
16.046377 13.615906 2.0573952
16.764992 11.698831 2.9651055
16.826033 11.288889 2.9438436
18.064121 7.8977761 2.3605766
16.739315 11.786842 2.6589406
16.756605 11.685873 2.467468
17.837259 8.9689112 2.9414001
17.466175 9.9010181 2.7546976
16.547037 12.295655 2.666455
16.626413 12.279698 2.693013
16.724596 12.017505 2.7706497
16.750887 11.878977 2.581799
17.001961 10.728746 2.4574099
17.903656 8.7009716 2.7487938
17.099268 10.728512 2.7924514
17.009092 11.022207 2.7696097
16.566658 12.195554 2.6541696
16.999588 11.015538 2.8277948
17.104975 10.716172 2.4833214
16.4856 12.406919 2.6570764
16.495474 12.308692 2.6379805
16.707954 11.798785 2.7418835
17.20513 10.496758 2.7393517
17.947908 8.6802244 3.056536
16.462477 12.485503 2.6574218
17.048582 10.985022 2.6626153
17.608772 9.5208998 2.6670542
18.710043 6.509738 2.5209646
16.460833 12.487144 2.5750978
16.497053 12.417814 2.7606065
17.045227 10.993852 2.5849254
17.0905 10.008829 2.6190929
16.896183 11.300093 2.7453227
16.746792 11.707017 2.3518829
16.545877 12.306911 2.7566719
18.143515 7.4789038 2.4474463
16.723568 11.864059 2.703814
17.352592 10.191597 2.9569755
17.067665 10.116706 2.5464756
16.744713 11.796396 2.8489144
16.829828 11.630851 3.1016383
17.193727 10.597852 2.5668914
16.976513 10.760805 1.9174147
18.553596 6.4643426 2.5597413
16.858894 11.506246 2.8797204
16.944883 11.288861 2.761709
18.262308 7.9264956 3.0328956
16.441307 12.502194 2.4725776
17.387466 9.8933592 2.3680952
18.160557 8.0931835 2.8450387
17.742334 9.192276 2.4488778
18.489466 7.1918435 2.7450833
