# .PCD v0.7 - Point Cloud Data file format
VERSION 0.7
FIELDS x y z
SIZE 4 4 4
TYPE F F F
COUNT 1 1 1
WIDTH 1588
HEIGHT 1
VIEWPOINT 0 0 0 1 0 0 0
POINTS 1588
DATA ascii
4.4282136 10.450204 2.787461
4.4347844 10.469057 2.4416237
2.3453183 9.5338726 2.835403
6.6158319 11.047213 2.4172356
4.4268727 10.478939 2.8419337
3.3925457 9.9596519 2.6599662
6.6884799 11.083615 2.7529249
2.3905783 9.5586405 2.4655375
3.9729631 10.262343 -1.8367803
5.6722999 10.692369 2.8407681
2.5560267 9.6190186 2.7555916
2.5974336 9.6539717 2.6588781
2.3757911 9.5684919 2.8451109
2.1710615 9.478569 2.7565026
6.0974174 10.857584 2.4820971
4.0748239 10.192437 -1.8432355
6.438344 10.934172 2.4650834
6.1547313 10.833058 2.4580038
3.6528969 10.285599 -1.4360319
6.0669394 10.809927 2.1609576
2.6966784 9.7744875 2.0225923
6.1060386 10.854904 2.5338483
5.0676785 10.418169 2.1644316
2.3908498 9.5541344 2.3751993
3.9110911 10.241726 -1.4514918
4.877152 10.378652 2.6435113
4.8436556 10.33397 2.6454909
3.4818316 9.9679804 2.2550592
5.9711943 10.784128 2.6529632
4.7834487 10.355489 2.654496
2.3854983 9.5600634 2.5636625
2.3496807 9.5325623 2.749722
2.563354 9.6315241 2.8436146
6.5408187 10.937738 2.1666951
5.1736908 10.528206 2.8547499
4.8691893 10.367242 2.5570676
4.7736268 10.318141 2.5553794
6.4781418 10.97978 2.6576483
6.0636816 10.822117 2.7565136
2.6079473 9.6494923 2.4679291
2.4708996 9.5837173 2.1888189
5.4709525 10.593443 2.5512805
2.6836863 9.6672583 2.4595125
2.6726162 9.6654291 2.5672946
2.3805108 9.5626574 2.6507797
5.9751444 10.779207 2.1615078
2.5688298 9.6129646 2.4593778
5.2688875 10.506595 2.366858
5.0778332 10.462045 2.7675629
6.6759396 11.066148 2.5577142
6.0632153 10.824201 2.6557531
5.9704499 10.780594 2.4619026
3.5508411 10.019501 2.8596101
3.4797518 9.9670668 2.3663137
2.677995 9.6698618 2.6533515
2.5877969 9.6584625 2.7646902
6.5640111 11.011491 2.5518591
3.4805439 9.9589567 2.1967766
2.6497333 9.6290159 2.5512166
2.566607 9.6160727 2.5611639
2.4492269 9.5396175 2.3674393
6.3632164 10.921924 2.4598966
2.9650803 9.6740913 2.055969
3.8702555 10.257203 -1.5392108
2.5676918 9.5997992 2.1641238
6.770668 11.076962 2.1704288
6.7700615 11.09586 2.6537974
6.7648106 11.081457 2.4554129
6.3595047 10.920841 2.6629224
5.5626979 10.619138 2.5434091
3.1598661 9.8247395 2.268353
2.4714451 9.5696688 2.2706656
2.3619561 9.5310907 2.6549885
5.570941 10.626444 2.7491944
3.976393 10.185466 -1.5380851
5.990396 10.781409 2.0697937
5.4703746 10.577991 2.1463575
5.1452889 10.436875 2.457665
4.4830451 10.376792 -1.4450665
2.6771159 9.658392 2.3658071
5.6564217 10.636459 2.2669601
5.470623 10.578763 2.2596104
5.3524442 10.53351 2.546654
5.168056 10.471882 2.0730579
3.8407056 10.291252 -1.749326
6.4567571 10.930012 2.159462
3.7676439 10.047993 2.0591145
3.072264 9.7949305 2.267767
6.6543765 11.027841 2.4577131
3.7743371 10.075089 2.3652356
3.0686011 9.80828 2.5563998
2.9881067 9.7522144 2.0933375
3.6648049 10.284554 -1.7010405
6.5678196 10.938072 2.4011378
2.5856404 9.6151886 2.0708129
4.4712591 10.312073 -1.5379817
4.4813108 10.384448 -1.5362271
4.3620496 10.234318 1.0874059
3.7498412 10.03268 2.4624152
3.1745391 9.8100443 2.1757622
4.4832525 10.397055 -1.9294996
3.5797007 10.278908 -1.6424612
4.0735254 10.201182 -1.6450448
6.7666073 11.08489 2.5545454
6.6634851 11.030403 2.5510564
6.0883884 10.809265 1.990262
6.0671678 10.813022 2.457052
5.7750068 10.697442 1.960804
5.5742173 10.619322 1.963456
5.7737069 10.69873 2.4633141
5.6516438 10.633908 2.4605205
5.4639173 10.590261 2.653733
5.365622 10.531275 2.1627002
5.0860133 10.458335 2.6392591
3.9954278 10.178937 -1.0398988
6.1468439 10.832429 2.5524919
6.1623836 10.82172 2.0752218
3.1571724 9.8299828 2.4587784
5.1745062 10.479302 2.5508499
4.8702555 10.38444 2.7532783
4.7998757 10.356308 2.4559488
3.5093815 10.327517 -1.744189
5.0512352 10.413605 2.0757856
6.5739021 10.989781 2.1643715
6.3795338 10.927037 1.8790538
6.064496 10.798447 2.0785222
5.2479687 10.43983 2.333425
5.1564193 10.424124 2.3481197
4.3619747 10.372051 -1.7388101
4.1834702 10.286098 -1.749814
3.9874873 10.196693 -1.736738
4.4757934 10.388297 -1.6242106
3.994174 10.177879 -1.3455412
4.4737639 10.390104 -1.8478612
4.407124 10.23679 1.7221725
4.2726693 10.306139 -1.8351533
4.1599331 10.259371 -1.2110113
6.7685394 11.078105 2.3674853
6.6655827 11.01119 2.1575844
4.3327799 10.234659 1.9350455
3.8192208 10.189542 -1.9786454
3.819386 10.220423 -1.5186496
3.4786525 9.9681454 2.4641149
3.3886943 9.9703846 2.7366009
4.3709493 10.296174 -1.5278947
4.5818996 10.31046 1.859634
3.4798133 9.9735508 2.6472135
4.3892946 10.3815 1.6616802
6.6042905 11.047251 2.1269164
3.8555286 10.266834 -1.6500577
3.886503 10.171314 -0.60612136
3.9930632 10.165411 -0.94016719
5.971282 10.775133 2.3597219
3.7687261 10.248528 -1.8322703
6.5715227 10.984825 2.0706527
6.438108 10.941503 2.6435864
6.4524136 10.929567 2.3512161
6.1545625 10.829526 2.3642588
6.0718455 10.811824 2.3614507
6.4537563 10.932484 2.2720895
6.3647251 10.925829 2.5535722
6.1733484 10.826006 1.9752944
5.9796786 10.771669 2.2696345
5.863121 10.714504 1.9613202
4.9229965 10.318744 2.1990557
5.1603317 10.4385 2.1685522
2.0916381 9.4621515 2.361383
2.9593937 9.7315855 2.280267
2.939683 9.7228956 2.3804438
4.3950272 10.374245 0.95115316
5.3609595 10.528081 2.2645342
4.9590826 10.401608 1.9591061
3.6709719 10.29723 -1.8108058
4.3640256 10.316268 -1.9371991
4.3761172 10.295927 -1.8315855
5.888103 10.756131 2.0765145
5.7679477 10.686587 2.0697553
5.6647086 10.670467 2.6570182
5.6507812 10.633961 2.3677542
5.5664387 10.615952 2.6530948
3.4440196 9.9296112 2.5610971
5.5696182 10.598514 2.0720727
5.5779567 10.65665 2.6657434
5.4708591 10.584064 2.3651328
5.376585 10.51564 2.0689473
5.3550596 10.530278 2.3613827
5.2697201 10.507382 2.0749326
5.2726445 10.50931 2.6562228
5.2340145 10.444769 2.0576007
5.1677909 10.480227 2.6602333
5.1756239 10.416641 2.0750909
4.5004625 10.233974 2.1279089
5.6739755 10.673112 2.0697644
3.8819525 10.117544 -0.6117841
5.6646414 10.66783 1.978029
5.7680845 10.691558 2.2709067
5.3052392 10.554023 2.6631758
3.9917703 10.196452 -1.6404958
3.8704832 10.149104 -0.91088104
3.8954165 10.196001 -1.535381
3.997716 10.167432 -0.84106767
4.1881676 10.27327 -1.6413441
3.9047604 10.176533 -1.7226923
4.362967 10.299081 -1.6403732
4.2960439 10.399248 2.2649701
4.0036893 10.179387 -0.13254194
3.8583953 10.129429 -1.4136424
3.9988415 10.171851 -0.73954594
3.8696122 10.130992 -1.088933
2.3587499 9.513958 2.1837959
4.0999265 10.261388 1.9948121
3.5401051 10.364134 -1.8640342
2.3724127 9.5614557 1.9503877
3.8719175 10.124544 -1.0190783
4.3032541 10.372903 2.4530656
4.0024681 10.173436 -0.53936833
3.8891048 10.12983 -0.24335772
5.8917427 10.755369 2.2674098
3.8949666 10.13489 -0.74970216
5.2920594 10.54895 2.3489678
4.3949399 10.358325 1.0789169
5.8843107 10.757572 2.4584253
5.9026928 10.76005 2.1350589
5.7235966 10.64447 2.2619519
5.7718801 10.694532 2.1651871
4.9243007 10.468204 1.7821113
4.8813176 10.479323 1.8306122
3.0685997 9.7884798 2.1810045
3.3435423 10.24974 -1.8419707
4.8506532 10.463362 1.7318633
3.0705564 9.8051319 2.4615905
3.1118424 9.8832674 3.0247228
3.0250349 9.7451229 2.2213554
2.9503803 9.7198706 2.4624355
2.0689666 9.4154949 2.2754288
2.6595478 9.6327372 2.2837722
4.2614188 10.224482 1.5607901
4.7299337 10.438129 1.8619051
5.8915157 10.756166 2.3648262
4.7720509 10.3927 2.0650103
6.7088194 11.059414 2.1017134
4.7356849 10.457169 2.2179894
2.6819727 9.6164169 1.9932264
4.7278934 10.439726 1.6338409
4.7743254 10.422359 1.7652897
5.3937936 10.562436 1.9914751
2.6586573 9.6287565 2.366796
4.7842183 10.367866 2.5414407
4.2503476 10.231803 1.7546304
4.2624106 10.229093 1.957521
3.4097786 9.9512777 2.2588856
4.7887878 10.371898 2.7603869
3.8695235 10.10639 2.2640347
2.7720933 9.6900558 2.4593458
4.7484307 10.461101 2.3648381
4.7654552 10.459031 2.06229
4.7382011 10.459638 2.4215219
4.5808544 10.483459 2.7617691
6.3654323 10.917585 2.0779903
3.0697892 9.800456 2.3721263
5.377604 10.560142 2.0654762
4.7690034 10.389119 2.2566903
6.3611851 10.956827 2.0899959
5.5757723 10.614711 2.163271
5.6719708 10.623975 2.0639069
3.9050131 10.153975 2.2533751
6.4727206 10.96668 2.176646
6.4749398 10.955758 2.0871112
4.5558972 10.401046 3.0589039
4.2942204 10.38567 3.0605903
4.8882265 10.359401 1.8583047
3.4082885 9.9514933 2.3798747
3.6947927 10.05686 2.2822378
4.6728897 10.468926 2.8972707
4.5898933 10.463078 3.298821
4.8438296 10.324179 2.156178
4.8792777 10.369726 2.1727204
4.5800433 10.304278 1.9596343
4.5982203 10.451118 2.5212543
3.7717192 10.069181 2.2629471
6.6058331 11.051741 2.0649061
5.379786 10.560122 2.1690254
4.0131164 10.256083 1.8665375
6.4669933 10.935642 2.0664158
6.416976 10.972273 2.1569471
4.6559529 10.393012 3.033427
4.4422207 10.23705 -0.3636499
5.6720223 10.668582 2.1664207
4.7610712 10.438073 1.9346263
6.6890078 11.057798 2.2710533
3.0639703 9.814784 2.7550278
3.6608801 10.022788 2.5546367
5.0187407 10.446644 2.2997825
4.8600745 10.328988 2.2649794
4.6440268 10.474759 3.0663619
4.5899215 10.470714 2.6410463
6.3929276 11.011815 3.1600373
5.887218 10.757811 2.6461508
4.5821247 10.463135 2.955193
2.0483024 9.394908 2.0960503
4.4797916 10.464851 3.3744373
4.4753675 10.423255 3.3692503
4.8791838 10.388831 1.9631472
2.060631 9.4161282 2.1701584
4.3884697 10.393 3.0655637
4.863833 10.331146 2.0645404
3.6888444 10.054201 2.3629727
4.6747208 10.396327 3.1366637
4.5919738 10.469689 3.0876491
4.4727864 10.390826 -1.7302815
5.3720489 10.5636 2.6561592
2.1740057 9.4752703 2.559814
4.5801759 10.475458 3.3682497
4.4595509 10.457504 2.0423357
5.6503973 10.636777 2.1622088
4.8491068 10.333646 2.4620357
3.8719749 10.112497 2.4613044
3.6813695 10.060882 2.5556197
4.5787468 10.306442 2.1586125
6.1538191 10.834295 2.1602774
3.6917722 10.064157 2.8489952
5.3588753 10.571153 2.8229728
5.3902311 10.560858 2.3597867
5.3919182 10.566244 2.5605843
3.6838768 10.059956 2.6377454
4.2205315 10.316147 3.2172723
5.4614253 10.529654 2.3531649
4.5788589 10.452939 3.1495342
4.2463522 10.334586 3.0745268
6.0706639 10.801572 2.2700093
4.5866756 10.447548 2.4664516
4.3655791 10.24121 0.53587633
2.8848436 9.7569752 2.5505474
2.9528553 9.7339153 2.5569077
4.5674906 10.402396 2.7673633
4.4653263 10.329506 2.4526694
3.6384232 10.283613 -0.61254001
4.1737638 10.30707 3.2845163
4.0260763 10.233587 3.2406812
3.5664511 9.9915829 2.1756821
4.4769754 10.404016 2.9583538
4.2823033 10.309431 2.8763437
4.1657658 10.298006 2.8552711
3.5840738 10.249242 -0.47957584
4.1922388 10.339811 3.503438
4.1622577 10.294169 2.9607105
4.0563993 10.257346 3.4486637
4.0599594 10.215594 2.9562759
4.0991077 10.264998 3.5227292
4.0089445 10.223933 3.4925654
4.573494 10.406088 2.8469167
4.3549008 10.313728 2.7352054
4.1729746 10.319227 3.3535266
4.644474 10.397538 1.8671695
3.5405507 10.220106 -0.35852548
3.1127436 9.8540831 2.6618309
3.7440841 10.418274 -1.6284167
2.2934039 9.5509481 2.1699209
3.5721998 9.9949617 2.363857
4.8584838 10.324947 2.5665903
6.3164949 10.958123 2.7061181
4.1506338 10.207326 -1.7414328
4.1911936 10.256365 0.25902081
4.3845801 10.354093 0.045682162
5.9677124 10.832758 3.3447866
4.4777474 10.377616 -1.1435887
4.2569919 10.218871 -0.34318408
4.2505984 10.231188 1.2496357
4.2769408 10.267551 0.06347385
5.9513683 10.73068 2.4760616
4.1752396 10.260732 -0.039183211
5.9370127 10.739272 2.5382547
3.9853055 10.166084 -1.2389317
5.7453527 10.725942 2.8226676
5.0885625 10.459507 1.9585197
4.4837003 10.381956 -1.0393349
4.4702597 10.310986 -1.4198873
4.5757132 10.375466 -0.83975989
4.4870915 10.366094 0.56188118
5.5697465 10.662245 2.7603519
4.1815791 10.266084 -0.54490364
2.3565776 9.5526228 2.0992315
5.6745949 10.673008 2.5582917
4.4816341 10.372219 -0.73188311
2.3597264 9.5266752 2.4643352
4.3750892 10.399707 2.3564265
2.7097251 9.6893597 1.9760553
3.5112896 10.278243 -1.0453066
5.974503 10.783998 2.5505669
4.1677709 10.209301 -1.3438888
4.4753904 10.373587 1.7603049
5.7006254 10.735577 3.3421926
5.9351954 10.730234 2.355516
4.4870338 10.361279 0.26177943
4.0017257 10.175107 0.86469126
4.4861946 10.365643 0.16050959
4.4944696 10.364806 1.0631623
4.4881358 10.365422 -0.44657505
4.4881334 10.368998 0.65811533
4.250679 10.22986 -0.24705487
5.6719337 10.686543 2.7589757
4.3764019 10.371903 2.5701458
4.2618103 10.222121 -0.73386401
4.165915 10.217576 2.4650867
4.264163 10.219589 -0.53874093
3.2562366 10.200632 -1.7612107
4.4675908 10.310036 -0.84910679
4.2467985 10.218399 1.6614807
2.2732034 9.5019388 2.4635472
6.1078362 10.852335 2.4000077
6.382628 10.966086 2.5619433
2.4697945 9.5928173 2.64551
4.4889317 10.367292 0.86092812
4.3667316 10.292818 -0.54078162
6.7745657 11.075679 2.0744171
2.2693617 9.5034342 2.5598512
2.2737372 9.4983377 2.3694451
4.3698335 10.291798 -0.13731089
6.3007054 10.951161 2.5816023
4.1810255 10.267077 -0.64157307
6.396349 10.953588 2.4593413
4.258471 10.217288 -0.64297986
4.2766981 10.269636 0.16056812
4.1963859 10.257123 1.4573194
6.3068209 10.94701 2.4518473
5.0904822 10.463303 2.1580591
6.5225105 10.939507 2.4756632
4.1594524 10.199985 -1.0352815
4.0811763 10.255785 -1.4409504
6.3952622 10.959625 2.2846856
4.0708747 10.185746 -1.0340216
4.2783275 10.27171 0.66346496
4.4641871 10.324442 0.65951449
6.3177099 10.969636 2.1166408
4.4687748 10.320678 0.064757779
4.468926 10.385368 2.3547361
4.3366127 10.22948 1.3805019
4.4647608 10.310681 -0.3380011
4.462501 10.319079 0.25997978
4.1940145 10.259139 0.45852897
4.4598589 10.324574 0.86284679
2.8905582 9.775794 2.8702517
4.4733739 10.304268 -1.034543
4.4683113 10.30329 -1.1366224
4.4869738 10.372302 -0.9307037
4.3721423 10.299564 0.76816678
5.5993881 10.65595 2.4626253
6.3888183 10.965149 2.7602029
4.2744398 10.273057 -0.63792831
6.2007556 10.859076 1.8804446
4.2582469 10.220964 -0.43824154
3.565649 10.361807 -1.1651173
2.4589553 9.6340675 2.9339149
4.4635863 10.326602 0.76331604
4.4632611 10.323147 0.36180151
2.146435 9.4272509 2.1417761
4.2780104 10.272131 -0.037829064
4.3707628 10.293782 -0.83523959
4.1644745 10.214361 0.16268925
4.4651346 10.322124 0.16061455
4.2766771 10.269463 -0.43564075
2.1757722 9.467742 2.4594655
4.4633923 10.30738 -0.93452299
4.4666557 10.303947 -1.2341557
4.3980732 10.374195 2.473603
4.3770013 10.375813 2.646461
5.8549695 10.727805 2.4589689
4.1653371 10.211817 -0.24373017
2.652719 9.6314011 2.4556677
4.1642299 10.205821 -0.44089553
4.3752909 10.37558 2.2753119
4.1636209 10.202508 -0.83719575
4.3205338 10.23616 0.84843051
6.2682528 10.891652 2.4569318
3.0808704 9.8804054 3.2468359
5.0909657 10.458601 2.564095
3.4425678 9.9269199 2.1949611
3.9855833 10.175403 -1.4379795
5.0116477 10.448135 2.0861793
2.9631052 9.8130474 2.9783268
3.968344 10.195214 2.8624578
4.7893558 10.45186 1.7784691
4.4883323 10.362637 1.1536131
2.5632391 9.6630306 2.3065033
2.4721909 9.5744085 2.3633816
4.0709319 10.182673 -0.64050406
4.1852651 10.257806 0.87019724
4.1891012 10.258796 -0.14149414
4.4920511 10.368579 -0.34550577
4.40557 10.356705 0.77833295
3.4728975 9.9679899 2.5485866
2.6755593 9.7323208 3.0130134
4.1144505 10.257413 0.52759719
3.8625987 10.124988 -0.92052281
3.882638 10.121277 -0.17501672
3.1698577 9.8159246 2.0797918
3.8864679 10.123816 -0.84035629
3.9106257 10.156413 -0.87802929
6.1825056 10.868326 2.55054
5.7663331 10.694338 2.3640711
6.3826981 10.951378 3.352751
3.8850362 10.123688 -0.41721699
4.0959735 10.254255 0.37292397
3.8976915 10.159903 -0.060286481
3.8801329 10.121266 -0.32781523
4.3690572 10.296312 0.2572667
3.2880154 10.310524 -1.3301995
3.9163039 10.278524 0.19328855
4.0629816 10.257897 1.5788716
2.6619365 9.6125078 2.1766675
4.3477349 10.22679 -1.6976908
4.2522082 10.228461 0.75716019
3.994127 10.177414 0.95706064
2.3033233 9.5538979 2.2120402
3.4552748 9.9344091 2.3683095
4.991322 10.446982 2.7776523
5.0156231 10.450502 2.4022164
2.7361243 9.6418772 2.3239439
4.0836201 10.249828 -0.24781615
3.0716431 9.8604012 2.7593391
5.7284136 10.636587 2.3497703
4.2518954 10.23182 0.96389449
2.8620136 9.6868734 2.1566222
2.7702553 9.6886835 2.2671485
2.2132831 9.5156803 2.0037222
5.0956249 10.45768 2.4616003
3.3613491 9.9148083 2.4613354
6.2650318 10.891444 1.9700704
5.1699247 10.474167 2.4607217
4.6424203 10.459921 2.1501191
4.2642498 10.293538 2.4573731
4.0770693 10.272638 0.4502179
3.8340495 10.359822 -1.4771612
3.6608016 10.026221 2.4603474
4.1645594 10.208481 -0.040172301
4.582613 10.318794 2.7576067
3.9926326 10.176707 1.0638177
5.0576973 10.425601 2.5562923
5.0651617 10.428969 2.6432943
4.1613388 10.203145 -0.73367494
5.5664563 10.621403 2.455004
5.043088 10.439233 2.7368708
4.180789 10.263332 0.056824066
4.6683626 10.456117 2.4774694
6.1761241 10.903723 2.9748719
4.4631777 10.320943 0.46302032
3.9781187 10.120628 2.1676717
4.9714274 10.400683 2.5532112
4.1843586 10.255332 0.3549152
3.9563651 10.123781 2.3587039
4.4612617 10.324977 1.0601491
4.1932936 10.260905 0.15887976
4.6421113 10.375752 1.961164
4.6599803 10.458778 2.3607635
3.9774709 10.199323 2.9515712
5.269279 10.507655 2.4620833
4.9773874 10.391535 2.0729876
3.9895751 10.118457 1.9522039
4.4901247 10.365443 1.4644525
5.1739721 10.473202 2.3665354
2.6677535 9.6981583 2.9492011
4.9805169 10.389421 2.1495373
5.0624022 10.423765 2.3648674
4.5167222 10.465673 -0.26680017
4.4860392 10.367748 -0.53829736
3.8671074 10.104694 2.3713176
4.4881172 10.362347 0.06081653
4.19277 10.254216 -0.2465446
3.9952183 10.191287 2.1580725
4.0002375 10.174237 1.4577167
4.0543079 10.216888 2.850004
5.2980719 10.554506 2.7570429
4.5041976 10.512099 -0.54228806
4.6390162 10.375945 2.4655852
4.3694248 10.295186 0.35879421
5.8032436 10.748315 2.5105295
6.1721339 10.863353 2.0601621
4.047205 10.199608 2.4529085
3.3815041 10.004095 2.9520926
5.4792995 10.597076 2.062537
4.0636582 10.193907 2.7544444
6.3992262 10.956063 2.3703518
6.2583199 10.87196 2.0741012
4.2702365 10.221015 -1.0280006
6.7501926 11.036463 2.2718115
4.1893182 10.261974 -1.041306
3.5662966 10.276023 -1.7535523
4.2753706 10.27026 0.56017858
4.066885 10.276828 0.8584041
6.1835947 10.863976 2.1612916
2.9720154 9.7765408 2.6558843
3.0662594 9.8642168 2.984061
4.1665854 10.210445 -0.34144983
4.3718815 10.314677 2.254087
6.3696475 10.913852 2.2657785
4.2786589 10.360926 -2.0299265
4.2742209 10.280128 -0.93778259
4.1672392 10.205895 -0.53877819
5.3087468 10.56407 2.0643277
4.3692088 10.291277 -0.94252765
4.2490301 10.360104 -1.6296093
5.6036673 10.6902 2.8393407
4.2835455 10.277294 -0.8411659
4.1923923 10.257244 0.76279336
4.2005711 10.350544 -1.2469945
3.3703003 9.9139404 2.3759456
5.3150368 10.548353 2.4622211
3.2673426 9.8931322 2.7474222
4.4793563 10.374955 -1.3356465
4.0652246 10.193027 2.0617383
6.3665409 10.923149 2.3577843
2.1488891 9.4869528 2.159893
5.9392152 10.736764 2.0804954
3.1647582 9.877594 2.1564288
6.5714669 11.000896 2.3615522
4.560904 10.482615 -0.23666164
3.2698867 9.9254131 2.9414191
3.9848294 10.179603 2.2673709
3.8085186 10.327151 -1.1948155
4.1850905 10.260842 0.65774018
5.8574586 10.725322 2.3567014
4.6396737 10.387379 2.7698939
3.1837804 9.8572512 2.3740368
4.7785368 10.38797 2.1432538
6.3843246 10.962283 2.6530323
5.5985785 10.661914 2.0725729
4.7761555 10.450159 1.870331
4.4754019 10.376307 2.2576272
4.0587263 10.182228 0.36329603
4.2760954 10.302007 -1.6348723
3.4822471 10.267685 -1.3478594
4.0019484 10.177228 0.76301551
3.5674484 10.008255 2.7546542
4.4906964 10.344645 2.9493208
4.5118198 10.598318 0.97800624
4.2742329 10.272083 0.25996065
5.5777025 10.649934 2.1932755
4.3696251 10.295105 0.061699595
3.4683218 10.21854 -1.0535922
3.6385281 10.348843 -1.4468086
6.7526231 11.031452 2.1617696
4.2693048 10.305178 2.5494354
4.2979612 10.388765 -1.4346927
6.1806693 10.864116 2.4562209
4.0849552 10.277367 0.78341204
3.4798143 10.061531 3.2456717
3.7192364 10.129654 3.2012811
6.5755782 11.000989 2.2702327
3.9725718 10.275267 -1.3690722
3.9922063 10.275339 -1.7314683
4.6455188 10.402238 2.8528399
4.2647414 10.216143 -1.243536
4.5515075 10.285471 2.8801951
3.9984291 10.18238 1.9566654
4.2772603 10.271497 -0.33985397
5.7695422 10.704967 2.5564208
4.2673602 10.219746 -0.84038997
3.2788756 9.8822088 2.1700141
5.5015545 10.663836 3.0776219
4.2555466 10.226673 0.06249924
4.0658078 10.193772 2.2526026
3.9812078 10.256678 -1.2338266
4.2479486 10.225924 -0.1401432
5.759078 10.757705 3.1653295
6.4682999 10.97559 2.5542061
4.2571797 10.221431 0.16072857
4.3696322 10.301345 -1.2236477
3.6448052 10.243788 -0.82954276
4.1649051 10.214482 0.26141116
6.1746931 10.881012 2.7513881
4.3730683 10.29935 0.6655919
3.9098785 10.161261 -0.35604408
6.2602448 10.889255 2.6587307
4.3713241 10.301477 -1.1318914
6.4762774 10.970566 2.3629158
4.3738313 10.296736 -1.0373155
2.4721789 9.5929184 2.7645438
3.3567164 9.9246902 2.8542228
4.0700974 10.271196 1.163879
4.062717 10.187275 1.9581505
3.9827688 10.193832 2.7710392
4.1685796 10.199102 -1.1353614
4.6917095 10.466811 2.6470666
6.6602221 11.020534 2.2698467
5.7622128 10.696342 2.650996
4.6554174 10.463397 2.7788186
6.7742677 11.075134 2.2701352
4.0589552 10.18124 0.76108342
3.8288491 10.194114 2.0717342
4.0892506 10.265862 2.9633052
4.6618719 10.468784 2.9368684
4.2631283 10.22228 -1.5285251
4.354382 10.233379 -0.25451615
4.6403942 10.391127 2.6637619
4.248415 10.23076 0.34683412
4.6934829 10.44903 2.2441127
6.6816926 11.057775 2.1573086
6.1741252 10.867953 1.9911773
4.06847 10.267167 0.98686624
4.0579405 10.181716 0.66087365
5.976748 10.779958 1.9539742
4.2989473 10.364052 -1.3344834
3.2709625 9.883193 2.4646983
4.1520991 10.195542 -1.5410721
4.3562784 10.226489 -0.83408713
4.0573645 10.27936 1.0566702
3.8617156 10.149776 2.7380242
4.3378949 10.220759 -0.12461954
4.060286 10.18343 1.160525
4.1580195 10.213878 1.7634994
5.2617302 10.497814 2.1671624
5.0180817 10.446452 2.6531258
6.5719151 10.942759 2.0835474
4.6390061 10.374964 2.3715444
6.4760532 11.000792 2.7633443
4.0884209 10.267583 -1.6165794
4.2622323 10.225622 1.8664731
4.6785789 10.456661 2.5544827
2.9764309 9.7736454 2.4697247
4.0576096 10.183557 1.2612321
4.0627141 10.110692 2.1662767
5.0635681 10.422619 2.457617
3.7766955 10.146298 2.8168464
3.9740999 10.170691 2.3616083
3.1730652 9.950078 2.3650723
6.1760736 10.898168 2.8627949
3.478575 9.9690914 2.7557602
3.7895281 10.413404 -1.3116734
6.7344933 11.034584 2.3566093
4.7534146 10.308857 2.0618052
3.8703139 10.172775 3.2505975
5.4628119 10.538294 2.1246955
3.6324 10.109308 3.2808762
3.5416741 10.268648 -0.96710241
4.0786662 10.270141 1.2548915
4.3559165 10.224494 -0.44000536
4.0638094 10.271172 2.3493741
4.1685925 10.218446 0.36217609
4.7618866 10.313678 2.4628413
4.9798717 10.405802 2.6525729
4.1580358 10.190521 -1.6422757
3.2625587 10.289462 -1.5107852
6.4751616 10.963319 2.2649989
4.0561137 10.180838 0.86084574
3.80492 10.349135 -1.0685062
4.1867056 10.28117 2.3710356
4.2537823 10.233171 0.45967397
2.1483643 9.430932 2.3530376
4.0621095 10.17782 -0.24015453
4.2533388 10.232514 0.26260808
4.672708 10.462366 1.9806776
4.9722781 10.396055 2.4609299
4.0834694 10.260905 0.67197019
4.2549925 10.228862 0.66114742
4.1874127 10.288424 2.4645765
4.1358223 10.215243 -1.9393548
4.2641993 10.216735 -0.94270527
4.0635586 10.186114 1.6631377
2.7669196 9.7028027 1.873685
4.1811428 10.266683 -1.1161004
6.6025209 11.106641 3.3444877
4.3891311 10.362061 -0.54568493
4.0777516 10.189541 -1.1380025
6.3724508 10.986472 3.0035424
4.0589633 10.185508 1.3609055
5.2642193 10.500756 1.9732835
6.4762301 10.970078 2.4592333
2.8434131 9.7228985 2.0371671
5.473897 10.590027 1.9734645
4.0593877 10.18467 1.4619765
2.7898018 9.7218914 2.0351729
4.3450642 10.233628 -0.056076791
2.7750444 9.6872063 2.366966
4.0563111 10.182204 0.96440327
2.2757132 9.5060253 2.0687554
4.0570421 10.181171 0.46169207
3.3830259 10.227324 -1.9478358
4.1627269 10.201215 -1.2348306
4.284111 10.270446 -0.13586752
2.8704801 9.7147388 2.2709427
5.9307361 10.831132 3.1583974
6.5811496 11.0508 2.5645502
4.2660813 10.278736 -1.2294794
2.4509451 9.5969038 2.876466
4.2676368 10.217363 -1.7218661
5.7625113 10.709379 2.7509646
3.5663755 10.265181 -0.84145123
5.383698 10.561223 2.2635894
4.2622628 10.285336 -1.7418796
4.2607408 10.215626 -1.1253893
4.0575047 10.18311 1.0600984
3.6149926 10.047834 2.5462351
6.5691023 11.003448 2.4558437
4.0747061 10.127277 -1.663675
4.4629903 10.317887 -0.23942342
3.9688864 10.360086 3.3573008
4.0559182 10.181827 0.55916387
4.3682671 10.299055 0.56334049
4.0650029 10.180131 -0.43904191
4.9687109 10.384459 2.2640491
4.062911 10.182991 -0.33612657
4.0595689 10.181327 -0.038585812
3.5696588 10.204954 -1.7224605
4.0581975 10.182202 0.26072848
3.8580437 10.16342 2.1483359
4.4678559 10.310781 -0.44288483
4.3721046 10.292489 -0.63569689
2.8671315 9.7146387 2.3728576
2.9979942 9.791276 1.8089843
2.1496367 9.5123777 2.0635977
4.1679606 10.203659 -0.63544327
3.5623765 10.320477 -1.9573078
4.0646715 10.272003 2.8866029
2.5674577 9.6097422 2.3678083
2.8580999 9.7201586 2.4638224
4.5784416 10.30823 2.4537156
6.5789785 11.02155 2.7570274
6.274693 10.898551 2.553555
4.0169868 10.248154 1.7816793
4.1664033 10.213306 0.061558541
6.236763 10.874908 1.8937008
4.0193286 10.261024 3.1926322
4.0613022 10.187292 1.5638294
4.0576444 10.122286 1.9505138
6.2695999 10.882119 2.1679134
4.0612469 10.181911 -0.13764271
5.7922831 10.756563 2.1592314
4.4079061 10.364203 -0.86704731
5.7924147 10.761689 2.9196234
4.9746122 10.393642 2.365258
6.4701033 11.02569 3.1699181
4.0866518 10.273685 2.6839938
4.4665112 10.324621 0.55974025
4.0538387 10.272836 1.3532661
6.3299255 10.965153 3.2661767
6.3535872 10.821177 2.4654336
5.2946625 10.551488 2.5761104
4.3682871 10.295923 0.46395311
2.7764101 9.678072 2.17401
6.2699976 10.889226 2.3651927
4.1862192 10.262185 -0.8540082
6.170476 10.868756 2.6488116
6.6235638 11.045053 3.0484016
3.0710502 9.8135309 2.6551309
6.4762516 11.011032 3.2908332
2.3995521 9.5728121 2.1651862
3.6897998 10.057372 2.4715066
4.6393437 10.368875 2.5587049
2.8946583 9.7834949 2.2439556
4.1683574 10.278981 3.0611594
3.6636648 10.027779 2.6572936
3.8696976 10.271371 -1.1481313
4.486074 10.361644 0.7678901
5.1022201 10.456923 2.354039
3.2764854 9.8856735 2.2649581
5.0760245 10.450875 2.0574713
4.4674339 10.307744 -0.63358498
2.9808812 9.791194 2.7606769
3.371851 9.91751 2.2792687
4.0672927 10.18296 -0.84105754
4.2721114 10.269942 1.3630646
4.3724866 10.29711 0.16080078
3.9182363 10.154856 -0.560489
4.0646706 10.18177 -0.53816801
4.2726574 10.270833 -0.54568833
3.4828546 10.287147 -1.5549573
4.0595393 10.187876 1.7571145
4.1668539 10.217628 0.55912673
4.0677624 10.182452 -0.73800105
4.067358 10.108722 2.0504656
4.1673956 10.203052 -1.4357812
6.656949 11.027938 2.3644984
4.9350724 10.341399 2.4506688
4.8728991 10.372415 2.0593624
6.3697643 10.913706 2.1648011
2.1767836 9.4742126 2.2785256
4.4889207 10.364713 1.2601327
4.2621694 10.355995 2.9514761
3.2018745 9.8567448 2.2632101
4.2577729 10.227531 -0.040686317
3.5622432 9.9938545 2.6642575
3.7451203 10.033443 2.3697426
2.261858 9.5041428 2.2780077
4.2776623 10.301581 -1.4395235
4.866015 10.462199 2.274193
3.9996867 10.176997 2.0614388
4.1640816 10.215119 1.9541323
3.6616511 10.025626 2.368973
2.9528732 9.7207737 2.1658738
5.1725154 10.466669 2.2646303
5.6803513 10.665112 2.2685025
2.8883128 9.7579908 2.6541781
4.0032802 10.175603 -0.44368756
2.8990867 9.7563353 2.3691962
4.2701826 10.283526 -1.3424833
2.1772125 9.4658842 2.3654647
4.2704139 10.297493 -1.5371994
3.6684823 10.024125 2.2558777
4.3931427 10.36244 -0.94931549
4.8565345 10.465494 2.1562788
4.4749165 10.369 1.9575056
4.4683294 10.392017 2.6628249
6.6614189 11.128285 3.3668265
5.8865628 10.801629 2.8469429
3.333683 10.327759 -1.3347287
4.0610828 10.187485 2.1559305
4.2766647 10.26847 -0.24201678
4.1632833 10.20037 -0.93433726
3.4537551 9.9362803 2.6661069
4.2768245 10.28857 -1.1394652
4.07302 10.197828 2.3662627
4.4831023 10.369615 1.5591533
3.8782735 10.272212 -1.2615489
5.6782951 10.668678 2.4591436
3.4486873 9.9365244 2.4556618
3.3860533 9.9786911 2.1538804
4.4795375 10.372158 2.0557125
3.5596054 10.292633 -1.2386675
2.5760877 9.6225433 2.2661688
4.0597196 10.182958 0.16157007
4.0568452 10.17903 0.061398361
5.6506004 10.690001 3.0595264
3.4818859 10.274745 -1.4407241
2.3108377 9.5525169 2.568222
6.2884154 10.947985 3.0878942
3.9020064 10.154867 -0.11662975
3.5673873 10.000413 2.5532222
3.4338067 10.035547 3.4394324
4.7620811 10.308299 2.1707535
3.5668032 9.9892635 2.2726698
4.0697904 10.189405 -0.93962985
5.0688267 10.421202 2.2715147
4.0882173 10.276856 2.2455325
4.0714722 10.266737 2.5739357
4.1815953 10.271694 2.2607458
5.6742063 10.665791 2.3643727
2.7992225 9.7698078 3.1834929
6.2692313 10.885786 2.2673481
4.4655924 10.314917 -0.53858268
2.7677004 9.694026 2.563386
6.6873136 11.056687 2.365617
3.370713 9.9266214 2.6589711
4.1483908 10.28234 3.1738594
4.3719115 10.292745 -0.44166461
3.5618777 10.292271 -1.1334145
4.2753811 10.27108 1.2595438
6.1612139 10.832049 2.2676167
2.2645812 9.5094366 2.7635977
4.2845006 10.283674 -1.0317532
4.9581089 10.409894 2.7465765
5.784348 10.762165 2.8418732
4.3690386 10.300601 1.3614078
4.485507 10.366794 0.36010313
4.256031 10.308531 2.9461977
5.6009421 10.65983 2.5662479
4.4841504 10.367125 1.6534109
4.2725091 10.307846 2.6449122
3.9075813 10.187315 -1.2449703
4.4889402 10.369182 1.3589803
4.2726607 10.270996 -0.73495543
4.2760506 10.267196 0.45905727
4.2792387 10.271273 0.86215121
2.6069887 9.6382656 1.9788202
2.474077 9.5832472 2.5624006
4.4830866 10.362522 1.8638797
4.0728545 10.188522 -1.2366862
2.8874447 9.7073765 1.9394324
3.6359203 10.260705 -0.9332909
6.2070594 10.928091 3.1800911
6.2797394 10.957911 2.7585227
4.368907 10.298556 0.96234107
2.2702127 9.5100527 2.647006
3.361923 10.007385 3.3448782
4.4957762 10.365102 0.95856547
6.2665472 10.914216 2.8561735
4.1929679 10.254285 1.6541432
4.2797589 10.272303 0.36064506
4.4747272 10.37659 -1.2363442
3.5888748 10.292034 -1.0413204
3.5656986 10.069183 3.1471961
6.1302104 10.885365 3.309818
6.1728916 10.915629 3.3704963
4.1897082 10.26118 -0.33450532
4.1678295 10.217797 0.8634575
4.1932416 10.305799 2.5685065
2.9621994 9.8043537 2.8707619
4.3710761 10.301365 1.0586761
2.8106306 9.7528324 2.6478753
3.2646556 10.304514 -1.1225201
4.4373579 10.240973 0.24359868
4.3646102 10.234067 0.47013426
4.3448219 10.225595 0.045235131
4.461462 10.324343 1.257835
2.9042492 9.7895212 2.1880429
6.6472206 11.035251 2.6623731
2.6807022 9.7557106 3.2279272
4.1668129 10.214844 0.46369299
3.3592784 9.9366579 2.9142144
4.184876 10.263206 1.5555376
6.1792545 10.86153 2.3659759
5.3726807 10.569131 2.746392
3.0851281 9.8487587 2.2881687
5.6571245 10.681084 1.7821008
2.2345762 9.5051203 1.9365118
4.3680172 10.366398 -1.3508911
5.6811466 10.680216 1.8709925
2.9702919 9.7742081 2.5625615
3.3890653 10.309839 -1.1506956
4.4639077 10.326685 0.95867485
4.369266 10.297915 1.2623541
4.2767611 10.269002 1.0615685
5.9423728 10.735924 2.266191
4.4829683 10.36279 0.46287018
4.3842959 10.360799 2.8703129
4.1669421 10.218893 0.76042026
2.847986 9.7169256 2.7639873
4.4635215 10.32244 1.3597107
4.4914112 10.322749 2.8195901
4.3744969 10.288259 -0.73826933
4.5801845 10.381354 1.6597668
4.4947538 10.308934 2.7613828
4.3728228 10.300452 0.86307991
4.2763066 10.270293 1.1601418
4.2537475 10.233057 0.56015003
4.1637321 10.21522 1.0537543
4.1912847 10.258308 -0.73324025
4.3684244 10.298229 1.1611663
4.1858315 10.268003 1.2643
6.0414038 10.836097 3.0793099
3.6733413 10.05446 2.7392001
4.8787098 10.366989 2.4635129
3.3566976 9.9081278 2.1705661
3.5718932 9.9967155 2.4587271
4.3777437 10.366268 -0.45168078
4.3701506 10.301187 1.4622114
4.2722249 10.224317 -1.3423153
3.9949405 10.177166 -1.1430688
4.1620588 10.215884 1.4651763
4.2502699 10.226685 1.156293
2.9772167 9.7665157 2.2707386
4.1785626 10.264845 1.1560916
6.481916 11.034869 3.3207421
6.0003934 10.865322 3.0174935
6.4668894 10.99347 3.0675013
3.46573 9.9262972 2.2766156
3.6445472 10.29504 -1.1726388
3.6687436 10.318186 -1.0050788
5.3837733 10.560624 2.4598079
4.5905781 10.298658 2.6575019
4.3546987 10.237484 0.15843998
3.3983705 9.9535294 2.4779623
4.3884773 10.354118 0.27890778
3.9689825 10.110798 2.0481167
3.3894258 10.269699 -1.4544621
4.1895103 10.261378 -0.43159235
4.478723 10.378231 2.1559293
5.7800283 10.746796 2.7619014
5.7988863 10.751692 2.5903311
3.3651781 9.9168358 2.5564096
3.7811379 10.448247 -1.3437262
2.3172603 9.5550413 2.9028509
4.0055561 10.172161 0.55499208
4.3544326 10.231019 -0.34125587
2.8905859 9.7678938 2.7573273
3.7875326 10.392221 -1.2488582
5.677454 10.73142 3.1377416
5.2674427 10.49958 2.2686393
4.3776464 10.367297 1.5651242
4.1758456 10.278276 -1.4484048
4.3746161 10.300848 -1.3463914
3.6061323 10.094741 3.035955
3.3675807 9.92136 2.7587092
4.6475706 10.395983 2.0628045
3.3509836 10.204996 -1.8321259
5.3165326 10.561932 1.9951147
3.3907831 9.9503698 2.550184
4.5939693 10.317198 2.3516455
4.1638927 10.211941 -0.13920875
2.0997839 9.4618368 2.2765088
3.2658739 9.8796968 2.373064
6.2592168 10.833972 1.9659166
6.6867075 11.060411 2.6597984
3.5620043 10.281287 -1.3299119
2.468251 9.5776711 2.4625852
6.2315726 10.965095 2.912513
4.3613153 10.232993 -0.64136612
2.0628319 9.4861565 1.9788148
2.8557551 9.7215157 2.5603011
2.5841672 9.6737862 2.9672587
3.0988281 9.8501673 2.588552
2.599776 9.669054 2.8738022
6.1865287 10.862832 2.2607508
4.2574425 10.225544 1.446066
4.1787395 10.26827 2.0603359
4.0548201 10.236979 3.1680839
4.4668846 10.321405 1.4636428
4.2574821 10.233455 0.85647273
3.2723169 9.8893185 2.5530367
4.4675698 10.321501 1.5672934
4.3705659 10.3039 1.5522182
4.1641412 10.215651 1.2602673
4.2716579 10.285065 1.9609034
4.1702251 10.215647 1.6653177
4.472672 10.313768 2.0530598
2.6736932 9.6705666 2.7477272
4.4616241 10.324158 1.1597123
4.4698768 10.321226 2.158335
4.2594557 10.233546 1.0637265
4.272625 10.274865 1.6553741
4.4600105 10.317901 1.6692362
3.1854341 9.8585854 2.4679818
5.4512568 10.537816 2.2586958
6.5444889 11.019483 2.9250495
6.5003304 10.990446 2.9066169
4.2724051 10.271585 1.464065
4.272594 10.282035 1.7649199
4.5834374 10.385031 1.8615891
4.5765405 10.383033 1.9648288
4.4689245 10.381749 2.4704857
4.5795064 10.386289 1.757211
2.1496935 9.4351578 2.0856087
4.5786939 10.389178 2.2578292
6.3926258 10.935232 2.7655113
6.336834 10.927343 3.0513594
4.4551973 10.31536 2.6471214
4.2745018 10.276619 1.5551414
4.3519759 10.325139 2.6512349
4.1611199 10.213499 2.0636051
4.0660095 10.204883 2.5439343
3.9741783 10.171761 2.4668941
3.8996277 10.172213 2.9883199
4.8268209 10.36013 2.8131239
6.0935206 10.873105 3.1463134
6.1461096 10.908157 3.4423771
4.4600005 10.31852 1.7648046
4.3689709 10.30584 1.7655916
4.3642268 10.329415 2.5494981
4.1496801 10.21314 2.1651592
4.1936283 10.282969 2.7446654
4.0689044 10.206616 2.6576858
3.9796057 10.184926 2.6687901
5.4543028 10.522993 2.0563402
5.4477816 10.536823 2.4737074
4.4637742 10.318855 1.9701576
3.8886652 10.169745 3.0955682
3.9784138 10.219717 3.1542463
3.7634628 10.090795 2.753686
3.8012989 10.145164 3.0712848
3.684742 10.087355 2.9429889
3.733248 10.119627 3.3027911
4.4631448 10.378594 2.5508194
6.7834344 11.152004 3.3155921
4.1853514 10.263757 2.1653967
4.2721734 10.290908 2.159574
3.8721189 10.114348 2.5527849
3.9631579 10.174053 2.5616226
3.4703889 10.027328 3.166029
3.2454128 9.9026728 2.8464818
3.3692288 9.998126 3.1579399
3.2121987 9.9316311 3.339788
4.4895835 10.373995 -0.64017409
4.4609857 10.391074 2.7589133
6.7142344 11.151793 3.0994315
4.3773928 10.392651 2.7662158
4.093781 10.272085 2.4836755
4.0707111 10.274636 3.1821294
3.4126878 10.034459 3.2199759
4.4930449 10.405312 2.8709598
6.5738707 11.057105 3.057884
4.4636507 10.313097 1.8540275
4.3728189 10.301167 1.6573372
4.4650617 10.315762 2.2636349
3.5836303 10.05968 2.9595039
3.4603221 9.9814672 2.870748
3.5302203 10.040417 3.1965034
3.2685595 9.9317541 3.0903022
3.4359994 9.9878798 2.922673
6.5678725 11.065119 3.1587913
6.5906029 11.09532 3.2178917
4.3699789 10.238873 -0.91820002
4.2723913 10.278749 1.8496064
3.9688582 10.214682 3.0679135
4.0522618 10.228773 3.0698364
3.3504648 9.9770155 3.0790884
3.1744826 9.8710365 2.7555966
3.2437966 9.9427786 3.2890587
3.9591906 10.133592 2.2771981
6.0596762 10.868296 3.0629838
5.8514256 10.732855 2.7455354
5.8796425 10.775145 2.7398016
5.8773727 10.77549 3.0620162
5.9541254 10.810226 3.0356665
5.8347826 10.753552 3.2685156
2.5647504 9.6194315 2.6536577
5.8570752 10.810852 3.3850579
5.752677 10.753311 3.3597708
4.1594639 10.214415 1.5625594
4.1867528 10.264037 1.8565676
4.2647686 10.292183 2.3649104
4.057075 10.217836 3.3143253
4.0759869 10.28601 2.7773063
3.9657824 10.206733 3.2822747
4.0779238 10.28735 3.3289342
3.767242 10.078286 2.6629393
4.1531324 10.207306 2.5530889
2.8968301 9.7533569 2.4746914
2.6803415 9.6957064 2.8799589
6.2646017 10.954083 3.1240973
6.1030684 10.863159 2.7642848
5.9831567 10.840261 3.3071418
4.6742077 10.306588 2.8485711
4.5835524 10.394114 2.3621292
4.2751169 10.29032 2.0562408
4.179491 10.264356 1.7640433
4.2817788 10.289446 2.2547703
4.1083689 10.273325 3.2534628
2.7302372 9.7349358 3.0304694
2.5197349 9.6615086 2.8830695
6.2391677 10.939244 3.022866
6.0810008 10.87097 2.9700706
6.0262318 10.864384 3.2283714
4.1852794 10.265747 1.9474897
4.1815238 10.286177 2.6755307
4.0800772 10.271365 3.0625856
2.8705082 9.7958107 2.9578459
6.2641878 10.918906 2.7571306
6.1805325 10.901637 3.0488317
6.2362041 10.926309 3.3488805
4.352572 10.316548 2.4572976
2.7680244 9.6999054 2.6492603
6.6582298 11.10334 3.1670828
4.6311183 10.376128 2.1703811
4.3637013 10.320725 2.3657467
3.3908014 9.9900131 2.8400171
4.5624628 10.399685 2.6608155
5.828897 10.779901 2.9415839
4.1906142 10.254563 1.3619734
3.95262 10.223316 3.3591864
3.5512614 10.231022 -0.70953
4.575511 10.385215 2.1586688
4.5742888 10.388231 2.4613223
3.4679224 10.237179 -1.4461179
5.9691052 10.803271 2.8787632
5.8638406 10.793129 3.1352041
2.4683282 9.5796213 1.9840776
6.2193923 10.989956 3.466346
6.0834842 10.884233 2.8481164
6.0815825 10.913338 3.4152596
6.0350227 10.888638 3.3981698
6.2601471 10.922321 2.9586153
6.2288857 10.918437 3.2301049
6.0656419 10.814957 2.5534453
5.9582105 10.790788 2.7586
4.188343 10.255363 1.0535662
2.2868657 9.5246468 2.8405366
3.3535247 10.200545 -1.7604311
5.4762778 10.606491 2.7523236
5.4696016 10.585415 2.4594936
4.3449483 10.233601 -1.3336655
4.1675482 10.221586 1.3620119
5.8901315 10.761081 2.5493302
3.7031827 10.26848 -0.83920467
4.5813117 10.381652 2.0552258
3.6589918 10.316009 -1.2590439
6.6833887 11.060657 2.460192
6.6700058 11.086302 2.9849646
6.5797629 11.063461 2.9605811
6.3554945 10.944233 2.9783854
5.5683694 10.615107 2.3614283
4.8781953 10.36405 2.2658944
4.3481498 10.222459 -1.0401294
5.8664188 10.726108 2.6485622
4.3808126 10.377325 -1.4683565
4.3739181 10.296423 -0.33806115
3.5129013 10.265167 -0.88680601
3.1840467 9.8618221 2.5565865
3.1780148 9.8644485 2.6579812
5.8548889 10.726464 2.5475776
5.6103959 10.656254 2.2397003
2.7543406 9.7161322 2.8678033
3.2277741 9.8354836 2.4449766
4.3669925 10.291518 -0.23926884
3.7090786 10.048965 2.1353421
4.0002165 10.175716 0.65897882
4.3754668 10.360717 0.55755132
5.5682893 10.614284 2.2652047
4.6582031 10.448666 1.6782746
4.0046854 10.182704 -0.035463985
2.7849503 9.7625103 2.9476097
4.3749862 10.365986 1.1762192
3.7526233 10.274887 -1.3073717
4.47544 10.491583 -1.5270638
5.1504612 10.475056 1.9837972
4.0791812 10.19269 -1.3370559
5.1765361 10.47214 2.1585641
4.4858289 10.363605 -0.83682793
2.8486841 9.73417 2.8684957
3.7708461 10.073376 2.1641905
4.1946754 10.26187 0.55747634
3.796494 10.374682 -1.1353753
4.9618597 10.455542 2.1350708
4.3910747 10.365608 0.46391538
4.1814942 10.260794 0.96926689
4.5732718 10.304914 2.541857
4.5768185 10.309596 2.2688074
3.2687619 9.8924856 2.6581035
4.4717841 10.415671 3.0722337
3.6999693 10.403731 -1.5283552
3.6522303 10.300781 -1.6598563
4.641727 10.390744 1.666047
5.5493593 10.684712 3.0942235
3.1752315 9.8765202 2.8478341
4.3717179 10.292648 -0.03906738
4.1803846 10.272424 -1.5463482
3.6394737 10.256141 -0.76686877
4.3946362 10.374865 -0.72949725
4.4783607 10.312342 2.3665414
4.0774822 10.191612 -1.4441136
4.8870516 10.3648 2.362113
4.6269789 10.403571 2.9461489
2.2980132 9.5584288 2.6619165
4.1649818 10.214323 1.1638713
4.0838437 10.267149 -1.5444961
4.0698371 10.194482 -1.5399535
2.7668412 9.7094946 2.7632277
6.4570503 10.979753 1.9502995
4.1646433 10.215871 0.66287863
4.0889993 10.367208 -0.86462039
4.6626401 10.303297 2.5651002
2.3617959 9.5259695 2.3582006
2.3798435 9.5642853 2.7678776
2.7669785 9.7597084 3.041883
4.356904 10.235223 -0.74611264
2.2753334 9.5072479 2.1646721
4.4418192 10.298138 2.5429697
4.2499104 10.232784 1.3605336
5.2637682 10.521411 2.7474768
5.272078 10.515199 2.5510447
4.2687793 10.307594 2.7478113
3.7270405 10.321818 -1.0770829
4.3298011 10.134137 -0.85423702
4.1655631 10.217131 0.95968282
4.2772279 10.27007 0.7618835
3.3628693 10.020272 3.456243
4.2817645 10.272716 0.96283036
3.5714808 10.294287 -1.4246284
3.7759738 10.076041 2.4583991
5.7790008 10.765373 3.1025717
3.7653835 10.078739 2.551496
4.6338 10.38254 2.2496731
4.1856699 10.392055 -0.38543341
4.1485548 10.205207 -1.8523756
4.1858521 10.26513 -0.94089925
4.4646339 10.311606 -0.74087918
4.1657071 10.220546 1.8636754
3.4717469 10.226592 -0.76298249
4.1589527 10.215543 2.3752565
4.58041 10.37952 1.5602306
4.5653138 10.409217 2.9573679
4.3792458 10.382377 2.9532025
4.1518755 10.212069 2.6547091
4.6445117 10.394999 1.7533096
4.5861392 10.406081 2.5538828
4.2367077 10.221493 2.288976
4.1556187 10.21328 2.2689943
4.5781207 10.304713 2.0655611
3.5648375 10.22456 -1.6737584
4.1454873 10.236863 2.7496414
4.1409144 10.214894 2.9711928
2.9850919 9.7775955 2.191839
2.9739316 9.7667437 2.3722832
3.1034822 9.8483381 2.4246209
3.5818236 10.285593 -1.5311588
5.5966458 10.651511 2.3648853
4.847775 10.335823 2.37216
2.6847761 9.6664534 2.2541835
4.3640022 10.229296 -1.4319189
4.2487559 10.196015 -1.8348464
4.0981822 10.123397 -1.835726
3.7144532 10.239022 -1.9584947
3.7258666 10.271523 -1.7605685
3.8191826 10.373228 -1.8724201
4.3762956 10.234563 -1.6688904
4.275332 10.206786 -1.653447
3.6754375 10.238579 -1.6546655
3.4641962 10.275549 -1.6530976
3.9741106 10.231884 -1.8459305
4.2654696 10.202167 -1.4297367
3.6522231 10.2851 -1.5221103
4.3665085 10.23375 -1.2342141
3.5940518 10.236931 -1.5202888
3.7631278 10.230057 -1.7677261
4.0689411 10.249202 2.0577791
4.3229527 10.141189 -1.074739
4.4425855 10.233716 -1.0685632
3.1546893 10.225284 -1.5384268
4.3776479 10.371875 1.7618051
4.0905123 10.269047 2.1549659
4.3655305 10.189844 0.40860701
4.1609917 10.127522 0.74663937
4.0954461 10.255405 1.8589293
4.340847 10.233076 -1.5131512
4.4069214 10.362836 -0.21569288
4.1076069 10.263269 -0.93635762
4.0542402 10.269599 0.16444284
4.3751965 10.374688 1.2495933
4.3200755 10.361625 0.33941117
4.2720003 10.346384 0.67901284
4.0797791 10.250129 -0.55087
3.8901298 10.221733 1.6484076
4.3745484 10.362856 0.81871516
3.759325 10.288895 -1.6571766
4.3694997 10.352116 0.1290281
4.2960968 10.374085 1.0753027
4.2456002 10.352307 1.159829
3.8887429 10.209517 1.1654515
4.4033079 10.350134 -0.30789632
4.2791605 10.369355 1.5540949
3.8959692 10.195377 0.94784814
4.3938155 10.362685 1.3519675
4.359714 10.225381 0.96464235
4.3628368 10.353337 -0.62544775
4.2599812 10.356301 1.4542878
4.0904188 10.272757 1.4618332
4.0635791 10.261548 1.7737521
3.9879026 10.268016 1.4826784
3.6582906 10.263719 -1.3340404
3.494405 10.238457 -1.5230389
4.2888021 10.355526 1.3442127
3.9445708 10.256622 -1.5548487
4.2673602 10.361328 -1.8583871
3.3081071 9.9668913 2.8841345
4.2570949 10.229679 2.0386064
3.335475 10.305231 -1.1996782
4.4376945 10.20997 -1.3919393
3.6554112 10.204884 -1.4448675
4.3619542 10.210307 -1.8015035
4.1721206 10.140555 -1.8199987
4.3055501 10.362095 1.273067
3.9809093 10.272491 1.1582177
4.2712402 10.38131 2.6271031
3.9084644 10.181026 1.9494222
4.5874758 10.337574 3.2564516
4.3952904 10.414483 3.2601347
4.4709706 10.41627 3.2395642
4.3779707 10.414408 3.5443032
4.3017693 10.36224 2.7286625
3.4091508 10.322612 -0.58090901
3.2470338 9.8400402 2.3667555
3.2878184 9.9630022 3.1625621
4.5686936 10.412572 3.3583107
4.3197718 10.427386 3.2749069
3.2475815 9.8358974 2.5565023
4.4858799 10.405289 3.536428
4.4019537 10.433228 3.4802902
3.8183589 10.186214 -0.75147599
4.0083857 10.249182 2.385447
3.9864542 10.261337 2.5504749
3.5724261 10.262863 -0.64539248
4.4055734 10.461568 3.4162762
4.1693573 10.363192 3.0454316
4.3598361 10.38429 3.1514897
4.47016 10.470466 3.1743765
3.9729021 10.293576 3.0828073
3.2542028 9.9529686 3.0530081
4.2923317 10.364515 2.8734922
4.1791873 10.368499 3.1494935
4.2778373 10.408151 3.1700013
4.3760824 10.446176 3.1905091
4.0007253 10.266159 2.8380842
4.5997763 10.312713 2.9778583
4.4747758 10.455508 2.9545798
4.3133988 10.355797 2.5368052
4.5070581 10.482842 3.6557667
4.3675771 10.455781 3.5429087
3.735786 10.03947 2.5363841
3.753119 10.097593 2.8282743
3.8733423 10.154474 2.8474538
3.3050513 9.9755764 3.3907263
3.906244 10.164526 2.5139785
3.8862247 10.146506 2.6597691
4.3393354 10.235437 2.5061743
3.3180585 9.9457397 2.5497751
4.2450132 10.207623 2.455164
3.5354214 10.224848 -0.99667776
2.1105759 9.485177 2.0941646
3.5297179 10.243312 -0.65190428
4.1700034 10.268902 -1.3463058
3.7463012 10.149652 -1.1645795
4.2590752 10.235966 2.1233978
4.3940015 10.37375 -1.5384612
4.4709063 10.447916 2.5571902
3.9898105 10.302442 2.914572
4.2686844 10.307807 -2.0366199
4.1608467 10.302614 -2.0321066
4.0604539 10.257813 -1.8129884
4.3608751 10.231779 1.6451944
4.5033646 10.45208 -2.3118865
4.3687038 10.398099 -1.9177767
4.2961779 10.371373 -2.3281102
4.2185779 10.352161 -2.305661
4.4742017 10.399842 -2.0419495
4.3556819 10.20847 1.1785905
4.1508851 10.223848 -2.0221565
4.3496795 10.2264 1.4520773
3.2246342 10.222569 -1.623751
3.3403049 10.242265 -1.6517115
4.139852 10.145408 1.580042
4.0601106 10.266811 -0.73222554
4.1153474 10.252236 0.011505887
4.4661183 10.305293 -2.0169365
3.9821491 10.265073 2.2307351
3.4129519 10.227336 -1.5017914
4.0492678 10.273091 -1.7335314
3.3458519 10.273321 -0.8285675
3.1643281 9.8980827 3.0059166
4.3022904 10.130852 -0.14171639
4.478363 10.381912 3.1750498
4.2554846 10.387249 3.3294749
4.3789225 10.431149 3.3462596
4.3974266 10.512343 2.9690197
4.5703344 10.27746 3.0380797
3.740449 10.406523 -1.4325655
4.1129889 10.357743 2.6401656
4.0560355 10.377501 3.4366164
4.0240812 10.346392 3.2116358
4.2213826 10.345271 3.1171331
3.6105974 10.26907 -0.27288887
4.2427335 10.362333 3.4751239
4.5206351 10.460176 3.4685769
4.4977732 10.459617 3.5372736
4.196085 10.347144 3.3335416
4.1176252 10.35707 2.9298263
3.5524974 10.225949 -0.83252716
4.402288 10.383677 0.66095495
3.6672027 10.147451 -0.90916198
3.674093 10.220755 -1.2668169
4.5474877 10.457007 1.0519297
4.0615377 10.27417 -0.44202432
4.0638714 10.260529 -0.042563003
4.0737181 10.26349 -0.61693412
3.4362442 10.306996 -0.5051989
4.5525675 10.489058 2.0655508
4.1701336 10.378422 2.7455792
3.3271039 10.216053 -0.8305226
4.3676858 10.261041 2.8193552
3.461026 10.195408 -0.6832574
4.5567536 10.478141 1.4788582
4.5669413 10.48667 -0.71293151
4.5618553 10.48758 2.1636145
4.5356426 10.549448 1.4699898
4.563592 10.525221 2.2885144
4.5422306 10.476485 1.256588
3.3113594 10.305212 -1.4468317
3.5523355 10.21374 -1.4218537
2.1765935 9.4807596 2.6542938
3.4803262 10.381227 -1.152254
3.2827218 10.24439 -0.53307819
4.5555739 10.465778 1.7649589
4.5534534 10.490227 1.5678171
4.4903746 10.506496 1.2688822
3.5557613 10.079961 3.2741752
4.5211678 10.556195 0.86798525
4.4807062 10.502186 0.48582879
4.4814997 10.498418 -0.062443644
4.5159674 10.50935 1.0426438
4.5069246 10.495226 -0.13751793
4.5055633 10.470093 1.5636401
4.5203648 10.548878 1.5432947
4.534935 10.574688 1.1393111
4.544704 10.576992 2.2728949
4.5320253 10.548988 0.91608208
4.5382576 10.552552 2.0355012
4.5589695 10.496159 2.3583786
3.1489439 9.8265848 2.5589693
4.5659227 10.473984 -0.84173828
4.5388985 10.571975 -0.41687989
4.567152 10.452197 -0.56079221
4.222055 10.335292 -2.4136329
4.3625016 10.327681 -2.1581416
4.3716388 10.364031 -1.6474771
3.5013158 10.246975 -1.9405408
4.2687516 10.287412 -2.3387332
4.3021612 10.272936 -2.2684605
4.3055382 10.375179 -0.037334982
4.2356153 10.349686 0.89840358
4.2714329 10.317178 -1.9490632
4.2789459 10.349339 0.051445168
