# .PCD v0.7 - Point Cloud Data file format
VERSION 0.7
FIELDS x y z
SIZE 4 4 4
TYPE F F F
COUNT 1 1 1
WIDTH 1097
HEIGHT 1
VIEWPOINT 0 0 0 1 0 0 0
POINTS 1097
DATA ascii
18.364428 53.253113 -9.9947882
18.675365 53.251659 -9.995717
20.229259 54.441566 -9.9544611
20.019819 54.460648 -9.9119587
20.228245 54.740322 -9.8479834
18.522621 53.246483 -9.9888763
18.239649 53.420238 -9.819066
18.336481 53.373329 -9.8998966
19.41732 53.264839 -9.9967604
21.338484 53.500561 -10.124537
20.098597 53.459015 -9.9795771
21.094625 53.697598 -9.9567108
19.694794 53.464676 -9.9763012
21.300077 53.707214 -9.9635363
20.570858 53.687874 -9.8543577
21.414169 53.738785 -9.9278584
19.11573 53.119026 -9.9643459
19.117222 53.213978 -9.8834591
18.190342 53.323612 -9.8228855
20.051609 53.45676 -9.849803
18.039125 53.413944 -10.133326
19.254396 53.527348 -9.8046455
19.856153 53.389793 -9.9208355
18.612146 53.114273 -9.9165039
20.511904 53.617569 -9.8505802
20.568579 54.822781 -9.8061714
17.616718 53.18103 -10.004655
19.907991 53.400959 -10.019588
16.110786 53.612434 -9.9154835
20.331062 54.243553 -10.005718
17.304438 53.226509 -10.030875
18.907991 53.231201 -10.064857
18.210356 53.22913 -10.049001
20.531115 55.187008 -9.7735567
16.699226 53.239269 -10.037027
18.80777 53.228703 -10.064038
20.765278 54.733086 -9.8831882
16.291882 53.251209 -10.038169
20.316639 53.329475 -10.054125
20.406269 53.328533 -10.041664
20.231344 54.173763 -10.008482
18.332222 53.58223 -9.8533869
20.701084 54.172256 -10.052335
20.818235 55.825691 -9.6571369
17.294907 53.248196 -9.937479
17.410341 53.252159 -9.9281387
20.887112 55.862347 -9.5870199
21.303753 54.374435 -9.9741774
16.82778 53.315651 -10.08065
15.619281 53.079521 -10.098664
20.765377 54.998859 -9.870163
20.210995 53.696964 -9.9487209
15.923848 53.501789 -9.8687658
21.301638 53.539845 -10.036174
21.08897 55.800636 -9.6674604
20.848682 53.501942 -10.137314
20.724703 55.779598 -9.656353
20.694139 56.01849 -9.5960932
20.487989 53.702557 -9.9584751
20.720804 55.561554 -9.7401237
20.680811 55.606747 -9.7056026
20.702431 55.818741 -9.6724691
20.395905 55.478645 -9.7035599
20.699396 55.503101 -9.7302408
21.081928 55.399948 -9.7511692
20.791416 55.519638 -9.7415094
19.81249 53.370441 -10.10867
19.315344 53.374744 -10.078274
20.01482 53.369358 -10.111014
20.525642 55.38028 -9.7465763
20.403566 53.451202 -10.073581
16.478233 53.252922 -9.9438238
20.783281 54.871296 -9.8692656
17.095636 53.637779 -9.826931
20.501888 55.502338 -9.7120619
21.049824 55.738113 -9.6631746
20.5131 55.784653 -9.6325903
21.049904 55.806355 -9.6539335
20.773624 56.003216 -9.6116047
20.403418 53.540905 -10.034654
15.798127 53.441586 -9.9983187
20.005236 53.326042 -10.05621
17.702915 52.962345 -10.288498
19.515591 53.451488 -10.045832
20.718353 53.487263 -10.141239
21.147144 55.478298 -9.7086563
20.80283 55.515831 -9.7081385
16.218651 53.453815 -10.007933
20.510757 53.608368 -10.101089
20.50222 53.693413 -10.046679
20.723272 54.936768 -9.882328
20.73069 55.001259 -9.8564482
20.691504 55.072876 -9.8320236
20.411186 55.400452 -9.7549248
17.903641 53.532631 -9.9664373
19.107563 53.545498 -9.9965496
19.008467 53.539692 -9.9976015
18.207676 53.531116 -9.9741898
18.107576 53.537014 -9.9696894
18.009729 53.540165 -9.9680386
15.723399 53.010597 -10.070988
15.798189 53.055069 -10.068624
20.908571 54.133179 -10.033691
20.400953 53.61298 -10.084879
20.913094 55.403206 -9.7672644
20.597843 55.402641 -9.7371607
20.516994 55.841064 -9.6673908
20.80851 55.911827 -9.6319456
20.607231 55.834129 -9.6888037
20.585579 55.905022 -9.6249113
20.972254 54.137562 -10.019792
20.31349 53.467457 -10.064147
20.523792 54.528214 -9.8864193
20.423326 56.022617 -9.5946712
21.016766 53.746994 -10.023353
20.709457 54.044094 -10.062981
21.29026 53.746616 -10.006793
18.012928 53.453888 -9.9976482
20.113562 53.635166 -9.985033
20.527472 55.094093 -9.8243208
20.512745 55.275093 -9.7347479
20.8479 55.257271 -9.7402983
20.497406 54.955063 -9.8382769
20.933302 54.733284 -9.8849897
20.807209 54.248203 -10.020145
17.255169 53.261543 -9.9645729
18.300978 53.181877 -10.028438
19.210279 53.366955 -10.083489
20.511824 54.936195 -9.8964787
20.423143 54.302456 -9.9110641
20.545507 54.745907 -9.8480949
18.010803 53.179558 -10.018735
16.428699 53.261513 -9.946435
17.710773 53.4884 -9.9310884
16.622648 53.192368 -9.9709749
21.10651 54.2551 -9.9924774
16.909073 53.417072 -9.951499
20.610128 54.262779 -10.007642
17.127508 53.265034 -9.9495993
16.793255 53.281605 -9.9401016
17.818592 53.181927 -10.021018
17.032234 53.384487 -10.034651
16.71566 53.478626 -9.9057264
17.710489 53.321152 -10.009684
20.680592 55.023079 -9.7416353
20.226305 54.537544 -9.9703426
17.493063 53.502686 -9.9281826
19.40292 53.446327 -10.035273
16.805321 53.399109 -9.9374094
20.305906 53.483097 -10.137439
17.209387 53.410126 -9.9641933
19.208605 53.53896 -10.001347
20.406319 54.245388 -10.006267
20.613091 54.132957 -10.019655
20.713797 54.860455 -9.8739119
20.50305 54.043503 -10.053192
20.306845 53.964012 -10.063472
17.610025 53.533577 -9.9621744
16.61405 53.511013 -9.9013348
20.483438 54.297977 -10.066648
20.876381 54.916862 -9.8585119
20.504251 54.657375 -9.9164839
20.708632 54.480373 -9.9644032
17.309219 53.489902 -9.9296932
17.310934 53.416382 -9.9634895
16.543556 53.559177 -9.8735828
16.531122 53.319321 -9.9693174
20.388483 53.681816 -9.9124384
19.503132 53.538139 -10.012153
20.897444 53.699013 -9.9547796
20.202227 53.639645 -9.9878092
17.312708 53.186867 -9.9876766
20.56111 55.026371 -9.8028393
20.404455 53.6371 -9.9879627
15.982148 52.995907 -10.006731
17.707937 53.179886 -10.006186
20.899244 55.19022 -9.7913094
16.519854 53.406189 -9.9272337
19.108322 53.230991 -10.068665
20.948816 55.347523 -9.7056513
18.406122 53.539795 -9.9789448
18.008247 53.321518 -10.014931
16.891157 53.486347 -9.9212236
17.510334 53.312786 -10.00118
16.609316 53.421108 -9.934411
18.115099 53.457626 -10.000644
19.301695 53.538429 -10.004034
17.910212 53.324986 -10.011231
20.68482 54.675369 -9.9132662
18.703884 53.177822 -10.025234
20.50761 54.873688 -9.8524332
20.516376 55.014805 -9.8624077
20.600634 54.523243 -9.8329153
16.717489 53.37648 -10.034569
18.034258 53.259266 -9.9578514
20.76248 55.123196 -9.85501
20.50989 53.618904 -9.9919367
17.205093 53.234364 -10.024069
19.98255 53.695648 -9.9331751
20.204887 53.322407 -10.057612
16.419762 53.228481 -10.042
18.114201 53.275608 -9.959094
15.525249 53.577202 -9.9629755
21.400667 53.73933 -9.9886894
20.729313 54.124653 -10.021825
16.542606 53.321629 -10.087514
20.717957 53.406597 -10.112101
20.305628 53.67767 -10.039769
17.112152 53.324589 -9.9894199
17.09701 53.227818 -10.047928
17.811293 53.225582 -10.044147
17.602058 53.492783 -9.9347095
16.903482 53.189354 -9.9929371
20.391808 53.518002 -10.121228
20.282677 53.431503 -10.167173
18.907141 53.320827 -10.03717
21.074396 55.74247 -9.6779871
20.381886 54.494537 -9.8820314
20.834629 54.13393 -10.035745
20.471766 55.357693 -9.6716633
20.576124 55.340637 -9.7018681
16.419413 53.291622 -10.091664
16.020708 53.609341 -9.9013624
20.295679 55.920044 -9.6111794
20.318213 54.664238 -9.8893108
20.319761 55.529449 -9.7452345
16.858461 53.254974 -9.9566059
19.898699 53.228615 -10.086837
20.943731 53.377014 -10.084832
20.111513 53.374443 -10.10747
17.507706 53.190502 -10.006885
20.616734 55.080738 -9.8292656
20.622431 54.658611 -9.907383
20.304636 53.552116 -10.023989
17.411596 53.231243 -10.036026
16.701418 53.274052 -9.9362841
20.20252 53.67783 -10.040385
20.290279 54.285461 -9.9075651
19.206167 53.235123 -10.073521
17.711359 53.54232 -9.9634972
19.30611 53.232002 -10.082315
20.797628 53.389931 -10.103506
20.607105 53.36618 -10.096664
19.117022 53.407028 -10.008627
18.210487 53.327065 -10.019804
20.527683 55.052704 -9.779355
18.506634 53.538479 -9.9837799
16.70369 53.540146 -9.9334192
19.110781 53.328667 -10.039393
18.621336 53.482731 -9.9227438
19.607677 53.637699 -9.9739132
20.30666 53.372547 -10.017715
18.814442 53.409836 -9.9996834
16.588793 53.279537 -10.090087
19.809639 53.225346 -10.092134
20.197582 53.849709 -10.064509
20.507469 53.386436 -10.114967
16.998795 53.319469 -9.991395
17.806 53.319813 -10.011016
18.007769 53.223988 -10.044695
20.594509 53.495777 -10.13416
16.635878 53.269756 -9.9294949
21.079178 53.453526 -10.074832
15.82328 53.373428 -10.055019
20.412159 54.557861 -9.9404011
20.420435 55.743114 -9.6745281
16.113998 53.462479 -10.010372
20.796183 53.818558 -10.095506
21.370596 53.797287 -10.09479
17.612883 53.319138 -10.006113
20.602339 53.694935 -10.048507
20.298048 54.544868 -9.937191
16.378319 53.342545 -9.8768187
17.514301 53.097668 -10.056364
20.935209 54.969254 -9.8455219
20.425291 54.662144 -9.9008493
19.812254 53.33382 -10.052505
15.676924 53.564209 -9.8429918
17.607056 53.454929 -9.9963675
18.605841 53.538284 -9.981204
17.50841 53.541378 -9.9628534
17.213333 53.318268 -9.9918299
19.012863 53.182697 -10.029219
17.409014 53.324169 -9.9988317
19.598856 53.163372 -10.042645
19.01889 53.413429 -10.000978
18.505081 53.180878 -10.019664
17.398314 53.18911 -10.005189
20.913422 54.042019 -10.055193
17.696157 53.267963 -9.9647455
19.214714 53.174667 -10.034846
17.020155 53.415688 -9.9561634
17.442148 53.519985 -10.044447
17.911432 53.223904 -10.041146
18.6145 53.409374 -9.9961166
16.715054 53.418324 -9.9429255
18.404274 53.055233 -10.09189
18.643373 53.565239 -9.8308773
18.600389 53.052147 -10.099437
17.613497 53.410435 -9.9755259
16.110901 53.054924 -10.110723
19.695768 53.362785 -10.088464
21.317663 54.12558 -10.024229
16.420786 53.612667 -9.9042301
20.991283 54.034336 -10.038864
17.710667 53.412014 -9.9727383
16.810408 53.630966 -9.9039822
15.211609 53.26849 -10.009892
16.152857 53.47699 -10.052347
18.812792 53.043781 -10.098988
18.311499 53.050018 -10.094759
15.685152 53.143791 -10.075909
15.617437 53.590412 -9.8292379
17.209167 53.533798 -9.9499235
18.70809 53.045193 -10.093757
18.712589 53.522663 -9.9378586
18.90724 53.408001 -10.004907
20.515976 56.095837 -9.5160017
21.594536 53.77034 -10.020606
17.11277 53.445988 -10.00036
16.103888 53.269592 -10.100627
19.717258 53.176037 -10.053667
21.10482 53.647079 -9.9898481
21.011955 55.500877 -9.7174187
17.401997 53.543324 -9.9557676
18.608028 53.228962 -10.05481
16.798414 53.490913 -9.9072666
20.693314 53.618591 -9.9947462
20.807117 53.396027 -10.016945
20.50351 54.468899 -9.9695721
16.428192 53.379704 -10.039998
19.910936 53.687706 -9.9414234
16.287025 53.367485 -10.040319
18.713739 53.229168 -10.056731
18.904497 53.043625 -10.097534
20.619061 53.706146 -9.9556513
20.698559 53.320049 -10.041159
19.014742 53.291515 -10.127814
15.690326 53.362373 -10.026342
21.20175 54.11208 -10.021237
19.003736 53.225788 -10.068612
15.714302 53.271553 -9.9210978
20.094549 53.699505 -9.960495
15.153229 53.139713 -10.102284
20.907213 53.412884 -10.001959
15.295393 53.564949 -10.029716
17.002626 53.171844 -9.9948359
15.622235 53.269913 -9.9140787
16.222172 53.295395 -10.080071
21.187405 54.082596 -10.111423
21.505854 53.754425 -10.024029
20.411861 54.140209 -10.015246
20.310472 53.613506 -10.090837
20.796072 53.949146 -10.081267
20.604052 53.550297 -9.9560308
21.620165 53.620022 -9.9846659
21.071367 53.576931 -10.083913
20.599712 53.940964 -10.089057
20.60969 54.186539 -10.056408
20.51218 53.954533 -10.077022
17.610273 53.1394 -10.10124
18.606525 53.454098 -10.016286
17.603817 53.050014 -10.082858
20.103622 53.679329 -10.04247
16.114429 53.543278 -9.9595623
17.807976 53.103451 -10.060965
17.783344 53.572575 -9.8586063
17.311703 53.616425 -9.8428488
16.515728 53.238644 -10.035792
17.695847 53.576668 -9.8329306
16.214836 53.551956 -9.9634542
16.00094 53.600712 -9.8344088
17.895416 52.998672 -10.190039
20.322987 55.653168 -9.6705437
16.087654 53.552704 -9.8742476
20.510822 54.562927 -9.9357548
16.57502 53.589699 -9.8618507
15.898109 53.58971 -9.8107529
17.702904 53.049305 -10.08671
21.24757 54.397751 -9.9966011
16.806156 53.177879 -9.9916134
17.913576 53.489258 -9.9284735
15.602169 53.609261 -9.8771992
16.058929 53.353779 -9.884407
20.416891 53.955406 -10.080124
15.71128 53.451286 -9.994813
19.599169 53.229095 -10.081381
18.709028 53.322224 -10.030763
20.991566 53.622101 -9.997261
17.707985 53.451115 -9.9977217
17.034975 53.600883 -9.8535042
21.092871 53.745701 -10.022585
18.935293 53.495045 -9.8362932
15.984591 52.983391 -10.107637
20.808931 54.045822 -10.056639
15.926809 53.168713 -10.084332
19.405479 53.515957 -9.9506769
20.320208 54.05056 -10.055652
17.583288 53.318775 -9.9031162
17.479456 53.548309 -9.8670979
17.624989 53.570667 -9.8581781
16.67395 53.553532 -9.8453445
17.187862 53.564289 -9.8797102
16.878029 53.563862 -9.8753586
20.599899 54.044548 -10.049441
15.701254 53.556946 -9.974637
18.923832 53.075031 -9.9621124
20.814777 55.608299 -9.6918659
18.506472 53.49332 -9.9446106
20.202938 53.501972 -10.120185
20.202291 54.686707 -9.9575605
18.523706 53.022526 -10.002495
15.898393 53.101063 -10.002364
16.612379 53.309593 -9.981513
21.230927 54.483253 -9.9771299
21.220415 55.601139 -9.6516495
20.415213 55.920914 -9.6423416
21.210922 53.699314 -10.052949
18.205143 53.185299 -10.020925
16.111261 53.153042 -10.093596
16.522043 53.507896 -9.8976135
18.430647 52.990395 -9.9802742
20.200104 53.378578 -10.113116
16.503565 53.544197 -9.9468832
15.997369 53.009495 -10.153126
18.303568 53.449291 -10.011255
20.321632 54.465809 -9.9514217
19.80965 53.172058 -10.044319
21.304045 53.46769 -10.053523
21.399725 54.372105 -9.9844551
21.126833 54.205299 -9.9962692
20.002193 53.544617 -10.018163
17.011429 53.311493 -10.100315
20.00461 53.399818 -10.023896
16.981981 53.342865 -9.9079895
19.816696 53.405262 -10.006721
20.997353 54.552162 -9.9294329
16.312496 53.634701 -9.8982716
18.409798 53.405045 -9.9943295
17.595703 53.279495 -10.098962
20.268654 53.472706 -9.9940014
17.511417 53.137093 -10.099007
20.213055 54.19603 -9.9754009
20.772953 55.406818 -9.7555761
20.686718 54.192669 -9.9782028
16.300756 53.388348 -9.9362125
17.498772 53.298344 -10.098727
20.516903 54.204216 -9.9821196
19.705601 53.234329 -10.084997
19.407446 53.230476 -10.074569
20.210077 53.410072 -10.030443
16.376118 53.153008 -9.9854059
18.011784 53.13924 -10.098589
17.025263 53.49744 -9.913908
21.421492 53.452213 -10.019597
18.004318 53.401073 -9.9893017
17.604628 53.228081 -10.040778
18.407337 53.219719 -10.054633
19.275393 53.576279 -9.8764906
17.112713 53.627205 -9.9170647
15.700879 53.345757 -9.8918734
20.816868 55.154491 -9.8079205
20.783842 54.815392 -9.8956327
15.271893 53.443256 -9.8775501
15.805338 53.396164 -9.9095211
17.914925 53.186005 -10.01737
20.693779 55.296711 -9.7709265
20.687338 54.397385 -9.9998102
19.223442 53.409817 -10.011233
16.194645 53.496502 -9.8939724
20.415333 54.246387 -9.9523764
15.589775 53.396118 -9.8814211
19.609255 53.40324 -10.013193
20.621834 54.199551 -10.001296
20.637756 55.500496 -9.712513
18.310417 53.223541 -10.051728
20.32412 55.718273 -9.6707506
17.508324 53.409695 -9.9686546
18.113415 53.411991 -9.9857531
16.007381 53.40593 -9.9274521
20.863678 53.529484 -10.16068
20.490175 55.943352 -9.6402998
15.926071 53.009548 -10.093438
20.803394 53.735252 -10.020488
20.411509 53.40126 -10.017733
20.767105 55.311264 -9.8097897
18.90325 53.542034 -9.9969225
18.601906 53.394386 -10.087342
18.742128 53.280769 -10.120945
20.209206 53.71833 -9.9948425
15.67717 53.288189 -10.100667
20.317308 53.721252 -9.9966431
20.717192 53.730942 -10.014956
18.709568 53.404671 -10.006246
16.604311 53.616142 -9.9021912
19.813267 53.448486 -10.055565
16.232279 53.393288 -9.9061174
20.608915 53.728111 -10.01355
20.403156 53.71862 -9.9975367
16.795788 53.580158 -9.8726559
16.912941 53.634968 -9.9132509
20.130667 54.256462 -9.9460888
16.210117 53.586868 -10.002398
19.795801 53.507393 -9.9648905
20.706495 55.17754 -9.8061848
16.533184 53.61256 -9.9057217
19.292782 53.180309 -10.024953
20.771055 55.686096 -9.6150608
20.713783 53.934128 -10.086933
19.699301 53.641876 -9.9728584
18.404181 53.175331 -10.035544
16.287588 53.321609 -9.8656292
18.399597 53.44693 -10.01094
20.614122 54.56522 -9.9344006
18.209164 53.406647 -9.9918909
16.412952 53.498352 -9.8923025
18.406593 53.10593 -10.069269
20.958544 54.172672 -9.9742765
18.4098 53.327541 -10.019273
18.29414 53.41169 -10.156351
15.484821 53.193501 -10.08262
20.50252 54.202671 -10.024343
20.012482 53.455067 -10.061878
18.810368 53.325836 -10.030555
21.145582 54.469032 -9.9649553
20.334377 54.167381 -10.030515
17.206429 53.632179 -9.9233656
16.222277 53.053532 -10.115643
16.258287 53.260216 -10.096525
16.699284 53.455917 -9.9948978
16.206707 53.622231 -9.8826303
20.61132 55.289379 -9.7945013
18.610083 53.321606 -10.025512
18.505192 53.322872 -10.024478
17.078178 53.596203 -9.8560343
17.303682 53.625416 -9.924017
17.796186 53.491169 -9.9377985
19.502251 53.494644 -9.961771
18.217207 53.520039 -9.7377224
20.232899 54.348679 -9.9310999
20.109064 53.414295 -10.020897
20.027025 53.92794 -10.01356
19.730625 53.612164 -9.8893728
18.516094 53.226154 -10.055482
17.404514 53.405186 -9.9593611
17.012184 53.634571 -9.9180012
18.877241 53.613529 -9.8703527
19.507284 53.405724 -10.008958
20.601398 53.321926 -10.043962
19.917255 53.318657 -10.051546
15.709085 53.070759 -10.109058
19.415051 53.325645 -10.040706
18.612358 53.179768 -10.039177
18.102837 53.187683 -10.016576
20.525845 53.445045 -10.167437
18.108555 53.228424 -10.042242
19.703796 53.544479 -10.013949
18.302425 53.410141 -9.9910707
20.392927 54.395473 -10.025236
18.818747 53.578991 -9.8501606
20.50111 53.557293 -10.018797
16.505865 53.365543 -10.050364
15.489248 53.246883 -9.9445648
19.609089 53.552521 -10.010794
19.804552 53.546623 -10.017481
19.841787 53.576511 -9.888216
18.706034 53.546482 -9.9888344
20.770536 55.807388 -9.6278286
18.316244 53.508877 -9.880271
19.698982 53.681419 -9.9390306
19.70606 53.453453 -10.053473
20.877838 55.936806 -9.5978899
17.308043 53.322155 -9.9952097
19.007351 53.462074 -10.027608
18.691599 53.555809 -9.8742943
19.698807 53.412796 -10.006397
19.111115 53.451687 -10.029581
18.515364 53.280296 -10.129772
16.391884 53.403912 -9.9247808
17.309624 53.538513 -9.9547338
20.823589 53.699196 -9.9645739
20.5972 55.604908 -9.6852341
16.407438 53.134571 -10.090258
20.811258 53.319527 -10.041906
18.92555 53.450535 -9.8871031
17.909096 53.410229 -9.9858074
19.608831 53.460503 -10.051691
20.482666 55.434872 -9.8144112
16.012632 53.277248 -9.91745
20.498133 55.718914 -9.719903
15.200447 53.176289 -10.053456
16.400671 53.302826 -9.979454
20.606857 54.481644 -9.9695225
20.178129 53.897602 -10.050191
20.677483 55.414154 -9.7487459
19.136938 53.593819 -9.8437166
20.624819 55.775768 -9.7244282
20.21096 53.614532 -10.08321
18.803877 53.447197 -10.021759
21.251833 54.464855 -9.949007
18.446262 52.987488 -10.160467
20.311769 54.145004 -10.007671
19.510311 53.326881 -10.04939
15.843338 53.232292 -9.91681
15.505245 53.333332 -9.9894609
15.330885 53.246204 -10.035965
18.707207 53.45089 -10.021474
21.419621 54.235188 -10.021928
17.414362 53.388802 -10.065953
18.406191 53.141022 -10.109318
16.010273 53.039356 -10.078267
19.00774 53.140488 -10.118853
19.801641 53.648544 -9.9722691
20.595293 54.411213 -9.946104
20.292326 55.445362 -9.6745872
20.402063 54.035496 -10.046119
16.707447 53.311626 -9.9782381
16.223312 53.376282 -10.031709
20.583618 54.960083 -9.8293314
20.108768 53.319275 -10.046873
18.807344 53.538471 -9.9877214
21.385828 54.132767 -10.025422
21.204918 53.73431 -10.008651
19.909185 53.174568 -10.046121
15.698111 53.636238 -9.8771753
21.305622 53.698887 -10.045148
18.305239 53.104763 -10.068117
19.589985 53.620121 -9.8806162
19.209864 53.604053 -9.8595667
20.319626 53.690418 -9.945302
20.007046 53.679359 -10.035739
15.268047 53.340096 -9.9243174
19.22624 53.446232 -10.132588
20.27322 53.976536 -10.003082
17.512735 53.226616 -10.040017
20.89769 53.534603 -10.023049
20.512432 53.726482 -10.00382
18.276342 52.933178 -10.083046
18.796453 53.170933 -10.02398
16.120071 53.278179 -9.9376459
19.210672 53.452629 -10.035066
20.290167 54.218555 -9.960535
20.600065 55.185158 -9.7920456
15.497717 53.111794 -9.9175787
15.4038 53.33099 -9.9573641
20.105625 53.463398 -10.058681
20.509771 54.402176 -10.028273
18.510675 53.099361 -10.0722
20.2068 53.545116 -10.026008
15.918142 53.082874 -10.112592
18.686029 53.098431 -9.9457998
16.306824 53.143581 -10.08773
20.903389 53.955791 -10.090145
19.708918 53.330154 -10.04481
16.514057 53.181206 -9.964838
20.904297 54.213558 -9.9981737
20.896957 53.586147 -10.087806
19.307417 53.446854 -10.040044
17.109255 53.375946 -10.01806
20.524437 54.42012 -9.960144
18.512796 53.411835 -9.9938078
20.242136 53.927162 -10.083323
17.912004 53.10601 -10.061709
20.689968 55.690208 -9.6884069
20.58839 53.402248 -10.031878
16.006018 53.296856 -9.9946871
20.140528 53.906712 -10.036307
19.012028 53.376114 -10.089227
17.116056 53.406342 -9.9543152
18.511778 53.443069 -10.013329
19.41486 53.182549 -10.043366
15.799676 53.151009 -10.075246
20.325743 54.397068 -9.9935589
17.104401 53.547527 -9.9492111
16.647301 53.378025 -9.8646355
17.88032 53.32354 -9.881793
19.403328 53.392056 -10.011991
20.147791 55.625858 -9.6105347
19.907845 53.63982 -9.9797983
19.413448 53.547829 -10.004008
18.907227 53.449715 -10.021806
19.904989 53.455025 -10.051692
16.31068 53.198307 -9.9779854
18.206141 53.455719 -10.006592
18.712471 53.140869 -10.112622
20.205536 53.455509 -10.069828
19.248009 53.455799 -9.9520111
20.394814 54.425911 -9.9504042
19.203268 53.323902 -10.039756
19.605326 53.324955 -10.048734
18.911123 53.103355 -10.077649
18.505968 53.142887 -10.107798
19.065102 53.474319 -9.9563293
18.212923 53.556648 -9.798275
20.10821 53.541996 -10.015583
15.397833 53.380535 -9.9017439
18.110771 53.32246 -10.01337
20.691778 53.415882 -10.027642
17.707436 53.104347 -10.05742
16.913113 53.233204 -10.025023
16.116819 53.314049 -9.9897642
17.415751 53.447845 -9.9939222
16.92131 53.450657 -9.9986715
20.187773 55.722588 -9.6597633
19.637552 53.47052 -9.9235773
17.612904 53.381149 -10.040127
15.604021 53.279411 -9.9543161
20.699806 54.57748 -9.9365406
20.517126 54.127502 -10.034491
21.205429 54.717728 -9.9092197
17.910818 53.454151 -9.9975014
19.906244 53.548916 -10.016415
20.89583 55.502323 -9.7167873
15.913358 53.398567 -9.9226017
16.105314 53.396435 -9.9146214
20.513031 54.347744 -9.9827833
20.609268 53.648438 -9.9957609
18.611628 53.137505 -10.102713
19.309544 53.395042 -10.011962
15.619406 53.282658 -10.067734
21.190514 53.903194 -10.077296
17.806231 53.542007 -9.9644651
20.7192 54.418339 -9.9675188
18.809208 53.106968 -10.075696
16.32803 53.117008 -10.001069
20.816587 54.437305 -9.9509335
15.914457 53.30616 -9.9698286
16.409899 53.090744 -10.032916
17.315653 53.452374 -9.9947262
21.01041 53.961082 -10.093986
16.011948 53.10635 -10.000779
20.012001 53.640797 -9.9823961
18.704739 53.37793 -10.092268
19.006981 53.324718 -10.0363
18.302559 53.321957 -10.020983
20.304546 54.351334 -9.9716272
15.386951 53.581657 -9.9908991
17.911478 53.134304 -10.094152
20.138069 53.72213 -9.9922142
20.290363 54.450043 -9.9405375
17.809504 53.139217 -10.096822
18.310699 53.536991 -9.9760513
21.530312 53.712032 -10.051635
15.608248 53.147423 -10.073233
17.406391 53.486752 -9.929285
21.428539 53.62254 -10.00131
21.112656 53.419361 -10.019768
19.510365 53.642548 -9.9693556
16.61837 53.540302 -9.944315
19.309259 53.324146 -10.041697
20.421743 54.999138 -9.7089243
20.321379 53.823158 -10.083762
20.987694 53.806267 -10.104482
21.201759 53.805717 -10.105657
21.404583 53.747143 -10.103126
20.504829 53.821442 -10.096663
21.045046 54.431274 -9.9574747
18.396521 53.261417 -10.132935
17.808605 53.41663 -9.9786844
16.271952 53.082806 -10.099833
20.016611 53.721638 -10.002637
19.11764 53.183403 -10.033054
21.124243 54.010464 -10.066467
15.594129 53.202045 -10.054994
21.105742 53.791187 -10.094603
20.609602 53.823967 -10.09637
20.602043 54.867104 -9.8680801
15.802689 53.326553 -9.9981279
20.411858 53.820133 -10.089481
20.399521 55.610168 -9.7138853
16.707588 53.62513 -9.9031563
20.727345 54.270809 -9.9399862
20.489971 55.600037 -9.7079086
20.90826 53.738926 -10.02316
18.211658 53.495354 -9.9299555
16.805088 53.230385 -10.033241
20.589954 55.269524 -9.7473869
18.306707 53.136921 -10.106889
21.404474 53.668663 -10.047438
17.086256 53.493416 -9.9237471
18.007328 53.105221 -10.065453
16.90781 53.317631 -9.9844217
16.810505 53.319729 -9.9804525
16.087852 53.497742 -9.8878288
21.12129 53.532867 -10.049437
17.201635 53.487152 -9.9203091
15.706245 53.317039 -9.9677105
16.348413 53.634907 -9.7970276
15.370747 53.160263 -10.10232
17.713453 53.227627 -10.042892
16.431465 53.210754 -10.132056
21.263927 54.50626 -9.9118805
17.508728 53.445217 -10.011235
18.602449 53.24538 -9.9653368
20.113068 53.529476 -10.118681
18.207561 53.104134 -10.067525
19.607315 53.37455 -10.102547
18.710293 53.101624 -10.073771
19.20879 53.10545 -10.080678
18.109797 53.105339 -10.063263
19.008211 53.102978 -10.075366
20.311453 55.903931 -9.565403
17.990883 53.492268 -9.9418459
17.809786 53.450726 -10.001266
20.590137 55.814701 -9.627224
20.28405 55.562176 -9.6450109
19.111198 53.101627 -10.078713
20.813362 55.682068 -9.6741095
15.983299 53.151714 -10.06911
21.148243 55.621082 -9.7008057
19.798649 53.698925 -9.9262304
20.472099 53.961987 -10.039718
16.140192 52.992336 -10.123201
21.216387 55.557281 -9.7198353
20.507704 54.705719 -9.9303293
21.225998 54.832813 -9.8372478
15.701698 53.235252 -10.05137
20.895605 55.720436 -9.6664019
20.799866 54.942287 -9.8412428
16.218306 53.594707 -9.7907038
20.891607 53.639034 -9.9965076
20.315283 53.630733 -9.9878855
19.024574 53.607483 -9.8546848
20.511124 55.304302 -9.7940321
20.984085 54.822166 -9.8994122
16.818865 53.467842 -9.9970407
20.591284 55.857624 -9.5124884
16.208569 53.151939 -10.084923
18.999735 53.469555 -9.9504776
20.589178 55.715046 -9.6843786
20.502396 55.218376 -9.8333549
20.709911 54.360676 -9.9820662
20.899006 53.682693 -10.054162
16.185629 53.165554 -9.9563065
16.509743 53.141701 -10.091627
15.84402 53.054462 -10.099089
18.303677 53.293419 -10.152582
21.200817 55.724701 -9.6089954
17.202156 53.449635 -10.008277
17.020815 53.539623 -9.9459133
16.906303 53.545021 -9.9372759
15.813347 53.601322 -9.8649578
20.694616 55.243782 -9.8423395
20.093649 54.493778 -9.8890457
20.512245 55.717049 -9.6415777
16.814445 53.541935 -9.9486208
17.60553 53.101597 -10.052873
20.983126 53.514446 -10.118379
21.093746 53.930008 -10.101284
20.438223 53.536049 -9.8906851
19.209599 53.300571 -10.137335
18.905525 53.19038 -10.018775
20.715816 54.278053 -10.004334
20.40176 54.496223 -9.9631233
16.441093 53.565907 -9.8735199
15.917437 53.281361 -9.9175692
15.36241 53.271091 -9.9106188
20.695503 55.269436 -9.7695866
18.817057 53.366566 -10.095176
20.391851 55.267845 -9.7467661
18.122755 53.47274 -9.9408865
17.209646 53.359547 -10.044677
20.907455 54.777237 -9.9007254
18.032858 53.335136 -10.186293
17.721865 53.508705 -10.08109
18.532991 53.59948 -9.8665657
16.278343 53.556068 -9.8749609
20.704126 53.696819 -10.057343
17.154114 53.284412 -10.096721
17.910088 53.053631 -10.085184
19.103464 53.375492 -10.081495
16.973795 53.51326 -10.064832
20.252827 54.025253 -10.03325
20.789215 54.182663 -10.03391
20.894711 54.251854 -10.01443
20.60994 54.343277 -9.9831772
20.807903 53.695019 -10.056147
21.295151 54.040211 -10.060379
17.831333 53.511837 -10.076791
17.003834 53.446796 -10.008218
20.6187 55.005066 -9.8481569
15.71506 53.093468 -9.9878578
20.704727 54.961422 -9.8312054
18.513096 53.377064 -10.091941
16.004223 53.076515 -10.112104
19.117203 53.04018 -10.113295
20.410908 53.925091 -10.041312
16.988171 53.255955 -9.9468842
17.613235 53.284248 -9.9358225
19.721647 53.413395 -10.193501
20.400658 53.680656 -10.048508
18.008471 53.385567 -10.054263
16.408501 53.530533 -10.078784
15.638363 53.104412 -9.97369
20.808737 54.360931 -9.9876814
15.312803 53.097656 -9.9465284
18.607151 53.27916 -10.15106
18.917164 53.272381 -10.147161
18.815111 53.321682 -10.114221
15.828918 53.097855 -9.987339
15.411063 53.099285 -9.9527245
19.312326 53.289524 -10.130367
15.81943 53.250294 -10.053205
20.57489 54.757591 -9.8457499
15.500606 53.092358 -9.9650059
15.877746 53.651936 -9.7833395
20.280161 55.827499 -9.60707
16.086599 53.108818 -10.00467
20.796772 53.630451 -9.9883003
20.022144 53.425186 -10.182749
19.508698 53.368324 -10.089906
21.032251 54.884075 -9.8587532
20.610338 54.756737 -9.8996992
21.25617 54.744865 -9.8840227
21.592592 53.694508 -9.9703808
20.601931 53.907928 -10.061657
20.405056 53.385998 -10.115086
21.007034 53.53487 -10.042529
20.797445 53.542061 -10.038723
15.222269 53.285065 -10.071613
21.104256 53.702549 -10.045321
15.960115 53.065216 -9.9188938
16.003103 53.442593 -9.8800669
21.203375 53.558319 -10.020835
16.01981 53.550068 -9.9505196
15.936619 53.100529 -9.9266329
21.471928 54.206589 -9.997366
20.251118 54.102642 -10.071483
18.704699 53.312012 -9.9064455
15.633768 53.371891 -10.052053
21.211096 53.631298 -9.9867916
15.424464 53.517666 -9.9001474
19.094334 53.270134 -10.15645
15.330648 53.515366 -9.976306
21.687529 53.518497 -10.010015
16.00738 53.465511 -10.009485
17.74559 53.301651 -10.100153
21.586445 53.57576 -10.017852
15.615314 53.475338 -9.8608913
20.007614 53.621597 -10.085732
15.817171 53.302177 -10.104044
20.817654 53.604671 -10.088563
17.725782 53.378605 -10.050378
20.513849 55.580296 -9.6590815
20.814301 53.467136 -9.9727364
16.614338 53.244732 -10.032163
19.614513 53.251923 -9.9748278
18.239218 53.272247 -10.123126
16.203838 53.227695 -10.043783
17.938925 53.247631 -9.9724474
20.594202 55.571278 -9.666275
21.032867 54.927498 -9.8205748
20.967848 54.621658 -9.9102087
20.599764 53.54998 -10.031318
20.591167 53.622601 -10.088783
15.708721 53.158485 -9.9388618
20.699671 53.54594 -10.042006
18.132124 53.05056 -9.9949856
16.116934 53.041416 -10.079763
20.90831 54.147079 -10.054667
20.991133 53.694038 -10.051386
21.221409 54.657188 -9.9217615
20.112257 54.318977 -9.9292946
18.195509 53.356262 -10.073097
18.318729 53.369572 -10.068524
20.185415 53.464664 -10.214721
17.800682 53.374275 -10.051935
17.924286 53.371662 -10.063219
19.024199 53.040421 -10.113466
21.010029 53.583359 -10.09354
18.103611 53.262806 -10.11715
18.797894 53.490887 -9.9535456
18.42383 53.362537 -10.089622
20.759878 53.901371 -10.076217
18.381844 53.47929 -9.957159
15.14144 53.296131 -9.8660555
20.297609 53.89257 -10.073228
21.081545 53.476864 -9.9482307
20.706318 53.458633 -10.076386
15.91724 53.251625 -10.049559
17.003824 53.242687 -10.039251
16.415367 53.463371 -10.007041
16.407791 53.552063 -9.9482155
16.235292 53.326172 -9.9948874
16.105249 53.237404 -10.056835
16.308912 53.313034 -9.989809
16.30282 53.550266 -9.9624052
16.298906 53.447792 -10.011497
16.304716 53.032009 -10.079832
15.915766 53.349762 -10.049974
16.599737 53.452728 -10.012868
15.541882 53.040409 -10.115475
15.514169 53.252914 -10.027862
15.924929 52.994717 -10.16659
15.482494 53.363392 -10.028373
19.130527 53.51688 -9.8226824
16.011789 53.374039 -10.037315
15.514805 53.476055 -9.9909782
15.618429 53.538467 -9.9743967
16.015852 53.234329 -10.043277
15.13562 53.232769 -10.020204
15.897251 53.546867 -9.9646997
15.387544 53.352962 -10.02325
15.209159 53.369289 -10.017733
15.927327 53.456314 -10.008965
19.332253 53.475742 -9.9770947
16.210552 53.035286 -10.079582
15.435612 53.070721 -10.082594
16.403938 53.050312 -10.121755
20.947685 53.915825 -10.052095
20.406887 54.355186 -9.9782887
16.009562 53.270683 -10.081914
15.593569 53.450516 -10.00668
16.509176 53.46122 -9.9988022
16.930618 53.365929 -10.059422
15.36307 53.242184 -10.066663
16.10483 53.367577 -10.045078
15.516948 53.534248 -10.004549
15.417459 53.430225 -10.016655
15.331071 53.483772 -9.9849586
15.807899 53.552418 -9.9511976
16.610077 53.378773 -10.045094
15.899924 53.278221 -10.074561
18.906717 53.370949 -10.089879
17.497263 53.363358 -10.053482
21.206108 54.035652 -10.032997
21.29245 54.403362 -9.9463463
20.712 55.963158 -9.6095762
19.817068 53.615047 -10.080914
20.514772 53.327106 -10.040572
21.381077 55.405403 -9.7362671
17.322235 53.382584 -10.045648
21.480667 53.597706 -9.9894505
21.003431 53.46352 -10.08246
18.08917 53.368229 -10.071331
16.802176 53.347057 -10.03868
20.805193 53.460968 -10.08659
20.31658 53.379578 -10.10469
20.10943 53.619087 -10.085443
19.401838 53.382599 -10.077076
15.622635 53.154552 -9.9589376
20.918989 55.471214 -9.8099241
16.193197 53.104454 -10.003265
16.104725 53.224606 -9.9639883
16.014143 53.165646 -9.9598427
19.898882 53.371666 -10.108602
15.50077 53.162487 -9.9551268
20.978603 54.248661 -9.9985027
19.999075 53.523285 -10.12654
19.906715 53.620827 -10.08059
16.341846 53.258579 -9.9522438
20.71167 53.593975 -10.100327
19.734125 53.497219 -10.130748
16.213007 53.262661 -9.9501753
15.715302 53.502171 -9.854105
19.582991 53.49387 -10.110435
15.89037 53.179321 -9.9570999
15.308374 53.272926 -9.8865652
15.311235 53.352085 -9.8591595
15.57675 53.05286 -9.9626989
15.614039 53.343914 -9.8800173
15.398961 53.159409 -9.9309559
15.311045 53.185867 -9.9614286
15.157432 53.358501 -9.8718195
15.83895 53.495861 -9.8722248
21.389282 53.516846 -10.017303
15.214764 53.23674 -9.9150362
21.025631 53.902527 -10.059203
20.918694 53.471066 -10.082849
20.608282 53.446491 -10.079528
21.312567 53.799923 -10.112977
18.475971 53.510021 -10.068932
19.006382 53.297173 -9.9729815
19.525881 53.474541 -10.13063
20.88838 53.992058 -10.017733
19.09947 53.267075 -9.9783411
20.517384 54.251427 -10.011477
20.397511 55.302139 -9.7751007
21.219999 53.688087 -9.9467239
18.429857 53.508747 -10.126488
21.313137 54.486378 -9.9661179
21.332214 54.236675 -10.014322
21.501749 53.700626 -9.9293251
16.290527 53.506802 -10.03476
15.394476 53.50502 -10.029799
19.914192 53.411816 -10.204165
18.179359 53.258423 -9.9510164
19.82299 53.451752 -10.148017
15.804359 53.084312 -9.9120893
17.824162 53.26936 -9.9616413
19.356775 53.272842 -9.9917603
17.776033 53.07103 -9.9826097
19.403351 53.38068 -10.171568
15.481098 53.707642 -9.8218317
15.840205 53.181252 -9.9683962
15.450593 53.64513 -9.8867407
18.780775 53.427181 -10.19316
