# .PCD v0.7 - Point Cloud Data file format
VERSION 0.7
FIELDS x y z
SIZE 4 4 4
TYPE F F F
COUNT 1 1 1
WIDTH 575
HEIGHT 1
VIEWPOINT 0 0 0 1 0 0 0
POINTS 575
DATA ascii
37.213928 -24.616459 0.094116092
36.813431 -25.561888 0.0891826
37.209259 -23.452509 0.13203362
36.707924 -23.459078 0.17105736
36.938122 -23.488922 0.19184735
37.404858 -24.401981 0.12647785
36.817947 -24.496792 0.095731579
37.030186 -24.810637 0.17646213
37.112438 -23.670738 0.13865212
36.617062 -25.687563 0.11271735
36.915592 -25.589178 0.10514738
36.734016 -23.991774 0.14748342
37.310253 -23.444561 0.11816718
37.334446 -24.613453 0.10023136
36.815269 -23.431917 0.10435177
37.307152 -25.043791 0.038274754
36.515472 -25.019127 0.10377994
36.750294 -24.675879 0.14965844
37.025639 -25.007324 0.078324735
37.119232 -25.014982 0.067071989
36.62458 -25.367348 0.12603551
37.319592 -25.279707 0.11312474
36.812759 -24.124865 0.15534243
37.00758 -23.13365 0.14853525
37.31501 -24.865736 0.14398529
36.720901 -25.788956 0.099464186
36.814701 -25.782568 0.092459224
36.755722 -24.880173 0.17689894
37.314846 -24.427603 0.12802833
37.424095 -24.884722 0.14183155
37.31749 -25.249596 0.053519003
37.213982 -24.876253 0.14674628
36.820496 -25.75061 0.13742231
36.622993 -25.785872 0.10758314
37.527214 -23.417582 0.12531835
37.38028 -23.472044 0.12543111
37.303444 -25.552526 0.046884879
36.723724 -25.595715 0.11953261
37.117748 -25.824686 0.12530616
36.618706 -25.591131 0.12882674
36.833508 -24.651783 0.16617258
37.434044 -25.635456 0.15047641
36.92984 -25.823828 0.1118615
37.01963 -24.658737 0.15333816
37.210083 -25.018999 0.062164269
37.671356 -23.201235 0.19072217
36.522438 -24.827215 0.13589604
36.904373 -25.012415 0.092591353
37.39632 -24.633434 0.083857134
37.21286 -24.835157 0.10894915
37.569687 -24.088972 0.1134871
37.31279 -25.916803 0.087549753
37.214592 -24.112131 0.14146902
37.213406 -25.366592 0.1004867
37.020721 -24.116247 0.15944324
37.107719 -24.124851 0.153845
37.3111 -24.107738 0.14832938
36.725132 -25.821651 0.12695821
37.190453 -25.337337 0.18139619
37.293007 -25.327278 0.037966866
37.109566 -24.622841 0.1068875
37.590809 -24.849728 0.097073428
37.406929 -25.187 0.1210705
36.911728 -24.620008 0.1184632
37.111706 -25.290535 0.12681857
37.310406 -24.210699 0.12689139
37.529488 -24.583143 0.12690613
37.022491 -25.282145 0.12156025
37.529797 -24.870918 0.13719486
36.704506 -24.709896 0.11177059
37.555439 -23.985643 0.11723153
37.121574 -24.864805 0.16139781
37.406151 -24.823683 0.10399172
36.918808 -25.246597 0.095318489
37.505451 -23.122477 0.11884169
37.31266 -25.113026 0.14606474
36.920601 -25.187099 0.1692366
36.823776 -24.736197 0.13598354
37.018875 -25.815733 0.118762
37.022839 -25.778664 0.079079367
36.910721 -24.711369 0.099166855
36.821144 -25.155386 0.1108316
36.734631 -24.124714 0.16645089
36.433319 -24.771116 0.13738835
36.919739 -24.201 0.14138664
36.919571 -23.046227 0.16713054
37.120296 -24.651865 0.14763665
37.21751 -25.817873 0.11382294
37.02187 -23.263487 0.18123902
36.866547 -25.396639 0.17231715
37.208424 -25.649036 0.16481571
36.616352 -24.839966 0.13973522
37.106529 -23.317757 0.11498838
36.826221 -23.548447 0.13447967
37.466057 -23.891956 0.17078634
37.113552 -23.98241 0.12864639
37.017246 -24.818956 0.060905058
37.119118 -24.705496 0.074657112
37.316307 -25.633135 0.160879
37.118355 -24.433353 0.1410587
37.176815 -23.167656 0.20771526
37.296032 -24.718904 0.059316404
37.114918 -24.836246 0.10584328
36.822098 -24.708424 0.10629458
37.010597 -23.858042 0.11279462
37.383675 -23.993475 0.10743029
36.71991 -24.831678 0.12628996
36.924194 -24.836218 0.1151973
36.917473 -25.682955 0.095042631
36.912685 -25.154289 0.10656673
36.826138 -24.830925 0.12673335
36.62141 -24.748554 0.14474562
37.017509 -24.204151 0.1358778
36.5588 -24.744999 0.13610484
36.908642 -25.285084 0.11766052
36.823353 -25.277624 0.12616362
37.388187 -24.21015 0.11997208
37.219402 -24.710489 0.069071986
36.429901 -24.83563 0.14519647
36.525257 -24.698278 0.11912566
37.306244 -24.839582 0.10594472
36.810768 -24.208897 0.14519492
36.528137 -25.681719 0.11112675
36.81691 -23.579784 0.17299828
37.309921 -25.787615 0.053375293
36.811092 -25.190208 0.15403089
37.020016 -24.832436 0.11085443
37.039398 -25.316648 0.18665877
37.11895 -26.07262 0.072150499
37.300095 -23.982868 0.13226384
37.112453 -25.867407 0.049453761
37.119995 -24.784161 0.036802486
37.051117 -25.881628 0.19247493
37.578178 -24.013891 0.10570069
37.323765 -25.814503 0.12170517
36.919956 -24.863993 0.16384858
36.726444 -25.344584 0.076500215
37.204723 -25.187136 0.15031716
36.620323 -24.184963 0.16003945
37.112698 -24.52272 0.12096538
37.114788 -24.206776 0.13615607
36.73275 -24.201321 0.15351152
37.142235 -25.288307 0.18507941
36.7271 -25.372395 0.11979642
36.635235 -24.975014 0.15110382
36.648186 -25.108377 0.079341769
37.014664 -24.892782 0.17635894
37.115917 -25.791273 0.070478663
37.350243 -23.156086 0.19136317
37.190018 -24.270201 0.17940769
37.024616 -23.449736 0.14319929
37.473 -24.212185 0.12353485
37.207363 -25.78488 0.062591016
37.114132 -23.041681 0.15684344
36.922832 -25.782444 0.089161023
37.411007 -25.268635 0.09424407
36.531467 -25.045843 0.1296064
37.42152 -25.119253 0.1370739
36.649773 -25.025549 0.09690281
37.009594 -24.705976 0.093627483
36.720863 -25.855179 0.082477301
36.91864 -24.080246 0.12369996
36.620491 -24.446377 0.15342639
36.642906 -24.924376 0.12395901
36.518196 -24.617479 0.13835502
37.022522 -25.090326 0.18058781
36.629219 -25.832645 0.12769248
37.373665 -24.102167 0.129811
37.019516 -24.522274 0.1188797
37.315895 -25.434093 0.12917735
37.210526 -25.597969 0.10585759
37.013332 -25.589821 0.10305538
36.916737 -23.770895 0.13676926
37.382923 -23.016638 0.10593063
37.013489 -24.080446 0.1219541
37.00761 -25.555258 0.075767249
37.498871 -25.605513 0.097232774
37.409512 -25.605366 0.1012998
37.370506 -24.691338 0.064212546
37.43317 -25.761501 0.069728456
36.724232 -25.550917 0.091990151
36.912994 -25.558386 0.085548788
36.633152 -24.7092 0.11905111
36.871727 -24.773882 0.094028071
36.820274 -24.792934 0.090464212
37.399555 -25.434086 0.11554775
37.304184 -25.596857 0.10763319
36.530872 -24.811069 0.10657663
37.021202 -24.429607 0.14045167
37.327049 -25.551224 0.1748011
37.20718 -24.21327 0.12932201
37.198833 -24.553001 0.16666134
36.819073 -24.092279 0.13252918
37.501743 -23.705317 0.16839311
37.215832 -24.081696 0.10809342
37.51392 -25.425089 0.10341492
37.120712 -24.072269 0.12137179
36.726738 -24.080202 0.14996043
37.58284 -24.189995 0.11776212
37.110504 -25.155205 0.093925245
36.460739 -25.475258 0.13442723
37.104397 -25.098839 0.17264029
36.998657 -25.857801 0.061149951
36.824821 -25.246508 0.098483734
37.110996 -25.246429 0.076483838
36.934189 -24.667122 0.15251786
37.002548 -25.244333 0.087180384
37.204086 -24.432064 0.13885812
36.481075 -25.305614 0.13733344
36.92448 -24.435982 0.14272891
36.825642 -24.416712 0.14551316
37.417709 -24.550095 0.15620954
37.307594 -24.732538 0.12668295
36.608456 -25.853495 0.097451068
36.821175 -25.592346 0.11417597
36.920532 -24.73443 0.12923692
37.026142 -24.747812 0.12309598
37.6264 -24.578596 0.15083976
36.718807 -24.7374 0.13832712
37.583908 -24.733578 0.10881378
37.382843 -23.338175 0.12788147
37.320736 -24.567923 0.15750967
36.922962 -24.112923 0.16456439
37.210426 -24.927191 0.072407365
36.922161 -23.134495 0.15113941
37.3722 -23.525333 0.10800378
37.119965 -24.743065 0.11964582
36.933559 -23.542967 0.14001226
37.666924 -24.529463 0.11732658
37.336075 -25.690468 0.08195769
37.326469 -23.970695 0.17322583
37.013573 -25.15859 0.099199802
36.914577 -25.370857 0.10520937
36.824551 -25.025738 0.094792493
37.322773 -25.15373 0.087108277
36.711224 -25.021544 0.10489811
37.53653 -25.676619 0.098085843
36.708759 -23.761902 0.15546152
37.31216 -24.943365 0.063296117
37.399555 -23.031122 0.14467242
37.218204 -25.149345 0.08639209
37.111553 -24.934143 0.08722236
37.506088 -25.27589 0.11142252
37.108551 -25.192003 0.15489455
36.729851 -24.980286 0.14256094
36.43692 -24.626085 0.14802434
36.924438 -25.864519 0.066876687
37.135284 -25.539631 0.064239658
37.425655 -25.069706 0.1089206
37.478565 -25.120928 0.0793266
37.372639 -24.955868 0.076786079
37.012764 -25.179514 0.15667512
36.615978 -25.554733 0.10039643
37.393776 -25.16715 0.088331051
36.697838 -25.205803 0.15057242
36.531013 -25.157333 0.12478259
36.615604 -25.153997 0.13448083
37.210098 -25.559299 0.048574574
36.723145 -24.439602 0.14793082
36.833828 -23.456648 0.15278713
37.203972 -23.039726 0.15392984
37.070152 -25.863306 0.17592533
37.208263 -24.823158 0.041542172
36.725082 -24.928509 0.12302031
36.425385 -24.977964 0.14409062
37.014923 -23.238539 0.1426798
37.307766 -23.55526 0.11070578
37.412186 -24.725807 0.13078167
37.439945 -24.784021 0.16038862
37.502697 -24.791759 0.10818943
36.514431 -25.758314 0.10514051
37.124126 -23.529377 0.13176748
36.959053 -24.04294 0.17483991
37.326859 -25.189455 0.12182829
37.326401 -23.272757 0.16151418
37.116188 -25.694592 0.085961014
37.295494 -24.5054 0.038544361
36.916069 -24.931082 0.10538469
36.819866 -24.926073 0.1123926
36.821095 -25.375196 0.10979694
37.510185 -23.303686 0.1307524
37.014629 -24.935158 0.10118051
36.715065 -25.152525 0.11982786
37.591221 -25.343098 0.093251735
37.585808 -25.176374 0.097053669
36.718151 -25.687262 0.11002043
37.211529 -24.74737 0.12853141
37.021366 -25.060867 0.10966311
36.448421 -25.143507 0.14105499
37.384705 -24.081036 0.093243033
37.030952 -23.582842 0.15364207
36.624851 -25.062202 0.13786876
36.82938 -25.820095 0.11914372
37.505505 -25.828739 0.1056186
37.314007 -24.067427 0.099819668
37.318928 -25.998274 0.067160718
37.1138 -24.576775 0.1644662
36.835865 -23.232119 0.1525535
36.921707 -25.056099 0.11567705
36.926151 -23.229519 0.1435367
36.720619 -25.056614 0.1315425
37.40974 -25.83017 0.10691909
37.029095 -23.482283 0.18815671
36.412872 -25.341373 0.14298609
37.407574 -25.690125 0.084213182
37.620472 -25.66773 0.092295468
36.821571 -25.059011 0.12210409
37.212658 -25.06773 0.11096958
37.040573 -25.402647 0.16715752
37.674789 -25.276781 0.095445663
37.678391 -25.354219 0.097742908
37.011948 -25.366888 0.1047278
37.681259 -25.432419 0.10555833
37.016788 -25.469124 0.08983618
37.309444 -25.492594 0.12619403
37.693832 -25.606768 0.076629847
37.025185 -25.71632 0.15418811
36.823933 -23.136316 0.16647553
36.530788 -25.23876 0.11701406
36.824615 -25.464941 0.10317034
36.518818 -25.487221 0.11382294
37.116245 -25.624319 0.032610644
36.81916 -25.687658 0.098269172
36.815907 -25.861414 0.075014688
37.208164 -25.910322 0.091325141
37.20507 -25.997795 0.075507045
37.321236 -23.036013 0.13925917
37.118893 -25.912386 0.084999293
37.210838 -25.280302 0.11667518
36.823116 -24.526525 0.13244693
36.897667 -25.323965 0.079764813
36.540604 -25.361567 0.12036469
37.219486 -25.465277 0.066744141
36.518944 -25.308863 0.10861939
37.211308 -25.68675 0.080275349
36.609287 -24.513329 0.1422707
36.915928 -24.527428 0.13071261
36.627018 -25.239527 0.12105408
36.914848 -25.468887 0.099407218
36.812733 -23.982628 0.1475118
36.925285 -23.983545 0.14089368
36.719872 -24.519184 0.13663034
37.212566 -24.518564 0.10940228
36.626709 -25.277008 0.137226
36.908119 -23.858629 0.12177449
36.934895 -23.887926 0.14991575
37.10601 -25.471008 0.083635502
36.725372 -23.848465 0.13982144
37.100452 -23.848822 0.10491962
36.81583 -23.902052 0.15404969
37.217884 -23.894373 0.13575619
36.725815 -23.883047 0.1672935
36.722195 -24.300941 0.14415406
37.012321 -24.392805 0.11035446
37.015278 -24.478428 0.086419232
36.422882 -25.05027 0.14355436
36.715893 -25.468113 0.11278249
37.019333 -25.683035 0.087279968
37.111664 -25.370897 0.09998098
36.61615 -25.476229 0.11527833
36.712723 -24.616705 0.13381234
36.852001 -23.916759 0.096652217
37.219585 -23.864521 0.093714803
36.916271 -24.311501 0.12981328
36.921803 -24.968672 0.13963801
37.211136 -25.502056 0.12958932
36.813324 -23.852299 0.13308682
36.6399 -25.308323 0.10091546
37.022274 -24.295218 0.12213698
37.211582 -24.401476 0.091472387
36.703922 -24.402189 0.13291924
37.297482 -23.909702 0.12979546
37.312504 -24.529537 0.11602078
37.327572 -25.060938 0.11208005
37.327759 -25.377422 0.088325061
37.309555 -25.461182 0.078858316
37.104301 -24.312984 0.11898993
37.101048 -24.39852 0.10246856
37.105568 -23.884583 0.13893308
36.812164 -24.296762 0.12835464
37.031712 -25.326086 0.057909716
37.021191 -23.893158 0.14403947
36.627644 -24.397514 0.13410857
37.11681 -25.058825 0.1097644
36.898022 -24.389202 0.12087169
36.81712 -24.179043 0.11458442
37.214478 -24.306366 0.10961986
36.812088 -24.398489 0.11597589
36.82296 -25.379791 0.064133771
36.453903 -25.621458 0.13436547
37.200813 -24.639042 0.14462388
36.618118 -24.612259 0.1377541
37.113289 -24.967451 0.13417442
37.217693 -24.962425 0.13309565
36.739819 -25.509375 0.13479882
37.009296 -23.047998 0.16996291
36.724205 -25.286274 0.13716917
37.124924 -25.507292 0.13758339
37.208748 -23.993237 0.11621951
36.841728 -23.995834 0.19877265
37.026443 -24.967592 0.12691393
36.616467 -24.309996 0.14588761
36.810108 -23.769779 0.14396057
37.020916 -23.772911 0.12941958
36.996712 -24.162916 0.10349183
36.55555 -24.474279 0.129134
37.091637 -24.484795 0.076023571
36.630062 -23.659286 0.15378375
37.01693 -23.356371 0.1549601
36.71619 -24.16514 0.11778597
36.933273 -24.17231 0.10583347
36.900127 -24.479593 0.092103526
36.719357 -25.237621 0.11518643
37.314678 -24.65317 0.13752314
36.706108 -23.341978 0.17853153
36.658928 -23.91884 0.14686677
36.628437 -24.478401 0.11309084
36.826714 -23.672108 0.15509363
36.827927 -24.980961 0.14050905
37.03207 -25.5065 0.13479778
36.714733 -23.671198 0.16713849
37.417774 -25.380781 0.09021084
36.81477 -23.279665 0.18176165
37.497471 -23.918501 0.12287703
37.513931 -25.393398 0.08327838
37.313229 -24.980114 0.13361616
37.413246 -24.51012 0.11868601
37.317711 -24.3727 0.090161353
37.479588 -24.423729 0.11861992
37.371773 -23.108576 0.19310562
37.495232 -25.913054 0.075840555
37.321003 -24.309793 0.1194007
37.410057 -25.91466 0.092213288
37.309914 -24.347424 0.14408731
37.19606 -24.346769 0.16241249
37.509418 -25.181803 0.11080887
37.123905 -24.331064 0.16926156
37.479641 -24.961115 0.10794357
37.426033 -25.500347 0.11316918
37.31739 -25.843258 0.16760509
36.944836 -24.342018 0.16354577
37.038567 -24.316418 0.16693732
37.414646 -25.725147 0.11957619
37.202183 -25.409452 0.15387857
37.214451 -25.709368 0.14009291
37.610355 -25.001436 0.11955461
37.405914 -24.960705 0.13300085
37.117138 -25.411804 0.16231027
37.315277 -25.723902 0.13949887
37.207638 -25.101624 0.15861087
37.088326 -24.008257 0.18091039
37.010326 -24.030563 0.19059704
37.124546 -24.256195 0.18053807
37.285801 -24.494228 0.17444921
37.504356 -25.507078 0.10745503
37.00901 -23.811668 0.16888602
37.210548 -24.009281 0.1742925
37.518715 -24.657703 0.12640792
37.594666 -25.560495 0.099602304
37.310066 -24.247242 0.1669291
37.11274 -25.733831 0.15158102
37.037697 -24.568342 0.17260538
36.995636 -25.654356 0.16290079
37.223763 -25.875481 0.17150795
37.109035 -25.637764 0.16450383
37.511559 -23.370106 0.10907989
37.599903 -23.383259 0.1301007
37.192051 -23.330286 0.097994618
37.304512 -24.80311 0.15361494
36.815269 -23.503414 0.19786841
36.836544 -23.352306 0.1742101
37.114258 -23.588461 0.15243509
36.683258 -24.477119 0.11266854
37.394814 -23.510149 0.15268654
37.222759 -23.573874 0.14931278
37.120159 -23.34738 0.14657207
37.158539 -23.386028 0.20324619
37.006893 -23.623867 0.11258759
37.115799 -24.148273 0.099843793
37.213268 -23.25456 0.1586521
37.330204 -23.486427 0.17303739
37.19046 -23.42622 0.19968066
37.338104 -23.369425 0.20178473
36.955727 -24.244003 0.082926065
37.523529 -23.343229 0.19814879
37.105209 -23.263264 0.16819204
37.206509 -24.160892 0.08299116
37.411491 -24.658228 0.13224782
37.21854 -23.349169 0.14524904
37.322865 -23.346695 0.12865941
37.390862 -23.578968 0.13356395
37.327999 -23.684893 0.11382292
37.117649 -23.134333 0.13866723
37.20282 -23.656124 0.079678878
37.214218 -23.802437 0.15475115
37.100784 -23.772648 0.13495471
37.292343 -23.806967 0.14645217
37.397247 -23.682255 0.124002
37.310749 -23.143467 0.12326583
37.211151 -23.674807 0.13120645
37.472466 -23.644178 0.17796478
37.211853 -23.76605 0.11284453
37.32077 -23.769474 0.12528318
37.202019 -23.56826 0.09883748
37.122074 -23.800367 0.16604716
37.205315 -23.226284 0.12885424
37.211006 -25.252707 0.058087047
37.207043 -23.13039 0.14115703
37.390282 -23.126081 0.12092652
37.507259 -25.041929 0.097450659
37.116226 -25.595324 0.10256146
37.225006 -23.67794 0.18540695
37.132664 -23.610538 0.1071415
37.148102 -23.722406 0.18859626
36.907204 -23.270348 0.17682557
37.015705 -23.53371 0.12904303
36.967064 -23.201096 0.19290172
36.713245 -23.54537 0.16859905
36.730206 -23.585068 0.17010891
36.931564 -23.352638 0.1546101
37.335865 -23.242455 0.11164791
37.370583 -23.265636 0.13872369
37.102425 -23.224947 0.13666342
36.919243 -23.582851 0.16766632
36.824093 -23.623066 0.11655833
36.936703 -23.621876 0.11769979
36.857677 -24.233423 0.087963678
36.924053 -23.449501 0.14363828
37.212452 -23.488174 0.18446787
37.638329 -24.456961 0.10707433
37.622189 -24.511539 0.11478671
36.54203 -25.650646 0.066985153
37.116619 -23.455366 0.13722831
36.921822 -23.675941 0.15056345
36.926277 -23.79805 0.17745505
37.679924 -24.650839 0.10615464
36.836395 -25.496981 0.14524056
37.415024 -25.465368 0.078194253
37.015633 -23.668669 0.1433423
37.579639 -24.293671 0.1127757
37.592899 -24.632597 0.1143621
37.612171 -25.335976 0.093876638
37.615009 -25.474371 0.097064696
37.607792 -23.276279 0.13210392
37.606052 -23.467825 0.13526247
37.306801 -23.578642 0.1451135
37.587193 -25.717995 0.080308147
37.406578 -23.753307 0.11850513
37.3979 -24.299276 0.11373909
36.994064 -23.311495 0.12478985
36.814747 -24.624617 0.12309508
37.382996 -23.834881 0.14947915
37.49474 -24.28212 0.12072933
36.83131 -24.338305 0.18668932
36.818497 -23.824759 0.18313771
36.92075 -25.505285 0.12635088
37.382603 -23.234753 0.11670781
36.92292 -23.313843 0.12727435
37.330276 -25.849079 0.046020843
36.885254 -23.926174 0.10170505
36.835014 -23.333147 0.11958283
37.015503 -23.987366 0.13134892
37.488682 -23.804365 0.13827418
37.462761 -23.932261 0.17625451
37.369621 -24.0278 0.17451172
37.46862 -25.64496 0.12732184
37.469719 -25.737446 0.12389127
37.124199 -23.158791 0.20322756
37.519318 -23.442499 0.18034269
37.450459 -24.316456 0.15276833
36.791054 -25.62199 0.072688214
36.634972 -25.626997 0.09113846
36.636288 -25.525629 0.13880497
37.027199 -23.931467 0.085354902
37.024906 -24.626162 0.10943074
