# .PCD v0.7 - Point Cloud Data file format
VERSION 0.7
FIELDS x y z
SIZE 4 4 4
TYPE F F F
COUNT 1 1 1
WIDTH 1541
HEIGHT 1
VIEWPOINT 0 0 0 1 0 0 0
POINTS 1541
DATA ascii
-5.173315 7.442791 8.1362886
-0.97817791 4.9312325 8.3183746
-0.69480383 5.1120882 8.3628788
-3.7808022 5.9058256 8.1270294
-4.4228311 6.0555634 8.056756
-4.3262124 6.2921987 8.0920782
-4.1697183 6.326488 8.1086054
-4.3432412 6.3735852 8.1020489
-3.9215188 6.4349165 8.1717978
-4.0760293 6.472878 8.1467991
-4.9191689 6.2944694 8.0248814
-4.9247842 6.3352971 8.0220356
-4.9371133 6.3753223 8.0341301
-4.7054238 6.4302311 8.0586329
-4.8553262 6.4755478 8.0505419
-4.664988 6.6638627 8.0934572
-4.4520669 6.9271216 8.1429138
-4.7720132 7.0513225 8.1189947
-4.5710855 7.3357449 8.173173
-4.7142129 7.4357882 8.177103
-4.5890093 7.5013294 8.1921186
-4.0565591 7.8135715 8.0341787
-4.812459 7.9576068 7.9613128
-4.9477015 7.4856286 8.1455946
-1.1943461 5.4244661 8.3606634
-1.4403481 5.4007907 8.3292799
-3.8895669 5.3680735 8.0813637
-4.3917336 5.5222216 8.0133591
-4.3106484 5.6181335 8.0340052
-4.3986001 5.6818776 8.042346
-4.7047524 5.9436779 8.0369873
-4.6512246 5.9876347 8.0416288
-4.6018472 6.0544019 8.0520411
-3.8196816 6.3841753 8.1675053
-4.5626321 6.3435121 8.0776491
-3.6954293 6.9914374 8.2465229
-4.7064004 6.8251333 8.1057997
-4.7685342 7.3451977 8.1533346
-4.9674911 7.4331222 8.1338558
-4.7739053 7.4874411 8.1728458
-4.552012 7.6776795 8.2192698
-4.8834391 7.9409862 7.944479
-4.8944449 7.2940826 8.146162
-5.2321072 7.3011889 8.1010485
-4.5334268 5.1727881 7.980504
-4.6454873 5.4846849 8.0005808
-4.5937295 5.5275059 8.0132427
-4.4012246 5.5748601 8.0313168
-4.9201455 5.6896462 7.9885111
-4.9285684 5.7427053 7.9918137
-4.507792 5.9190221 8.0584183
-4.3890176 6.0791006 8.0847216
-4.1459756 6.3154206 8.1394091
-3.7012429 6.4264603 8.1881247
-4.6836343 6.8938508 8.1283178
-4.4011331 7.2766876 8.2004528
-4.5162759 7.6721144 8.2382479
-4.4122109 7.8649321 8.0090532
-4.9984536 8.0082874 7.9618335
-4.9735737 7.8325791 7.9523826
-3.7974191 5.3656745 8.0856457
-3.6690035 5.378582 8.0953836
-4.5451455 5.2138429 7.9796243
-4.5750322 5.3931766 7.9995565
-4.5280557 5.4094286 8.0145111
-4.1840005 5.5123534 8.0555735
-4.4842629 5.5814137 8.0256262
-3.7853494 5.597528 8.1096935
-4.1771035 6.0037766 8.0950451
-4.3127236 6.0530682 8.0895863
-4.0506692 6.1180434 8.1256847
-4.1793213 6.2035837 8.1205893
-3.7865601 6.2982473 8.1709423
-3.5618637 6.4402742 8.2066479
-4.5978189 6.261857 8.0716095
-4.470408 6.3428383 8.0950594
-4.7497354 6.362957 8.077178
-4.4692059 6.4464808 8.1085091
-4.2950234 6.6637421 8.150775
-4.5871897 6.9739766 8.1392918
-4.4408669 7.0994825 8.1722021
-4.0198159 7.5028448 8.2658691
-4.675374 7.503602 8.1933718
-4.8778791 7.8361931 7.9449339
-4.4504189 7.9492493 8.0181561
-4.2892542 7.8252468 8.0166531
-4.8747759 7.4251423 8.179863
-5.1886482 7.4321742 8.159893
-5.1968575 7.4598141 8.1673012
-4.5739946 5.1655474 7.9930243
-2.1054482 5.3436537 8.2460995
-2.8799844 5.395164 8.1857672
-2.9637246 5.4602466 8.1967411
-2.0252481 5.4868817 8.2689295
-2.881083 5.5737586 8.1975937
-1.7067666 5.9307861 8.3452702
-4.5747476 5.1123238 7.9830594
-4.2433267 5.3954778 8.045084
-4.4907632 5.4578567 8.0283804
-4.2186379 5.5900645 8.0658379
-3.87884 5.6146588 8.10569
-4.8640542 5.7619476 8.0297346
-4.4096475 5.9288683 8.0773764
-4.192708 6.1118269 8.1121321
-4.3305764 6.1458335 8.1001511
-3.8427529 6.3008223 8.1754904
-3.8982949 6.391645 8.1828928
-3.7737589 6.4421139 8.1829529
-4.392344 6.4476185 8.1148605
-4.4115396 6.6049929 8.1434708
-4.3704138 6.6575756 8.1377144
-4.4828286 6.6641259 8.1364994
-4.2432046 7.2484717 8.2168207
-4.500248 7.2816257 8.1868286
-4.5777383 7.3772793 8.1923037
-4.8045449 7.4306993 8.1918917
-4.490397 7.4891167 8.2277851
-4.4986367 7.5225563 8.2110214
-4.4846106 7.602951 8.2187243
-4.1677651 7.7326651 8.2672892
-4.9006143 7.9502878 7.9806738
-4.6948342 8.0445681 7.9904609
-4.7824297 8.0523643 7.9765096
-4.8342752 6.4202776 8.1022062
-5.0471525 7.4354119 8.194973
-5.0511093 7.4634399 8.1937027
-2.7860818 5.4315848 8.2017517
-4.4775186 5.1374688 8.0090809
-4.3903909 5.3499064 8.0359573
-4.2054849 5.3979654 8.0633125
-4.2509561 5.4635477 8.0615931
-4.1939492 5.512516 8.0739994
-3.7770386 5.5518284 8.1282263
-4.0480142 5.6041827 8.0989132
-3.8931375 5.7958355 8.1368246
-4.1492105 5.937901 8.1101913
-4.465342 5.9944911 8.0727329
-4.5383096 6.1526389 8.0764627
-4.2921243 6.2125278 8.0987797
-4.5178018 6.3233523 8.1249418
-3.68397 6.6452289 8.2306175
-3.7708535 6.697855 8.2345314
-4.401957 7.2485161 8.2302771
-4.1052804 7.2983146 8.2355576
-3.8448892 7.5461783 8.304389
-4.6412759 7.9822383 8.0167618
-4.7983351 7.4551163 8.2236176
-1.5419717 5.3862882 8.2910528
-4.381144 5.178864 8.0154533
-3.9728799 5.4470773 8.0992908
-3.7808938 5.4742041 8.1141119
-4.1686196 5.5669522 8.0921555
-3.9907174 6.3238158 8.1554422
-3.992167 6.3868117 8.1734838
-3.9905396 6.4521952 8.1765451
-4.2900796 6.4365916 8.1555662
-4.3287759 6.6124034 8.1723423
-4.4727273 6.6424618 8.1544075
-3.9108834 7.3923688 8.2691603
-4.3693643 7.7636185 8.2333012
-4.8193154 7.7755165 8.1167555
-4.8058758 7.8200955 7.9764686
-4.7860513 7.9329543 8.0064859
-2.0965676 5.3809628 8.25735
-1.9473062 5.3602772 8.2513704
-3.0955606 5.498548 8.1681442
-2.5644326 5.5041151 8.2173223
-3.4792953 6.3223934 8.2084007
-3.9800415 7.4830346 8.2732277
-4.5955973 7.6138663 8.2209339
-4.582026 7.912364 8.0113001
-1.5290933 5.3730659 8.2925253
-4.0000405 7.2707558 8.2703304
-4.0778399 7.3699083 8.2684708
-3.9710896 7.4165592 8.2771692
-4.157084 7.604517 8.2724419
-4.2789307 7.6211452 8.2566862
-4.4178872 7.6732464 8.2718458
-4.2923584 7.7311502 8.2639961
-4.0851693 5.3597827 8.0676708
-4.0609536 5.4942627 8.0817137
-4.0826058 7.7825041 8.1268282
-4.1009927 8.0500431 8.0592794
-3.8621011 7.3592334 8.3229942
-3.9293008 7.7760043 8.318574
-1.6431477 5.445415 8.296339
-1.9155068 5.4668679 8.2711353
-3.7683756 6.6201463 8.2113504
-4.0553994 7.759768 8.3087988
-4.0445352 7.7090435 8.2851686
-1.7906289 5.4479976 8.2830877
-3.9699502 7.8543315 8.0572319
-2.6564736 5.5173192 8.2090492
-2.368937 5.6123886 8.2408638
-2.7815042 5.6043601 8.2013512
-3.300386 6.1361361 8.198143
-1.3693846 5.1361475 8.2858295
-3.4801106 6.1333318 8.17661
-3.2896569 5.5904708 8.1512976
-3.4771175 7.7689476 8.3416977
-1.5383096 5.4301724 8.2956123
-3.2001343 5.5018134 8.1616116
-1.3754923 5.9571142 8.3863411
-3.5627542 6.3775463 8.2140474
-2.1650186 5.5623126 8.2581835
-2.2047524 5.6169324 8.2702789
-1.1194865 6.1237512 8.3620596
0.70503759 5.8658948 8.4562798
0.77925634 5.0380278 8.3930998
0.69578815 5.7079144 8.4530668
-1.2014271 5.1413646 8.2950592
0.43545938 4.5401492 8.3175793
0.73961186 5.3896942 8.4088326
-2.2587819 5.9468398 8.313242
0.59763527 5.3851748 8.3891001
-1.8986747 6.1647921 8.3604097
0.57596183 5.6282926 8.4734612
-2.0015326 6.2059574 8.3551149
-1.5222009 6.2165871 8.3777943
-1.7919502 6.1669388 8.3595037
-1.9285268 6.2670689 8.3388042
-1.167232 5.3460431 8.3332081
0.49749494 5.0735316 8.3673077
0.42298651 5.6952324 8.4216185
0.70340347 5.4879551 8.375864
0.7786212 5.8877678 8.4260778
0.57239747 4.9643617 8.3301153
0.59329152 5.5033212 8.3650017
0.78994036 5.4639797 8.3583546
0.72683001 5.1969137 8.3299484
0.075951099 5.1669822 8.3036213
0.55721331 5.1231847 8.3188915
0.60820127 5.0603652 8.3415937
-3.1871595 6.8071609 8.3402634
0.50935984 5.3822408 8.3817253
0.45750642 5.1879272 8.3451405
-2.0160725 8.1343775 8.2676048
0.30755377 5.3591237 8.3711214
-3.0599875 7.7171688 8.4560795
-3.5910544 7.3794894 8.4259596
-0.59074926 5.5363693 8.3225479
-3.2807398 7.7222929 8.4507046
0.30421901 5.5041862 8.3631802
0.18483639 5.1215301 8.2957602
-3.0299954 7.7318926 8.4535275
0.69409776 6.6543565 8.470871
-2.0855379 6.8206015 8.4208155
0.41398573 5.9149976 8.428462
0.20823312 5.1893897 8.3123589
0.33284402 5.1869035 8.3246403
-3.1986847 7.7220755 8.4356289
-3.6816804 7.2700696 8.3459263
-3.9760537 7.7643609 8.1534863
-4.0682168 7.591949 8.3031301
-1.2810006 5.3341355 8.3160076
-4.1873827 7.3016148 8.2689342
-3.8281171 7.2527208 8.2909565
-4.5157514 8.0395193 8.0040731
-4.6957216 7.6006064 8.2062244
-4.0893536 7.4947348 8.2758427
-4.416008 7.4862328 8.253212
-4.2948465 7.3897071 8.2415743
-4.1948376 7.3624086 8.2399054
-4.7678862 7.7547908 7.9951262
-3.9981532 7.3151612 8.258522
-4.9875793 7.3901348 8.1921415
-1.1929377 5.3770766 8.3001795
-4.7935905 7.7620077 8.1634026
-3.8010886 7.3620224 8.34202
-4.6709213 7.3879337 8.2808857
-1.1880679 5.5907845 8.3110895
-4.2987299 7.9839172 8.1075058
-4.4053364 7.9273629 8.059514
-4.8501215 7.7539272 8.0700855
-4.2821398 7.7559929 8.2082548
-4.398777 8.0495558 8.0745926
-1.0931913 5.5923367 8.3209953
-3.907789 7.7994637 8.1194668
-4.4801979 7.7323856 8.1545706
-3.8642921 7.1617589 8.3494072
-4.5833955 8.055131 8.0025206
-0.96222126 5.6087871 8.324213
-0.98653471 5.3507919 8.3040066
-3.6790693 7.7871528 8.1245193
-4.4860983 8.0000105 8.1360865
-4.3918295 7.9274144 8.1358175
-4.6398764 7.8309474 8.118022
-3.294018 7.3583469 8.411623
-3.8018026 7.7170143 8.4017525
0.66579485 4.9260302 8.3052397
-4.3040714 7.8765311 8.1541672
-3.9813895 7.7549243 8.2358055
-3.2944086 7.1058197 8.3909101
-3.2990947 7.4529481 8.4249191
-4.0366759 7.4198437 8.3860064
-3.8192182 8.0961161 8.0075541
-4.0439496 8.0399485 8.1950521
-4.0766506 7.8887482 8.1603479
-3.8989859 7.83289 8.1828709
-1.8842206 7.7659154 8.3594141
-3.5825531 7.3122478 8.4145603
0.71870255 5.0533767 8.3672638
-0.2930249 5.5942478 8.3621244
-0.50468349 4.6607652 8.2376556
-3.9905543 7.8928246 8.2130852
-3.6784706 7.7712541 8.262291
-2.4256129 6.8708658 8.4239435
-3.1755691 7.1167746 8.402338
-4.0146022 7.475605 8.4207344
-3.9181666 7.4343519 8.4281168
-3.5321803 7.283628 8.439846
-3.7552743 8.0288105 8.2143631
-0.19800377 5.204031 8.3048496
-1.9884473 7.7490544 8.4712496
-0.76125562 6.6397891 8.4180784
-1.9143318 7.3274674 8.4570799
-3.2789578 7.6559711 8.4516335
-3.8188729 7.5212092 8.4223728
-3.3841937 7.4240041 8.4346485
-3.3774157 7.3302503 8.4123631
-3.5972035 7.9263477 8.1826963
-1.9161257 7.2619662 8.45506
-1.1470692 6.6635146 8.42729
-0.466102 6.1351132 8.4045143
-3.6519141 7.4143028 8.4029112
-3.7904069 8.0144491 8.1258574
-3.8994851 7.660121 8.3835249
-3.6562881 7.55338 8.4019566
-3.6748874 7.5082932 8.4257994
-3.202152 7.3518882 8.3991442
-1.1724962 6.5260482 8.4106197
-0.11725974 5.4860678 8.3424196
-0.78159726 5.601193 8.3331184
-3.7537291 7.5788388 8.3684092
-0.94359875 6.6931815 8.4266357
-1.1007435 6.533855 8.4187737
0.10562873 5.5076184 8.3546619
-3.5843306 7.6131539 8.4096804
-0.52948558 6.6914325 8.4553127
-1.288763 5.6093073 8.3152742
-3.5624211 7.5544205 8.3843641
-1.9078318 7.1640182 8.4621582
-1.787515 7.1175942 8.4523087
0.70542479 7.3565941 8.5898352
-3.1889844 7.660954 8.4395552
-1.4423482 7.3225913 8.4809704
-1.3698514 6.5604444 8.420989
-2.9972229 7.6535792 8.4453878
0.68491912 7.1481514 8.5740461
0.65753531 7.2756901 8.5922556
-1.6484237 7.1606808 8.4543352
-1.3133712 6.7320251 8.4488344
-1.646908 7.2182431 8.460763
-0.6676172 5.0507298 8.3063812
-1.2174141 7.3502836 8.4935398
-0.57775581 5.0605545 8.3174343
-0.86556602 4.9208217 8.3230658
-0.16627574 7.2999701 8.557992
0.57444549 7.3895741 8.5671415
-0.28169453 7.2014928 8.5343828
0.23587441 6.9390645 8.4965954
-0.66743159 7.0485454 8.5035944
-0.29964483 6.4392991 8.4373121
-0.36749434 6.140728 8.4043608
-0.49245203 5.5773811 8.3505268
-0.68060946 5.5782132 8.3379154
0.92655277 7.2921433 8.5571585
0.056663752 7.562407 8.5664625
0.78676629 6.9895277 8.5129843
0.58842778 6.9787412 8.5318413
-0.095486641 6.8008361 8.4882402
-0.38406718 6.7289567 8.4740286
0.32394314 6.4342666 8.4605122
0.40446687 6.4352736 8.471364
0.0092036724 5.8948631 8.4043827
0.040532589 5.5235176 8.3543291
0.22362709 5.490952 8.348938
0.11136985 5.367898 8.3825855
-2.6672015 8.1771545 8.2693119
-1.7847975 7.7288976 8.45154
0.3096602 7.3981018 8.5605507
0.97549105 6.7030668 8.4762402
-0.49635208 7.0696144 8.4977465
0.66132855 5.9805574 8.3786974
-0.8630985 6.7642097 8.4598732
-0.49538302 6.4442377 8.4335918
-0.58419383 5.5935035 8.3421612
-0.27871001 5.5004401 8.3289099
-0.87860394 5.5983081 8.335515
-5.1568241 7.8033428 7.9308667
-4.7045083 7.850225 7.981956
-1.8926694 8.0855064 8.2924118
0.33678079 7.508544 8.5441256
0.21851945 7.2888489 8.5318661
0.72571015 6.9350481 8.5076303
0.79404426 6.6979728 8.4648457
0.61457467 6.6742353 8.4737167
0.79822516 6.3429737 8.4285774
-0.19599962 6.4378834 8.4355412
0.8188498 6.0625858 8.4098749
0.71839118 6.0379219 8.3932533
0.74926972 5.9122362 8.3877182
-0.57366598 6.4506621 8.4339752
-0.30541778 6.1419568 8.4058981
0.13156533 5.9116187 8.413434
0.60606194 5.7050738 8.384532
0.52334309 5.7075186 8.3628235
-4.6911721 7.6971292 8.2104368
0.41968417 7.4967117 8.5451488
0.60549617 7.4322343 8.5117903
0.72719526 7.0216551 8.4464989
0.78288984 6.9587169 8.4416513
0.72653937 6.8382645 8.4645271
0.82402754 6.4131999 8.3888445
0.96587324 6.363966 8.3888893
0.90685225 6.2342687 8.3641129
-0.18099499 6.7533369 8.47085
0.27532148 6.502851 8.3914499
0.20458174 6.4524469 8.391695
0.6786418 6.0722766 8.3448572
0.83696699 6.0660682 8.3522129
0.77860045 5.9488196 8.3507509
-0.39538574 6.3790407 8.4037628
0.49453759 5.9570804 8.3784342
-0.68388379 6.2158728 8.4076338
-0.69597018 6.1382427 8.3830185
-0.78985238 6.1363835 8.3795624
-0.99378252 6.0825686 8.3494101
0.90280437 7.4202604 8.5786734
-4.5497231 7.8119779 7.9947772
-2.4085851 7.8668408 8.2328472
-4.49506 7.8638191 8.105278
0.58451509 7.4906445 8.5230188
0.72425866 7.2835798 8.5309744
0.80649996 7.1884174 8.5216122
-0.11183238 6.8923554 8.4661541
0.00094342232 6.7736239 8.4801788
0.6640439 6.5119677 8.4593496
0.82639098 6.475852 8.4285545
0.86815333 7.0111246 8.5143518
0.4260726 7.1887803 8.5201273
0.52009749 6.6551919 8.4687319
0.69570899 6.4667945 8.449028
0.68278193 6.4834576 8.4150982
-0.49431825 6.7573857 8.4684334
0.018997431 6.4489875 8.4492188
-0.68515158 6.4627957 8.4200926
-0.89180458 6.22718 8.3968792
0.50503325 6.4748378 8.4562187
0.80798316 7.4561529 8.5770636
0.13003039 6.436121 8.4487314
0.127527 7.5178957 8.5226402
-0.16413236 7.4866409 8.5298786
-0.39109087 7.3164215 8.5198946
-0.80772901 7.0599222 8.4907837
0.79081416 6.4907913 8.4637213
-0.96656287 6.9313107 8.4679708
-0.28089786 6.6820502 8.4569845
-0.76809347 6.4526052 8.4200621
0.22279763 7.5103903 8.5468788
-0.062571764 7.2848372 8.5326958
0.51845503 6.9010305 8.4921236
0.31516623 6.7817988 8.4827776
0.53705978 6.7520928 8.4899225
0.12319589 6.768609 8.4728012
0.69101119 7.5367002 8.5509615
0.51830316 7.5260596 8.5683374
0.49832702 7.2978091 8.5409393
-0.30922604 7.3711948 8.5336208
0.011902809 7.3367004 8.5515795
0.017710924 7.288784 8.5169487
-0.30003166 7.2930026 8.5305252
-0.33074856 7.2246838 8.5250835
-0.13716078 6.3045392 8.399332
-2.9651563 8.1596861 8.2636404
0.42802501 7.2706137 8.534646
-0.18445754 7.4116049 8.5458794
0.31057501 6.9733052 8.5110245
0.29348397 7.2788224 8.5425739
0.093901634 7.5917096 8.5996857
0.49614024 7.378705 8.5546761
-0.45102346 7.3849211 8.5265121
-1.9777315 8.1170607 8.2846804
-0.088074923 6.4450221 8.4241991
0.70132256 5.5385232 8.4366665
0.61878181 5.7786822 8.4600143
-0.18891454 6.6596808 8.4427929
0.46680832 5.2009172 8.3372545
0.10394669 7.2902832 8.5327625
-0.65520954 7.2651467 8.5069008
-1.4929485 6.7604022 8.4081736
0.29280734 5.0713143 8.3227654
-3.2941079 5.5152016 8.1252966
-0.47999477 7.1066141 8.7145014
-0.50825918 6.7104397 8.6817961
-0.70797181 6.1329603 8.6096334
-1.4648688 6.7631211 8.6192493
-1.594864 5.000514 8.4533615
-3.6894734 7.3027444 8.3857918
-3.6782017 7.3952198 8.2860222
-3.4820671 7.3416181 8.3990479
-3.1039946 7.3348899 8.3855438
-3.263041 7.4817157 8.3076372
-2.561625 5.9612484 8.2934189
-2.9142289 7.4326515 8.4340057
-3.3654017 7.7143526 8.4539671
-2.0012224 4.7055669 8.3963327
-3.9319863 7.3037162 8.2384863
-1.2967601 4.5609713 8.5224514
-2.3924148 7.7280502 8.2162504
-3.243367 8.3737135 8.2561026
-3.7053425 7.6614494 8.408
-2.7796273 7.4222827 8.4485073
-2.1109481 7.0975451 8.4358006
-3.6646967 7.27671 8.2692528
-3.157716 6.5858994 8.3315153
0.32704926 6.044672 8.394804
-0.17805076 6.1307178 8.3988562
-2.0376217 4.6888118 8.3741207
0.12356687 7.3838401 8.5589075
-0.081764936 6.13904 8.4101572
0.50093818 5.7099051 8.4257174
-0.80567217 6.3393912 8.3781109
0.49130535 7.4436898 8.5636969
-0.98445106 6.2334409 8.387681
-2.1491516 4.9444127 8.398572
0.02285552 5.5815549 8.3694792
-0.095062971 5.6217637 8.3622952
-1.9055948 4.7779975 8.4692984
-0.86830235 4.5298796 8.5108109
-0.99354374 6.4340076 8.4113035
-0.99615932 5.9083734 8.3602028
-0.47732449 5.9202027 8.3768539
0.27880621 4.9503112 8.3192635
-0.18086314 5.6037345 8.3670778
0.48998666 4.6727533 8.2966318
-2.1518786 4.8517146 8.397644
-4.3908486 6.9312143 8.2045527
-1.1539013 4.6009903 8.5343657
-0.34928071 5.2107787 8.2984476
0.73597002 5.7603636 8.4052935
-3.5941935 5.9059672 8.1495628
-0.11811948 5.2057343 8.3134966
-0.37383032 5.488553 8.3281488
-4.4433694 6.7627716 8.1589928
-4.8357949 6.7644539 8.0867443
-4.2973547 6.7550306 8.1649876
-4.8220315 6.801332 8.1054125
-4.5621133 6.7502232 8.1127586
-4.0411477 6.7221122 8.2064371
-3.9595132 6.7595196 8.1801434
0.69381237 5.2523971 8.4167147
0.59363556 5.8059459 8.4132957
-3.4918313 6.9640765 8.253746
-4.373301 6.7410183 8.1696959
-3.8549397 6.9756765 8.2348938
-3.959147 6.9438491 8.2123089
-0.007535696 7.2052383 8.5170059
0.48604631 4.8127379 8.2838898
-4.2039285 6.9892259 8.1889124
0.88806367 6.8103194 8.4877024
0.49435568 7.0672078 8.5394592
-2.2917759 7.1082768 8.4274864
-4.6543374 7.1200891 8.1358156
-1.1743484 6.4059777 8.3994865
-4.1866961 6.7773228 8.1694918
-3.8778787 6.9727116 8.2721033
-3.5142167 6.6990795 8.2700415
-4.3361001 6.9438071 8.1930513
-4.2790627 6.9984698 8.1885462
-4.0773721 6.9739418 8.189888
-3.6992412 6.7474203 8.2272434
-0.29354513 7.0645819 8.5142546
0.79726195 7.1109014 8.5249958
0.046249866 7.1324072 8.4840918
-0.3006506 6.9493933 8.5303278
-2.3022256 5.6375508 8.2820435
0.31352758 7.1879911 8.518075
-4.9078622 7.1392064 8.1427393
0.40323067 6.8821759 8.4816179
-1.7139263 5.458323 8.4827681
-1.7836566 5.4629688 8.4688263
-2.0926776 4.9385071 8.3843708
-0.43088782 6.0216713 8.487957
-4.3980508 7.6377597 8.2189837
-1.2235892 5.5325227 8.4719248
-1.7673153 5.1409583 8.4277401
-1.8213441 5.8664374 8.4797039
-1.8560731 5.5094533 8.447526
-1.3560592 5.2807522 8.4627342
-1.6895683 4.676291 8.3719349
-1.8803476 4.8536415 8.3917017
-1.5844691 4.6669164 8.3632727
-1.9499357 6.0294142 8.4579191
-1.9794528 5.6152525 8.4445534
-1.0018436 5.4176941 8.4212208
-1.7854271 5.1745892 8.3983154
-1.7852845 5.0836306 8.3936644
-1.5575266 4.9505038 8.4015713
-2.0818787 4.8388386 8.3622036
-1.0881286 4.8821559 8.4172239
-0.85018122 5.9637704 8.6417036
-1.7591778 5.0277238 8.4705286
-1.7951275 4.7186666 8.428854
-1.4881859 5.6039658 8.4781361
-1.7875631 5.3956399 8.4406614
-1.2789916 5.0518718 8.4645481
-1.8728423 4.7482114 8.3709784
-1.856787 5.644989 8.4498348
-1.5761001 5.5098414 8.4587011
-1.8818114 5.400969 8.4263773
-1.6809471 5.2728815 8.4313412
-1.8889091 4.9689436 8.3929205
-0.15689898 6.2482176 8.3698092
-2.0709567 5.9159055 8.4738436
-1.5989573 5.2212195 8.4085093
-1.3900647 4.8628559 8.3454952
-1.8987541 4.4638391 8.2313728
-1.4645064 5.2200761 8.414155
-1.4962752 4.8755708 8.3425264
-1.5796106 4.7988205 8.3237724
-1.2713113 6.4359689 8.4387541
-1.7962762 6.3729286 8.444067
-1.2730124 6.0585895 8.4314995
-0.75770199 6.0640726 8.4850721
-0.86922777 5.3932886 8.4022102
-1.1701165 5.1305532 8.3764734
-1.9710745 4.4718952 8.2440081
-1.5932072 6.2408013 8.520999
-1.4879601 5.2837787 8.4582281
-1.2938397 5.5260406 8.4670153
-1.858339 5.1343975 8.3694868
-1.0719067 5.1024055 8.355689
-1.1480728 4.8559957 8.3958111
-1.8885372 4.6532602 8.3307047
-0.96714449 4.535615 8.2367163
-1.5391202 6.0043602 8.435627
-1.3600345 5.4461403 8.3741541
-0.96460593 4.8848329 8.3842564
-1.9449286 4.6300335 8.2890167
-1.5510168 6.3720803 8.5303144
-1.3491201 5.9292884 8.5065603
-1.8069527 5.5892091 8.4650278
-1.3707705 5.152544 8.480175
-1.3759809 4.9626026 8.431859
-1.5616875 5.8895845 8.4963179
-1.698442 5.377202 8.4824324
-1.5905268 5.288413 8.4497595
-1.6783311 5.226819 8.4981308
-1.656891 5.1629181 8.4521103
-1.4811425 4.854033 8.4334373
-1.7812388 4.6290393 8.3966818
-0.49956918 6.2160349 8.414629
-1.9866047 5.498322 8.4849443
-2.0031745 5.3522415 8.4464245
-0.57915735 6.2172852 8.4123249
-1.3824658 5.2146258 8.4281349
-1.8747911 5.1586485 8.4132595
-0.74093831 6.5262365 8.5629025
-1.5646689 6.453876 8.5000324
-0.97498405 5.1830397 8.4362707
-1.3498201 5.4898176 8.5741606
-1.1124544 5.364934 8.5730791
-0.48867273 4.7822676 8.5620832
-1.4526644 4.5753398 8.4783392
-3.6851602 5.8138409 8.1264944
-1.4446027 6.529263 8.6481485
-0.60262465 5.0202389 8.5650282
-1.3915746 4.7161212 8.4571953
-1.3963799 6.4968019 8.6505632
-0.87926221 6.5041986 8.6810951
-0.99207306 5.5648375 8.5631838
-1.2678747 5.0239415 8.5049496
-1.2855129 4.7187614 8.4588346
-0.98780537 6.1921244 8.6189451
-1.2971914 5.4703565 8.5068378
-1.6833191 4.6337943 8.4038429
-1.4941294 5.9155755 8.5237045
-2.0872421 5.1573544 8.4083796
-1.8930619 5.2116256 8.4409809
-1.3805463 5.0602899 8.4580393
-1.8854069 5.0583143 8.4093676
-1.9310868 4.6912241 8.3932428
-0.23609209 6.2429457 8.3634701
-1.4871347 4.4452496 8.2756166
-1.7803854 5.5090947 8.4388313
-1.3813791 4.8468223 8.4424706
-1.8084822 4.7560821 8.3788214
-1.2340902 6.2579036 8.5782928
-1.5721347 5.3752046 8.463788
-1.3878707 4.4446559 8.3468733
-1.3923423 6.5165033 8.5801201
-2.5731063 4.4282537 8.30264
-0.66019464 7.1836152 8.713747
-1.6849649 4.840199 8.4131632
-2.3578138 4.3051353 8.3662958
-1.4704003 6.5268192 8.5768757
-1.5836576 4.9330173 8.4444761
-1.5787241 4.8502007 8.4118986
-1.2021698 6.0565863 8.5894394
-1.2834008 5.3636885 8.4915333
-1.7867718 4.8384395 8.4059372
-1.5816386 4.6213808 8.4041157
-1.4612197 5.5806961 8.5404606
-1.4935081 5.2597394 8.4976768
-0.79100096 6.5899935 8.6665125
-1.40571 6.2243853 8.5868998
-1.4010479 5.5521097 8.5363884
-1.6909409 4.7157435 8.4366875
-1.7841113 4.4582005 8.2530251
-3.5060182 6.7437034 8.2410774
-0.84431243 7.2695589 8.7269068
-1.2179586 6.4868016 8.6264153
-1.3841796 4.9429407 8.4609995
-1.457216 6.8712687 8.6357546
-1.4874017 5.5003757 8.510726
-1.7945099 4.4349604 8.3157244
-0.40844929 4.8591852 8.6618891
-0.39539981 4.8286943 8.6370335
-4.4777832 7.2033324 8.1780338
-2.3904843 6.9390817 8.3911028
-0.5813899 6.434526 8.8094273
-0.53720713 6.0313253 8.7614803
-2.7795734 6.9463797 8.3421535
-2.2904172 6.9347949 8.4025507
-0.26390862 6.9079132 8.6023531
-0.48752367 5.0624781 8.3156519
-2.0867026 6.72472 8.4896841
-0.50632226 5.5223536 8.5557766
-1.9661964 5.1649361 8.4211407
-4.8332925 7.1988764 8.1273088
-0.57591188 6.8458872 8.4685411
-0.54534996 6.8229661 8.698494
-3.2870851 7.2992597 8.3127279
-3.0887351 6.9974604 8.3007669
-0.55891275 7.1159811 8.7297153
-1.2013515 4.7474775 8.3433466
-3.1807678 6.9831371 8.2937984
-1.8122416 5.2733068 8.4333239
-0.29098225 7.1548648 8.7246962
-0.94173181 6.4744449 8.6181622
-1.2038065 4.5280733 8.2413664
-2.4925532 6.5373254 8.3288851
-3.2859774 7.0017958 8.2809687
-1.6490364 4.9834285 8.4142208
-2.0254972 5.294332 8.3903389
-3.7478371 6.9842901 8.2445612
-0.87505603 7.2465076 8.5292625
-2.9836869 6.5193439 8.2774143
-3.6946981 6.9386683 8.2639818
-3.5680089 6.9518542 8.2658815
-0.88121736 6.130136 8.377491
-3.9493814 5.2843585 8.0514736
-2.9809957 6.9453826 8.3206148
-1.4036598 5.3175144 8.5073357
-3.8883219 6.5358844 8.1904793
-0.60077143 6.1307082 8.3876019
-1.367429 6.40165 8.60952
-1.9551833 4.8395343 8.385354
-0.082663298 7.37991 8.5364618
0.21330476 6.4891582 8.549427
0.40314031 4.4427323 8.4850769
-0.19428277 4.9671955 8.2897139
-0.18148351 4.7438712 8.2953768
-1.502737 4.9783111 8.4087572
-0.38895631 5.3229895 8.6817732
-1.8006355 4.9739575 8.3904791
-2.908541 6.7608962 8.4544029
-1.4200106 4.8662291 8.5083885
-3.8064981 7.7713819 8.2188234
-2.3846455 6.5318456 8.3396263
-3.9120584 6.7277894 8.1923847
-0.70170617 6.3792129 8.5790405
-0.12284589 5.0388899 8.6028872
-1.0672966 5.2118754 8.4493294
-1.0690132 5.535429 8.4663391
-1.4048102 5.5424914 8.4543457
-0.29997027 7.2407298 8.664834
-0.59398484 6.0131254 8.5225
-0.96924007 6.0069261 8.5295906
-0.92090023 6.4358969 8.5712566
-0.44272912 6.3786955 8.6342812
-0.89658654 7.2114096 8.6764917
-0.19366384 5.2681317 8.5643644
-0.66253591 6.6868081 8.6671619
-0.77757275 6.7695522 8.6807451
-0.2102809 6.0466423 8.3683939
-0.81717694 7.4634905 8.7065401
-0.39604545 5.4951172 8.4951849
-0.58795238 6.3752017 8.6119547
-0.099503517 6.1006598 8.6737003
-0.78827488 6.0664411 8.6181145
-1.0799112 6.9960461 8.6972094
-0.31473303 4.4672675 8.5043011
-1.1638966 5.0655999 8.5150433
-1.0774455 5.2406101 8.5183239
-0.39281321 5.0050058 8.5579882
-0.91941154 5.5423112 8.556942
-1.1206803 7.413259 8.7248802
-0.17444301 4.9359932 8.5628347
-0.31676531 6.0827813 8.6681366
-0.52255583 7.3557534 8.7623367
-0.37322927 5.9288545 8.6521645
-0.99874222 7.1714454 8.7150288
-0.17501307 5.2237835 8.5559664
-0.26479566 4.8918204 8.2658348
-0.41677463 5.2712274 8.5797186
-0.29024804 6.225512 8.6522493
-0.091206312 6.3009777 8.7104788
-0.19187951 6.7480717 8.7120466
-0.41469944 6.8953581 8.7380133
0.0026886463 5.9178619 8.6553249
-0.68793786 6.2493782 8.6274614
-0.53506231 4.4952312 8.5106182
-1.1846811 4.7091351 8.4690371
-0.87179208 4.7878151 8.5582676
-0.42947149 5.6431556 8.624753
-1.1253943 6.4066124 8.6407175
-0.59171581 6.4401541 8.6889105
-1.0869706 6.4925423 8.6522799
-0.29652703 4.7054563 8.5278416
-1.3027935 6.0904994 8.5634937
-0.17266655 6.1484928 8.6520844
-0.19161892 6.1812172 8.6580238
-0.17342377 6.5516763 8.7016535
-0.57350516 6.5504403 8.6667376
-0.78947854 5.5068774 8.5127649
-0.75246537 6.0052414 8.5909996
-1.2727956 6.1327748 8.5358601
-1.0588372 6.3162932 8.6004324
-1.0440058 6.4575472 8.6081438
-0.29511452 5.8898687 8.6119776
-0.8864845 6.0949054 8.6196852
-1.1924847 6.1290841 8.5566397
-0.79602563 6.2327504 8.6274776
-0.83419812 6.277565 8.6172142
-0.70937455 6.1923904 8.650547
-0.970801 5.5380692 8.4932508
-0.11740279 6.2010608 8.6577682
-1.2658868 4.8582549 8.4386158
-0.40260482 4.9918184 8.510067
-1.238955 5.1865802 8.4511185
-0.35362864 5.1926551 8.4639034
-0.89338112 5.5402589 8.4921827
-0.2828393 6.1253233 8.607337
-1.2729174 4.917439 8.4649
-0.29519153 5.3525329 8.5664005
-1.1952269 5.573966 8.5065498
-0.16930747 5.5161934 8.5784798
-0.89429927 5.6003771 8.5436325
-0.14762831 5.8958206 8.6304092
-0.25456512 5.2191372 8.5638304
-0.37354088 6.0711889 8.6510096
-0.96749353 6.0879893 8.6004457
-0.46380019 5.2709432 8.5284557
-0.092116594 5.5210056 8.6421728
-0.065143347 5.6106353 8.6135473
-0.7216512 5.5330162 8.5418272
-0.059634924 5.697639 8.6169252
-0.59000516 5.4733739 8.5586386
-0.67634714 5.2035007 8.4475651
-0.3149339 5.5227098 8.5597506
-0.20840764 5.0851622 8.5181923
-0.78603232 5.2119141 8.4882107
-0.19686341 5.4558754 8.5778484
-0.39525294 5.4767876 8.5668488
-0.98090827 5.5729327 8.5280781
-0.26590502 5.462111 8.571475
-0.28922868 5.6036325 8.5736217
-1.1849581 5.2198067 8.4705858
-0.39997125 5.3748646 8.5541391
-0.77446711 4.8820915 8.4013157
-0.27720892 5.2616768 8.5493946
-0.48576689 5.450573 8.5534668
-0.59623647 4.703496 8.4916859
-1.2840056 4.7341418 8.4210863
-1.274525 4.9747324 8.4393702
-0.18200397 5.3759112 8.5691042
-0.47480416 5.2269211 8.5655508
-0.068716049 5.2851701 8.5648603
-0.47884727 5.3827424 8.5607758
-1.090368 5.470643 8.5176668
-0.98190808 5.2829938 8.497407
-0.48975635 5.1637793 8.5382118
-0.68299389 5.2401123 8.5320406
-3.4682512 7.2577333 8.3137245
-0.39523411 4.9384475 8.5168104
-1.6735531 5.0172119 8.4557447
-0.68444896 5.2893105 8.5243816
-3.591501 6.9752574 8.2476225
-0.77894831 4.7112098 8.4883366
-1.1918061 4.9298677 8.4620028
-0.5877521 5.2780466 8.5303879
-3.7120781 7.8564777 8.2176342
-1.0894287 4.9766221 8.4446249
-1.0862486 5.1424589 8.4915504
-0.40083468 5.1779022 8.529067
-0.39966893 5.2705369 8.5388422
-0.69245291 4.9874802 8.4957132
-0.46123981 7.2013731 8.7064295
-0.38259149 5.0668736 8.5238123
-1.5360811 5.2321148 8.4925079
-0.58280945 4.9844785 8.5006704
-0.59551787 5.0479455 8.5090761
-0.48882091 4.9528627 8.4977894
-1.2088224 4.9739542 8.4434805
-2.0125132 6.5084867 8.3900795
-0.59263647 4.937489 8.50634
-0.7819171 5.0551953 8.5009565
-0.58455527 4.8468194 8.4897814
-0.7823602 4.9812965 8.4802828
-0.68346858 4.9304543 8.5015726
-0.48212397 5.4557457 8.3810835
-0.68479931 5.0492172 8.5041533
-0.48917246 4.9351273 8.5259237
-0.069177389 4.9370708 8.5357599
-2.8949454 7.0013828 8.3193178
-0.78525865 4.9246321 8.4970436
0.54126978 6.2895923 8.4142008
0.91789961 6.2619128 8.3641729
-0.27106595 4.9713354 8.4837999
-0.78596842 4.8402567 8.4799252
-0.30030775 4.9299378 8.5314198
-0.68638873 4.8398752 8.4857025
-0.091273785 4.7498055 8.5112677
-1.1746277 4.7515259 8.4335585
-1.1749265 4.8326902 8.4473791
-1.2925828 5.5958967 8.4904985
-0.48581457 4.8386879 8.5023079
-0.18685365 5.0624552 8.3184309
-0.48903131 4.7053995 8.5079298
0.58487821 6.2374072 8.4419947
-0.54347873 4.4999342 8.5389004
-0.66898608 4.6976838 8.5022306
-0.184623 4.7070293 8.5592232
-2.0909801 6.2303014 8.3385963
-3.4101357 6.1239066 8.181385
-0.38897514 4.8480473 8.5140562
-1.1905721 6.728735 8.6246815
-0.78293753 4.6288972 8.4608641
-0.28896832 4.6576247 8.4343615
-4.0667763 6.2259884 8.1422548
-3.9321694 6.2372551 8.1692791
-3.5863748 6.0943198 8.1885147
-3.7123332 6.3136926 8.1794767
-0.49510717 6.7858915 8.8008938
-0.4855839 4.7401376 8.4866228
-4.4766808 7.1462874 8.2015362
-0.18342304 4.7397127 8.4971972
-0.49284708 4.6275873 8.4851446
-2.0888898 5.4631643 8.2497816
-0.38986135 4.7060599 8.5159798
-0.38656449 4.7394485 8.4925261
-0.59615839 4.7368703 8.4727354
-0.68632853 4.7451453 8.4728127
-0.28686297 6.7558546 8.4621229
-0.089042187 4.6293797 8.5227232
-0.87275136 4.6653938 8.4371862
-0.58670866 4.6639004 8.4432697
-0.7893846 4.6581664 8.4332628
-3.5734124 6.6672368 8.2148237
-2.33974 4.909225 8.385354
-3.7767129 6.5458341 8.1973581
-2.0971062 5.0828614 8.3890419
-0.18999171 4.6326251 8.5118351
-1.2883158 4.6195359 8.4312792
-3.515975 7.1781306 8.3724222
-2.6912489 7.1164966 8.4206114
-1.4808965 4.4384856 8.3484249
-2.0476758 5.3361549 8.4378023
-1.6853483 4.439744 8.3293715
-0.69860613 4.6599803 8.4434671
-2.9761515 6.9965491 8.313179
-1.594393 4.447454 8.3473377
-3.3853936 6.9878292 8.2680578
-0.28682578 4.4807849 8.3285217
-0.98602653 4.4334188 8.3907871
-1.3732023 4.4586983 8.277133
-0.19549704 4.8232603 8.5242825
-0.59653497 5.5845008 8.5641336
-1.0896486 4.6691656 8.4057636
-0.97964406 4.3494925 8.3323355
0.59132385 6.263278 8.4243631
-0.294204 4.6197004 8.5003901
-0.78399086 4.7459331 8.4650192
-3.2907386 7.2531929 8.3389711
-0.58130741 4.4407377 8.4294004
-0.58859122 4.5230613 8.4589205
0.42194629 6.268137 8.4043083
-0.39163661 4.519815 8.4757462
-0.18900228 4.5217633 8.4954834
-0.88897812 4.7127414 8.4878349
-0.15969491 4.820848 8.6160202
-1.2323732 6.4030805 8.6228724
-1.6654258 4.4581709 8.2684431
-0.88929224 4.5243039 8.4393826
-0.39270699 4.6133881 8.4913635
-1.3928163 4.8200006 8.4943466
-2.4848533 6.940527 8.3749514
-3.7738545 8.1335402 8.0756254
-0.077506304 5.3714485 8.3747034
-0.79467297 4.7661061 8.2484589
-0.28600895 4.5289779 8.4836426
-0.59948587 5.2386508 8.5370426
0.51478124 6.2242074 8.4402237
0.17714453 5.5059638 8.4972878
-0.29647613 6.7089548 8.7227116
0.00094771385 5.7294865 8.6088524
0.61293817 7.2067561 8.5376711
-4.0710244 7.2266831 8.2427254
-3.8271022 7.9759479 8.2310057
-0.0010056496 5.5437775 8.683301
-3.6997287 7.9585299 8.221159
-1.1889268 5.0696464 8.4647236
-2.7569394 6.9914818 8.3288231
0.67907929 6.1023035 8.4176846
0.42758799 7.1146603 8.5095968
0.40228462 5.5455346 8.4863882
-2.4892492 8.0139341 8.2170792
-2.8743064 8.0110035 8.1761875
-4.6498208 6.9836254 8.1394577
-2.7816908 7.0704737 8.3496542
-3.9207702 8.0634623 8.1818771
-4.1702981 6.833272 8.1752138
-0.37425447 5.68435 8.6000624
0.13454962 5.2609301 8.3328009
-0.078017473 5.2945352 8.3411551
-1.0487598 5.3086109 8.3012896
-0.49750912 5.6836467 8.57514
-0.38133335 5.2717443 8.3182421
-2.7871463 8.057353 8.1714106
-0.087335825 4.5330811 8.4999523
-0.98430395 5.3095288 8.2993212
-0.28878534 5.2901692 8.332634
-0.68764853 5.2899942 8.3033752
-0.87605417 5.3058271 8.3020992
-0.73877418 5.307023 8.3128138
-0.090284586 4.6367321 8.4809513
-1.044651 6.1892276 8.6063223
-0.4836762 5.2773871 8.3206511
-0.58089328 5.3004675 8.3147249
0.044409037 5.6376796 8.6074677
0.30694079 4.8012061 8.4268646
-1.0123531 6.9871202 8.697958
-1.1808754 5.8789411 8.5235004
-1.1704121 6.1917219 8.4084549
0.75352502 5.7942677 8.425065
-2.1962137 6.5388718 8.3638105
-1.0776765 5.9104791 8.565341
-0.48762167 4.5254898 8.4675121
0.014725447 4.5465298 8.2720108
0.41276121 5.7288465 8.3717413
-0.58945096 4.6228867 8.4737988
-0.97603595 5.9477882 8.6219807
-0.13690424 5.6649337 8.5762825
-0.36451674 5.997858 8.3567829
-2.24387 4.480063 8.3714399
-1.1264049 6.0739856 8.5617914
-2.7919488 7.5551119 8.4088831
-2.7823231 8.0114298 8.186676
0.00031018257 5.471261 8.6800032
-1.5852499 4.455091 8.2677946
0.69208479 4.9020696 8.3341532
-2.4357705 5.9316864 8.2896271
-1.9102 6.8605418 8.4225616
-5.1052041 7.9154768 7.9325743
-0.20703292 5.1309576 8.5484037
-0.48210752 4.4364009 8.4370499
-3.0755 7.5509334 8.3979025
-0.58619976 5.3583374 8.5504808
-0.29329133 5.126502 8.5419207
-0.80177712 6.4223814 8.6319838
0.44309402 6.0109267 8.4518633
-0.59154165 5.1546874 8.5211792
-0.68424976 5.1590929 8.514575
0.39917326 6.1051726 8.4310913
-1.2783973 5.9427428 8.4109564
-0.10919547 5.1816125 8.5701599
-2.4818852 6.1766911 8.3089476
-2.6756473 6.1842546 8.2907934
-1.0748581 5.5925756 8.5195551
-0.092045546 4.4379878 8.4556379
0.58471894 6.1981149 8.3824606
-1.3791554 5.591835 8.4830427
-0.30434072 4.4113331 8.4851389
0.70447946 6.0096769 8.4593811
-1.5704345 5.960156 8.3697462
-1.455147 5.7572312 8.4810181
0.61568213 6.0161195 8.455616
-0.78611183 5.3820748 8.5281229
0.42601275 6.0038781 8.398304
0.50459814 5.9747643 8.4489355
-1.3830826 6.2133503 8.4110699
-0.97049546 5.9250631 8.5658026
-3.1830902 8.0449743 8.1300993
-2.9790273 8.0438595 8.1518755
-2.688637 8.0618992 8.1839657
-2.8872662 8.0494757 8.1602831
0.5215385 4.8820353 8.4608402
-0.28928876 5.3724027 8.363183
0.0050079823 4.3902497 8.3377695
-0.8509506 5.3423786 8.5743742
-0.092015028 4.3942928 8.32232
-2.0745604 6.1419511 8.4778852
-1.674885 6.1822629 8.3610058
0.40476465 4.8928518 8.4576044
-0.18802571 4.8756137 8.3952875
-2.0168104 7.3489304 8.4703245
-2.3874662 7.791513 8.2197714
0.42453837 4.81883 8.3482447
-2.3901107 6.185658 8.3194313
-3.3949671 7.2828693 8.3013153
-3.5837669 7.784647 8.1751223
-2.2874186 7.7912002 8.2327433
-0.036136389 5.9544888 8.6515236
-0.90600562 7.3573794 8.5327883
0.60133886 4.8626442 8.3601255
0.30096006 4.8925786 8.4392071
-2.2858663 6.1854329 8.326889
-0.5154736 5.8297896 8.5797129
0.32481718 5.4266777 8.4822159
-3.5730155 7.5122228 8.2921
0.2195189 6.5880842 8.5936584
0.35594797 7.4160371 8.682188
-0.99115419 5.0598912 8.4867325
-0.48123908 5.0207219 8.3600321
-1.0628206 5.4056797 8.3538828
-0.38085067 7.3950677 8.5557547
-2.3874156 6.6234274 8.3537054
-4.1479897 7.1881704 8.2069511
-1.8764714 6.0690732 8.4971733
-0.88746142 4.6170058 8.4559393
-0.2009573 6.0821395 8.644372
-1.6878791 5.8799744 8.3367577
-0.59085083 5.5436463 8.5864887
-0.093903542 5.3386636 8.4182711
-0.37496483 5.9954195 8.4285583
0.51871991 5.0019016 8.4543066
-1.5687596 5.5917988 8.4879799
-0.77680981 5.1194448 8.3532124
-3.5884368 6.3261266 8.1949406
-0.28122282 4.7361565 8.4973669
-0.88751602 4.5062675 8.2487841
0.1043427 4.3804965 8.3403625
-0.48592019 5.1140022 8.378973
-0.47971368 6.0812688 8.4497051
-0.48417568 5.1533442 8.3537493
-2.8873005 8.1339417 8.1779509
-2.4856141 8.1346645 8.2148771
0.11807179 6.0009155 8.4413595
-1.4785941 5.9971461 8.5552454
-2.5850899 7.7916584 8.2162428
-0.093129873 5.855546 8.4760227
-1.1032052 5.9963322 8.5880127
-1.3891366 5.6693306 8.4914894
0.30443525 5.7186217 8.366518
-1.9026644 4.9149117 8.3958836
-1.5286481 5.6342654 8.549839
-0.79916668 6.9365864 8.5042276
0.39202404 6.970787 8.6122932
-0.78658497 5.549603 8.5825872
-0.28664029 5.3329825 8.4060259
-3.1780958 5.7872186 8.1874352
0.35172415 6.0000415 8.4653921
-2.3838704 6.4075794 8.3322763
-4.2480264 5.7798238 8.0819454
-1.4932134 4.9285192 8.4368153
-0.5940218 6.9195695 8.5318079
-1.3730199 6.5874567 8.4225874
-0.38026381 6.427177 8.4284286
0.53025293 5.310914 8.4810495
-0.38515508 5.337635 8.3986006
-1.2893713 5.7692924 8.3581371
0.3979013 4.477951 8.4019995
-2.8580561 8.0852575 8.2355795
0.20868897 5.8425965 8.5127192
-1.301671 6.0244651 8.551342
-0.10084224 6.6421804 8.4610147
0.62245059 5.3310099 8.4682541
-1.877342 4.4544983 8.3267765
-1.2831193 4.4359531 8.3570776
-2.3197668 4.4128385 8.3484383
-0.387905 4.648932 8.4267883
0.21033263 5.3346386 8.4463568
-1.1304377 6.3161478 8.3861427
-0.58734763 6.006505 8.4066401
-1.3869345 4.5142798 8.3957653
-1.7908586 4.52421 8.3717251
-1.8960124 4.5346293 8.357687
-2.7901912 7.29812 8.3608971
-2.6829007 8.1261539 8.1963701
0.42695737 5.0558767 8.3479471
-1.689162 4.5218883 8.3818827
0.33387065 5.6909676 8.4200897
-1.9848911 5.9977274 8.3239031
-1.4786477 4.5207725 8.3922071
-2.4432702 4.5214825 8.3630505
-3.3818643 6.4401217 8.2232704
-3.6836448 7.820138 8.0693007
-2.3331656 4.6306672 8.3531876
0.50045633 5.4293551 8.5020056
-1.1470357 7.438664 8.7181587
0.019371748 5.8653407 8.4823236
-0.14967799 5.7219925 8.3399372
-1.5649086 5.6963015 8.4949121
-2.3691118 7.3430676 8.4370422
-2.3883295 6.4601207 8.3123283
-1.3905128 4.6259074 8.4224749
-1.8847328 4.6115637 8.3759775
-1.4819109 5.2480822 8.2895031
-2.5932574 6.8410139 8.349474
-1.1531324 5.9132433 8.3533087
-0.66890657 5.1550775 8.3413792
-1.3806496 4.7501969 8.4153509
-1.4769707 4.7354846 8.4099312
-2.9946096 8.0911779 8.2050772
-1.6674488 4.7424693 8.4000025
0.19455695 7.2552361 8.6250257
0.21233082 6.3127351 8.4799957
-1.8638272 5.43852 8.3586531
-2.3790615 4.7265978 8.3599358
0.1791501 7.4105754 8.6446199
-1.8471135 6.4256616 8.5086517
-3.3276997 7.1762919 8.4036646
-0.48867977 6.9698029 8.4741049
-1.0641114 5.6525798 8.5286112
-0.3850987 5.3683381 8.3567495
-3.8273873 5.3123145 8.0687313
0.51118207 7.2098579 8.5283775
-0.39283013 6.8561568 8.7221928
-2.2603154 4.934176 8.3840504
-3.4725277 7.5286679 8.3057461
-0.89402711 6.502028 8.4746523
-1.9932139 5.8817425 8.3117075
0.012002707 6.1246786 8.3929167
-1.9611772 4.9885602 8.3878422
-0.20664763 5.8667994 8.4505892
-1.8029076 5.772675 8.3159666
-2.3983543 5.1786184 8.3991632
-2.0940776 4.5129833 8.3544531
-1.0775692 5.8759513 8.3915548
-1.2855755 5.7954826 8.5364218
-4.1686807 5.7691689 8.1034203
0.40854621 5.6116276 8.5097637
-1.3912084 5.7860765 8.3510323
-1.2917633 5.1607299 8.4707146
-1.1868552 5.17452 8.4809637
-0.44936562 7.498632 8.7648115
-0.15261245 5.5566101 8.583415
-0.58478034 5.1503382 8.3516331
-1.0739565 5.2851887 8.4882975
-0.30295336 5.9962239 8.4353619
-0.48934901 5.0128274 8.5647392
-2.2032855 7.7489266 8.3704042
-2.1896636 7.5688448 8.4666872
-1.3952422 5.3975997 8.4781981
-2.5930138 7.6903343 8.4284201
0.50488544 6.5188818 8.5876064
0.20734644 5.7166696 8.3522491
-0.2571888 5.6852975 8.5930595
-0.98598075 5.4697518 8.5260611
-1.1926777 5.4751978 8.5067272
-1.4820853 5.6964464 8.5084381
-1.3904881 6.2742686 8.5981169
-1.0773877 5.777225 8.3692436
-0.52113295 5.7487426 8.3323908
-0.078410149 7.0985713 8.5380201
-2.2827814 8.1293259 8.2366266
-0.68352318 5.6439071 8.4049864
-0.88781977 5.8844628 8.5753727
0.20822263 4.3791137 8.3471422
-0.88044083 5.9971638 8.5839176
0.30911136 5.2673645 8.3409634
-1.2434657 5.8765354 8.5262537
-0.89117503 4.3549705 8.340621
0.62748432 5.2441225 8.4589434
-0.68134737 6.4042373 8.6499414
-0.29031241 5.8641615 8.4507027
-1.4833896 5.5535517 8.3160839
0.56084394 6.1653128 8.3652544
0.23525 4.9510055 8.4517822
-3.4430079 7.9969163 8.2345848
-2.4388909 4.7393851 8.3604383
0.017459631 4.2587533 8.3372355
-0.54425132 7.3098249 8.7463675
-0.37426841 7.2930932 8.7581663
0.54995012 4.8578448 8.2985744
0.0065836906 7.4518814 8.4927435
-0.51619911 7.2965021 8.7362471
-0.67818367 5.5499616 8.5632734
-0.88582814 5.2731171 8.5079718
-0.49441814 6.4261351 8.6569595
-2.1737373 4.5406084 8.3554125
-2.1978912 7.7246809 8.2301054
-0.010322809 6.8612146 8.7467251
-0.27221918 6.3206892 8.6730175
-3.1789069 5.599093 8.1630602
-0.23239517 7.2435303 8.6000643
-0.78644073 5.2839966 8.5191307
-0.98212576 4.7480526 8.453227
-1.473529 4.6120453 8.4154453
-1.1743448 6.0945268 8.4017763
-0.88347554 5.4796023 8.5393333
-1.0844223 5.369051 8.5050316
-1.4873309 5.9882946 8.3599052
-0.41680992 6.7323456 8.6962929
-0.57387471 5.9014864 8.5970097
-0.59043968 5.5206122 8.4959154
-0.78812397 5.1545849 8.5112715
-0.88208842 4.9714527 8.4736137
-0.97833252 4.9573684 8.4542513
-1.0814697 4.8426809 8.4633255
-1.0867352 4.5289288 8.4234695
-0.9683547 6.5516558 8.6376858
0.6671958 5.1200209 8.3898497
0.14403486 6.0570393 8.3494797
0.388906 5.4295931 8.4841757
-0.68797278 6.1003351 8.6369762
-0.88550806 5.706737 8.5659103
-0.9844712 4.8346434 8.4694004
-1.291649 5.6897731 8.3428259
-2.2017486 7.6966219 8.4674597
-3.0921588 5.5617986 8.1756392
-1.1971797 5.9938922 8.3831501
-1.0634953 4.5299177 8.4816332
-0.64852333 7.4439421 8.7425051
-1.7830696 6.070406 8.3509054
-0.2973448 6.7656288 8.7059956
-0.462201 6.6466732 8.6926823
-0.51513493 6.3993516 8.671793
-0.49510193 6.3283949 8.6639748
-0.66941357 6.3009658 8.6496277
-0.48586571 6.0166459 8.620122
-2.8893151 7.6975784 8.3998232
-1.9766904 4.5388365 8.3581905
-0.39064562 5.9624338 8.4699249
-1.3841696 5.2309642 8.4886408
-0.36990142 7.1747932 8.7626772
-0.29416943 6.5322633 8.6953402
-0.38511407 6.2294431 8.6501179
-0.5070622 5.9147496 8.6089602
-0.69655001 5.3753719 8.5340137
-1.1770835 4.5253778 8.4202328
-1.1792336 4.4418731 8.3717184
-0.39082491 6.3257456 8.6549797
-0.56959343 6.3369603 8.6629381
-0.44207311 6.1741099 8.6888208
-0.7179215 5.6421232 8.6106787
-0.87457073 5.2455668 8.5321188
0.47227025 6.5093751 8.6777697
-2.3876929 7.704123 8.4511051
-3.087101 7.2560644 8.3532991
-2.1689427 7.6313424 8.4552917
-2.6870654 6.8411689 8.3398685
-2.6895947 7.260344 8.3859224
-0.17938709 5.3848505 8.3574657
-1.5838259 5.1465349 8.4499454
-2.7946844 5.8615394 8.2345285
-0.34322011 6.5337701 8.7633915
-0.4151566 6.4062057 8.710165
-0.25105703 6.358676 8.753747
-0.73897207 5.6646891 8.6354723
-2.2715738 4.8433881 8.368432
-2.6803823 5.5857229 8.2250719
-0.69695604 6.0170426 8.6147318
-0.68684566 5.6941199 8.5671206
-0.79089892 5.2394438 8.5322781
-0.97813559 5.1534319 8.5030842
-1.0830483 4.6921177 8.4711781
-0.89770937 5.0184541 8.5238171
-0.99196279 5.0176635 8.5145493
-1.4290566 5.9224486 8.3480072
0.20206261 5.9989848 8.4428539
0.21665168 6.1018562 8.4114056
-0.4828012 6.5129585 8.6799526
-0.49529469 6.1560626 8.6284046
-0.78549385 5.9135995 8.5791378
-0.78112602 5.6707401 8.5691843
-0.89940417 5.3708501 8.5285969
-1.0779822 4.9306755 8.4765348
-1.0789783 4.4342823 8.3824606
-2.4772005 7.7592182 8.3338099
-1.0828983 4.622282 8.444067
-0.48718846 5.8769302 8.4399023
-2.981503 6.3238382 8.2576885
-2.0928116 6.0714016 8.3308811
-1.4749289 5.1643014 8.4784784
-2.4899266 5.8724804 8.2655182
0.011605978 4.7980595 8.3844624
-0.90000737 5.0579548 8.4915066
-2.1983011 7.3956223 8.4390564
0.36768222 5.5018425 8.5052156
-2.4807234 5.7732382 8.2609863
-0.089990139 7.344831 8.6323147
-0.98218846 5.0663962 8.2877874
-3.0905297 7.7043138 8.3780251
0.11134624 6.676826 8.4542379
-1.8437254 5.7839847 8.4566174
0.12651062 5.9440994 8.5187054
0.091518164 6.7358737 8.5742111
-1.6688182 4.9593749 8.4470263
-0.48297036 6.004004 8.414299
0.0081820488 5.2882342 8.3432407
0.097511053 6.1212564 8.4148502
-0.38609326 5.5506973 8.4161396
-3.2704449 5.545732 8.1613522
-1.0778737 5.5631356 8.561141
0.32277298 5.1664128 8.3840256
-0.081232071 6.8531184 8.7213507
-2.386694 4.5219684 8.3347073
-0.89184809 6.3085556 8.4200344
-1.5775414 5.0506334 8.4334755
-0.10091424 5.9701862 8.4919043
-2.7953649 8.1323471 8.1856899
-0.36903501 5.8303547 8.5955439
-0.98903048 5.988843 8.5807753
-2.9809484 8.1314936 8.166357
-3.4685602 5.8008227 8.1604223
-1.5947485 5.786449 8.3303051
-0.57802033 6.0965753 8.6401415
0.50643373 5.779089 8.4715271
-3.3704205 8.1097002 8.2103395
-0.36494589 4.7379298 8.2743711
0.021415234 5.9905591 8.4159803
-2.2900479 6.3134117 8.334486
-0.89469051 6.5496464 8.6317625
-1.7766012 5.5601792 8.2937689
-3.1852636 8.1458359 8.1407309
-0.68443584 6.73698 8.456584
-2.6916916 5.8733864 8.2495451
-0.69783545 7.1595979 8.5154953
-2.8916326 6.1438284 8.2369051
0.35022902 6.3180885 8.5165548
0.010916471 5.2327595 8.4074745
-0.48341107 6.2245626 8.6405039
-3.1681485 8.1039686 8.234539
0.22336197 5.1214442 8.4498644
-2.2164762 5.4020629 8.4445267
-1.1791186 5.7857575 8.5660076
0.52254319 6.3382125 8.4504128
-3.9856715 7.9373426 8.2191181
-2.5916333 7.1593289 8.3805857
-2.3134027 6.2147593 8.3160954
-1.2913923 5.2753153 8.4744968
-0.4210819 6.6208439 8.5544109
-0.75857306 6.1902204 8.6548758
-2.2858932 7.3869395 8.4343615
-1.8077307 6.5155864 8.5284958
0.16262364 5.5040555 8.4898024
-0.081734896 7.1748552 8.5750675
-1.993423 7.0937696 8.4562016
-0.4809742 7.1163864 8.5784645
-2.4014528 7.7635355 8.3309708
-2.3819375 5.6180358 8.2662077
-0.17260504 7.1559367 8.5682306
-2.8829553 5.7857814 8.2142782
-0.20987439 7.1847196 8.6294928
-2.1035516 7.7598534 8.3625393
0.015998602 5.9606032 8.5046959
-0.094507933 6.0088859 8.4151087
-1.4413168 5.1307707 8.3957958
-2.3877838 7.3810735 8.4234781
-0.77618551 5.7691822 8.5839405
-2.0750349 5.9972067 8.3135271
-0.28366721 5.6479001 8.4408779
-0.69617736 5.4677453 8.553853
-2.2917295 7.7601733 8.3518524
-3.0119486 5.5675135 8.1894197
-0.89001584 4.9496312 8.4986305
-0.1848979 6.6372433 8.5104017
-1.4808664 5.3912272 8.4898891
-1.4042709 5.6459813 8.5582924
-1.2967849 5.5816097 8.3420153
-0.15836692 5.8015203 8.6288605
-0.97929692 4.7091494 8.47822
-0.87820852 5.9063177 8.3672981
-2.3872249 8.1331739 8.2283735
-0.5803287 5.7829332 8.4004774
-1.5011733 5.0656352 8.451561
-3.083518 6.754941 8.2863007
-0.71718049 5.7639623 8.583993
0.66535759 6.6921687 8.5715637
-2.7792416 5.7811837 8.2271481
-3.3780293 8.2311316 8.1418753
-0.67926335 6.7704511 8.6847248
-2.6813934 6.3132877 8.2898245
-0.53940558 6.7673397 8.6867237
-2.0138767 7.5524898 8.4719963
-4.1000171 7.9666371 8.1818514
-1.1748662 6.039072 8.5759087
0.10696507 7.4256425 8.6580381
0.044536591 6.8546119 8.5037842
0.13836575 6.2155466 8.4415913
-1.0895764 5.5538678 8.3445702
-2.8985038 5.8253756 8.1954575
-1.1912006 5.3610401 8.4959669
-0.31742632 5.7676082 8.6048574
0.019320011 5.1510201 8.378459
0.19624162 5.2310896 8.4333162
-2.5967011 6.1694136 8.2892065
-0.38678789 5.1466565 8.3548107
-0.28871667 6.663373 8.6778383
-1.2827033 5.6551142 8.3578691
-0.7811271 5.7865257 8.3934774
-1.4835763 4.6521754 8.3738871
-0.57409894 5.7084832 8.7067757
-2.5800009 7.3111162 8.376833
-2.0943952 4.6231394 8.3727617
0.20435834 4.4742002 8.3846436
-0.68616843 5.5968451 8.5520229
-2.5851471 7.8186135 8.1749678
-0.59400606 5.784986 8.5994368
0.08959198 4.5957408 8.4927979
-3.4980478 5.8463979 8.1655369
-2.2705212 5.7775884 8.2799053
-2.9822574 7.2938166 8.3433971
-2.8783436 7.3025122 8.3533878
-1.7004278 5.5643435 8.3031902
-1.6022191 5.3102727 8.3167791
-1.3691615 6.7571039 8.6159801
-2.5927508 6.9369316 8.3607187
0.59069681 5.5545774 8.4780693
-3.4722838 7.0599418 8.2798071
-3.4886484 7.2797675 8.2936506
-0.89044845 4.4413409 8.4049873
-2.5730791 5.9089737 8.2534847
0.034202814 6.2820377 8.4094954
-2.8915281 7.6059394 8.3856564
-0.47442448 4.8762798 8.3758688
-2.0901697 7.5700884 8.4803009
-2.9848876 7.7036123 8.3875942
-3.2842021 6.7467937 8.2608471
-3.2851562 7.7683859 8.3650503
-3.2779412 7.7723045 8.2708158
-3.0982807 5.6054487 8.1727037
-0.1050334 6.0361414 8.5456343
-2.0852206 7.1612935 8.441144
-2.754972 7.939961 8.2508364
-0.18211985 7.3305874 8.6182585
-1.9004183 5.7219 8.4870424
-1.0475556 6.5713372 8.4996023
