# .PCD v0.7 - Point Cloud Data file format
VERSION 0.7
FIELDS x y z
SIZE 4 4 4
TYPE F F F
COUNT 1 1 1
WIDTH 1558
HEIGHT 1
VIEWPOINT 0 0 0 1 0 0 0
POINTS 1558
DATA ascii
24.010729 -6.4029241 17.010939
25.600151 -6.6329079 16.916483
27.876423 -6.5652356 17.081369
26.602962 -6.3796673 16.919695
27.199348 -6.3934565 16.685307
26.205725 -6.4596004 16.752182
30.190639 -7.0221901 16.976971
25.603828 -6.3740015 16.404707
26.104879 -6.3816538 16.702019
26.201565 -6.3915739 16.458551
24.593485 -7.0427155 16.986824
28.699987 -6.400475 17.030619
29.60449 -6.826942 16.981609
29.219109 -7.3938184 16.559881
26.406118 -6.456625 16.966681
24.809713 -6.3481016 16.386854
29.894684 -6.731832 17.009943
25.21097 -6.4407597 16.459476
25.079773 -6.4749947 16.768917
29.306677 -7.6637883 16.637543
26.702839 -6.458797 16.964973
25.514559 -6.3629408 16.404953
25.611116 -6.3916855 16.803749
28.008656 -6.881742 16.910975
28.514549 -6.6456261 16.887472
25.12229 -6.3869624 16.488829
25.712252 -6.366282 16.404768
24.825626 -6.4108615 16.367949
29.496578 -7.669425 16.916254
24.505043 -6.379858 16.818918
25.505779 -6.4387918 16.439875
25.721611 -6.8717332 16.936333
23.996887 -6.3357043 16.92486
24.912663 -6.3439193 16.619766
27.691368 -6.3470526 16.807619
27.704515 -6.4676223 16.500269
27.008533 -6.4234672 16.545265
25.089748 -6.751368 16.90428
24.181488 -6.3499689 16.439322
24.712479 -6.3692098 16.79694
25.252153 -6.2183952 16.731312
25.406879 -6.3612642 16.410496
25.268602 -6.1489453 16.708694
28.36245 -6.3380971 16.774702
26.111879 -6.6560292 16.906799
28.90593 -6.4724045 16.925306
25.39888 -6.3781266 16.703482
26.108009 -6.4587827 16.745495
25.187618 -6.4896402 16.854958
28.506613 -6.4699302 16.931973
29.10191 -6.420053 17.028452
28.202871 -6.4721203 16.491341
28.531946 -7.6386824 16.562628
28.305882 -6.4052563 16.961214
27.553095 -6.3333802 16.594168
27.106806 -6.4371443 16.868694
29.407711 -6.3036318 16.788044
29.415623 -8.1050234 16.487946
25.216253 -6.682158 17.021099
29.022129 -6.3054199 16.764475
29.11161 -6.3039818 16.786758
29.858046 -7.9645538 17.004799
26.201826 -6.4120398 16.779016
25.205929 -6.3419728 16.598143
26.593485 -6.7342134 16.874023
29.805143 -7.5874252 16.963799
30.455956 -7.6308684 17.069674
26.914486 -6.5995827 17.177774
24.031307 -6.4916101 16.809469
27.910536 -6.4445071 16.849194
27.799612 -6.6111512 16.71982
26.815462 -6.5511603 16.687263
25.764866 -6.5368719 17.165842
27.076773 -6.9603171 17.183821
29.6989 -6.8324461 16.991377
28.404753 -6.4721398 16.488976
28.529869 -6.5566597 16.749224
26.217529 -6.5174766 16.619539
25.220753 -6.519577 16.647467
29.217649 -8.0815401 16.870724
30.477858 -6.4066505 17.00588
25.89809 -6.9460549 17.197674
29.489777 -7.0327101 16.990562
26.891056 -6.8234015 16.99859
27.935032 -6.5826349 16.642036
26.88332 -6.5436673 17.129301
25.919991 -6.5414615 17.151131
25.673016 -6.6011553 16.788401
25.894756 -7.0400505 17.043388
26.205992 -6.5063939 16.847078
28.809881 -8.3668699 16.820873
25.963734 -6.9151921 17.216974
26.016285 -6.5327692 17.187939
25.101313 -6.4458899 16.998604
30.311665 -6.3690209 16.912115
29.007481 -6.818305 16.984926
29.096693 -6.8780069 16.885399
26.665035 -7.0134273 17.198618
24.741657 -6.4711223 17.171158
25.800457 -6.4939141 16.857616
26.503517 -6.492023 16.852104
29.598379 -6.4408865 17.033056
25.167877 -6.9183187 17.237835
28.600357 -6.3441653 16.553978
27.184193 -6.8202 17.178652
25.997551 -6.4942832 16.857929
29.113129 -7.4104028 16.564377
26.688707 -6.9411602 17.080215
28.314056 -6.4030709 16.435251
27.166279 -6.9702764 17.183985
28.172443 -6.8687358 17.156965
28.260204 -6.5920444 16.647663
27.213367 -6.5659089 17.121658
30.32152 -7.0218372 17.076208
29.100018 -6.8206687 16.978491
25.407219 -6.4040284 16.572826
25.402367 -6.4995689 16.877911
25.701092 -6.4431601 16.432993
27.195343 -6.5626512 16.724167
26.106405 -6.4864416 16.837433
24.272217 -6.5993538 17.048891
29.26749 -6.3243985 17.027271
24.762302 -6.3246145 16.836248
28.327868 -6.9373088 17.026182
23.988527 -6.4599838 16.995869
30.293289 -6.5055647 17.02075
28.521784 -6.3127255 16.994305
24.790459 -6.7090306 17.07818
28.785784 -6.801157 17.078203
29.97756 -7.634975 17.031015
24.704233 -6.3575125 16.870886
24.314573 -6.3406668 16.608553
27.199488 -6.8294134 16.994757
25.992607 -7.0802393 17.111183
30.306023 -7.8107176 17.032421
25.025219 -6.9646826 17.085587
25.599493 -6.9698424 17.074364
29.989529 -6.7483335 16.982256
27.185501 -6.7162662 16.89216
24.940533 -6.9596777 17.07501
25.986895 -6.8715682 17.092863
27.103344 -6.5176134 16.591578
26.025461 -6.9460206 17.081203
27.089653 -6.9245214 17.072802
25.209385 -6.386023 16.494637
27.503023 -7.053534 17.016859
25.382154 -6.9600325 17.082241
24.396973 -6.8168559 17.076923
28.531618 -6.8131018 17.082186
25.499258 -6.5882192 17.037338
26.47711 -6.5187354 17.045176
24.511583 -6.403904 16.50334
25.025614 -6.3878326 16.811007
25.420149 -6.7299452 17.055771
28.601501 -6.5341892 16.671364
25.422581 -6.4569526 16.759882
25.103207 -6.9332781 17.031708
26.239157 -6.9676371 17.053967
25.225384 -6.9454236 17.070879
25.729891 -6.9572473 17.069805
25.324471 -6.3939695 16.791731
29.793419 -7.6735845 16.963089
26.509218 -7.0460749 17.033791
28.128548 -6.7852225 17.124319
25.002356 -6.7181473 17.06517
25.044178 -6.4000158 16.997707
29.107651 -6.5995607 16.969954
26.211811 -6.5470839 16.728355
25.09938 -6.828886 17.068352
28.21999 -7.012434 17.092707
26.105511 -6.9645319 17.069069
28.210903 -6.7712212 17.124273
25.119881 -6.6031818 17.058907
25.210052 -6.3970532 17.009052
26.998415 -6.8447804 17.007505
26.31143 -6.9690013 17.049137
27.102755 -6.6501598 17.050636
25.011896 -6.5804834 17.022141
27.125683 -6.5228596 17.033287
26.110157 -6.4581885 16.973917
25.089981 -6.3703675 16.701586
25.102417 -6.398478 16.804615
26.10202 -6.6761217 17.089369
28.308914 -6.5583014 16.92697
26.105072 -6.5187855 17.040483
25.088306 -6.3846436 17.011652
25.193941 -6.3986106 16.815424
28.51309 -7.1353579 17.054861
26.430143 -6.9515343 17.054398
26.899996 -6.967926 17.059792
25.421417 -6.6070104 17.03882
25.829216 -6.9720731 17.06929
24.809347 -6.8230991 17.070126
26.915791 -6.7247076 17.048061
24.871252 -6.3949256 16.78594
25.909161 -6.3985744 16.792994
27.815609 -6.4937081 16.593073
24.650164 -6.365376 16.829357
25.986181 -6.6730466 17.078506
25.710518 -6.928299 17.008816
25.806524 -6.4554338 16.97855
25.800692 -6.4257598 16.66087
24.776371 -6.4016557 16.816715
25.720936 -6.5115695 17.030998
26.708857 -6.9111581 16.969795
25.921701 -6.7828708 16.969486
26.004894 -6.3880005 16.457071
29.000547 -6.4241028 17.026896
25.806829 -6.3879013 16.463964
26.794847 -7.0486031 17.016474
29.697859 -7.8776302 16.887085
29.10268 -7.8562121 16.871025
27.105568 -6.5955148 16.981888
29.60775 -7.8447218 16.87775
30.109879 -7.7483563 17.000763
26.507023 -6.4578772 16.967319
30.16304 -6.931962 17.036474
27.647913 -6.8762665 17.087618
25.590498 -6.6510148 17.072359
26.005686 -6.7897201 16.963053
27.485788 -6.8580704 17.08009
24.503149 -6.4907074 17.096758
27.814459 -6.9167914 17.038925
25.715572 -6.6037755 17.016258
25.812103 -6.6427393 16.940308
26.911238 -6.5931902 16.986153
26.805574 -6.9101682 16.967962
28.704302 -6.9052644 16.944576
27.701138 -6.4235435 16.766354
26.09709 -6.4037943 16.789873
26.420715 -6.3884335 16.929369
25.611692 -6.4543538 16.980852
27.811266 -6.8777461 16.91481
26.620087 -7.0350084 17.030676
28.417692 -6.7463341 17.01346
28.001373 -6.9647341 17.046049
26.698936 -6.4160929 16.772814
27.904684 -6.6874871 16.949303
25.209137 -6.7300086 17.07115
28.310061 -6.8205161 16.979237
26.404665 -6.411725 16.785772
25.610022 -6.3820105 16.470993
28.503052 -7.089653 17.062321
27.404551 -6.5979257 16.973957
28.212938 -6.3963766 16.416576
28.704678 -6.4442716 16.835958
28.981258 -7.8672256 16.941162
28.92053 -7.0172153 17.077639
27.300812 -6.9516473 17.045725
25.617661 -6.747962 17.039238
28.323185 -6.510675 16.563004
28.818464 -8.3835611 16.853926
25.612352 -6.9169459 17.011452
28.39747 -6.6029835 16.973072
27.208826 -6.6391697 17.05427
26.111219 -6.6913781 16.986435
26.106447 -6.5947752 17.003321
27.797817 -6.5177603 17.015804
29.420826 -6.5158105 16.567574
24.113085 -6.354917 16.730486
28.708221 -7.0090694 16.916445
26.504477 -6.7876039 16.956387
27.603563 -6.5690985 16.940372
29.265413 -7.2576494 17.008709
26.986063 -6.969975 17.034098
28.111609 -6.8459382 17.07692
25.804432 -6.5838208 17.017714
26.888159 -6.515564 16.601881
26.200609 -7.0086279 16.966166
26.206081 -6.6949396 16.983015
26.305601 -7.0099416 16.965076
26.310089 -6.8200598 17.011297
26.309036 -6.6009789 16.999662
26.306847 -6.4584031 16.972656
26.602964 -6.4564996 16.964394
30.490492 -6.5279579 16.998102
28.096672 -6.9170737 17.194574
28.1024 -6.6065178 16.966343
28.001093 -6.5825539 16.658167
26.002623 -6.4013491 16.789579
29.309275 -8.0587845 16.550314
27.394487 -6.7597332 16.840769
27.314919 -6.3874292 16.688595
28.485466 -6.3644643 16.346422
27.296761 -6.3694291 16.371241
26.192793 -6.4040623 16.988718
29.798782 -7.9501438 17.004307
26.307648 -6.6943731 16.981697
28.593349 -6.3733392 16.663713
27.426796 -6.2861333 16.509838
28.711027 -6.8788424 16.899721
28.097389 -6.7200522 16.855522
25.796606 -6.4548573 16.750153
29.201773 -6.3760414 16.643698
26.906067 -6.3207202 16.619734
28.002377 -6.4314055 16.535694
27.836506 -6.7727504 16.865366
26.602514 -6.3899264 16.693432
28.991457 -6.7949424 16.91815
27.794689 -6.5567379 16.931059
29.400249 -9.7030668 16.960873
26.198334 -6.6611428 16.911116
29.69335 -6.6026392 16.975103
29.316475 -7.9584455 16.866766
25.628693 -6.8734946 16.933273
27.502649 -6.9126539 16.957375
27.205097 -6.6908913 16.961155
25.394768 -6.6613221 16.917711
25.409756 -6.4571242 16.994522
26.00773 -6.4261947 16.883909
25.218121 -6.3570652 16.409262
29.499641 -6.8404388 16.979097
26.611246 -6.7913084 16.960119
25.386108 -6.7550001 16.903772
25.403704 -6.551877 16.941326
27.368412 -6.5990834 17.179607
28.082809 -6.9682045 17.03801
25.705767 -6.7976131 16.981686
26.908321 -6.6880102 16.971075
25.702873 -6.4529505 16.978514
25.710249 -6.3958373 16.793694
28.814512 -6.9354682 17.015539
25.288845 -6.7977719 16.984402
26.701948 -7.0381265 17.025738
29.262287 -7.2016587 16.869102
26.906607 -6.417079 16.773039
28.801226 -6.5976825 16.961624
29.403818 -7.0052524 16.924078
25.808765 -6.5646191 16.95261
28.305319 -6.5959077 16.967333
26.606043 -6.6911192 16.975697
27.802275 -6.5963507 16.969442
25.403948 -6.786499 16.967606
27.200663 -6.5541115 16.94799
25.417799 -6.4215798 16.898277
27.805799 -6.4251232 16.769274
28.803707 -7.6419492 16.784008
29.309612 -6.8311477 16.984039
29.296944 -6.6065784 16.974062
26.004463 -6.6891041 16.989048
26.50383 -6.6898527 16.976839
29.704826 -6.7031608 16.934551
28.809841 -6.449266 16.613022
29.200605 -6.9105496 16.944431
29.099304 -6.9154792 16.951311
26.706213 -7.0159283 16.953365
27.913391 -6.6419325 16.895168
26.410725 -6.5955486 17.169077
28.402863 -6.6907792 16.947929
29.598145 -6.5129595 17.001148
27.126015 -6.6506834 16.909395
27.705723 -6.6013708 16.970531
28.502384 -6.4443598 16.84066
29.492582 -7.0195718 16.908136
29.408211 -6.8799071 16.871815
27.715647 -6.5147328 17.016787
28.40733 -6.465641 16.717117
28.686197 -6.9832773 17.013058
29.891136 -6.3953381 16.941593
27.992247 -6.5161238 16.584518
28.802732 -6.9174409 16.948008
27.288385 -6.5088859 16.604555
26.809641 -6.6922975 16.968895
29.59317 -6.603848 16.990143
28.107519 -6.5179873 16.591944
28.998837 -6.4762998 16.921906
27.691202 -6.5186176 16.595648
25.502644 -6.5125399 16.867445
26.200602 -6.8721447 16.925945
30.123535 -7.4736824 16.999166
26.405754 -6.8825388 16.924414
26.402445 -6.6470942 16.907955
27.710276 -6.5583162 16.935244
27.133318 -6.738873 16.851021
28.386799 -6.5016141 16.572147
25.195955 -6.4206996 16.901541
25.092569 -6.4230661 16.365196
28.311621 -6.691021 16.950827
26.912277 -6.5432425 16.686493
24.808435 -6.3370185 16.620163
28.007198 -6.9143205 16.948969
26.703882 -6.6946259 16.972507
28.006952 -6.6064639 16.970236
29.195726 -6.5066605 16.561522
26.699751 -6.5520978 16.949837
27.398853 -6.8796644 16.92527
24.992626 -6.5403767 16.422642
25.907503 -6.6945047 16.991367
27.201281 -6.5996027 16.98011
24.709993 -6.5130324 17.090826
27.608435 -6.692873 16.955814
26.310169 -6.5686607 16.947615
28.60474 -7.0074663 16.91647
29.894957 -6.5888481 16.980719
28.604374 -6.693459 16.939047
28.502571 -6.4662046 16.483889
28.802999 -7.0066004 16.916992
27.505131 -6.5606179 16.945271
28.502899 -6.6890779 16.940762
28.40988 -6.4469042 16.616581
28.009007 -6.7908001 16.933506
28.010584 -6.5611796 16.927343
27.604856 -6.8785477 16.919025
28.901005 -6.687017 16.937279
28.996277 -6.8817596 16.88595
30.388321 -6.7828941 16.902498
29.099442 -7.0099783 16.918587
27.700655 -6.8820019 16.918404
23.825979 -6.382175 16.819288
24.606369 -6.4411578 16.684666
29.197157 -6.6429181 16.885578
29.298389 -7.0140858 16.919317
27.912132 -6.8747239 16.91083
29.311224 -6.9157085 16.948727
25.402319 -6.4299259 16.375092
25.019499 -6.9335542 17.033175
28.101324 -6.9193244 16.951342
29.784258 -6.7349677 17.013752
28.687487 -6.5001159 16.585285
28.926432 -7.6212211 16.549435
25.323584 -6.3976607 17.002352
27.48933 -6.3832455 16.672873
25.199903 -6.4341016 16.367842
28.201134 -6.6256056 17.085304
27.004772 -6.9109702 16.966415
24.300562 -6.4030838 16.423525
28.802786 -7.7852864 16.719316
25.997002 -6.3432188 16.832006
29.50742 -6.491292 16.809425
29.102043 -8.9201498 16.529688
24.816832 -6.4884901 17.015371
29.505972 -6.610579 16.980852
28.208437 -6.3682065 16.883976
28.70454 -6.5579209 16.913214
27.491467 -6.4967375 16.586443
25.998257 -7.0304627 17.041679
29.297089 -6.4912395 16.808569
29.013525 -8.9192982 16.556284
27.605429 -6.49792 16.588051
29.81583 -6.5103645 17.00198
29.116341 -8.8610811 16.868038
24.94068 -6.5303292 16.96526
27.804506 -6.6338887 16.918625
29.102699 -8.692874 16.536087
25.985472 -6.3715219 16.925329
29.003733 -6.9150734 16.947147
28.685715 -7.111619 17.049547
25.002405 -6.5679517 16.950457
24.022511 -6.3340163 16.767595
29.499844 -9.4236116 16.472965
28.91605 -8.0880213 16.865589
30.193401 -7.9461317 17.002407
29.204407 -6.9568186 17.018862
25.716423 -6.7014403 17.009668
28.90686 -6.5563898 16.90184
26.805159 -6.4322972 16.87792
27.205029 -6.7933245 16.949013
24.085285 -6.3886766 16.835957
29.212341 -7.020731 16.987186
25.009176 -6.3923769 16.59557
26.301596 -7.1826735 16.885038
25.326834 -6.5483098 16.947214
29.390438 -9.06633 16.556938
25.802101 -7.0327749 17.037628
29.711271 -6.422781 17.03137
30.380455 -7.2476606 17.080429
25.102531 -6.1827731 16.611923
25.314053 -6.3646512 16.402855
27.201233 -6.4554982 16.957697
28.812771 -8.8960247 16.54493
25.909918 -6.4049106 16.572386
26.18655 -6.776804 16.873583
29.254131 -6.4275765 17.007565
30.113802 -6.7369146 17.025503
25.502472 -6.5666957 16.957644
28.302576 -6.4334893 16.526606
29.386726 -7.9754319 16.582781
29.707659 -7.3998036 16.536348
26.003508 -6.4276357 16.661304
28.016266 -6.3401136 16.58308
27.301058 -6.3994031 16.447622
25.706623 -6.4219961 16.891525
28.833847 -6.5579262 17.089514
25.02212 -6.5371828 16.752113
28.508289 -7.7423258 16.651369
27.808884 -6.8114858 16.978848
27.910555 -6.8297758 16.984282
26.409449 -6.5963664 16.996677
25.904793 -6.3677311 16.399347
26.305889 -6.8768473 16.92713
26.679745 -6.7451754 16.870798
25.017193 -6.4112234 16.920727
29.608341 -7.228682 16.919634
25.915905 -6.4594646 16.756828
24.191874 -6.3930221 16.709877
25.509026 -6.8670392 16.918606
25.022415 -6.3784428 16.963253
26.335459 -6.7578559 17.059328
28.322821 -6.3623471 16.649416
25.617941 -6.3684654 16.94005
24.711838 -6.8989282 17.061892
28.702791 -6.4703665 16.932085
24.984135 -6.3707666 16.401609
29.693268 -7.0286222 17.001207
26.615538 -6.4927201 16.832338
26.903828 -6.4339304 16.643806
28.204308 -6.4658957 16.935541
28.508316 -6.4284296 16.523623
27.008173 -6.3999524 16.449524
29.012449 -6.2770252 17.021193
28.60675 -6.4701581 16.931194
28.799833 -6.3711252 16.887274
27.605404 -6.4267602 16.534153
25.991383 -6.3718591 16.618959
29.093571 -7.0409083 16.982248
28.105087 -6.8191533 16.978571
25.910271 -6.9191222 17.000528
25.312056 -6.5345731 16.747637
28.306704 -6.3689184 16.871286
26.811827 -6.3986793 16.446743
27.091833 -6.732038 17.052906
25.600653 -6.3920708 17.00053
27.203499 -6.4224296 16.774015
28.500641 -6.4984145 16.990545
24.778189 -6.6785078 16.926096
23.753246 -6.5046983 16.839596
29.59914 -8.0508728 16.556139
30.108053 -6.7963696 16.992287
26.203386 -6.4260345 16.664768
27.901876 -6.4664865 16.939165
24.565964 -6.2913661 16.884661
29.406162 -7.0941291 16.889225
29.514078 -6.653801 17.059597
29.620766 -7.5692086 17.08057
27.603971 -6.7251148 17.030941
29.106674 -9.0011892 16.511862
24.615341 -6.3099208 16.643238
28.301052 -6.5131631 16.990343
24.684608 -6.3671775 16.962305
28.306673 -6.4205031 16.74575
28.725822 -8.0865335 16.634417
25.403961 -6.1729512 16.85729
27.105701 -6.4213448 16.770954
28.796753 -9.0044861 16.533524
29.297728 -8.3547735 16.81674
26.93182 -6.59269 17.078062
28.800848 -7.7094026 16.741997
28.924362 -8.9279127 16.520926
26.413158 -6.4261403 17.057817
27.411074 -6.9115319 16.960428
25.368671 -6.6673784 17.226576
29.904211 -7.265274 16.999262
25.301064 -6.1514459 16.820059
28.922558 -8.8089523 16.816942
26.394173 -6.8108754 17.007086
28.794119 -9.2092819 16.782101
24.712547 -6.401547 16.906134
26.703819 -6.4179349 16.556877
28.703705 -6.3529606 16.870899
26.892792 -6.6529093 16.91497
27.219776 -6.787786 17.220753
28.902103 -7.7034583 16.741026
27.49695 -6.8748169 16.919279
29.105234 -8.929059 16.841236
28.901217 -6.78795 16.913116
25.700672 -6.3340335 17.067371
26.60915 -6.8212304 16.99947
27.803635 -6.6863699 16.950575
27.506315 -6.8257093 16.984453
25.59919 -6.6929121 17.008268
25.688622 -6.8150663 17.02322
28.800638 -6.8178062 16.967817
26.604765 -6.4173326 16.557098
25.716728 -6.3726506 16.94124
29.010662 -6.5083828 16.992781
28.140076 -6.3126373 16.713203
29.708822 -7.556385 16.904753
30.115582 -7.0127378 17.003286
29.408638 -8.7234182 16.4571
25.293705 -6.9654121 17.070623
26.413658 -6.6967235 16.978189
25.29908 -6.4410505 16.461752
24.841675 -6.3613868 16.917246
30.112543 -8.7603607 16.948187
29.190842 -6.4969821 16.810013
25.08828 -6.3543921 16.400347
28.904608 -6.6002955 16.959707
25.406397 -6.4273834 16.667328
27.699753 -6.4377761 16.634132
28.586132 -9.2474871 16.595737
29.879179 -8.1128683 16.855625
28.50745 -7.0390067 17.002213
26.714195 -6.3952103 16.698717
25.311403 -6.3645425 16.9338
25.297256 -6.815896 17.037201
26.903471 -6.402657 16.45561
26.301138 -6.5131779 17.020782
28.909782 -7.520052 16.61731
26.901339 -6.7832375 16.95549
28.700665 -7.7015367 16.742384
29.784609 -6.420311 17.002028
28.004349 -6.5246253 16.996181
25.199404 -6.4995537 17.05813
29.687475 -6.4800148 16.803951
24.69709 -6.3837509 16.984005
26.503748 -6.3911881 16.695141
24.619965 -6.4585752 16.838781
28.895184 -6.3908429 16.647915
28.104694 -6.4716144 16.940454
28.499599 -6.7891417 16.922098
27.305105 -6.4228549 16.545584
30.071861 -8.4223318 16.968845
27.003458 -6.4350381 16.643223
25.202232 -6.5605478 16.949646
27.30407 -6.6923409 16.961884
24.920321 -6.3885183 16.497742
28.804037 -6.4673939 16.927109
29.498159 -7.6472416 16.882479
27.705023 -6.6874933 16.956829
28.312092 -6.489717 16.811998
29.812632 -6.8236661 16.981581
29.200455 -6.4325442 16.834545
25.411129 -6.8166428 17.033432
26.300333 -6.7826986 16.961264
29.815638 -9.6065884 16.90115
29.732773 -8.997612 16.91363
28.830282 -8.5846405 16.807816
26.997818 -6.4940662 16.827841
28.902153 -6.4386196 16.835501
24.481323 -6.7220273 17.056637
30.261431 -9.0058651 16.965181
29.095818 -9.4440269 16.540049
27.600582 -6.4583807 16.946493
28.931784 -9.8685904 16.482157
29.599699 -7.6221929 16.545717
25.11446 -6.3638859 16.922564
27.701246 -6.4254084 16.53606
30.112329 -7.0983114 17.022829
26.095537 -6.3664274 16.616045
28.00779 -6.4203019 16.767584
28.804033 -6.558476 16.906704
27.647793 -6.9756474 17.032763
28.510174 -6.4886813 16.801979
27.311668 -6.8244019 17.00256
29.704975 -8.3548956 16.936293
27.2964 -6.759666 16.870476
26.505262 -6.4330688 16.652708
27.3071 -6.4231925 16.770916
29.398796 -6.4209514 16.607946
25.899729 -6.3994484 16.984295
29.093544 -6.7892566 16.907103
27.403 -6.4198751 16.775633
28.910431 -6.3617187 16.869877
25.513508 -6.4698825 16.547209
30.212051 -6.4309292 17.014368
26.698936 -6.5058002 16.843285
29.107513 -9.1143322 16.82098
25.597021 -6.4413314 16.444223
25.930437 -6.2637758 16.746906
26.898275 -6.3873854 16.690794
24.011524 -6.3193307 16.849525
27.607864 -6.4387431 16.856689
28.7026 -6.4222946 16.519247
29.598133 -7.405283 16.544115
29.003267 -9.1235428 16.809126
25.505785 -6.394938 16.802158
28.431936 -6.3802476 16.903543
24.256287 -7.0918927 17.03233
28.843737 -7.3053775 16.627226
29.703911 -7.7078352 16.526911
29.738035 -6.9018354 17.052567
26.403158 -6.4934416 16.84239
29.217066 -6.3944941 16.942917
28.00572 -6.4656601 16.938126
29.101959 -6.4478645 16.603197
26.280247 -6.3442802 16.62973
26.102373 -6.820827 17.019552
28.692446 -6.7289472 17.005333
29.936192 -6.4274554 17.005341
24.634722 -6.3886433 16.937405
25.903852 -6.3794575 16.927071
29.194069 -7.7413621 16.821751
27.867634 -6.6445575 17.194046
29.201088 -8.907939 16.806606
29.209248 -7.8520393 16.87163
25.905655 -6.4416261 16.427353
28.996016 -6.3670263 16.864649
26.7999 -6.4350047 16.649805
25.025312 -6.3832569 16.479658
28.791269 -6.7271762 17.001354
25.909958 -6.4185238 16.658484
24.310299 -6.410953 16.571821
25.438946 -6.6401463 17.093977
29.699133 -7.6654491 16.894768
28.203878 -6.6916909 16.947783
27.713621 -6.8309331 16.987478
30.324902 -8.4369736 16.989986
29.513887 -8.7534313 16.561127
25.020802 -6.5285535 16.873899
25.025637 -6.8435297 17.048687
24.216791 -6.4611697 16.798935
26.501434 -6.4612994 16.740547
24.422121 -6.4065561 16.903336
29.810385 -8.4173851 16.956314
29.055676 -7.2614126 16.860069
29.80818 -7.2433815 16.93685
28.915651 -6.6046872 16.805086
30.345263 -7.1154866 17.059572
26.305069 -6.4348235 16.656061
28.804493 -8.2802916 16.594021
27.004229 -6.4333353 16.869944
29.306709 -7.1068449 16.891371
23.706404 -6.4110379 16.815062
27.409702 -6.440547 16.639315
28.905001 -6.5156465 16.58073
29.214098 -6.3553061 16.84816
27.208937 -6.3768077 16.89905
30.113503 -6.6012506 16.976368
24.703688 -6.5414119 16.445141
29.500662 -9.4814177 16.843287
30.093544 -6.8849359 17.062035
29.508604 -6.5033846 16.995941
28.711761 -6.4475679 16.619293
29.60429 -7.635251 16.884151
25.804676 -6.4408956 16.43321
29.107872 -7.8159246 16.794369
27.408924 -6.7261729 17.020399
27.913204 -6.480988 16.811708
29.212959 -7.7754245 16.883797
26.300283 -6.4310598 16.879313
29.708975 -6.4376526 16.587971
24.958607 -6.8884583 17.24581
30.205542 -6.6190476 17.037298
25.115078 -6.550818 16.97801
29.008549 -6.4427691 16.837088
23.754591 -6.5119038 16.74638
26.713171 -6.5271716 17.024136
27.804518 -6.4300585 16.534571
28.605606 -6.4507871 16.611303
24.997375 -6.4232745 16.377052
29.291597 -6.4604774 16.920876
30.120255 -8.3129702 16.970551
29.404831 -8.8779449 16.810007
27.493406 -6.5525045 16.694248
29.30933 -8.8083763 16.837179
28.404005 -6.8165998 16.978533
26.402657 -6.4337921 16.657076
29.392399 -8.8144884 16.836571
26.79904 -6.84024 16.99415
26.205294 -6.4297047 16.880535
29.398775 -6.5539155 16.878157
29.286207 -6.5637627 16.88224
29.496798 -8.019906 16.517132
29.300417 -6.387321 16.645245
29.887571 -7.2111535 16.960796
23.82073 -6.3880844 16.989519
28.107138 -6.472075 16.488533
24.917873 -6.8913207 16.89753
29.601301 -6.5557294 16.882551
29.398939 -6.3742113 16.640242
29.985737 -9.374691 16.899183
25.709333 -6.423305 16.668905
28.845001 -6.5611243 16.753103
26.507685 -6.4140987 16.782827
28.896254 -7.8135262 16.791761
29.891106 -6.6322465 17.035309
25.239267 -6.1423473 16.917732
25.315317 -6.3618937 16.716827
29.399769 -6.4733109 16.901056
26.799425 -6.6128592 16.984241
27.803997 -6.4731703 16.49663
28.797358 -9.8669462 16.468439
26.907633 -6.5516644 16.949936
29.031521 -8.6020031 16.866598
27.905924 -6.9171753 16.949856
27.837671 -7.0015683 17.135529
27.107716 -6.4617429 16.733984
25.767035 -6.3581467 17.131561
26.202991 -6.9125295 16.986336
28.614697 -7.0422864 16.982765
24.595852 -6.5088782 16.422153
26.308681 -6.9139895 16.982597
25.153587 -6.3211222 16.789734
29.005566 -6.4531054 16.615906
29.708784 -6.8847346 16.871443
28.945175 -8.1579647 16.945148
29.925591 -8.4588537 17.021763
29.143772 -7.4746099 16.542913
24.800835 -6.4048996 16.598501
29.518929 -6.8836279 16.887665
26.906382 -6.4023061 16.97776
27.472858 -6.7735558 17.095757
27.804094 -6.4076304 16.972433
27.411283 -6.5597682 16.938663
28.202362 -6.4082961 16.962482
24.915472 -6.3799243 16.926609
27.202589 -6.4036055 16.977259
24.112593 -6.3402562 16.959818
29.124336 -6.5083404 16.574152
28.300816 -6.4734659 16.491774
29.393015 -8.9340591 16.847824
29.504019 -8.8834391 16.485373
25.802124 -6.377326 16.937767
27.479742 -6.9678326 17.061398
28.915548 -8.4951124 16.840986
27.205441 -6.9167089 16.961723
27.20463 -6.4747477 16.500652
27.201038 -6.6273088 17.164667
27.999363 -6.4156861 16.975864
29.116592 -7.6658053 16.937229
28.713343 -6.4863796 16.795095
27.303596 -6.4748125 16.511114
28.397028 -6.3901401 16.424751
26.704742 -6.653502 16.918114
24.379679 -6.9236655 17.045088
29.012514 -8.683322 16.551779
25.391405 -6.700242 17.287954
30.071022 -8.987318 17.002954
23.839201 -6.4162159 16.921389
28.718029 -6.6513224 16.892267
26.806124 -6.4584055 16.961758
28.218853 -6.7407188 17.032143
29.107302 -9.8672171 16.467024
26.178677 -6.3761611 16.934923
29.604374 -8.2970295 16.985016
29.599001 -7.5410724 16.905241
26.800203 -6.4032025 16.970997
29.528553 -9.8017225 16.427973
28.100567 -6.6307564 17.070494
28.399223 -6.4275517 16.531258
28.583683 -6.4205155 17.035059
27.39398 -6.9623184 17.056204
26.604597 -6.9072599 16.971613
29.200869 -8.8464375 16.868763
25.706745 -6.5033865 16.854694
25.888332 -6.9549851 17.081898
29.794844 -8.8410149 16.906019
24.119198 -6.4696493 16.566397
27.905411 -6.7840872 16.933867
24.400204 -6.3456831 16.927464
26.103075 -6.4302435 16.662043
27.112585 -6.494101 16.826025
28.1042 -6.4068666 16.95923
26.213629 -6.3262753 16.854761
29.410366 -6.2959251 17.042402
29.82091 -9.0107193 16.424589
29.408834 -6.5092177 17.004913
25.058346 -6.9779491 17.265024
30.108229 -6.6568022 16.929558
29.104031 -8.0837736 16.880787
29.002192 -8.0590267 16.838137
29.99346 -8.9597921 16.951729
29.88295 -8.4417734 16.958534
26.911554 -6.5323472 17.025688
24.779154 -6.9710641 16.937227
29.603153 -9.860342 16.469728
25.505375 -6.512743 17.051928
26.308887 -6.5014153 16.850483
24.939651 -6.9100089 17.044327
24.122828 -6.4653649 16.671566
26.633316 -6.961647 17.038916
27.302538 -6.4099088 16.972996
26.999062 -6.4063663 16.969938
27.00263 -6.457305 16.737747
27.798935 -6.7391286 17.048817
24.817358 -6.6883388 17.011549
25.269829 -6.8844132 16.956882
24.989849 -6.4258952 16.704105
25.31356 -6.3249335 16.549967
26.113005 -6.7572846 16.874664
29.696373 -6.9513826 17.012299
28.900478 -8.0283785 16.826612
30.383959 -9.5549707 16.979568
28.504902 -6.465169 16.718079
29.100702 -6.5598865 16.893515
29.508881 -6.4288502 17.035357
29.627981 -6.3476262 17.049109
26.003904 -6.837081 16.867199
25.099134 -6.8692384 16.925329
29.700285 -6.6369987 17.054834
25.207001 -6.2058392 16.647972
26.692905 -6.8745527 16.919136
24.136345 -6.4200878 16.626049
25.403875 -6.384892 16.484383
30.310928 -7.871716 17.014757
25.028164 -6.5246577 17.076221
28.593819 -6.729506 17.014141
30.115238 -6.5074563 17.006786
28.800365 -8.6843777 16.55434
27.646982 -6.6623411 17.045555
28.307447 -6.4489861 16.844225
28.952419 -7.6365666 16.961359
25.707544 -6.4076567 16.576696
24.667767 -7.0045023 17.022753
29.891506 -7.1503935 16.969032
29.613363 -8.8399487 16.881697
27.307695 -6.9115458 16.957006
29.206064 -6.4451318 16.607576
24.255194 -6.9794679 16.999256
29.899141 -6.5079885 16.991056
24.991383 -6.6767554 17.036579
29.520697 -6.285305 17.034576
27.387419 -6.5208912 16.609161
26.505939 -6.9131136 16.976768
28.719477 -8.5231533 16.553925
25.71595 -6.3755479 16.705439
29.499195 -7.7091413 16.537403
28.993565 -6.4022651 16.948334
25.092699 -6.5098729 16.882732
27.201023 -6.8768291 16.927654
27.499277 -6.4191971 16.771326
27.612329 -6.4874263 16.819506
26.506056 -6.4158449 16.560911
26.103777 -6.3921728 16.459742
28.798094 -7.25386 16.668818
29.498957 -9.0005836 16.497782
27.494507 -6.6570621 17.063776
26.003019 -6.8767419 16.934759
28.96628 -8.6656513 16.607105
26.300287 -6.3945093 16.453182
26.303913 -6.3975353 16.976269
25.721979 -6.3513403 16.616262
29.504528 -8.8555374 16.878647
28.196346 -6.4059682 17.048651
29.205597 -7.7475491 16.587599
29.088863 -6.3720927 16.861147
29.638914 -8.1433487 16.938122
26.813276 -6.4158316 16.780809
27.505678 -6.4410944 16.636948
29.808271 -6.9284887 16.960495
28.903824 -6.8806596 16.887669
27.884491 -6.6213899 17.10301
25.772715 -6.7548571 16.902252
26.201229 -6.8277736 17.006113
28.908932 -7.3019652 16.586599
28.407635 -6.9185548 16.94693
26.815697 -6.7246914 17.030882
27.90444 -6.9538784 17.046938
28.506748 -6.4166937 16.964405
29.406485 -9.9501991 16.459137
28.004368 -6.4466529 16.625513
27.603607 -6.4209118 16.765217
28.401728 -7.0466762 16.996489
24.922247 -6.4373722 16.357191
24.509018 -6.366703 16.720963
25.315443 -6.4205561 16.895977
27.20677 -6.4598541 16.730677
26.394896 -6.401639 16.97843
28.70219 -6.3998322 16.941664
25.399319 -6.9134693 17.022047
24.937641 -6.5515962 17.239595
26.207703 -6.4088697 16.562202
28.786207 -8.225462 16.926931
24.408936 -6.4247909 16.741062
29.703751 -8.8414259 16.883345
29.697964 -6.4321594 16.837591
26.626225 -6.7084069 17.049973
28.523273 -6.6367168 17.091595
26.602911 -6.4105515 16.777803
27.401997 -6.4024458 16.435871
29.202106 -9.4265547 16.802055
26.393641 -6.7144809 17.045605
25.911003 -6.4664574 16.52561
28.828695 -8.5543156 16.526072
30.165615 -8.4022779 16.96928
24.205746 -6.3366508 16.964699
29.765175 -8.393095 16.910477
25.760181 -6.5609236 17.232496
28.41362 -6.6638331 17.065342
29.974749 -7.0882592 17.030949
27.607939 -6.4738526 16.495464
28.911077 -7.0433254 16.982807
28.591465 -9.8540277 16.510109
24.558361 -6.3581157 17.006062
27.603642 -6.4402771 16.636692
28.603008 -6.399931 16.956736
30.493048 -8.8551073 17.018845
29.80784 -6.6108775 16.982534
25.509251 -6.4000907 16.577745
25.138231 -6.9462647 17.091057
28.704319 -6.7805495 16.922691
25.596815 -6.8198876 16.861792
26.708241 -6.3951678 16.440529
29.166615 -8.7455511 16.617296
30.476128 -7.7513614 17.080477
26.456633 -6.3422823 16.823526
26.309807 -6.3783088 16.92494
24.898518 -6.5437751 16.390999
27.901632 -6.400568 16.436672
30.319191 -6.8177619 17.145126
26.507278 -6.374548 16.917158
29.296017 -7.8827114 16.932806
28.000284 -6.8251944 16.969765
28.895016 -6.7376494 16.996517
25.414713 -6.7004538 17.030762
28.107834 -6.4159284 16.757856
29.103859 -7.7390876 16.589029
29.395868 -9.6705332 16.806492
28.880119 -8.9500027 16.594193
25.808212 -6.4222422 16.376335
29.409506 -6.914999 16.959267
26.700369 -6.7405868 17.052849
29.705326 -10.019809 16.852095
27.911745 -6.8658571 17.068192
29.413404 -6.6164398 16.977648
28.106892 -6.4426994 16.847286
27.485394 -6.7640963 17.047604
29.306225 -6.3479781 16.847748
25.532499 -6.955596 17.095358
26.509417 -6.826088 17.001245
28.601912 -6.431232 16.522104
25.261461 -6.2278233 16.97801
27.605347 -6.408649 16.976456
28.085869 -6.708499 17.044502
27.410206 -6.4113255 16.978893
26.897352 -6.9134603 16.968306
29.017859 -9.0236435 16.527733
27.003696 -6.5911078 16.98386
26.40608 -6.7856207 16.957357
30.003613 -7.9252834 16.978271
29.10935 -9.0337801 16.831657
24.620134 -6.4183197 16.586662
30.419096 -8.4730291 17.037354
28.19759 -6.8233957 16.971764
28.996956 -7.8526263 16.873198
29.300924 -8.6156092 16.863131
27.702011 -6.4095802 16.976437
28.111425 -6.4489532 16.621141
28.114454 -6.4595008 16.719351
25.210964 -6.4064488 16.575346
27.302694 -6.4385738 16.640793
26.700933 -6.4574442 16.739328
25.513372 -6.3730631 16.937506
29.515463 -6.7080564 17.015371
29.409077 -6.4326363 16.825893
28.404327 -6.4020119 16.960545
26.304609 -6.4611912 16.742958
29.599775 -9.1047716 16.482857
25.86915 -6.1993141 16.860321
28.820833 -6.1989365 16.838707
28.292627 -6.7013817 17.035059
28.306549 -6.4622722 16.713196
25.50662 -6.4263916 16.373625
26.520252 -6.9802251 17.052572
25.111343 -6.395021 16.572983
27.001755 -6.6527448 16.907478
25.70384 -6.39434 16.988493
26.804232 -6.8776894 16.915045
29.308731 -7.0332646 16.983599
29.613134 -7.8784938 16.933094
28.204067 -6.7836351 16.928804
24.926277 -6.3389449 16.329325
24.23138 -6.3319383 16.842691
27.010799 -6.7339907 17.055147
29.493788 -6.4472513 16.598602
28.307167 -6.4532428 16.617414
26.509888 -6.4017262 16.974592
29.506493 -6.4271111 16.828587
28.505507 -7.013823 16.921148
29.498577 -7.7548313 16.557497
24.798401 -6.4679279 16.556925
25.098503 -6.7035313 17.0305
29.929546 -9.5346804 16.440407
28.104437 -6.4247565 16.533831
29.534302 -7.8882041 16.922449
26.995832 -6.8699346 16.92758
24.464912 -6.4821687 16.573608
29.963026 -8.4593229 17.005909
29.394184 -6.4082093 16.921278
25.613819 -6.4238443 16.673237
29.405102 -7.0449677 16.979637
24.897991 -6.811727 16.871143
29.908459 -7.9207058 16.973335
27.883793 -6.3661261 16.89584
29.313343 -8.0775232 16.873503
30.363508 -6.4194727 16.909109
28.50316 -6.450737 16.61499
28.802193 -6.4421959 16.838385
28.493546 -6.8207407 16.97967
27.423792 -6.8254375 16.984943
27.50342 -6.3763452 16.892447
29.68618 -6.3553696 16.853378
24.898859 -6.3991628 16.59734
26.601894 -6.4013577 16.976801
28.609083 -6.4978929 16.804201
29.503981 -7.3985987 16.549328
28.746178 -9.5417757 16.52282
23.975376 -6.437479 16.684757
28.028568 -6.357481 16.857395
29.107025 -7.3474946 16.938143
29.103653 -7.6170106 16.571602
28.111414 -6.5235896 16.997791
26.306976 -6.4124646 16.783606
28.787594 -9.5389051 16.514206
26.699886 -6.7866721 16.95557
25.372334 -6.3605638 16.859783
28.206278 -6.4334259 16.534143
25.875669 -6.2930627 16.849295
29.105988 -9.1768656 16.456594
28.495432 -6.945219 17.055944
29.412947 -9.0033178 16.498646
24.415417 -6.3600707 16.71409
26.707239 -6.3972821 16.978119
27.799187 -6.7870898 16.937151
26.203478 -6.7832007 16.966932
28.898838 -6.9190121 16.942928
29.744682 -7.334785 16.478516
28.21678 -6.9030094 17.059843
25.493999 -6.5676832 16.825542
27.916929 -6.742291 17.034113
29.896671 -6.4599724 16.911285
29.498344 -7.1906967 16.876816
28.904226 -6.4936481 16.80657
24.412746 -6.6140418 17.079782
30.108212 -8.4763088 16.997509
25.021839 -6.5228429 17.209995
28.992313 -9.9489393 16.466766
29.809347 -7.9017386 16.965435
29.612997 -6.4706078 16.913311
29.134691 -7.9127026 16.93998
30.459486 -7.2096906 17.054977
28.005003 -6.3976908 16.447418
28.613459 -6.9689937 17.023226
26.687275 -6.3678036 16.937763
29.800266 -6.6472163 17.040216
25.293232 -6.198133 16.650206
25.207624 -6.3755941 16.709665
29.711735 -9.8139839 16.892305
29.010101 -9.0344696 16.823635
29.702026 -7.9051495 16.9526
29.201832 -7.0154843 16.91814
26.604504 -6.8769641 16.93486
29.212404 -7.2298231 16.906099
26.404129 -6.9125237 16.979322
26.007248 -6.9151831 16.992485
29.213572 -6.651155 17.060041
25.475636 -6.2133565 16.629822
29.206348 -6.55688 16.887085
24.924732 -6.5337477 17.174297
30.279644 -6.7863526 16.943962
26.483654 -6.5023432 16.610147
29.209465 -9.8890905 16.800985
29.828323 -7.5526824 16.900366
25.903057 -6.4558573 16.976118
27.403526 -6.7893171 16.948748
28.205463 -6.5132041 16.584944
28.907852 -7.6602559 16.846739
29.771687 -7.5854878 16.465923
27.103903 -6.4798946 16.501913
29.40464 -6.8235869 16.991461
27.027184 -6.4148164 17.100872
27.501104 -6.441587 16.859034
27.699512 -6.440145 16.855587
27.995317 -6.4451208 16.85149
27.291162 -6.5875044 16.782957
29.503473 -7.5435982 16.900341
27.606665 -6.8156791 16.979483
27.401926 -6.4417381 16.860577
28.717661 -7.5910935 16.68297
27.50448 -6.7910886 16.94898
26.706474 -6.4346509 16.651115
26.605835 -6.4329338 16.650454
27.113331 -6.3975925 16.691835
29.725927 -8.1145773 16.961334
28.598932 -6.466536 16.712603
26.595327 -6.6470938 16.911367
28.915932 -8.6486292 16.658236
25.405098 -6.3613749 16.950888
27.60714 -6.4563036 16.734962
27.506357 -6.4299583 16.537886
28.897835 -8.7330999 16.598951
29.499201 -7.8593917 16.886316
27.700306 -6.9104118 16.950491
26.011742 -6.8220158 17.008139
25.314007 -6.4010062 16.575191
30.091166 -7.8903675 16.979757
25.610615 -6.4712768 16.531942
26.800907 -6.3843875 16.926266
29.539015 -7.8755174 16.484823
29.102579 -8.3966417 16.861013
28.897495 -6.8190556 16.982368
27.503408 -6.6013846 16.976286
27.789009 -6.3353834 16.910252
27.909286 -6.347991 17.069443
29.029158 -6.5161667 16.576677
25.310776 -6.4259901 16.358576
28.299223 -6.9209232 16.95101
25.90904 -6.6419144 16.929253
29.410427 -6.3624043 16.843376
28.608215 -6.8123217 16.973366
27.698055 -6.8822207 17.081284
24.703663 -6.414742 16.594906
29.508276 -6.3470922 16.862801
24.702606 -6.4286394 16.395264
29.092176 -7.7355299 16.816748
25.605816 -6.4001694 16.57839
27.107851 -6.4253974 16.549721
24.660675 -6.8475075 16.888792
29.706772 -6.9258165 16.951168
29.596355 -9.0038509 16.498245
26.771999 -7.2211375 16.951838
28.210859 -6.4891591 16.806107
27.307945 -6.6025643 16.982447
28.714228 -7.0432568 16.993979
24.690945 -6.3755369 16.719072
25.510572 -6.3564315 16.623066
26.201921 -6.5195417 17.03186
26.905882 -6.4235353 16.551292
28.105316 -6.4855881 16.811565
28.398119 -6.4848571 16.8029
27.798697 -6.4466424 16.632908
30.104977 -6.926712 16.967478
25.306341 -6.3516574 16.631639
27.728146 -6.9503875 17.050516
26.497101 -6.5927925 16.995487
29.395792 -6.6537809 17.055801
28.699696 -6.6028914 16.957048
29.107561 -8.01441 16.525404
28.001181 -6.4837022 16.804096
28.802999 -7.0509167 16.985405
25.613911 -6.35323 16.619524
28.080868 -6.6425023 17.159052
27.29232 -6.4997973 16.840261
26.907507 -6.8779845 16.927824
26.010303 -6.5622869 16.720827
23.736645 -6.4270768 16.700037
27.499159 -6.4575505 16.730642
27.972639 -6.608387 17.068087
28.997339 -7.7117486 16.743149
29.481054 -8.4589748 16.902224
23.997219 -6.4168229 16.823214
29.394733 -8.5423822 16.890902
24.124138 -6.3445263 16.607374
27.335241 -6.3411856 16.574591
26.533947 -6.7494736 16.872244
29.211069 -9.3800535 16.874844
29.895687 -8.3419847 16.991856
24.807997 -6.5703692 16.937384
29.430153 -8.4536037 16.902561
27.408087 -6.5237398 17.007532
29.211256 -6.6091475 16.976561
29.098272 -6.9489861 17.023335
29.600653 -8.9195852 16.518169
27.199594 -6.4363055 16.865437
29.600315 -6.4267969 16.839405
27.094261 -6.6161547 16.783934
26.405159 -7.0278711 17.024837
26.81102 -6.4536862 16.743324
26.82024 -6.4901118 16.836185
29.211914 -8.2005472 16.592215
29.992916 -9.6108484 16.914675
26.103954 -6.4746914 16.527924
27.40353 -6.455174 16.733431
29.495506 -8.7871399 16.501783
26.313026 -6.546504 16.638975
29.30197 -8.7924109 16.510921
28.905176 -9.0153399 16.506279
26.603916 -6.460206 16.752403
27.302805 -6.5502605 16.93387
29.060219 -8.12994 16.470844
27.345236 -6.7260628 17.11594
29.70422 -8.430953 16.931578
28.790768 -8.3633862 16.594507
29.006666 -8.3879023 16.860617
27.102871 -6.4382529 16.643919
29.299461 -6.4341106 16.601305
29.19644 -9.2273035 16.915543
29.503773 -8.2520037 16.513559
28.002333 -6.4671073 16.489384
23.940495 -6.4389105 16.891554
24.111643 -6.4212999 16.914238
25.20454 -6.5319757 16.748394
25.305416 -6.9234347 17.025034
25.328703 -6.64326 16.910278
26.226521 -6.3016362 16.76561
29.813059 -8.8033075 16.483503
28.090191 -6.401794 16.667152
25.081194 -6.677814 16.919165
25.012775 -6.4830861 16.464685
30.196836 -6.3929801 16.941998
25.699835 -6.566843 16.967468
29.492619 -8.9104805 16.510363
24.308197 -6.4576311 16.698917
24.773296 -6.3707843 16.712151
29.305504 -8.3978539 16.860653
29.88381 -8.0339441 17.006453
26.103558 -6.4054489 16.988245
28.803156 -6.6595478 16.876234
30.30682 -8.0404167 17.019056
24.494911 -6.4062734 16.611305
24.508526 -6.5877013 16.946075
25.900921 -6.5923967 17.010855
27.003239 -6.4585958 16.959692
27.100012 -6.8769255 16.923109
25.995342 -6.5173802 16.658924
25.202076 -6.4448767 17.067486
27.694948 -6.3541164 16.857641
29.181654 -7.8548732 16.431547
24.899446 -6.5938869 17.122309
30.012188 -6.8243413 16.968287
30.112371 -6.5144873 16.859756
29.20048 -6.6827679 16.949665
29.026276 -8.8234034 16.871828
28.677334 -6.6007867 17.059458
29.81189 -9.0814123 16.830545
25.004065 -6.3366542 16.59115
29.61191 -9.4777899 16.833811
24.938498 -6.7440767 17.102421
29.809534 -7.8668165 16.862314
26.08646 -6.3680763 16.93708
25.198454 -6.4579701 17.007622
24.709499 -6.3829222 16.511436
26.001842 -6.406785 16.566847
25.807112 -6.4019451 16.572275
26.10375 -6.4080954 16.567869
30.026424 -8.8415737 16.921276
27.870869 -6.3494759 16.593988
28.686699 -8.9055128 16.57715
28.73769 -8.3111858 16.783403
28.606346 -6.4470892 16.841757
27.502913 -6.6898451 16.962654
26.115574 -6.7528892 17.071537
29.118929 -8.4369612 16.919016
29.077503 -8.4873104 16.926636
25.217138 -6.2096558 16.578121
29.614254 -8.4345112 16.946877
27.004902 -6.4746394 16.509819
28.913431 -8.3805742 16.861017
30.010229 -8.3362398 16.972416
27.004423 -6.560739 16.950903
29.69014 -8.9234533 16.877892
29.928528 -9.6061401 16.906403
28.712475 -6.8191323 16.961613
28.797905 -8.0602636 16.684868
29.611427 -7.0097532 16.927929
29.402887 -8.9029722 16.520603
25.708525 -6.479002 16.535301
29.211548 -8.5691538 16.50634
29.886158 -8.8372965 16.921349
29.808346 -6.3968711 16.938749
28.937817 -8.2584524 16.752846
26.499897 -6.5578661 16.953094
29.309303 -8.9008284 16.80578
26.91456 -6.5078502 16.838587
28.195717 -6.5086627 16.991291
27.002392 -6.6144018 16.760193
28.20059 -6.465723 16.719606
26.00172 -6.4564991 16.745178
28.624218 -7.9552708 16.641115
29.507517 -8.7947245 16.825712
25.305471 -6.4306078 16.678991
28.856718 -6.3606606 17.070316
29.764053 -6.4852815 16.798918
29.097992 -8.9041319 16.807247
25.593618 -6.32863 16.836241
24.313169 -6.5482068 16.759375
29.312187 -8.9110498 16.519173
30.103403 -6.959538 17.037258
24.700069 -6.4532466 16.780754
29.416761 -6.9464698 17.008442
25.800127 -6.7411065 17.0466
28.742825 -7.9291019 16.576269
29.498419 -9.5378609 16.487246
25.507708 -6.4567394 16.989128
25.103485 -6.4160614 16.669485
29.706993 -8.796587 16.487833
30.015209 -8.4434824 16.961811
24.79792 -6.4279494 16.684439
29.318756 -9.0044117 16.506651
29.428938 -8.9597673 16.468391
25.804676 -6.6991963 16.997261
24.666676 -6.6814156 17.060297
27.907074 -6.4224176 16.760731
29.790449 -8.9631815 16.503479
28.608372 -6.5035777 16.572794
24.696009 -6.8024364 17.088236
25.80854 -6.5220437 16.615908
30.37912 -6.9145999 16.946199
24.264112 -6.9217682 17.056559
29.698889 -9.0496941 16.848244
29.60218 -8.0824432 16.877115
25.704533 -6.4214945 16.381804
25.903894 -6.5002065 16.629845
27.305326 -6.460228 16.730881
28.381088 -6.9574571 17.035313
26.915981 -6.7264161 16.895155
29.810318 -8.9352188 16.86327
28.807266 -6.5013533 16.799156
29.013557 -9.0475664 16.570473
28.494991 -6.4018965 16.424534
25.931881 -6.5727353 17.224236
24.910528 -6.4140778 16.678654
28.001902 -6.4584403 16.72633
28.892723 -6.9590039 17.032581
29.907845 -7.8047791 16.984167
24.103367 -6.3726611 16.48641
29.396599 -8.4953222 16.850754
25.220636 -6.1570945 16.797903
27.272055 -6.2372308 16.61174
27.787745 -6.6285357 17.050186
24.219278 -6.4012799 16.510656
28.691814 -9.3653059 16.489809
30.14172 -6.4408174 16.996925
27.8106 -6.9151421 16.952259
28.600273 -7.6774755 16.67469
30.289316 -8.3712978 17.001923
28.40427 -6.5099516 16.993059
25.307161 -6.6843653 17.030096
30.462831 -8.483531 17.0362
28.10784 -6.6893044 16.9487
25.604534 -6.4226456 16.375225
30.289221 -6.433372 17.020405
27.590364 -6.3026028 16.823832
28.096004 -6.6924744 17.255171
25.307709 -6.6024947 16.832981
27.40777 -6.4708323 16.50548
25.499166 -6.4291539 16.684811
25.210785 -6.4328709 16.686525
24.923159 -6.8251562 17.054554
30.245745 -8.365716 16.986492
29.297684 -6.435348 16.835318
28.804352 -8.7800999 16.504324
29.483051 -7.9700613 16.570747
26.589874 -6.3405671 16.6257
24.810205 -6.3793602 16.495218
29.580507 -6.5044627 16.821264
30.283451 -8.4866724 17.002508
29.787062 -8.6888065 16.515959
29.027119 -9.4505177 16.520166
26.510174 -6.8799782 16.920511
27.709324 -6.7904863 16.941116
28.801668 -6.7833023 16.917236
28.749271 -8.7878895 16.497913
25.410046 -6.2060127 16.594065
28.801394 -6.6893597 16.940598
25.703516 -6.7001429 17.067074
28.51346 -6.7212505 16.865274
29.497389 -8.0595627 16.540672
30.186079 -7.0546699 17.058195
27.402044 -6.4276958 16.535851
29.791672 -6.4154143 16.835821
29.590267 -8.6448851 16.48604
28.935284 -7.3124728 16.863853
27.498487 -6.4729519 16.501017
28.506071 -6.5617943 16.919903
24.193428 -6.4349284 16.601425
28.858696 -7.2251782 16.779766
29.621418 -7.0248365 16.980761
28.831726 -7.5258164 16.617363
27.803051 -6.4892592 16.817675
29.320047 -9.0557165 16.541779
29.696693 -9.0180473 16.502182
29.591394 -8.0248337 16.519196
29.101694 -6.68717 16.952404
28.207727 -6.4517922 16.622938
25.051249 -6.6374516 16.953337
27.307911 -6.8711128 16.916765
29.583763 -6.3300605 16.519171
29.779505 -7.4824042 16.988537
29.792633 -8.3393717 16.970366
28.796021 -9.033741 16.595018
29.216669 -8.3987141 16.861328
27.594822 -6.6003613 16.975924
29.397131 -8.3942719 16.862694
29.659925 -8.6272106 16.447189
27.316437 -6.505106 17.004927
26.402704 -6.7626987 16.86694
27.109766 -6.6894755 16.963665
28.901155 -6.5029726 16.991411
29.20434 -8.153801 16.545916
28.501038 -6.9144506 16.946192
25.405758 -6.4345064 16.447857
25.491739 -6.7160892 17.067976
28.199728 -6.9160957 16.95204
28.200312 -6.4463725 16.844166
29.209085 -9.0679216 16.883442
29.81057 -6.5352502 17.05481
27.303333 -6.7912121 16.944895
26.403093 -6.4140716 16.561646
28.50738 -6.7308187 17.015501
27.907175 -6.4454131 16.635393
27.207851 -6.4369373 16.643503
27.200628 -6.4865637 16.825302
29.186686 -9.0696106 16.558994
29.310106 -8.8738127 16.488974
26.397615 -6.5179858 17.010632
28.808769 -6.4967399 16.990297
29.98708 -7.0543442 16.989252
24.436504 -6.3951092 16.619822
26.169163 -6.8292608 16.850458
27.90987 -6.4563689 16.724367
27.908052 -6.4331541 16.53614
27.196503 -6.4209619 16.54376
28.361805 -6.6917076 17.149818
28.200901 -6.6378536 17.177502
26.103722 -6.8841329 16.923748
25.345997 -6.2032652 16.586407
29.489517 -9.2950048 16.885256
25.806267 -6.873518 16.943193
25.103748 -6.2406268 16.576471
29.997145 -6.9241414 16.959124
28.608742 -6.7905774 16.920742
26.698509 -6.8362622 16.996943
27.907595 -6.6032338 16.970818
29.499928 -8.1528797 16.529797
29.102543 -8.796237 16.518745
28.502262 -6.5962272 16.968752
27.906586 -6.5085535 17.0054
29.686735 -7.6781912 16.937025
25.211708 -6.2055283 16.858202
23.87674 -6.4768519 16.732218
29.311897 -8.850935 16.862789
25.604948 -6.4650474 16.770567
29.398129 -9.4692936 16.832981
29.716141 -7.0199594 16.929176
27.389654 -6.3481693 16.844452
29.704147 -6.5092111 16.991671
29.6998 -6.7326193 16.996372
28.919416 -8.7943659 16.525974
28.207634 -6.4167972 16.75658
29.187555 -8.0934858 16.509415
29.007915 -6.7379069 17.001535
28.594852 -6.5081229 16.990969
25.907928 -6.3874393 16.460796
29.010126 -8.8152666 16.825777
29.308552 -6.720294 17.003525
27.510984 -6.4907622 16.820324
28.285477 -6.8719268 17.109196
27.719957 -6.6259971 17.082798
30.008471 -6.4546676 16.918207
25.310461 -6.3753314 16.487455
28.699873 -6.5113239 16.990042
25.407175 -6.4914417 16.50819
28.801067 -8.1248608 16.758497
27.600698 -6.9131098 16.96092
29.798876 -7.3796082 16.513901
25.398525 -6.8642178 16.919668
29.476721 -6.6233768 16.843929
29.000378 -8.7701502 16.506798
27.014288 -6.5108824 17.000031
26.201824 -6.3889937 16.700031
28.867195 -7.1243529 17.040565
27.604084 -6.5207257 17.010275
26.905554 -6.4681239 16.515249
29.499876 -6.8791666 17.046869
29.789795 -6.9475899 17.012283
29.21701 -7.4600029 16.901325
24.727692 -6.5762224 16.962778
26.894701 -6.4584894 16.737347
25.607588 -6.557014 16.950865
29.197485 -8.2140341 16.687969
28.751549 -8.4829311 16.824072
26.972345 -6.8086019 16.86372
26.809683 -6.7400804 16.871178
26.998489 -6.6798563 16.96323
30.421492 -7.001915 17.05689
28.930443 -8.5944386 16.819578
28.898569 -7.777885 16.71393
