# .PCD v0.7 - Point Cloud Data file format
VERSION 0.7
FIELDS x y z
SIZE 4 4 4
TYPE F F F
COUNT 1 1 1
WIDTH 1556
HEIGHT 1
VIEWPOINT 0 0 0 1 0 0 0
POINTS 1556
DATA ascii
9.2919683 4.2087479 -16.829916
9.2512884 4.1690612 -16.788347
9.2691107 4.092339 -16.819284
9.4330816 3.8991942 -16.832201
9.466651 1.711512 -16.782959
9.5001593 1.4638755 -16.771187
9.539238 5.908535 -16.795258
9.7399244 5.9709992 -16.731972
9.6411381 8.7656069 -16.781673
9.7513199 9.0098095 -16.87892
9.7252779 8.7079887 -16.882608
9.4628716 8.6652727 -16.828432
9.4527721 6.9541488 -16.833014
9.8310413 5.6703205 -16.735485
9.8377056 3.0732574 -16.944683
9.4387922 5.2527013 -16.806437
9.4174452 5.1519599 -16.820559
9.5446796 5.0286379 -16.800144
9.4172678 0.65607917 -16.715397
9.5499249 1.8296899 -16.973421
9.5307074 4.0545511 -17.008638
9.5345707 7.5601926 -17.092371
10.008047 7.9279203 -16.836311
9.6354752 8.0232573 -16.8342
9.5414143 2.5699804 -16.70949
9.5172539 5.0900064 -16.968231
9.5635071 8.8651724 -17.058311
9.4206448 8.1425648 -17.125734
9.7350578 5.3848372 -16.81325
10.037834 3.9952755 -16.778582
9.5645542 5.6778736 -16.776983
9.5650415 3.0683374 -16.961853
9.5165529 3.4309003 -16.748688
9.3879118 5.5706234 -16.800516
9.3935051 2.8181987 -17.006685
9.6353283 7.3493853 -17.005262
9.4660654 5.0034895 -16.881739
9.5383902 5.577528 -16.80039
9.5338793 5.3360686 -16.777651
9.8214626 9.0197277 -16.875614
9.5187292 6.0726252 -17.03194
10.217303 4.0738382 -16.961231
9.5386314 7.8652062 -17.107203
9.8495617 8.3368597 -16.842058
9.4408646 3.1067922 -17.039732
9.6456127 8.2457781 -17.096012
9.5366678 1.8429853 -16.751749
9.7434502 8.3630457 -16.827089
9.6414413 6.7815027 -16.841675
9.4345608 5.1474853 -17.050827
9.467802 6.7570038 -17.074413
9.5230379 8.34972 -17.114912
9.4647684 2.6902649 -17.070383
9.4222183 5.3085594 -16.886017
9.936367 4.31425 -16.786856
9.7375069 8.4651346 -16.858904
9.6427355 5.4747133 -16.813478
9.6072798 8.7012749 -16.888426
9.4429283 7.7513466 -16.945236
9.7360125 8.1555519 -16.881548
9.5155649 5.2581549 -16.792637
9.528264 1.9511712 -16.798649
9.4484577 5.0628805 -16.850986
9.4333611 5.0380893 -16.798307
9.3729181 4.9617233 -16.81595
9.4238205 3.7779434 -16.799955
9.3417768 3.5441685 -16.785032
9.4202671 2.3745151 -16.77215
9.3230925 4.5004878 -17.055283
9.544672 8.3677111 -16.876293
9.7247362 8.2424479 -16.862883
9.4593992 8.0351057 -16.861603
9.4515028 7.9429064 -16.870213
9.474164 6.6296358 -16.845261
9.4379444 6.4745426 -16.862411
9.5488262 6.4477215 -16.859291
9.542654 6.2409039 -16.847607
9.8198776 5.0780849 -16.824518
9.5261574 4.7512298 -16.838591
9.3339233 4.6646242 -16.837755
9.4315491 3.1388721 -16.798983
9.6449013 1.7488375 -16.786257
9.5686064 1.7546713 -16.758512
9.438096 1.8408653 -16.740927
9.3693352 1.7100847 -16.751087
10.030452 6.4992495 -16.97374
9.5234823 6.5388288 -16.837978
9.4235821 5.9039216 -16.869093
9.529809 6.3316202 -16.834679
9.4384909 6.1375394 -16.900637
9.663003 4.7399778 -16.848434
9.433692 3.0042832 -16.775963
9.3650227 2.8254213 -16.771049
9.3521023 1.1951342 -16.725431
9.5189981 0.89393973 -16.750978
9.5131874 0.85349005 -16.710711
9.8174229 1.4078376 -16.672987
9.3812876 7.0725999 -17.082947
10.230201 6.5077262 -16.956177
9.6319656 7.3055182 -16.862398
9.5392342 7.1759171 -16.846693
9.5248795 5.472434 -16.819792
9.4624653 5.9780245 -16.819519
9.4362211 5.7995901 -16.808628
9.4310865 2.9522879 -16.939796
9.3766937 5.5894847 -16.792583
9.5494127 3.9993064 -16.817226
9.5653858 2.5019412 -16.797594
9.5362377 2.4765038 -16.774282
9.4418964 2.1469722 -16.761065
9.4525366 2.0953279 -16.790005
9.7473555 8.9824476 -17.024328
9.2290955 4.1239214 -16.867764
9.7233324 5.8168645 -16.912271
9.7317028 3.3878536 -16.662249
9.533145 4.5245347 -16.81922
9.4447327 4.1878572 -16.823387
9.3326721 3.0915084 -16.799553
9.2779846 2.8938859 -16.797527
9.2385139 2.7929831 -16.777359
9.5311375 7.524766 -16.896465
9.7289495 7.5190907 -16.909561
9.4461746 6.2368302 -16.843819
9.364193 6.042388 -16.862883
9.4517813 7.8113151 -16.854631
9.3351974 7.4658356 -16.872448
9.3501387 5.4952416 -16.821465
9.4246836 4.4918594 -17.007896
9.4285307 6.0346231 -17.065233
9.5526257 1.7042645 -16.71369
9.3374252 3.0077739 -16.796183
9.6375694 3.3344886 -16.770918
9.5400095 4.8367758 -17.007383
9.5390978 3.5427597 -16.784765
9.5619507 5.0770559 -16.819204
9.6465569 6.4217725 -16.796171
9.4370184 6.3251867 -16.838701
9.6400642 6.1994276 -16.776731
9.8360052 8.0376978 -16.832872
9.5415125 7.8228569 -16.83499
9.4288759 4.0789366 -16.995766
9.9085274 1.4625317 -16.742767
9.4353609 2.6970205 -16.770885
9.6350689 5.9233885 -16.837845
9.6483374 3.2898042 -16.689188
9.5284281 2.9373088 -16.901215
9.5386114 5.7961321 -16.821142
9.7320557 7.3119645 -16.852495
9.6325989 7.8227525 -16.81658
9.8264761 6.2263308 -16.81587
9.738534 7.6860533 -16.75025
9.4275017 0.98811227 -16.751474
9.5385475 2.7050989 -16.78059
9.4555244 4.2975183 -16.814314
9.6249123 4.2985334 -16.80909
9.4935799 6.132638 -16.854956
9.9854565 8.0970821 -16.8631
9.9261141 8.2500162 -16.857151
9.5344944 8.1675291 -16.870605
9.5400324 8.0371876 -16.85643
9.5326385 7.9317708 -16.857771
9.6482172 8.3544054 -16.831957
9.5464201 8.2659979 -16.861845
9.4533606 4.4932003 -17.041565
9.5506487 8.4628038 -17.106634
9.8296928 8.396266 -16.898586
9.7186975 0.87697762 -16.748533
9.4387646 0.75673515 -16.734383
9.8569918 1.403563 -16.803095
9.4250002 1.215831 -16.757729
9.5965519 1.4392897 -16.756769
9.4274712 1.3918393 -16.757591
9.8412085 1.4909118 -16.659998
9.5522499 3.0105789 -16.785776
9.6300278 4.8330479 -16.805138
9.6328983 5.0779071 -16.833143
9.7408562 6.456542 -16.860723
9.7431717 6.7426209 -16.767879
9.6584682 6.5487337 -16.832884
9.530304 6.7787824 -16.869675
10.10766 8.9066162 -16.880013
9.8315315 8.7012978 -16.864227
9.5481625 8.5742292 -16.85887
9.6181984 9.0194645 -16.88941
9.6463909 8.392745 -17.02564
9.7265968 0.99695212 -16.742899
9.6289511 1.2025694 -16.764746
9.7241173 1.2025483 -16.752605
9.5118389 1.4018923 -16.735462
9.5314732 1.3027703 -16.746592
9.5329704 3.1433609 -16.811548
9.9398479 6.4546995 -16.834146
9.5484781 6.4221444 -16.805729
9.9237938 6.781332 -16.83526
9.6440678 6.7354751 -16.770002
9.6168604 6.6459942 -16.830334
9.8596697 8.4793682 -16.861004
9.6256371 8.4850283 -16.87286
9.9312811 8.8048201 -16.855837
9.7357159 8.7913055 -16.866018
9.6377983 8.6859388 -16.855064
9.6368618 5.1153665 -17.007761
9.6916142 7.0479593 -17.054987
9.9394274 2.0507236 -16.748377
9.5339899 2.0095181 -16.730293
9.6284103 8.5830984 -16.86912
9.757226 0.68092537 -16.738056
9.5385809 0.75947034 -16.748011
9.6442833 3.9128942 -16.865688
9.6376944 4.0826898 -16.792858
9.6400156 4.2074604 -16.835621
9.6329107 4.4068451 -16.779776
9.6174984 7.517036 -16.883331
9.6389446 7.5946856 -16.783669
9.9290752 7.8445354 -16.855913
9.4452438 5.3720846 -17.076481
9.5004234 7.2698359 -17.097675
9.7078123 2.3099332 -17.065382
9.4276981 6.7080007 -16.893089
9.8305264 0.68671602 -16.744902
9.6190128 0.68419474 -16.750103
9.6314926 0.57636917 -16.762506
9.8535357 0.89687109 -16.775671
9.4363108 0.92375159 -16.761511
9.4306755 0.85428762 -16.739517
9.4017124 2.2834766 -16.784845
9.7432384 3.9073792 -16.833122
9.5325012 3.8514879 -16.780027
9.5320482 4.2019382 -16.836912
9.7367916 5.9205112 -16.837498
9.7506075 3.2970257 -16.678493
9.5222282 3.0485563 -16.828812
9.5303755 5.7002816 -16.827097
9.4220886 3.0732539 -16.985613
9.4575062 5.6606517 -16.80187
9.5175552 7.4277792 -16.931814
9.9243603 7.4930749 -16.813047
9.7301483 7.5042572 -16.825523
10.042723 7.8438005 -16.896921
9.6290445 7.8466258 -16.868202
9.5359087 5.8601675 -17.020882
9.4316101 0.6738826 -16.750504
9.6272097 2.0532157 -16.788826
9.6552525 2.2781322 -16.789175
9.6395817 2.1762519 -16.750721
9.5387363 2.0455558 -16.772326
9.4629946 4.0012517 -16.811972
9.6461172 4.1873088 -16.777039
9.8394899 3.9879768 -16.788319
9.71945 4.3170619 -16.800459
9.737133 4.2121053 -16.815907
9.5444136 6.0132122 -16.825708
9.5404549 6.1101727 -16.808361
9.6649675 6.4661579 -16.829401
9.6231022 8.2675724 -16.858261
9.9177666 8.585145 -16.844435
9.925416 8.3599825 -16.850561
9.8985939 8.7019806 -16.863192
10.185719 8.6608067 -16.849762
9.4843893 3.0631497 -17.032343
9.5527325 5.1371012 -17.034651
9.6500359 7.6315284 -17.097202
9.8362598 1.1985731 -16.756506
9.7470913 1.4452 -16.755552
9.6452389 1.3848349 -16.714266
9.653368 1.2963609 -16.745043
9.4464931 1.3190274 -16.755829
9.7511158 1.7675182 -16.774996
9.8166466 3.6880836 -16.788729
9.6380644 5.3892617 -16.830093
10.054428 5.5783935 -16.77437
10.060863 2.8196621 -16.983665
10.135334 5.9319897 -16.803246
10.117504 3.3071637 -16.639242
9.9629583 3.0661414 -16.801628
9.9363976 5.7029724 -16.816357
9.7340679 6.0052471 -16.81855
9.9258566 5.9317932 -16.813082
9.9290905 3.2901587 -16.653933
10.132466 7.8493018 -16.862406
9.9259748 7.8117514 -16.802458
10.20434 8.0518036 -16.82077
9.8254967 8.2623634 -16.837412
10.027922 8.2396469 -16.839321
10.009003 8.1394129 -16.779902
9.7397127 8.0395288 -16.846664
9.4375792 2.258517 -16.732044
9.7275429 2.9123862 -16.778982
9.5259428 2.831404 -16.815439
9.7342033 4.3949175 -16.787424
9.5450401 4.9389191 -16.808748
9.5484381 4.8420477 -16.821753
10.037024 7.1770177 -16.811142
9.638485 7.2755289 -16.815439
9.8267651 3.4331503 -16.692888
9.7336073 2.2796841 -16.776747
9.5324831 2.171207 -16.773029
9.5981369 2.509197 -16.824034
9.3437414 2.3793447 -16.773104
9.4233236 2.5880346 -16.789026
9.6316319 2.8150132 -16.818197
9.4421406 4.4277129 -16.806255
9.4458427 4.8392062 -16.825909
9.5288372 5.1637235 -16.816103
9.7405205 7.1841383 -16.828268
9.5487747 7.2957878 -16.86134
9.8415165 7.5378537 -16.886082
10.137983 2.9513853 -16.620239
9.5458364 4.6093941 -17.009529
9.6379776 7.2768731 -17.082869
9.8452816 6.0775857 -16.983259
9.5396976 0.66521513 -16.749105
9.5416203 2.6251163 -16.787586
9.6293011 2.5861056 -16.78434
9.8336563 2.8308828 -16.791857
9.6416006 5.1564012 -16.811459
9.6365299 5.3374 -16.770432
9.7397766 5.4748173 -16.807022
10.199438 7.9092846 -16.824049
9.7397919 8.1323175 -16.791458
10.020355 8.0098925 -16.821596
10.22316 8.13169 -16.792347
9.6149778 0.9032073 -16.768927
9.8253469 1.0030791 -16.722155
9.9244385 1.6116865 -16.724817
10.216356 4.0655975 -16.73819
9.5671387 1.908491 -16.961578
9.6341629 5.2378182 -16.989384
9.5569038 2.2545979 -16.713156
9.8156567 2.3760326 -16.772274
9.7358561 6.3337107 -16.823099
9.5516319 1.375309 -16.941368
9.7270908 5.7504864 -17.005987
9.7525091 3.0764821 -16.664978
9.4407978 8.3258047 -16.916927
10.157728 1.4460322 -16.817694
9.6189585 1.8204864 -16.756107
10.00725 1.8427539 -16.744013
9.843504 2.0665355 -16.768112
9.839509 2.1517651 -16.733135
10.046677 6.2377391 -16.831076
9.7456779 6.2027946 -16.754221
9.8239498 6.3175139 -16.813522
9.8244019 6.5484648 -16.817444
9.8273354 6.6490679 -16.810051
10.043206 6.873373 -16.801506
9.9226627 7.2839117 -16.773497
9.6291809 0.78716588 -16.725771
9.6317511 0.9827581 -16.741192
10.095011 1.2165297 -16.738688
9.8900347 1.2338698 -16.727465
10.103525 1.308745 -16.694326
9.7237129 4.5380416 -16.812119
9.7361364 4.6206183 -16.796921
10.019951 4.8143144 -16.709291
10.048081 5.1544833 -16.807671
9.7267199 5.1540875 -16.808971
10.140027 5.5717316 -16.764236
10.168154 2.8042171 -16.994453
9.8404961 6.7099276 -16.986622
9.6459389 1.709077 -16.712408
9.8398552 1.7186207 -16.675468
10.10965 1.8051046 -16.718267
9.8428307 1.8420594 -16.732956
9.735218 2.0855017 -16.75839
9.8295403 2.2509191 -16.699932
9.7418423 2.7961297 -16.728472
9.8400469 7.3836737 -16.750587
10.130904 7.5050721 -16.802361
9.8376789 7.5936351 -16.779911
10.123226 7.936657 -16.812515
10.137116 8.0350962 -16.797205
9.9353361 8.1376705 -16.783047
10.408245 8.2352514 -16.809734
9.9376888 8.2171412 -16.758936
10.200401 8.6411095 -16.800083
9.6109371 1.908224 -16.94927
10.118935 2.44081 -16.724655
9.6333151 2.5578549 -16.710833
10.119115 2.605722 -16.715384
9.7067556 5.717453 -16.965685
9.7311344 3.1098721 -16.730791
10.023155 3.5383844 -16.757631
10.052018 4.8150539 -17.017244
10.119135 3.6453869 -16.732508
10.065776 3.7613511 -16.778149
9.6414299 3.9410677 -16.962189
9.63027 4.5258842 -16.828526
9.8394051 4.5892291 -16.705387
10.13031 4.6069336 -16.691038
9.6346931 4.6287899 -16.792873
10.111616 4.9485517 -16.79183
9.7322731 4.9397998 -16.803795
10.024235 5.0426645 -16.760124
9.9421911 5.1306448 -16.791994
9.9246149 5.2734151 -16.772535
9.7300091 5.2662253 -16.798355
9.7332363 5.3442755 -16.760855
10.188986 5.4264736 -16.744576
9.9289236 5.3590064 -16.76071
10.195396 5.524775 -16.742266
9.734129 5.5747728 -16.786444
10.050365 5.7630711 -16.700165
10.035025 2.9787936 -16.946507
10.279625 6.3930035 -16.711784
9.6405735 6.2345471 -16.834166
9.5489025 2.3721175 -16.783657
9.6537762 2.473196 -16.744644
9.8198814 2.6007028 -16.78923
9.3523712 2.5956016 -16.783577
9.349184 2.7059362 -16.778124
9.4290981 2.7915604 -16.772888
9.5518904 2.7943659 -16.766199
9.8411932 2.9153407 -16.777987
9.7372255 3.0045104 -16.765392
9.4441814 2.918642 -16.788359
9.6345844 3.0267179 -16.764898
9.634244 3.2221904 -16.779478
9.4473419 3.2247748 -16.781534
9.7361403 3.2408452 -16.781328
9.7213316 3.4470596 -16.785934
9.6220274 3.4508395 -16.788687
9.4488153 3.4436269 -16.783346
9.8360109 3.5484862 -16.761591
9.7391729 3.6549118 -16.753874
9.4398088 4.7535124 -17.045124
9.4142294 3.6396976 -16.771477
9.4494047 3.6867812 -16.829489
9.9379559 3.7710667 -16.776342
9.6311626 3.768502 -16.793289
9.7389565 3.8666759 -16.764261
9.4514294 3.8553741 -16.79738
9.5254602 4.0847249 -16.783495
9.5218048 4.2679505 -16.738276
9.5295486 3.2333884 -16.789356
9.8207493 3.228128 -16.759474
9.541482 3.3352587 -16.765425
9.7349319 3.3374689 -16.757351
9.5443029 3.4635539 -16.801409
9.7415123 3.5481205 -16.772774
9.7280607 3.7640183 -16.782854
9.6421862 3.8712883 -16.781927
9.9430561 4.0010114 -16.78891
9.7244263 3.993098 -16.801384
9.7341566 4.0738254 -16.786371
9.8318605 4.1028471 -16.776915
9.8365488 4.3026686 -16.795044
9.5353231 4.3005772 -16.80612
9.5462446 4.4093618 -16.806129
9.8335638 4.6205993 -16.791828
10.001871 4.8505163 -16.810591
9.7300034 4.8504729 -16.811747
9.831007 4.9484253 -16.792171
9.8316727 5.2466879 -16.788553
9.8400478 5.3869615 -16.810125
9.8232212 5.579309 -16.785686
9.6382217 5.573844 -16.802675
9.6142073 3.0152488 -16.877338
9.6325264 5.6872239 -16.813725
9.636672 5.8755298 -16.778959
9.6474056 5.9958563 -16.752178
9.6308346 6.0217805 -16.822861
9.6457815 6.3241305 -16.820288
9.7299147 6.4218984 -16.796944
9.9341812 6.4221172 -16.785912
9.7448206 6.5478902 -16.838434
9.9232988 6.3995914 -16.709497
10.335865 1.6008736 -16.908506
9.8318691 0.76581043 -16.702816
9.8493099 1.1702182 -16.677689
9.8429918 1.302212 -16.730219
9.8270884 1.622705 -16.715679
9.825634 2.0299418 -16.665867
9.8413391 2.3325903 -16.674572
10.253691 2.3452542 -16.673847
10.0271 2.9800198 -16.655708
10.027741 3.0231183 -16.738132
10.0348 5.7301197 -16.957191
10.038622 3.0972781 -16.686571
9.831624 3.3248289 -16.745659
9.8382511 3.6476505 -16.746553
9.8343859 3.8718379 -16.768011
10.234101 3.9384167 -16.729315
10.011311 3.9685094 -16.698652
10.109089 4.0721269 -16.758961
9.8275747 4.8533587 -16.809629
9.8224669 5.0353284 -16.783396
9.9332571 5.0425763 -16.766287
9.8407307 5.1320086 -16.726915
9.8330231 5.1712809 -16.808622
10.25798 5.1281285 -16.71747
10.028596 5.2564435 -16.765253
10.236036 5.2901278 -16.727427
9.8405771 5.3338122 -16.765884
10.025814 5.3614311 -16.745737
10.036752 5.4348612 -16.723276
10.234316 5.4862623 -16.753052
10.218321 2.8775938 -16.960833
10.02849 6.4365845 -16.788103
10.025998 6.5111623 -16.739946
9.7305241 6.650208 -16.802034
10.030931 6.7419991 -16.777578
9.741827 6.9637046 -16.789228
10.233032 7.1871905 -16.790089
9.9368992 7.1856842 -16.811243
9.8292589 3.9316726 -16.946568
9.5504675 6.1443071 -16.972538
9.8373795 0.63507515 -16.659554
9.9286537 0.74591726 -16.682842
9.7183065 0.75619668 -16.713064
9.7298956 0.86003345 -16.683701
10.186331 1.2397412 -16.702255
10.215677 1.4982935 -16.683029
10.214396 1.563444 -16.671618
9.9230032 1.722627 -16.682775
10.206188 1.7251456 -16.671707
9.7394047 1.7221255 -16.690065
9.7451553 1.797313 -16.66737
9.9354029 1.8038293 -16.648388
9.943676 1.8317149 -16.72719
9.9258175 2.3717248 -16.744452
9.7280741 2.4645026 -16.737631
9.7320404 2.5661783 -16.703773
9.7383995 2.5969598 -16.778406
9.7334995 2.6912215 -16.764051
10.238827 8.4283352 -16.985275
10.360165 6.5126677 -16.734043
10.018892 2.0864484 -16.903008
9.6466827 6.9239731 -16.958414
10.151785 5.3592849 -16.760109
9.9245777 5.3746958 -16.808735
10.437563 2.7964625 -16.969471
10.138837 5.6584649 -16.763901
10.134328 3.0773764 -16.929491
9.94699 5.5847664 -16.77858
9.9314728 2.9419942 -16.916445
9.9278421 5.7926755 -16.79133
10.40787 5.8779707 -16.769915
10.147074 5.8906102 -16.78171
10.148108 6.107461 -16.77651
9.9317732 6.3393445 -16.804693
9.3054562 6.8957486 -16.939646
9.5447035 6.9638667 -16.823629
10.042143 8.7170534 -16.871584
9.6223469 1.0776172 -16.951996
9.6476793 5.8562026 -16.975946
9.6371851 2.6996489 -16.774858
9.6565752 2.7992454 -16.734787
9.9250889 2.7923059 -16.729757
9.6458626 2.9082143 -16.773172
9.9179163 3.009073 -16.749617
9.9392672 3.2204134 -16.756962
10.099845 3.3323178 -16.747995
9.6451178 3.4198458 -16.732975
9.6576281 3.6396084 -16.747574
9.9283371 3.6394222 -16.737909
10.119116 3.9963524 -16.70664
9.6340284 3.9588566 -16.739883
9.9421349 4.0933285 -16.75832
9.6422205 4.2803507 -16.728559
9.918251 4.4152646 -16.776247
9.9225798 4.5828681 -16.688143
9.9276495 4.9419556 -16.773905
9.6328936 5.0351191 -16.780121
9.6371174 5.1100254 -16.733326
9.9209347 5.1150579 -16.738045
9.6403837 5.2584391 -16.803329
10.126053 5.1824894 -16.74243
10.116149 5.2507024 -16.774239
9.5306454 1.601667 -16.737883
10.397924 7.2409577 -16.681271
10.420108 7.5881429 -16.748474
10.127665 7.5971942 -16.786671
9.8376226 7.6901927 -16.749023
10.119318 7.8066874 -16.7899
10.240926 1.1716274 -16.567619
9.8474646 7.5682306 -16.997467
9.8359776 6.523962 -16.745289
9.8430786 7.6964126 -17.038391
10.334974 6.9685864 -16.756386
9.8271999 7.9232597 -17.073185
10.416843 7.1866226 -16.789679
9.8269424 7.1882377 -16.825438
10.144335 7.2797422 -16.787628
9.8389568 7.2782063 -16.801487
10.337208 7.2710218 -16.765892
9.925499 1.1635411 -16.661016
10.140243 1.2800282 -16.639389
10.141704 1.3899214 -16.664536
10.141032 1.4603132 -16.667694
9.9251881 1.4948057 -16.660757
10.136109 1.5995436 -16.619892
10.155069 1.7195207 -16.666761
10.128803 1.8121059 -16.632402
10.124614 1.8932564 -16.641403
10.148714 2.1729889 -16.722544
9.8288212 2.1294608 -16.660753
10.142554 2.2509823 -16.699587
10.363566 2.3147736 -16.656652
10.115921 2.4162474 -16.627096
9.8291883 2.5625813 -16.678873
10.130451 7.972394 -16.984573
9.7607641 2.6407418 -16.920166
9.662303 6.3913126 -16.974604
10.117772 1.1833086 -16.657969
10.029846 1.2643282 -16.630701
10.230974 1.304667 -16.680323
9.8246984 1.2794319 -16.65423
10.024157 1.3956307 -16.676079
10.018789 1.4864053 -16.659767
10.017506 1.8009385 -16.645857
9.7410889 2.0255938 -16.685455
9.8117123 0.9625119 -16.939043
9.9202232 8.2508516 -17.024069
9.7464724 1.829826 -16.967194
10.013227 0.76325804 -16.693111
10.019891 1.1916977 -16.662493
9.7299604 1.1700767 -16.680605
9.7227297 1.3049297 -16.731056
10.241322 1.2749141 -16.64031
9.927906 1.3019842 -16.715902
9.6399965 0.8600322 -16.693895
10.124958 8.4871225 -16.831806
9.8373508 8.3281212 -17.014803
9.7334032 1.8244026 -16.722698
10.028007 2.1098754 -16.639467
9.7266369 2.1585186 -16.749168
10.253244 2.1805062 -16.678356
10.022638 2.248807 -16.700031
9.7366743 2.2576594 -16.710209
9.9424591 8.9582729 -17.016279
9.9077635 8.5978022 -16.950148
9.5301371 5.9728079 -17.027674
9.6314707 2.6512854 -16.914507
9.9294605 2.0357244 -16.675554
9.9241066 2.1130323 -16.650928
9.9294262 2.1583128 -16.709076
9.9278145 2.2424099 -16.698807
9.6344213 2.2502534 -16.731464
10.120749 2.3456917 -16.691771
9.9337263 2.3452063 -16.668161
9.6464653 2.3739133 -16.768362
10.313043 8.4100332 -16.982611
9.8570204 7.6080751 -17.068542
9.9222536 3.6975768 -16.646082
9.6266079 5.6609268 -16.75242
9.6356516 3.0610511 -16.960604
9.5306358 1.5817969 -16.96876
9.5246754 0.97923404 -16.757645
10.025526 0.9784084 -16.723423
9.741663 1.1441796 -16.626295
9.9314804 6.7163196 -16.981575
9.3387032 4.1331635 -17.017471
10.24441 4.7292418 -16.735788
10.27833 4.822999 -16.688606
9.5343161 4.6222582 -16.807791
10.226919 8.2452908 -17.011564
10.191528 4.6018887 -16.755014
10.033889 8.9627285 -17.018194
9.744606 1.0692294 -16.924547
10.070175 1.178592 -16.590223
10.122772 8.7393007 -17.006954
9.5319872 6.3826861 -16.740923
10.035746 4.6385822 -16.777308
10.162355 4.2050486 -17.00017
10.014474 7.3213234 -16.852051
9.6674032 4.1402211 -16.998064
10.128527 5.8499527 -16.959774
9.2309637 5.1257315 -16.757269
9.6450138 7.4186096 -16.853498
10.133759 8.3876123 -17.067274
9.4704905 8.112299 -16.86636
9.2109442 5.0424633 -16.775501
9.7395668 5.1065464 -16.724314
10.328873 7.6966319 -16.797003
9.4360638 7.0697126 -17.072319
9.9208727 5.2196851 -16.680292
9.9433174 1.8269881 -16.934874
9.8370113 5.5477691 -16.97929
9.9451885 6.0757132 -16.978516
9.7246752 7.5800052 -17.076126
9.840064 4.4357333 -16.873873
9.7425461 1.2992467 -16.937637
9.6400414 2.5354855 -16.940844
9.6405411 2.370697 -16.97736
9.843977 8.5606108 -17.024971
9.7429123 7.828701 -16.813658
9.6344719 1.2814151 -16.96858
9.8361559 7.8144031 -16.800196
10.130778 1.9302249 -16.667141
9.5445118 2.9137843 -16.78179
9.7217207 5.6701875 -16.751732
9.7507801 3.0755477 -16.943523
10.217182 8.3178005 -16.949514
9.4297581 7.6014748 -17.114248
9.5204487 8.1253738 -16.800951
10.121786 2.0205548 -16.657608
9.3304138 7.4015479 -16.770918
9.7167034 4.4582582 -16.946533
10.231161 2.0394528 -16.683508
9.5283918 1.579396 -17.067987
9.6433229 8.1346121 -16.790848
10.37616 7.4469085 -16.959057
9.4680223 5.1349759 -16.769661
9.7291851 4.4343581 -16.849382
10.140774 7.3626041 -16.733391
9.6125784 4.4344215 -16.867981
9.6469154 2.9773304 -16.686373
9.7439613 2.9775476 -16.677534
9.6281052 8.0083046 -16.773642
9.4043341 7.8596582 -16.886627
10.321313 5.1085949 -16.920738
10.424415 2.2734816 -16.856575
10.007421 3.6824684 -16.988829
10.123723 3.4394314 -16.699621
10.132462 3.6177666 -16.944326
9.6493874 1.9362684 -16.733398
9.7408667 1.935199 -16.699093
9.4758682 6.276649 -16.76939
10.126102 4.0296183 -16.640213
9.558794 6.2958603 -16.741335
9.8237019 1.9426354 -16.70961
10.551931 7.730001 -16.920547
10.038121 4.0662799 -16.671558
9.5992365 6.2876587 -16.740234
9.9672871 3.365314 -17.004093
9.3216639 4.2502518 -16.961317
10.124722 4.3339772 -16.924479
9.8323603 7.9389486 -16.856153
10.216641 4.2610431 -16.944643
10.262746 6.2629666 -16.821833
9.6399784 7.9353614 -16.855646
9.7215538 7.9401412 -16.84248
9.831255 4.2469935 -16.941635
10.513827 1.1424521 -16.790686
9.8562889 7.8353362 -16.861248
10.547026 5.4092369 -16.767406
9.4160576 5.0400386 -17.075871
9.7312946 7.8501043 -16.864996
10.368145 7.8942246 -16.787884
9.3366165 5.4703479 -16.76079
10.319865 5.5337915 -16.954834
10.125072 4.5124016 -16.722361
10.210697 4.9177017 -16.959019
10.218071 5.5458856 -16.968483
9.9481564 4.917819 -16.970463
9.9289703 3.831641 -16.664261
9.9374352 8.4256172 -17.009491
10.190409 1.7830874 -16.711388
10.154777 7.4221802 -16.965595
9.9045954 2.1819942 -16.890295
10.354726 1.8727366 -16.82538
9.5688276 5.5857258 -16.714481
9.4442997 3.4057138 -16.768839
9.1718216 7.3319163 -16.696259
10.140165 7.0751176 -16.771074
9.2354288 4.6474452 -16.785084
10.269926 3.4679358 -16.692179
9.7381639 5.974185 -16.963516
9.5567408 6.5085011 -17.045065
10.212529 6.9830637 -16.873877
10.112228 3.5382044 -16.752869
10.112892 5.4607749 -16.970375
9.5231314 8.7792702 -16.870823
9.63519 6.2999072 -16.964569
10.124001 4.7242417 -16.756721
10.139043 4.2784171 -16.988018
9.9300003 4.7102175 -16.764214
9.7198648 4.9300122 -16.98741
9.7435989 3.8424065 -16.689451
9.92659 7.2135553 -16.938696
9.523777 1.0421814 -16.669451
9.9470549 2.9886911 -16.945683
9.9135246 5.7273879 -16.71876
9.7339182 7.9090586 -16.769747
9.7344217 7.4024439 -16.847145
9.8421001 6.2754288 -16.971394
10.023929 2.8027723 -16.72204
9.5248098 1.5574592 -16.878315
10.125413 4.2488284 -16.638287
10.021507 3.3859882 -16.822014
10.1382 5.0300355 -16.734037
10.01707 3.4187944 -16.728527
9.4568119 3.1027 -16.76874
9.4615107 5.7126141 -16.940592
9.4430857 4.7790976 -16.979397
9.9315224 3.6104858 -16.854313
9.7398643 3.7299578 -16.692032
9.7354641 4.9880247 -16.962276
9.9448099 2.0582287 -16.956211
10.299759 4.2661691 -16.708019
10.017504 5.663877 -16.744713
10.040218 3.0787675 -16.937096
10.190924 7.1517115 -16.991409
10.140162 6.1443114 -16.695023
9.8196926 5.4169073 -16.668627
10.037491 7.41153 -16.836956
10.128851 7.15801 -16.747993
9.4621344 1.6703635 -16.787827
9.6392746 5.4586616 -17.035765
10.260366 3.2985594 -16.708239
9.9292889 7.4013505 -16.818668
10.034159 5.54072 -16.962732
10.186916 6.3176637 -16.973404
10.005773 8.5740318 -16.854479
9.8345785 7.0781775 -16.827967
9.753686 6.6148896 -16.732027
9.8211269 5.8015099 -16.801489
9.8367195 2.9435821 -16.903332
9.9427471 1.0280534 -16.867556
9.6138945 1.7383137 -16.902613
9.9402523 8.6776686 -16.821682
9.7376823 6.2985072 -16.736908
9.9448242 4.15204 -16.951302
10.032358 7.0626621 -16.764666
10.362189 7.4846854 -16.840565
10.358709 3.4141486 -16.668968
10.22515 4.3614502 -16.961779
10.220539 5.6977396 -16.742952
10.22501 3.0770366 -16.918793
9.8322296 3.5176027 -16.676531
10.233655 7.2139621 -16.912569
9.7540703 1.1111721 -16.808838
10.233135 1.9386936 -16.70108
10.097938 6.3033338 -16.746815
10.02864 3.519227 -16.652113
10.2117 1.7930843 -16.660591
9.330719 7.3831367 -16.861441
10.223259 6.6511097 -16.777645
10.327258 0.83691257 -16.887239
9.9375639 2.5350301 -16.638878
9.8356867 7.408021 -16.843035
9.7493591 4.3621454 -16.970556
9.5414028 4.4839091 -17.079197
9.4169397 2.4742773 -16.748514
9.5358353 4.5918312 -16.92417
9.9382124 7.9491062 -16.84709
10.345626 5.6426268 -16.948511
10.056631 6.5793648 -16.645889
9.6181793 5.0131531 -16.989096
9.6414328 3.7295518 -16.712563
9.5002575 6.4252725 -17.011061
10.318042 7.3419733 -16.953901
10.250635 8.9051971 -16.899529
10.409254 2.5368598 -16.914577
9.838891 7.7238321 -16.836412
9.636425 6.8370366 -16.754076
9.4314537 3.2443554 -16.732653
9.8044176 7.2826395 -17.072111
10.029036 5.2006593 -16.934196
9.7358313 4.5054908 -16.743866
10.254219 3.6583178 -16.713358
10.186999 4.7203603 -17.036966
10.246144 8.9449244 -16.989223
9.9613237 4.2688365 -16.998421
10.145449 7.7054205 -16.999805
9.7256718 6.4937158 -16.973108
9.6384716 3.1454964 -16.800858
9.7301922 5.886662 -16.769726
9.9418058 2.4724503 -16.732361
10.129956 6.0285244 -16.787996
10.204358 2.3772438 -16.768547
10.029268 7.8899312 -17.002277
10.021263 5.7052474 -16.809713
10.061304 3.0466344 -16.797567
9.5376892 4.7975106 -16.966558
10.444916 7.4322915 -16.766953
9.7203989 6.6888518 -16.899876
9.9482813 4.8809009 -16.645382
9.6408882 7.9035854 -16.778099
9.2288094 3.7561319 -16.744001
10.12462 6.1782136 -16.964819
10.392016 1.8647538 -16.996519
9.3598499 3.7416015 -16.764193
9.4709969 1.4284309 -16.80039
9.9411449 6.5556474 -16.65959
9.7312403 3.421932 -16.710632
9.6394367 2.2150049 -16.828726
9.430521 4.6211653 -16.816946
9.6486797 8.0313702 -17.015448
10.238523 6.7054343 -16.886114
9.4602976 4.9848351 -16.957277
9.4537077 3.7427909 -16.740946
10.127357 0.65495026 -16.803902
10.337684 1.0787011 -16.967834
9.5472078 3.5187924 -16.713099
9.8054581 0.60852337 -16.787924
9.554347 3.7072523 -16.72267
9.4957495 4.9971852 -16.989304
9.5279999 7.7191191 -17.070696
10.230324 6.2760568 -16.948811
9.6391354 2.8769805 -16.704126
9.7376518 5.8312497 -16.710651
9.7661667 1.5165277 -16.863499
9.9382095 5.0033555 -16.95956
9.9395847 3.7359982 -16.680185
9.6483068 4.2653465 -16.944525
9.341258 2.4748769 -16.777536
9.8498344 8.6350212 -16.968412
9.7722654 4.1648545 -16.947769
10.331646 8.1226301 -16.928631
9.8382111 6.9431796 -16.729321
10.124301 8.4112329 -17.000551
9.9473686 7.0867939 -16.822426
10.115037 4.6351466 -16.77891
9.4280739 1.5941672 -16.897724
10.326399 7.0839858 -16.764601
9.9375076 8.2004757 -17.003059
9.8458328 4.925251 -16.965956
9.8269558 3.8351972 -16.676256
9.6026325 2.3129334 -16.914066
9.7388144 8.5156555 -17.00635
9.3612547 4.7562394 -16.811956
9.9262486 4.2005773 -16.807865
10.028021 6.6378217 -16.793507
9.617959 4.4860702 -16.758844
9.5674267 2.1937075 -16.852062
9.5569315 8.5493584 -16.805088
10.026447 1.9508557 -16.859621
10.156594 6.6436825 -16.797792
10.126223 8.6666803 -16.808222
10.118465 6.0797119 -16.975513
9.732028 7.5537305 -16.729202
10.222053 7.3242478 -16.811777
10.46094 8.9219894 -17.072735
10.001946 1.4666783 -16.747002
10.021938 2.0357614 -16.668793
10.203912 6.062561 -16.936895
9.1154404 4.5312839 -16.756096
9.7398672 8.4442034 -16.778381
10.231021 6.7357845 -16.775211
10.141195 6.3183365 -16.79772
9.6218987 8.5185232 -16.730606
10.044035 6.4911194 -16.682571
9.9193554 3.5407901 -16.768221
9.8353596 3.7410386 -16.691277
9.8239727 5.0155587 -16.960085
9.8334751 2.8731475 -16.681084
9.7213106 2.2117624 -16.874857
10.046778 7.1021652 -16.837585
9.5323658 7.9034896 -16.756414
10.243152 3.8873022 -17.02096
10.136839 7.3242245 -16.83194
10.142487 6.7397628 -16.767809
10.143516 7.6494541 -16.833879
9.8384476 7.3579617 -16.990114
9.5402498 3.6628411 -16.764418
9.7243519 1.5284557 -16.746487
9.4484434 4.1790686 -16.782297
9.8345156 7.9066157 -16.771416
10.215118 2.9372163 -16.907934
10.18966 5.7938337 -16.746611
9.9327393 3.8527958 -16.751507
10.420187 2.7736762 -16.918068
9.4725952 3.5380056 -16.732641
9.4655514 5.5674243 -17.019102
9.9447737 6.3964629 -16.978556
10.20612 5.9633999 -16.862457
10.189147 3.2586122 -16.630356
10.145862 5.5434809 -16.967598
10.113236 6.0016251 -16.993168
9.8442688 2.0852933 -16.888742
9.561532 4.7049594 -16.972166
10.022835 2.9182899 -16.791248
10.048716 2.4776475 -16.720291
9.6381798 7.6280379 -16.857542
10.033209 4.7170248 -16.770258
9.9287186 3.5036249 -16.657614
9.9354067 2.9749639 -16.652056
10.055621 4.0193009 -16.633158
10.506861 2.7573464 -16.971977
9.8403797 7.2110987 -16.910063
9.8328342 5.1113529 -16.961018
10.224681 1.552949 -16.875898
10.030399 7.5393343 -16.845036
10.069577 8.5047607 -16.833008
9.8228951 6.3978877 -16.978855
9.8319511 3.1998401 -16.679609
9.8334761 5.6391478 -16.970861
9.9350052 6.815052 -16.980009
9.6435976 3.512589 -16.699364
9.5577993 2.9109063 -16.696001
9.3436537 4.4628086 -17.015661
10.231472 6.1545501 -16.670315
10.134697 4.6021895 -16.978891
10.361362 6.1606426 -16.825129
9.4542522 4.7208891 -16.794895
10.117783 6.1389799 -16.911104
10.125422 6.0450902 -16.937784
10.232568 6.5818114 -16.910023
9.8510046 2.7468007 -16.824312
9.934329 6.0159597 -16.802494
9.8342333 1.6584849 -16.819933
10.130143 4.566864 -16.937019
9.5181255 4.493968 -16.772964
9.525424 6.3208485 -17.061193
10.395947 6.1671104 -16.845547
9.6547394 7.0608091 -16.765118
9.9325504 7.3589139 -16.984535
9.8390951 5.9605513 -16.975346
10.145679 3.8447471 -17.022129
10.04194 1.4628508 -16.616764
9.6363525 6.1450377 -16.893486
9.9197874 6.6479383 -16.808495
9.1873035 4.4566965 -16.792288
9.4860163 7.9573603 -17.028866
10.139739 5.8431726 -16.667852
9.7291965 7.0985799 -16.843184
10.0326 0.70583618 -16.882875
9.8476515 1.0553141 -16.916859
10.259575 1.3688306 -16.814722
10.142848 7.7519894 -16.81879
9.4293404 8.4577942 -16.883078
10.226626 6.1796427 -16.953617
10.208402 7.3108187 -16.777403
10.246545 7.7787423 -16.978092
10.138592 0.73978174 -16.901907
10.118838 4.9148073 -16.959806
10.117472 3.8225353 -16.685728
9.1156559 4.732533 -16.743504
10.347913 6.7641768 -16.761801
10.229205 6.0875888 -16.950159
9.7355938 8.8771563 -16.770744
10.131603 2.8629968 -16.921955
10.135431 5.5011964 -16.922474
10.03817 6.1440544 -16.868052
10.141066 1.5544418 -16.887121
9.586153 8.8263826 -17.033552
9.9950409 8.3797693 -16.875486
10.163823 7.2164788 -16.944519
10.119343 1.8747499 -16.818434
9.9234991 7.6334791 -16.8454
9.5528002 3.8280096 -16.716105
9.8421669 7.7855239 -17.019682
9.7572384 8.9179516 -16.902786
10.016707 7.6626801 -16.993328
10.314353 7.8855414 -17.029947
10.036733 1.0102953 -16.877153
9.4805927 3.0732849 -16.848751
9.4059887 5.6942773 -16.836109
9.9282598 7.3731809 -16.738752
9.6310863 6.8657713 -16.84815
10.030396 6.3293996 -16.799318
9.6295948 8.1029072 -17.020903
9.442811 4.506547 -16.780754
9.451685 4.3729906 -16.997807
9.720459 1.8495525 -17.086607
9.5408506 4.7142377 -16.799442
9.3896132 4.2842693 -17.027866
10.223022 6.8008823 -16.972931
9.9488277 7.1567249 -17.001831
10.310833 4.6806841 -16.937473
9.4515867 4.8051357 -16.785252
10.245635 8.2804041 -16.807964
10.184802 1.1232216 -16.98807
10.328033 2.9574471 -16.894278
10.32657 5.7615681 -16.789988
10.294667 2.6860578 -16.824074
9.7310505 5.8000379 -16.804989
9.7287064 2.9517026 -16.912355
10.015047 5.9821491 -16.738314
10.033185 5.6124978 -16.843504
10.036194 2.7615154 -16.934977
10.403807 4.9096365 -16.787771
10.028143 8.7516527 -16.81321
10.301654 2.6388876 -16.899374
9.6418648 4.7068133 -16.794321
10.085926 1.0658889 -16.801107
10.212606 7.5770521 -16.976492
10.130871 1.3754463 -16.912384
10.167889 2.401124 -16.736586
10.171286 1.6284429 -16.832621
10.01491 7.2206535 -16.919233
9.844595 6.1545405 -16.711905
10.018801 1.9371926 -16.692719
9.7443953 7.9786615 -17.000439
9.4352512 7.4127164 -16.861895
10.149068 2.7255177 -16.851219
10.213167 5.6326904 -16.94821
9.9447622 1.3673192 -16.908638
10.060434 3.7437367 -16.972332
10.409396 5.8287935 -16.771811
10.128785 2.5483973 -16.924919
10.025391 2.0470557 -16.952631
9.747016 3.3887086 -16.930283
10.038338 8.4249258 -17.004108
10.141214 5.8028908 -16.789204
10.133436 2.9567993 -16.898893
10.13701 5.4885092 -16.787029
10.146135 2.8958385 -16.960615
10.038022 2.5466106 -16.928091
10.050973 2.7017758 -16.75371
9.2489367 2.9865403 -16.690475
9.6102018 6.9933271 -16.887535
9.9299469 6.8519506 -17.001408
9.9381886 6.0312014 -16.943005
10.304509 7.0494485 -16.946589
10.01131 6.8687439 -16.992971
10.02086 2.7579246 -16.643702
10.123032 3.5028853 -16.6632
10.0375 2.2987046 -16.801168
10.018901 4.9759326 -16.879421
10.319195 1.150353 -16.889893
10.026992 1.9070386 -16.627712
9.9609213 4.2451553 -16.65295
10.317127 2.0034761 -16.902885
9.9325542 8.2867746 -16.977859
9.9419441 2.6875286 -16.738228
9.7323256 9.117938 -16.873344
9.7273693 1.4271154 -16.628216
10.02684 5.8773322 -16.766233
10.226367 4.0219684 -16.640333
9.8285627 4.9006214 -16.694729
10.004186 4.4386201 -16.662117
9.8857622 0.69550586 -16.709904
9.7360573 7.1520925 -16.75235
9.7270117 8.8320227 -16.988998
10.61895 7.9489369 -16.94718
10.214006 4.291132 -16.985888
10.04635 8.1965065 -16.85008
10.215328 7.3974142 -16.820635
9.9278164 1.0538472 -16.641409
10.19693 8.5605717 -16.764029
9.401535 7.8746138 -16.770971
10.032217 4.0327034 -16.933052
9.8404703 8.5744419 -16.853279
9.8268194 9.1103363 -16.870438
9.8257427 8.8368044 -17.00506
9.821125 8.9925108 -16.833256
9.9369373 4.0654988 -16.968464
10.076485 8.763586 -16.854525
9.8132019 4.7015071 -16.969019
10.119292 4.0569439 -16.962908
10.014333 6.5551248 -16.806067
10.135914 4.5089498 -17.015516
9.8336754 5.8902092 -16.774387
9.9514856 1.7910215 -16.905239
9.4297676 1.1075445 -16.749033
9.6333981 4.7195497 -17.013138
9.8994522 7.5420346 -17.080837
10.08231 3.5624037 -16.910103
10.137884 5.0791564 -16.639854
9.9416714 6.2010603 -16.748919
10.035704 4.3752522 -16.959122
10.123945 8.4364815 -16.817341
9.841342 4.1434283 -16.678217
9.8361101 7.0554276 -16.766062
9.6304455 1.2984915 -16.672379
9.8412704 3.1338167 -16.791555
9.8819523 8.0756302 -16.871347
9.5997496 8.8878536 -16.758537
9.7979336 6.6956506 -16.730356
9.9498634 8.8176451 -16.999451
9.6245975 1.6002077 -16.893328
9.8326511 8.800642 -16.853951
9.8444843 6.368433 -16.932674
9.7355566 7.0325522 -16.989494
10.018822 1.7081807 -16.668285
10.096745 8.8265162 -16.979094
10.122784 8.5727701 -16.823484
9.6540098 3.2049229 -16.69335
10.136417 0.61375314 -16.888693
10.249224 6.8662634 -16.934584
9.8508091 4.1787496 -16.764307
10.026772 8.8326273 -16.991886
9.9164085 6.5452251 -16.822485
10.226281 8.4897108 -16.85191
9.4583254 4.5761466 -16.98514
9.8411655 5.3168516 -16.671949
10.027502 4.9332175 -16.773886
9.933569 8.0749168 -16.891256
10.175992 4.1998467 -16.709118
9.7282324 4.277473 -16.704844
10.052365 4.5225554 -17.015366
10.122419 6.9613867 -16.800917
9.4357986 1.5198687 -16.767551
9.6837902 8.334938 -17.025442
9.616848 3.9865882 -16.812651
9.6504974 5.540822 -16.994617
9.8197222 1.7894548 -16.912798
9.9314156 4.0380688 -16.679705
9.6439705 5.0141406 -16.702929
10.011508 4.2984138 -16.981831
9.6559286 4.3908887 -16.963509
10.146875 2.2489758 -16.998825
9.5297251 5.5341439 -16.990738
10.310596 4.9211998 -16.954481
10.135743 6.5618162 -16.792412
9.9424362 2.5768757 -16.712307
10.023507 4.1824579 -16.733755
9.8369875 4.2774916 -16.718611
10.028405 4.3545351 -16.660696
10.037007 4.4180608 -16.769295
9.7457743 4.9067564 -16.707201
9.5137749 1.2166578 -16.689964
9.9400043 1.9027456 -16.637991
10.111611 6.8843222 -16.826488
10.129271 4.4689279 -16.94853
9.9445791 4.3628545 -16.676094
9.9351835 4.9967756 -16.663906
9.8344688 4.3679171 -16.969286
10.022624 4.5941782 -16.985794
10.253426 4.1807613 -16.721642
9.5432291 4.3812842 -16.987719
10.037958 2.572041 -16.689173
9.7568283 3.9355252 -16.678307
9.6473951 7.188426 -16.840948
9.9435997 4.5650997 -16.945713
9.7259836 6.9415107 -16.742153
9.9478951 2.0095649 -16.915609
9.9393454 2.3313453 -16.919556
9.7402954 8.2865095 -16.997654
10.120375 4.3768854 -16.964193
10.026687 1.0436866 -16.628382
10.029608 6.037477 -16.939793
9.915678 4.5016179 -17.008125
9.8331776 6.7374434 -16.76465
9.9449625 4.383203 -16.961483
9.7532749 1.9840581 -16.926037
9.7465038 6.847229 -16.746042
9.6575222 4.9279647 -16.710632
10.435627 2.0152824 -16.954866
9.9330378 7.1544714 -16.722393
9.8452473 6.301137 -16.726992
9.8429165 4.5794396 -16.955601
10.290553 4.3389421 -16.711399
9.6287518 4.9497547 -16.810175
10.02345 7.5760102 -16.995777
9.6374559 1.4637294 -16.907101
10.216282 4.5606632 -16.929163
9.9264736 6.2928324 -16.731318
9.826292 6.8427105 -16.744408
9.6313972 6.9040928 -16.745403
10.231281 8.2057962 -16.988583
9.728796 4.5635042 -16.926661
10.129664 3.4013908 -16.828033
9.4793644 4.6210513 -16.758802
9.827117 0.799896 -16.826738
9.7342787 4.8012972 -16.953714
9.7531652 3.679023 -16.816666
10.28838 4.5452142 -16.916935
9.6428366 1.1766315 -16.683578
9.5423965 4.1769214 -16.771648
10.324231 2.992394 -16.947546
9.9298973 4.1730518 -16.752775
9.6314259 1.1998436 -16.921228
9.5482168 6.1828165 -16.769117
10.239073 6.7751613 -16.833239
9.7968435 1.2702162 -16.577332
9.9367752 4.4757991 -16.668161
10.107226 4.2691727 -16.708921
9.8589306 1.2393368 -16.90007
9.7345133 1.4906859 -16.674124
9.7389622 2.382344 -16.765377
10.127515 3.5833707 -16.883574
10.24102 4.3676295 -16.659555
9.8252888 8.9002771 -16.85675
9.8400698 4.6497707 -16.903809
9.3537693 6.9508491 -17.090559
9.6298885 3.4086056 -16.925018
10.145638 5.8142247 -16.919285
10.098894 3.3982263 -16.622263
9.6470098 7.6694903 -17.038668
9.7386847 7.24263 -16.734041
9.7394447 8.1159582 -17.019062
9.5302877 6.7466002 -17.029982
10.408298 2.8622339 -16.934187
10.032598 6.487772 -16.881863
10.189793 8.5895557 -16.78618
10.039202 6.8330364 -16.722868
9.9175148 4.9598207 -16.929209
10.136989 4.3690181 -16.643406
9.7345219 4.1463447 -16.692675
9.6050873 7.5373907 -17.083954
10.028932 6.2042079 -16.761028
9.8442554 0.83568221 -16.904594
9.5417109 7.5759292 -16.805363
9.9537525 4.6049442 -16.990471
9.934803 5.5380459 -16.969482
10.202789 6.8567138 -16.761599
10.331741 1.7492559 -16.935144
10.116554 4.8782339 -16.933807
9.7229176 3.2690299 -16.878403
9.8294697 7.154582 -16.737799
9.6457281 1.9664865 -16.662094
9.9317408 2.1074243 -16.907515
10.261243 6.1250267 -16.914711
9.5299854 7.527205 -16.842718
10.019352 6.9443779 -16.713165
10.228314 7.249238 -16.976223
10.230144 2.660145 -16.891514
9.9269371 0.7357747 -16.639202
10.131266 2.0407043 -16.957977
10.230588 6.1035547 -16.76062
10.090952 4.2289438 -16.835262
9.9378204 1.249858 -16.8922
9.9366198 3.4562223 -16.780884
9.5470982 1.2419399 -16.919683
9.9340057 8.9839926 -16.819401
9.7211466 1.2355473 -16.878805
10.14229 4.3993821 -16.791975
9.927906 1.0776139 -16.679928
9.6359606 1.2559772 -16.879753
9.9345264 6.6224289 -16.986435
9.8267174 2.6601956 -16.666378
10.027699 5.9585867 -16.651215
9.7427912 4.0473552 -16.693682
9.7273378 6.8679247 -16.835136
9.9364414 1.059177 -16.913734
10.2745 1.8609178 -16.995481
9.3800545 7.1789584 -16.859371
10.02462 4.8842983 -16.668926
10.186241 8.836607 -16.921448
9.8474846 8.7692242 -16.714046
10.040501 3.4042742 -16.935999
9.8603992 2.0147862 -16.919016
10.141727 1.6056585 -16.72814
9.8281088 6.0093117 -16.816566
9.9240894 1.3604074 -16.627382
9.6466923 1.6357932 -16.735292
9.225894 7.0438523 -16.884378
10.156871 8.3375149 -16.820311
9.9298182 5.8597355 -16.971691
9.6551657 4.6840973 -16.71294
9.6334534 1.1429162 -16.771919
9.6515007 6.3560219 -16.967411
9.9474878 2.228359 -16.930435
9.8668289 7.7719126 -16.934183
9.5612402 1.1456846 -16.936205
9.4478073 3.808207 -16.998138
10.219972 8.7356462 -16.781836
10.211015 7.1704073 -16.751377
10.223152 2.0007577 -16.913424
9.7103367 4.9811435 -16.849737
9.5118208 8.6763411 -16.853586
10.044266 3.8736835 -16.749371
10.02406 0.86619169 -16.672491
10.025332 1.6154195 -16.694212
9.9336281 4.8799739 -16.93803
10.275532 6.0025082 -16.823586
10.24362 1.6156665 -16.668911
9.5496054 7.0069733 -16.877098
10.023294 4.2603345 -16.653461
9.3602858 7.0788713 -16.852598
9.9257746 3.4179835 -16.687098
9.932395 6.8353801 -16.739599
10.135782 8.8870878 -16.824532
9.6390018 1.7906237 -16.666834
10.097647 6.9594707 -16.701353
9.8345604 6.8588328 -16.827023
9.6389961 1.4820589 -16.682304
9.9397087 6.6540551 -16.902233
10.021091 7.1383619 -16.728413
9.851284 3.6040475 -16.952774
10.032276 4.2774167 -16.698042
9.7477255 4.7008948 -16.943771
10.020631 3.7076237 -16.634691
9.9280548 8.040453 -16.844923
9.7059536 8.0490646 -16.899614
9.9345303 6.1189704 -16.794472
9.6455059 6.7318635 -16.727383
10.22687 6.5424519 -16.747759
9.5436649 3.0895822 -16.755486
9.5192204 5.7333703 -16.981831
10.451019 7.023006 -16.776697
10.085226 4.9020343 -16.666008
9.7362499 4.1891685 -16.754814
9.906662 2.7298341 -16.839108
9.712575 1.3885372 -16.712523
10.031387 8.9035683 -16.799095
10.035183 6.0804815 -16.969934
9.848259 7.2392831 -16.999046
10.321477 8.3514462 -17.028019
9.6536369 4.4668517 -16.961468
10.039962 4.5642481 -16.643559
9.9327583 8.1051369 -17.007008
9.9451675 1.9817685 -16.629108
9.8369179 6.6195769 -16.73303
10.204346 4.2717924 -16.751001
10.135777 1.7292705 -16.953472
10.110992 7.9097357 -16.745617
9.6274834 5.7916212 -16.809986
9.6319847 2.9700952 -16.930765
9.6525011 7.7931123 -16.751093
10.022127 2.854739 -16.621801
9.6397724 8.2109499 -17.004366
9.7337666 8.894352 -16.863813
9.8623333 4.3473682 -16.932594
10.157267 2.1697443 -16.851774
9.5077896 5.6400251 -17.000475
9.5741034 3.1801138 -16.702063
9.6345196 4.7672048 -16.957298
9.9261494 8.8686085 -16.775827
9.9379549 7.5639434 -16.995317
9.7417459 4.3714132 -16.696053
9.8313599 4.0443096 -16.689919
9.7346764 4.5860391 -16.697969
9.9811602 1.6453511 -16.803049
10.330265 3.165818 -16.912615
10.132598 3.1387868 -16.823534
9.916172 6.1346073 -16.852076
9.7255344 1.0750235 -16.708755
9.5341225 8.02952 -17.047874
9.8574467 0.79333931 -16.984404
9.6540565 4.3600254 -16.710825
9.7336369 7.6289654 -16.846651
9.567749 8.8881893 -16.893909
10.136803 8.8710566 -16.766603
9.1740103 4.7041206 -16.730164
10.027795 2.6579187 -16.637085
9.8180122 7.0001893 -16.718893
9.8290205 4.7825351 -16.954845
10.028173 6.0211658 -16.805555
10.060434 8.6076384 -16.943468
9.8342209 5.9813199 -16.737934
9.7588787 5.3227572 -16.680777
10.021841 2.0072315 -16.920759
9.8377657 4.5150032 -16.81192
9.9306402 7.0310578 -16.987095
9.9856768 1.6968411 -16.800442
10.112798 1.0614504 -16.629721
9.84025 8.0144405 -17.01449
10.273701 4.8745604 -16.704149
10.315496 8.7468491 -16.989523
9.8260231 4.3667474 -16.687767
9.9349813 0.83361346 -16.900711
9.9342728 7.2463074 -16.712347
9.9274502 5.4751015 -16.796959
9.9111099 2.9044909 -16.960707
9.2838802 7.4121389 -16.734371
10.022376 1.5504472 -16.89328
10.536513 8.9129 -17.074839
9.9315643 4.9084854 -16.670675
10.241716 5.509161 -16.909203
10.22597 2.8562572 -16.922939
9.6109314 1.1791873 -16.966961
9.4589062 6.8884106 -17.011105
9.8400955 8.1016064 -17.006594
10.063175 0.78976125 -16.813578
9.6269226 4.5577669 -16.950508
9.835619 4.1380005 -16.945553
10.142874 0.77533108 -16.828102
10.032752 7.814043 -16.807775
10.384109 0.56795645 -16.895168
10.250319 1.4820114 -16.726694
9.4211588 5.2012277 -16.743523
10.048975 0.74905068 -16.637533
9.6283169 7.9847865 -16.990208
10.225695 6.3205581 -16.756889
9.9348927 7.9791908 -16.989498
9.6287422 1.540408 -16.764307
9.537612 3.7660534 -16.793991
9.7384567 6.1065331 -16.80373
10.052109 2.172991 -16.874062
9.5553989 6.0609274 -16.720598
9.8291168 1.0900353 -16.69772
9.6290207 6.1094756 -16.803917
9.445857 3.525255 -16.783836
9.4467525 4.8170123 -17.03079
10.040192 4.5752664 -16.68107
9.5411119 1.2823464 -16.98711
10.227609 1.7326329 -16.953899
10.027909 6.5800195 -16.966555
9.5258169 1.5300976 -16.763823
10.238785 4.6148958 -16.980688
10.298717 6.5849547 -16.934946
10.256365 8.7758284 -16.976526
9.5695238 2.2874279 -16.807589
9.9144592 3.3146284 -16.73497
10.038471 3.1697295 -16.931334
9.4346485 1.1621559 -16.734348
9.5263805 7.6359873 -16.859232
9.4605961 2.6432056 -16.983171
9.4571075 5.3068333 -17.014235
10.121966 5.0101357 -16.63653
9.9178972 6.9624162 -16.781158
10.14115 7.499229 -16.739969
9.83043 6.9545836 -16.805956
10.12686 6.8447533 -16.740503
9.9051294 7.0079017 -16.708261
9.9237347 1.7305741 -16.958385
9.7653866 1.7630888 -16.998575
10.128395 7.2419043 -16.979259
10.100921 0.87173992 -16.647926
9.6594572 8.92136 -16.896458
9.6419497 1.1315974 -16.647366
9.8300457 1.1493162 -16.624121
10.051173 7.0236111 -16.69825
10.054495 1.7405392 -16.944023
10.04314 1.2207305 -16.588606
10.020786 6.786468 -16.838213
10.169708 2.8340659 -16.822874
9.6451292 6.6162243 -16.738413
9.937624 3.1779232 -16.93202
10.020971 4.991909 -16.647793
9.2887459 7.6356316 -16.752005
9.9414873 4.6016016 -16.630791
10.024026 2.7180312 -16.868429
9.7461758 8.3244791 -17.018061
10.02432 6.977109 -16.797041
9.8533764 5.0030251 -16.674759
10.132738 6.2105556 -16.757185
10.224203 8.2928114 -17.002281
10.128436 8.0963154 -17.01037
9.9556904 2.8258553 -16.800476
9.7178669 8.9753942 -16.814444
10.047431 2.8263354 -16.808807
10.234497 1.1936884 -16.928604
9.809248 1.7550654 -16.617556
10.130697 2.0073006 -16.919437
10.130867 0.83530521 -16.899231
9.9373178 0.87433499 -16.673403
9.8477173 1.0714011 -16.790411
10.031274 6.1839361 -16.972958
9.8366919 3.1783056 -16.932831
9.9334183 3.4788954 -16.924355
10.031923 1.2443473 -16.892153
9.9399395 0.80041558 -16.851402
10.033243 8.1985493 -17.00112
9.5841675 0.80533141 -16.80423
9.9419689 7.0581694 -16.735613
10.237532 7.0538239 -16.769529
9.344326 5.1290584 -16.756483
9.7085819 1.1895192 -16.972172
9.9416656 1.760061 -16.617851
9.8104858 2.1845205 -16.814459
9.7934608 8.5949545 -16.746639
9.923315 8.4785776 -16.861443
9.9388828 6.6000648 -16.714392
10.02827 6.7013626 -16.71188
10.0306 4.2514429 -16.946058
10.022114 7.6933308 -16.744028
9.5392637 7.2232842 -16.899677
10.039736 5.8647528 -16.65299
10.136656 2.2862425 -16.769886
10.035446 7.9156322 -16.785971
9.4179249 7.6336231 -16.867544
9.9420013 3.2713389 -16.901892
10.190533 8.4586639 -16.800663
9.6373253 1.0765002 -16.729359
9.8424768 8.9633989 -17.015482
9.9279442 1.9290326 -16.69702
9.8356056 6.8609862 -17.007439
9.9381542 4.7930689 -16.955873
10.456206 1.709898 -16.970585
10.241631 2.0437355 -16.953436
9.2581854 1.508466 -16.790997
10.151506 3.1590943 -16.611465
10.145092 5.6758533 -17.024553
9.8255825 4.4009352 -16.781437
10.229055 1.4712514 -16.898655
10.053393 1.0429753 -16.985615
9.9359131 6.175209 -16.972532
9.8350763 6.1123605 -16.797535
9.9308891 0.9277606 -16.896925
9.6500778 7.159317 -16.763706
