# .PCD v0.7 - Point Cloud Data file format
VERSION 0.7
FIELDS x y z
SIZE 4 4 4
TYPE F F F
COUNT 1 1 1
WIDTH 638
HEIGHT 1
VIEWPOINT 0 0 0 1 0 0 0
POINTS 638
DATA ascii
4.1613545 51.911369 -29.49687
3.9985514 52.865189 -29.399914
3.9861307 51.814213 -29.448683
3.8402591 51.81213 -29.382782
4.5128722 51.662399 -29.675051
3.4548092 52.293278 -29.32374
3.2948632 53.182716 -29.156607
3.4797583 52.965324 -29.223709
3.3813543 53.194016 -29.18741
3.0727811 51.848602 -29.134148
3.2925315 52.061066 -29.215187
3.4980593 52.623169 -29.275675
3.0621672 51.665493 -29.1063
3.5065885 53.179928 -29.245314
3.302835 52.210175 -29.183226
4.2097192 52.37833 -29.502794
3.6885791 52.500492 -29.326014
2.9900465 51.845718 -29.086061
4.0479326 52.653069 -29.426804
4.2991648 52.80582 -29.544062
4.1908822 51.655876 -29.577145
3.8232336 53.054787 -29.333252
3.4072444 52.70454 -29.219767
3.6944723 52.420872 -29.348457
3.3906701 52.341621 -29.246937
3.3003361 52.612755 -29.184141
3.2104702 53.093342 -29.1318
3.4504628 51.758907 -29.25071
3.8179784 52.128834 -29.349277
4.2783051 51.607269 -29.544716
4.0456629 51.618572 -29.468445
3.3035526 53.214993 -29.18243
3.3251703 53.019466 -29.189461
3.3970447 53.108303 -29.209511
4.1774716 51.593029 -29.519142
3.3669877 52.482185 -29.190399
3.3948603 52.411118 -29.228409
3.3094294 52.252937 -29.21697
3.685143 52.783966 -29.295452
3.6172261 52.993084 -29.275867
3.4069879 52.849213 -29.266275
3.5959272 52.704491 -29.295763
3.5982146 53.38765 -29.286446
3.4940896 52.660526 -29.29397
3.4978881 53.10891 -29.258963
3.0143995 52.048279 -29.087095
3.7954984 52.980686 -29.350594
3.7053509 52.897148 -29.343142
3.6125541 53.245266 -29.270634
3.8935995 52.98558 -29.371561
3.5989408 52.41534 -29.316151
3.4028721 52.616825 -29.236435
3.4993734 53.586704 -29.239569
3.6935034 52.973625 -29.315956
3.7104926 52.002357 -29.346964
3.8968768 52.417465 -29.413126
3.8023467 52.416233 -29.386913
3.8927855 51.568237 -29.470095
3.5960479 52.08252 -29.381653
3.9030671 52.015434 -29.418037
4.0041795 52.016247 -29.444221
3.0645578 51.590366 -29.129358
3.71071 51.738369 -29.347275
3.8857422 52.237499 -29.466095
3.6911497 53.457481 -29.303431
3.7906709 52.25222 -29.433073
3.963769 52.306599 -29.554195
4.1182585 53.457306 -29.478008
3.9959278 53.478539 -29.418842
3.8159385 52.299549 -29.36837
4.3099351 52.242443 -29.62743
3.6177015 53.182014 -29.288677
3.3149595 53.3064 -29.176012
4.3576441 52.245876 -29.648926
3.8344455 52.37434 -29.348837
3.5225568 53.554653 -29.301121
3.892241 52.298805 -29.382475
4.0241241 52.67326 -29.407215
3.596292 53.590733 -29.279461
3.4959915 53.214039 -29.2637
3.4991579 53.307816 -29.254997
4.5283127 52.635292 -29.696674
3.6056695 53.220631 -29.309839
3.4048684 53.129082 -29.244394
3.4018047 52.659061 -29.25634
3.4000382 53.218727 -29.225227
3.5986519 52.538315 -29.332153
3.3962908 52.449333 -29.253355
3.4883072 52.376915 -29.31311
3.605545 53.05265 -29.365194
3.6054435 52.858089 -29.350471
3.3964758 52.249207 -29.257498
3.4921584 52.089867 -29.330723
3.7994747 52.282917 -29.484821
3.5967307 52.251995 -29.341402
3.4028144 51.766602 -29.276474
3.4012094 52.728489 -29.243454
3.3187857 52.653641 -29.22756
3.4012036 52.065132 -29.264912
3.4052734 53.410374 -29.224575
3.6017857 52.734005 -29.328562
3.4059873 52.5387 -29.246218
3.4931931 51.968464 -29.307632
4.107141 51.972485 -29.58613
3.8926358 53.607559 -29.450773
3.6953316 52.735321 -29.369688
3.6930833 52.252018 -29.382658
3.6927724 52.058224 -29.386721
3.5956159 51.970264 -29.353191
3.795619 52.938095 -29.414726
3.791048 52.737705 -29.415525
3.6016083 52.382065 -29.362005
3.5946255 52.053577 -29.343567
4.3014221 53.260586 -29.530998
4.4029903 52.613705 -29.619102
3.9666634 53.442162 -29.474529
4.3373237 51.98719 -29.661787
4.2092853 51.966553 -29.611467
3.6048317 53.143173 -29.32675
3.6939502 53.01989 -29.353378
3.5943136 52.655518 -29.337723
3.6900029 53.351032 -29.372005
3.2200861 51.906464 -29.210272
3.3949533 53.304966 -29.211721
3.597188 52.343639 -29.3337
3.5024309 52.252102 -29.301119
3.9561777 52.641651 -29.516115
3.6010752 52.621487 -29.322279
3.8868256 52.462936 -29.474823
3.6868258 51.966007 -29.397205
4.1874685 53.104042 -29.517965
3.8975205 53.104156 -29.413015
3.9797134 51.960236 -29.536627
4.088407 52.779087 -29.466024
3.596252 53.500359 -29.29151
3.5951118 51.769798 -29.362337
3.8848081 53.133427 -29.461191
3.4969711 53.019318 -29.26516
3.484251 52.861904 -29.299841
3.490067 52.740364 -29.277815
3.6054482 53.017704 -29.316807
3.6920428 53.305317 -29.335508
3.6934862 51.658203 -29.381987
3.3959322 52.826633 -29.229229
3.6043897 53.111393 -29.303265
3.8728561 51.982536 -29.482595
4.0126982 52.140171 -29.473541
3.7031889 52.700306 -29.332592
3.6982565 52.315018 -29.302336
4.2863622 51.533016 -29.573841
3.8864574 53.229607 -29.434494
3.9923701 51.574631 -29.519217
3.691885 52.534477 -29.36808
3.6101904 52.906406 -29.301704
3.7912645 52.659115 -29.432161
3.9963651 53.101875 -29.440245
3.4872935 53.148277 -29.274649
3.7882886 53.144127 -29.408403
3.6935406 53.141106 -29.368395
4.3937521 51.735363 -29.630217
3.4029479 51.851067 -29.263548
3.9511633 51.806053 -29.570889
4.1020823 52.622139 -29.490688
3.5951395 51.892326 -29.372679
3.7821798 53.422466 -29.399668
3.8006005 52.7971 -29.453978
4.4832573 51.751053 -29.640091
4.0996017 51.734314 -29.509079
3.6951461 52.219643 -29.346531
4.0874739 53.504383 -29.516998
3.8975544 52.902298 -29.401844
3.8064713 52.001835 -29.374231
3.8967857 53.253136 -29.378435
3.9921904 52.616749 -29.466249
3.9750109 53.500816 -29.465807
3.3957696 53.394852 -29.200317
3.6963849 51.41576 -29.42695
4.2116575 53.08588 -29.484858
4.2084179 51.732548 -29.551804
3.9954023 52.903667 -29.433208
4.2806206 52.977757 -29.525829
4.0693049 53.202847 -29.498693
4.1059957 52.9841 -29.465006
4.1187115 53.121243 -29.514336
4.0057278 52.704666 -29.44109
3.6917291 51.573048 -29.395205
3.6052976 52.931007 -29.331013
4.2845397 51.854053 -29.600843
4.2929249 51.74704 -29.580767
4.3731651 53.009319 -29.575907
3.9909048 52.339088 -29.476421
4.0954046 51.813702 -29.487852
3.6956105 52.938904 -29.367229
4.2089124 52.978722 -29.511782
4.2007174 53.19289 -29.493582
3.7873459 53.218914 -29.391731
3.4903622 52.909813 -29.253054
4.0867929 53.051868 -29.463896
4.1941204 51.834274 -29.527887
4.1022425 51.571014 -29.539879
3.8566508 51.530415 -29.531189
3.815443 52.789818 -29.344126
3.9746108 53.301563 -29.447815
3.5440912 51.54501 -29.390606
3.5997391 53.644238 -29.34034
3.7188668 52.772987 -29.433752
4.1924129 52.441193 -29.589699
3.6908717 52.339443 -29.369793
3.2870471 53.143883 -29.191189
3.888896 52.931664 -29.456541
3.7896204 52.704426 -29.368435
3.9926476 52.744434 -29.498333
4.2782865 51.81707 -29.56111
3.8992715 53.186638 -29.392349
3.3028119 52.82159 -29.194145
3.4245763 52.102013 -29.297478
3.7914119 53.304928 -29.37929
3.8976307 52.392918 -29.495865
3.8992262 52.54343 -29.453733
3.9004946 52.708485 -29.397337
3.7968016 52.363186 -29.457718
4.0340714 53.3302 -29.423405
3.5998607 52.170414 -29.357956
3.7950363 52.17165 -29.456991
4.0969152 52.897457 -29.48118
3.8943062 53.306026 -29.422241
3.8896723 53.412537 -29.450781
3.8664937 51.400917 -29.507868
3.6881742 53.417507 -29.350761
3.9942107 52.825356 -29.456083
4.1101251 52.935802 -29.539293
3.2953815 51.539059 -29.281424
3.8870459 53.47414 -29.375725
3.5010872 52.682915 -29.258768
3.4932051 52.938068 -29.276314
3.0779495 51.769917 -29.141129
3.2772837 51.602402 -29.261091
4.4385285 51.624332 -29.621204
4.1717381 53.309814 -29.535578
4.2989154 53.099232 -29.581844
4.4261427 51.766819 -29.593868
3.9014192 52.586239 -29.379509
4.0886641 52.023342 -29.494976
3.7835002 52.901855 -29.37372
3.9034858 52.616699 -29.425297
3.7898626 53.586063 -29.359047
3.2969227 51.686535 -29.246223
3.7045908 51.391361 -29.383261
3.5941377 51.389568 -29.346613
4.2009711 52.61396 -29.541307
3.8892922 53.503895 -29.414549
3.4954307 51.855968 -29.308783
3.4959588 51.576389 -29.323986
2.9988849 51.697906 -29.109503
4.2761779 53.048233 -29.530521
4.1543431 51.38802 -29.514618
3.8873878 51.535267 -29.425259
3.9039903 52.782593 -29.382589
3.7800064 51.681908 -29.459095
4.1096134 53.307243 -29.514532
4.4007721 53.101616 -29.543968
3.872931 51.685253 -29.496517
3.6032715 51.413486 -29.391174
3.5966315 53.363197 -29.326471
4.150094 53.497353 -29.520679
3.8938103 53.575035 -29.409052
3.8898206 51.654343 -29.43894
3.6907263 51.686512 -29.414495
4.2590394 53.487003 -29.585608
3.6893415 52.818665 -29.352163
3.6846623 53.107944 -29.336584
4.1711593 52.895203 -29.509144
3.7917848 52.854507 -29.44009
4.269917 53.392311 -29.527071
3.992795 53.164738 -29.420179
4.4500294 53.378403 -29.640495
4.0944767 52.333862 -29.510574
3.7822466 51.423656 -29.473509
2.9779615 51.746868 -29.084558
4.1799998 53.395004 -29.522621
3.9952421 53.056843 -29.414337
4.2049141 52.584126 -29.516998
3.9924765 52.575741 -29.413141
3.6902432 52.362595 -29.406441
4.16259 52.827671 -29.543591
4.2984347 52.569569 -29.550749
3.9940114 52.791645 -29.42515
4.1003342 52.826588 -29.492304
3.9783993 53.138447 -29.499077
4.4037204 52.576893 -29.568611
4.3274226 53.239025 -29.605812
3.9798365 52.908978 -29.497091
3.5968289 52.825794 -29.318457
4.136682 51.653553 -29.606472
3.9779115 53.289318 -29.523752
3.996366 53.022552 -29.483053
4.3018899 53.202011 -29.558411
3.6944966 53.590927 -29.319054
3.7912321 52.818638 -29.391941
3.9594355 52.086056 -29.549549
3.9000254 53.060329 -29.36381
3.8867917 53.022861 -29.44371
3.8266687 51.54277 -29.52948
4.2978067 52.615395 -29.581959
4.1878986 52.4217 -29.530876
4.1019278 51.650528 -29.524523
4.0878 52.588692 -29.458202
4.2415004 53.259029 -29.595968
3.9224348 51.613358 -29.408155
3.8022637 51.650703 -29.421013
3.5010314 51.416008 -29.346691
3.689579 51.855286 -29.381535
4.3299484 52.4147 -29.605465
3.8919687 52.838779 -29.495762
3.4946492 52.539566 -29.284273
4.3080006 52.941948 -29.638025
3.8841496 53.517693 -29.476315
4.0045004 52.849617 -29.529032
3.8898845 53.332119 -29.464539
4.296031 51.655407 -29.596359
3.7912312 51.393642 -29.413389
3.6854429 52.854549 -29.389263
4.2028055 53.158154 -29.466452
4.246551 51.71925 -29.643393
4.0558825 52.475597 -29.553488
4.2923632 52.897728 -29.565174
4.2053437 52.018406 -29.532282
3.5000947 52.339977 -29.291496
3.8319836 52.585442 -29.352934
3.974719 53.223068 -29.480968
3.7892375 53.013741 -29.397991
3.6959882 52.625614 -29.3496
3.7903676 51.732944 -29.393818
4.3839869 53.397179 -29.609486
4.1977272 52.704563 -29.522009
3.7842908 53.103359 -29.372484
4.3497195 53.170181 -29.635487
3.209615 51.565952 -29.197319
3.491972 51.687206 -29.327431
4.1967087 52.536068 -29.578583
3.8865376 52.133141 -29.4284
3.8138375 51.721649 -29.532999
4.1051159 52.543251 -29.518778
4.2966881 51.41116 -29.537464
3.9783239 51.493038 -29.598492
3.9702997 51.879696 -29.5502
3.4957278 52.823238 -29.27116
4.0639267 52.255619 -29.518446
4.0827174 53.178635 -29.458443
4.3836598 52.512363 -29.601597
4.3939314 52.417625 -29.625397
4.0966268 52.413372 -29.493507
3.5040717 52.170265 -29.311388
3.8000808 53.1842 -29.35545
4.3148503 52.805782 -29.595957
3.99681 52.514187 -29.480822
4.4509616 52.4851 -29.648712
4.1904726 52.52166 -29.512386
4.0398102 52.171062 -29.432182
4.1038446 52.496788 -29.491543
3.885622 52.336941 -29.437931
3.9973969 52.505966 -29.436291
4.0041413 52.418869 -29.456537
4.0202169 51.612701 -29.456791
3.4935536 51.778015 -29.315628
3.6918197 53.192005 -29.318468
3.9815578 52.447811 -29.508352
4.3803964 52.82428 -29.630905
4.1818781 52.78162 -29.497982
3.9985933 53.39006 -29.438532
3.8866844 52.746605 -29.464411
4.2979279 52.713509 -29.563599
4.0983448 52.700527 -29.481829
4.3025417 52.497185 -29.564005
4.2854495 52.013985 -29.568029
3.6340728 51.54818 -29.324852
3.601943 51.721825 -29.330536
3.8864698 52.816692 -29.433586
3.8828568 51.602196 -29.523428
3.506546 51.600784 -29.35783
3.4801998 51.78281 -29.363924
3.3877091 51.607647 -29.29467
4.1884112 52.24588 -29.586962
3.9856949 51.415272 -29.575006
3.6002388 51.612358 -29.389828
3.5904021 51.854637 -29.344236
4.0793962 53.281651 -29.460161
4.1532335 52.780323 -29.586786
3.6902218 52.024899 -29.446627
4.171804 53.024124 -29.551702
4.3229542 53.053768 -29.640295
4.1104178 52.734928 -29.526798
3.592061 53.426735 -29.302233
4.1563206 53.287445 -29.493355
3.5888038 51.822376 -29.401617
3.8479781 52.575211 -29.480318
3.5002179 53.423069 -29.269613
3.8046703 52.507217 -29.367352
3.8933883 52.502731 -29.386887
3.3940463 51.680531 -29.28385
3.7942376 53.2831 -29.312168
3.6871786 53.219204 -29.3472
3.5900931 51.686535 -29.368107
4.0883689 53.422646 -29.533161
3.7902064 52.53936 -29.411501
3.681581 51.892696 -29.415991
3.7837377 53.395817 -29.357946
3.675807 51.81567 -29.443779
3.8993692 51.745701 -29.427912
3.5025549 53.504131 -29.252861
3.68576 52.657433 -29.383667
4.2127252 53.170341 -29.608732
4.0990806 52.127502 -29.505917
3.6897507 53.50108 -29.329546
3.5987048 53.303505 -29.298784
3.3970551 52.136429 -29.248831
3.4941578 53.459698 -29.199972
3.8963566 53.38393 -29.400898
4.3843861 51.624832 -29.664978
4.0149426 53.248966 -29.403938
3.3722191 51.817139 -29.30076
4.1846251 53.466385 -29.505589
4.0946374 53.388634 -29.478598
3.7964644 53.476139 -29.33634
4.5163517 52.364803 -29.62476
4.0035429 51.750996 -29.464451
3.8858638 52.054211 -29.478594
4.0086789 52.992405 -29.432098
3.793304 53.501484 -29.384182
3.7909846 52.340054 -29.411091
3.4023013 51.574604 -29.280418
3.294167 51.891632 -29.250702
3.3951173 51.88448 -29.287058
3.4023187 53.015263 -29.234299
3.2157595 51.680386 -29.195995
3.7889667 52.621658 -29.394003
3.4046807 51.659573 -29.268669
3.5041947 52.051723 -29.306366
3.2244055 52.06543 -29.187439
3.6920934 53.389759 -29.322393
3.5960221 52.141365 -29.331261
3.6823616 52.169338 -29.395046
4.256145 52.069931 -29.603941
3.7872343 51.971649 -29.443668
3.9823809 52.052299 -29.4881
3.500648 53.391819 -29.242588
3.7913694 52.219448 -29.369713
3.6069341 52.28492 -29.391197
3.4070582 52.974682 -29.190161
3.3413241 52.674767 -29.178644
3.3099561 52.530334 -29.196123
3.2985587 52.425404 -29.184422
3.2870655 52.13802 -29.193031
3.5979857 51.928654 -29.324535
3.3070464 51.853397 -29.217871
3.8848472 51.770813 -29.482882
3.5924511 51.653965 -29.345783
3.2882574 51.661831 -29.19932
3.5981112 51.577869 -29.362736
3.3080034 51.575203 -29.240906
3.8754301 51.484497 -29.500671
3.5954866 51.488304 -29.371895
3.6135335 52.203526 -29.323675
3.5067859 52.2215 -29.268442
3.7499285 53.347721 -29.392933
3.9044561 51.818741 -29.411797
3.3000312 51.770885 -29.230392
4.1101542 51.374088 -29.472849
3.7935119 52.13599 -29.402655
3.218749 52.134678 -29.18145
3.1973343 51.782337 -29.182972
3.7839208 51.765289 -29.436861
3.4150457 51.485462 -29.297304
3.407464 52.384712 -29.268129
3.2093983 52.254311 -29.169828
3.3997796 52.162472 -29.271193
3.7053938 52.092121 -29.434446
3.4037228 52.933857 -29.236837
3.2990611 52.340405 -29.202326
3.0380812 52.248077 -29.08687
3.3106585 52.169277 -29.236712
3.0269728 52.146935 -29.09569
3.2977645 51.958832 -29.230696
3.0942249 52.213837 -29.121101
3.1061125 52.117172 -29.123219
3.3995142 51.964912 -29.272654
3.0872526 51.91782 -29.119123
3.6855168 51.769154 -29.3979
3.1947551 52.141491 -29.176987
3.1836042 51.870529 -29.174458
3.7834387 51.87965 -29.464756
3.2130451 51.653885 -29.164404
3.3972197 53.452927 -29.188713
3.4029434 52.899445 -29.223389
3.2983561 52.740143 -29.196226
3.5030138 51.915977 -29.295027
3.795579 51.856445 -29.42589
3.7942057 51.570442 -29.443007
3.4995713 51.488884 -29.33107
3.2990954 52.447285 -29.206718
3.8897877 51.882759 -29.506769
3.3443608 52.363979 -29.250252
3.4988015 52.140442 -29.29376
3.5041575 52.414349 -29.278826
3.5955143 52.494171 -29.292154
3.9002304 51.435562 -29.445148
3.7039728 52.138603 -29.366325
3.981328 52.161953 -29.532801
3.9786706 51.77005 -29.513733
3.9914179 51.495262 -29.548407
3.7774105 51.806194 -29.478733
3.3351922 52.901596 -29.186779
3.313705 53.117867 -29.170559
3.98838 52.305424 -29.42869
3.7760849 51.49239 -29.454233
3.5996327 51.435104 -29.340221
3.8887882 52.171753 -29.489202
3.3946948 51.926277 -29.236555
3.8136296 51.934181 -29.401184
3.8929486 51.851562 -29.441216
3.7079544 51.449795 -29.368446
3.8961558 51.926224 -29.423182
4.0082655 51.929008 -29.474442
3.6910648 51.936382 -29.358032
4.0035124 51.846344 -29.495087
3.8091464 51.432648 -29.398869
4.0927787 51.442062 -29.51667
3.1659274 52.380959 -29.155941
3.8902144 52.095959 -29.516998
3.7933922 51.361408 -29.35043
3.9905024 51.395603 -29.498018
3.6716757 53.079929 -29.374153
3.5289927 51.452026 -29.317669
4.18225 51.864468 -29.573952
4.1911964 51.411072 -29.482681
4.1971278 51.440247 -29.557158
4.1935544 52.052681 -29.584942
3.5001616 51.882488 -29.32678
4.3896093 52.020996 -29.58633
4.4967594 52.007248 -29.635773
4.2706199 52.21418 -29.564068
4.2519031 52.16737 -29.525757
4.1961246 52.292381 -29.526562
4.2805138 52.326782 -29.546278
4.3721833 52.667 -29.556324
4.2975588 52.650066 -29.515026
4.4799547 52.312984 -29.60997
4.3946881 52.29998 -29.582342
4.1060848 52.298885 -29.480795
3.8948474 52.64785 -29.352074
3.9975772 52.266632 -29.509642
4.3059669 52.34827 -29.595516
4.0849748 51.937408 -29.503178
4.0787849 51.850552 -29.513702
3.8005199 51.525372 -29.374325
3.9975662 51.652485 -29.479334
4.208581 51.554649 -29.595751
4.3155494 52.873421 -29.52788
3.9031911 52.863388 -29.361771
4.0851364 52.370995 -29.456123
4.2762561 52.403744 -29.518688
4.0109677 52.093193 -29.438173
4.1994529 51.938812 -29.550413
4.4804125 52.183022 -29.615843
4.502924 52.089897 -29.638569
4.2861099 52.125057 -29.572302
4.0903563 52.095482 -29.471899
4.2793112 51.925903 -29.591211
3.9968038 51.538399 -29.459219
4.3921981 52.705925 -29.589132
4.090589 51.539551 -29.502701
4.2679877 51.390362 -29.569193
4.1901627 52.129143 -29.555779
4.171339 52.208561 -29.51759
4.280241 51.444653 -29.597256
4.3937998 52.21476 -29.602648
4.4021473 52.790642 -29.611284
3.6953645 51.482368 -29.414015
4.1797318 52.335365 -29.557034
4.2068448 51.783714 -29.609503
4.4752803 51.549896 -29.74312
4.330986 52.54771 -29.615471
4.5403976 52.504005 -29.709894
4.3632169 52.323582 -29.624346
4.3623691 52.161274 -29.649376
4.361176 52.057877 -29.643038
4.3770194 51.952824 -29.631603
4.3763318 51.759686 -29.670969
4.3924155 51.566555 -29.680056
4.2145538 52.930855 -29.478399
4.2172699 52.865261 -29.48222
4.4698029 51.921932 -29.616644
4.258472 51.882504 -29.529858
4.2758331 51.677582 -29.548443
4.2645884 51.782558 -29.609724
4.0838761 51.494377 -29.553534
4.1900034 51.489109 -29.609833
4.1731439 51.510345 -29.538738
3.9889898 52.370045 -29.415222
4.0539603 52.870419 -29.431873
3.8895407 52.376156 -29.374722
3.8838592 52.103649 -29.381584
3.9044509 51.891743 -29.390587
4.0079393 51.374882 -29.442726
4.1615224 51.394142 -29.554718
4.195272 52.183544 -29.594654
4.2472739 51.580429 -29.639641
4.0923858 51.78833 -29.590107
4.0052648 51.439823 -29.477621
3.5285494 52.579967 -29.350321
3.9003024 52.656288 -29.476578
4.0960383 52.217182 -29.494186
3.8145113 52.57666 -29.471346
3.7939672 51.645905 -29.33806
4.5554576 51.545773 -29.710657
4.0950017 52.04948 -29.526272
3.6872735 52.448402 -29.384325
4.2716227 52.092838 -29.542337
3.7884984 52.449749 -29.433266
3.1060846 51.980007 -29.147831
3.7884107 52.057079 -29.430237
4.1965475 52.104958 -29.512831
3.6965904 51.611717 -29.440092
3.9957132 52.217575 -29.45013
3.7663765 51.593945 -29.476278
3.4979234 52.450603 -29.297237
4.1016865 51.401848 -29.538811
3.3271432 53.365852 -29.151527
3.26752 51.956657 -29.184027
3.8794808 51.388466 -29.448639
3.8056307 52.084454 -29.482134
3.2211137 51.9692 -29.191288
3.5457101 52.531326 -29.363335
3.5953937 52.455074 -29.339136
3.3540044 52.597061 -29.247658
4.0074253 51.664944 -29.554234
3.8903542 52.21949 -29.408722
3.8981986 51.37315 -29.392616
