# .PCD v0.7 - Point Cloud Data file format
VERSION 0.7
FIELDS x y z
SIZE 4 4 4
TYPE F F F
COUNT 1 1 1
WIDTH 653
HEIGHT 1
VIEWPOINT 0 0 0 1 0 0 0
POINTS 653
DATA ascii
31.022243 78.248367 -18.745159
31.099838 78.188477 -18.718218
31.040068 78.221123 -18.663927
31.481174 78.163834 -18.706375
31.129137 78.028679 -18.699129
32.808792 77.515511 -18.835676
32.684158 77.62693 -18.810049
31.313036 78.236557 -18.676832
31.632568 77.490158 -18.794985
31.601524 77.60865 -18.777708
31.207905 78.22123 -18.693647
31.746487 77.431046 -18.813974
32.885246 77.197739 -18.855106
31.72522 76.944611 -18.813122
32.691227 77.385056 -18.860609
31.61904 77.100655 -18.836626
33.024132 77.230896 -18.790894
32.809975 78.411041 -18.591852
31.937651 78.120529 -18.603329
32.898319 76.955513 -18.850758
33.046001 77.021645 -18.82131
33.097065 77.175285 -18.807858
33.280724 77.244476 -18.773966
33.259804 77.201424 -18.782785
33.138222 76.905258 -18.816298
31.574451 77.241631 -18.766537
31.438276 77.119499 -18.764465
32.246971 76.865936 -18.855974
32.278698 76.956337 -18.726805
31.252583 77.401344 -18.67836
31.832092 77.448624 -18.736521
32.626602 78.218231 -18.73625
32.83292 76.751709 -18.843981
32.420551 78.607513 -18.59988
32.503128 77.89521 -18.75639
32.736374 76.962822 -18.83828
32.623535 77.903526 -18.759911
32.406956 78.003273 -18.729475
32.325798 78.084557 -18.702599
31.722385 76.749565 -18.826986
31.157574 77.167984 -18.742441
31.434917 78.06546 -18.65126
31.532892 77.021416 -18.715422
32.151722 77.281914 -18.792454
33.274334 78.135719 -18.715059
31.523232 77.590973 -18.733002
31.136621 77.647743 -18.558475
31.631334 78.082848 -18.672709
31.344494 77.868599 -18.647707
32.329849 78.024178 -18.814035
32.199429 77.908058 -18.737906
32.337337 77.899033 -18.766918
32.813675 78.452507 -18.649733
31.743124 77.674118 -18.717896
31.850323 77.675972 -18.72818
31.295731 78.190628 -18.480257
32.923779 78.054543 -18.706409
31.852232 78.025711 -18.65917
31.577454 77.830231 -18.804544
32.035652 77.763603 -18.719572
31.421795 77.815193 -18.729828
31.429026 77.741356 -18.687067
31.603668 77.717415 -18.661331
31.937862 77.761818 -18.709032
31.367294 77.728546 -18.671577
32.321556 77.032204 -18.81115
32.548977 77.818771 -18.766716
31.932951 77.824158 -18.765846
32.730019 77.855904 -18.730555
32.031948 77.855202 -18.703346
32.939484 77.778824 -18.741438
32.416424 76.815125 -18.812021
32.787315 77.646805 -18.737429
32.320683 76.821075 -18.802391
32.950237 77.979607 -18.744665
32.423096 77.784958 -18.725756
32.133415 77.985847 -18.711239
32.222805 76.915955 -18.784317
32.825348 77.775711 -18.735699
31.531467 77.979263 -18.691795
32.321594 77.994926 -18.720928
31.709152 77.939056 -18.662466
32.716545 77.779884 -18.748421
32.374832 77.061485 -18.719769
31.345558 77.90802 -18.68849
32.62043 76.816963 -18.83037
31.938688 76.841103 -18.79825
32.883518 77.953094 -18.856621
32.207302 78.473663 -18.616673
31.73613 77.772964 -18.70681
31.918724 78.484367 -18.633528
31.447868 78.159683 -18.642582
31.63446 77.976463 -18.639725
31.526081 77.939484 -18.641809
32.815212 78.087967 -18.720476
31.925537 77.997551 -18.729082
32.625965 78.073967 -18.717621
31.82531 76.916763 -18.789133
31.64867 76.91806 -18.749121
32.526615 76.810059 -18.800327
32.024853 77.177933 -18.845795
32.426563 78.303207 -18.685823
32.225517 77.862617 -18.708014
31.61655 77.976151 -18.684292
33.205795 78.340858 -18.690031
33.123074 78.00351 -18.686073
31.436951 76.734871 -18.800871
32.121159 77.771324 -18.719606
32.618435 77.772194 -18.743191
32.487724 77.288452 -18.78495
32.124886 77.819038 -18.768209
32.227673 77.980637 -18.715788
32.524994 77.983795 -18.728043
32.245094 78.623329 -18.593884
31.049402 78.125092 -18.696068
31.525818 76.916153 -18.772503
31.357367 77.845383 -18.753218
32.536999 78.303749 -18.640417
32.323154 77.77372 -18.730883
31.802446 77.867813 -18.725386
32.527805 78.179352 -18.691326
32.470646 78.494637 -18.592508
32.240112 78.180061 -18.674639
31.279949 78.070869 -18.61318
31.415382 78.15242 -18.71242
31.089916 78.076973 -18.696228
32.242695 78.06945 -18.701904
32.131554 78.483994 -18.617489
31.437807 78.463867 -18.583458
32.047565 77.975159 -18.719893
32.31007 78.449867 -18.630108
32.528465 78.083534 -18.710968
32.422615 78.090416 -18.704895
31.126356 78.383369 -18.611601
32.519993 77.762291 -18.740639
32.518257 78.448967 -18.631845
31.234741 78.466469 -18.585104
31.327703 78.46907 -18.604776
31.731834 78.465828 -18.605238
31.539146 78.444275 -18.595957
32.324818 78.11821 -18.766848
31.450426 77.703201 -18.648739
32.027756 78.064781 -18.667593
32.133167 78.356171 -18.514959
32.743099 78.130707 -18.748564
32.24128 78.108215 -18.741774
31.853573 78.464485 -18.628649
32.218426 77.77935 -18.731247
33.128883 77.729599 -18.721533
31.912315 78.057419 -18.663923
32.978676 77.825424 -18.758228
31.437132 77.555862 -18.689009
32.049171 77.79287 -18.772833
32.401329 77.804939 -18.806305
33.004467 77.773384 -18.803177
31.555279 77.765495 -18.676819
31.825676 77.783791 -18.719446
32.345963 77.810295 -18.816408
31.219049 77.793159 -18.669552
31.623121 77.757484 -18.687464
31.756374 78.104897 -18.679892
31.362514 77.932106 -18.629507
31.918119 77.05323 -18.783274
32.631577 77.038399 -18.80126
31.518555 78.058708 -18.65976
32.329422 77.274635 -18.840876
31.264755 78.04451 -18.684597
32.021885 78.165977 -18.576624
32.826984 77.069046 -18.760401
32.016327 77.355721 -18.780226
32.337868 78.442131 -18.58246
32.019577 76.825043 -18.788067
32.208702 77.018005 -18.794359
32.322224 77.687683 -18.754049
32.141773 78.080727 -18.674725
32.027462 77.667435 -18.731123
32.119408 77.67701 -18.741455
31.544846 77.123154 -18.762466
31.719448 76.807137 -18.803272
31.953188 77.25631 -18.786652
32.516087 77.573196 -18.812712
32.904484 77.570831 -18.789743
31.041506 77.607559 -18.51207
31.944677 77.648773 -18.691545
31.354567 77.64315 -18.655518
32.736858 77.618118 -18.72682
32.114639 77.600082 -18.705742
33.122555 78.061188 -18.710415
32.705978 78.365486 -18.765539
32.125576 76.666183 -18.760891
33.216877 78.061661 -18.705936
32.534977 76.715553 -18.794495
32.523571 77.446983 -18.752722
32.545547 77.349495 -18.794727
31.959969 77.66449 -18.822435
32.641769 77.399544 -18.730036
31.832006 77.413857 -18.693209
32.354244 77.462601 -18.756138
32.581276 77.593559 -18.789444
32.411957 77.670364 -18.753548
32.235561 76.677925 -18.786469
32.433788 77.035217 -18.799192
32.003933 77.393623 -18.835178
32.627758 76.712418 -18.804014
31.432884 77.633934 -18.670755
33.034096 78.098343 -18.719622
31.626625 77.895683 -18.717197
31.946831 77.660187 -18.730896
32.794346 77.738907 -18.698622
31.858433 77.493088 -18.783381
32.434143 78.037331 -18.800621
31.917564 77.496353 -18.790142
32.453091 77.469337 -18.74094
32.412212 77.533401 -18.740675
31.574303 77.427689 -18.664265
32.332302 78.183533 -18.685785
31.91394 77.448067 -18.737507
32.036205 77.443932 -18.757143
32.024891 78.380875 -18.641388
32.127491 78.376862 -18.640751
31.741291 77.353844 -18.760128
32.140907 76.831917 -18.798254
31.433338 78.375877 -18.624569
31.319632 78.382576 -18.62055
31.409559 77.427917 -18.724098
32.013786 77.228165 -18.746304
32.529785 78.371674 -18.664412
32.23941 76.736259 -18.81427
32.331535 78.372444 -18.653873
32.126453 77.897743 -18.730354
32.124252 77.95858 -18.678308
31.038921 78.293915 -18.582384
32.427124 78.37812 -18.659679
31.732615 78.376457 -18.62999
31.273745 77.928436 -18.69651
31.106825 77.898666 -18.658964
31.901556 76.914322 -18.826899
31.735168 77.887772 -18.729399
31.70859 76.915207 -18.762812
32.021946 77.109322 -18.712568
31.400583 77.822487 -18.600628
31.698917 77.933311 -18.695223
31.336796 78.013191 -18.653847
32.033318 76.931442 -18.788273
32.633766 77.246803 -18.816616
31.742502 78.32695 -18.666365
31.3867 77.6166 -18.710602
32.52182 77.683876 -18.74964
32.620415 78.343811 -18.622627
32.530231 78.309105 -18.694777
31.818258 78.334618 -18.655279
31.94051 77.895653 -18.74494
32.041122 77.052483 -18.778961
31.738178 77.440514 -18.728907
31.435705 77.956924 -18.656956
32.135887 76.9319 -18.781332
31.551613 77.651489 -18.706652
32.124577 78.329605 -18.671143
31.665392 77.923897 -18.828066
32.050098 77.899529 -18.728067
31.748287 77.577301 -18.7568
31.576548 77.574066 -18.726276
31.538837 77.425453 -18.695494
32.231403 77.553299 -18.729809
32.03756 76.728951 -18.840429
31.730024 77.637894 -18.684294
31.821041 77.550301 -18.712339
31.726746 77.059471 -18.797894
31.709297 77.1418 -18.767761
32.232533 76.820686 -18.80349
31.515806 76.949837 -18.810013
32.208488 76.944611 -18.824366
32.130531 76.884308 -18.848648
31.936665 77.583115 -18.759327
31.944414 77.126579 -18.757534
32.746075 77.944626 -18.708183
32.128174 77.047607 -18.781845
32.116081 76.953522 -18.805473
31.439667 76.855392 -18.827763
32.033756 78.31945 -18.670204
31.232588 78.3703 -18.568537
31.420946 77.999962 -18.675028
32.234474 78.332436 -18.674271
31.41407 77.86171 -18.723694
32.124805 76.735054 -18.819695
31.537632 77.894081 -18.709955
32.130215 77.858337 -18.712589
31.138071 78.329018 -18.610693
33.026455 78.174377 -18.703276
32.252647 78.1959 -18.71278
32.042175 77.540047 -18.746031
32.230846 78.301895 -18.624266
31.42897 76.834503 -18.792233
32.215645 77.230789 -18.755585
31.363636 77.246971 -18.655918
32.228291 77.369064 -18.767561
32.394588 77.948593 -18.686443
31.62442 76.993813 -18.728323
32.605663 77.649696 -18.751085
31.584011 77.383881 -18.756609
31.621752 77.469315 -18.742682
31.435263 76.914665 -18.76128
31.532091 76.733582 -18.805166
31.450977 76.959801 -18.7932
31.820786 77.36528 -18.753569
32.314205 76.916199 -18.783003
32.72522 78.189774 -18.692863
32.071693 76.839996 -18.900354
32.364929 78.337219 -18.518709
32.746105 76.742325 -18.826157
31.630104 76.812172 -18.78229
32.930786 77.672729 -18.788839
32.530907 78.35392 -18.619593
32.132465 78.353264 -18.604328
32.129429 78.30806 -18.621498
32.212074 78.444748 -18.56358
32.332855 77.546494 -18.723103
31.598679 77.557037 -18.665546
32.22422 78.353134 -18.602787
31.642345 77.239014 -18.73226
31.659622 77.324974 -18.71303
32.722404 77.126945 -18.777988
31.628693 78.012306 -18.613026
31.831734 78.303024 -18.610712
31.934544 78.350967 -18.596481
31.591963 76.795906 -18.727617
31.833115 78.361168 -18.585424
31.73056 76.663071 -18.751257
32.013233 77.580246 -18.769844
32.027992 77.750572 -18.6602
31.149609 77.134956 -18.680182
31.142031 77.241486 -18.692734
32.027435 78.163162 -18.639544
31.734425 78.357254 -18.586704
31.631859 78.365715 -18.573017
32.336849 78.354652 -18.60957
32.15218 77.392799 -18.703327
32.23317 77.664124 -18.746023
32.623634 78.299309 -18.644236
32.429676 78.348206 -18.616909
31.941032 77.936028 -18.67503
31.937946 78.329361 -18.659826
31.851089 76.826981 -18.766617
32.318199 78.302185 -18.634319
31.833462 77.874863 -18.684441
32.227856 78.381203 -18.654549
32.114864 78.133293 -18.643353
32.004494 76.774811 -18.761354
32.327972 78.313896 -18.677031
32.517342 77.133179 -18.780485
32.225887 77.935364 -18.696941
32.632271 78.304352 -18.688366
32.631344 78.372749 -18.66855
32.342865 77.227989 -18.745274
32.429771 78.301712 -18.630991
32.831718 78.351494 -18.62639
32.533649 76.780403 -18.735432
32.723156 78.351028 -18.626066
32.160076 77.509354 -18.779827
32.411686 77.900085 -18.737541
32.925102 78.367332 -18.668062
32.935364 78.314812 -18.7069
32.914967 78.343033 -18.633909
32.320515 77.855148 -18.71595
32.93087 78.303268 -18.655354
32.397083 76.781609 -18.731647
32.616676 77.309082 -18.756184
32.621506 78.000717 -18.725975
32.72176 78.319489 -18.683054
32.135811 78.43541 -18.582104
32.116432 77.444359 -18.744152
32.238441 77.323036 -18.735071
31.925585 77.3284 -18.731339
32.624207 77.947563 -18.708057
32.608971 76.921173 -18.798765
32.618286 77.139137 -18.77396
32.426544 78.177338 -18.690756
31.550055 77.880692 -18.672794
33.044434 78.310608 -18.649754
32.52039 77.867546 -18.710728
33.045334 78.37149 -18.671223
32.736279 76.82663 -18.818779
32.723949 77.042343 -18.832438
32.840927 77.865433 -18.726793
32.81242 78.30246 -18.646666
32.312916 77.943893 -18.660063
32.650921 77.36071 -18.794954
32.027866 77.504066 -18.783768
32.618046 77.232346 -18.754616
32.741093 77.227409 -18.758821
32.625362 78.183899 -18.69326
33.016586 78.350143 -18.635893
33.02795 77.549034 -18.778301
32.883945 77.361771 -18.851894
32.822105 77.43779 -18.749683
32.732822 78.299828 -18.64846
32.833191 77.990097 -18.732275
32.862041 77.371658 -18.873833
32.517086 76.836327 -18.698906
32.91898 77.486832 -18.851599
32.823654 78.366333 -18.672222
32.439144 77.889488 -18.717432
33.030006 78.202507 -18.741438
32.890381 77.311668 -18.752245
32.441193 78.196381 -18.719564
32.727745 77.99482 -18.738798
32.823795 76.935341 -18.796614
32.426807 77.072227 -18.728167
32.855412 77.291862 -18.835953
32.645084 78.445717 -18.554518
32.53775 76.726753 -18.823372
31.823978 77.254318 -18.741438
32.823448 78.310776 -18.684921
32.117664 77.12738 -18.768854
32.126553 77.221107 -18.746855
31.820644 77.273544 -18.783987
32.410534 76.717476 -18.828321
32.717991 77.668571 -18.75399
31.921646 77.428246 -18.661901
32.767521 77.895569 -18.614422
33.104885 78.374702 -18.604614
31.932327 77.237915 -18.74823
32.374138 77.200951 -18.687447
32.939587 77.955261 -18.705694
32.260853 77.398994 -18.684643
32.240566 77.624504 -18.706554
32.82185 76.905472 -18.725084
32.591824 78.091148 -18.647928
32.582703 78.130524 -18.625137
32.515823 78.437653 -18.567453
32.0215 77.309128 -18.721874
32.898975 77.537025 -18.736105
32.543621 76.911568 -18.793289
31.927427 77.363029 -18.761196
32.926121 77.864319 -18.735025
32.838902 78.233086 -18.742973
31.903355 77.844681 -18.674961
32.825066 77.885231 -18.775976
32.999397 77.874573 -18.721561
32.337055 77.630684 -18.855877
33.128513 78.210503 -18.697849
33.146404 78.380447 -18.697731
32.943279 77.233246 -18.774532
31.834503 78.186584 -18.649557
32.908756 77.436241 -18.759415
32.132313 77.53933 -18.722679
32.927734 78.170609 -18.703039
32.94381 77.096626 -18.733889
32.429043 76.922066 -18.79311
32.841885 77.207558 -18.88817
32.818897 77.353065 -18.7808
32.915813 76.814308 -18.829123
32.302795 77.11335 -18.752474
32.820091 76.808525 -18.810846
32.732044 76.917847 -18.80764
32.822033 77.147881 -18.780764
32.995926 77.673714 -18.762094
31.61327 76.728119 -18.801212
32.133289 77.014992 -18.763121
31.573101 76.741386 -18.694868
31.838167 76.949974 -18.804489
31.821869 77.129845 -18.765182
32.204174 77.422371 -18.741394
32.839882 78.171265 -18.713284
31.829899 77.030602 -18.79789
32.127018 77.371338 -18.756716
32.8181 77.298538 -18.771605
32.840912 77.936798 -18.724499
32.625866 76.72374 -18.842855
32.436371 77.129128 -18.783356
32.445187 77.01693 -18.767246
32.837887 77.530647 -18.766376
32.72514 78.225281 -18.710619
31.609087 76.962631 -18.814383
31.733307 78.299843 -18.609579
32.55809 77.93705 -18.687021
33.014301 77.991722 -18.747227
32.281548 77.382607 -18.708033
32.036736 77.134727 -18.762926
32.248131 77.581169 -18.768101
31.935381 78.391266 -18.635582
31.523575 76.840164 -18.799664
32.920078 76.911987 -18.7885
32.928719 77.139694 -18.797731
31.711639 78.148209 -18.645887
31.816753 76.994675 -18.731817
32.924103 76.974937 -18.784508
32.73727 78.371338 -18.676636
32.529957 77.225563 -18.771063
32.435913 77.59864 -18.755613
32.0135 77.64283 -18.696608
31.53183 78.382652 -18.62286
31.526726 78.360809 -18.572037
32.125401 77.310326 -18.733246
31.653961 77.69709 -18.738409
32.31498 77.346153 -18.721889
32.038292 77.267334 -18.783978
32.440975 77.216827 -18.756737
32.35313 77.59536 -18.759371
32.820358 77.199402 -18.769514
32.829685 76.992249 -18.777363
31.361217 76.765953 -18.743843
32.020412 77.430367 -18.680998
32.72839 77.343132 -18.732969
32.741367 78.103416 -18.717958
31.821022 78.37825 -18.645416
31.249622 78.385048 -18.61972
32.623909 77.865105 -18.719929
31.910187 76.911186 -18.767532
32.4254 77.640739 -18.70702
32.720501 76.994438 -18.769567
33.173809 77.266068 -18.793266
33.128132 77.987389 -18.743284
32.447136 77.318367 -18.748852
32.209332 77.136948 -18.773613
32.536552 77.040977 -18.799896
33.132854 78.330849 -18.713984
31.431913 78.367439 -18.569475
31.929287 78.300964 -18.617462
32.015129 76.973816 -18.795465
31.370913 77.723679 -18.512281
31.847147 78.209686 -18.558756
31.539074 77.701599 -18.65539
31.372133 77.76162 -18.497837
33.07122 78.134499 -18.763996
31.966846 78.204903 -18.630203
32.157753 78.06871 -18.604433
32.549931 77.559784 -18.735678
32.532684 77.332176 -18.72928
33.131042 78.298157 -18.651499
32.836559 76.759529 -18.772825
31.636099 78.383766 -18.627918
32.158081 77.08609 -18.72337
33.311283 78.299309 -18.726042
32.302433 77.719444 -18.686584
33.192738 77.498444 -18.806723
32.034817 78.304985 -18.611637
32.063976 78.035515 -18.639105
32.763454 76.769066 -18.794529
32.602337 77.012291 -18.774576
33.014587 76.941048 -18.80514
32.732025 77.888962 -18.766445
33.23526 77.974754 -18.760349
32.696678 77.533493 -18.732681
32.276119 78.186272 -18.588572
32.51577 77.736557 -18.659386
32.329422 76.860886 -18.736273
33.009808 76.998619 -18.787872
32.604691 77.553764 -18.732063
31.854988 76.866035 -18.691715
33.363976 78.156273 -18.721601
32.396889 78.0299 -18.656296
32.224564 77.000114 -18.759117
32.5616 77.613716 -18.691586
33.039131 77.967018 -18.718225
33.178608 78.3395 -18.712273
32.911968 78.188957 -18.729095
33.20232 77.093307 -18.811529
33.024361 78.322365 -18.690479
31.822552 77.627083 -18.689648
32.636604 77.456818 -18.763687
32.329956 78.217857 -18.701488
32.023521 78.355515 -18.596066
32.529404 78.196373 -18.719955
32.792053 77.708092 -18.748882
31.839972 77.570915 -18.76022
32.515041 77.019333 -18.778164
31.62472 78.306572 -18.600214
31.935205 77.545227 -18.723709
33.083786 77.485992 -18.807749
31.55134 77.668533 -18.656755
31.834444 77.33268 -18.719759
32.5914 77.608223 -18.732206
32.593979 76.980591 -18.879835
31.732458 77.257858 -18.785425
31.712095 77.230553 -18.753714
32.043125 77.006279 -18.755392
31.516422 78.298729 -18.592369
31.63245 77.147499 -18.763639
31.405165 78.331085 -18.66548
31.750402 77.540619 -18.709412
31.620739 77.050926 -18.785381
31.629333 77.867302 -18.67363
31.320393 78.367172 -18.566319
31.549072 77.032173 -18.781691
31.124971 78.360138 -18.563951
32.096687 76.776108 -18.759716
31.326777 78.317757 -18.594074
31.220961 78.334938 -18.626665
31.233427 78.303352 -18.59403
31.443457 78.295807 -18.593805
31.474354 77.013924 -18.757177
31.615999 77.676651 -18.681484
32.32478 76.947731 -18.822912
32.206604 77.269554 -18.792385
32.402702 76.954483 -18.817196
31.788832 77.085686 -18.861467
31.599731 76.85202 -18.849676
31.730093 77.185371 -18.810852
31.579552 78.160561 -18.682386
31.832384 77.165138 -18.814152
31.720573 77.863808 -18.684187
31.525381 78.153404 -18.604374
31.534601 78.150124 -18.580564
31.652739 77.203476 -18.667105
32.320213 78.061256 -18.647604
32.199898 76.810394 -18.74662
31.577896 77.826195 -18.587185
31.528669 78.049286 -18.616364
31.355162 78.321449 -18.653008
31.530453 76.855392 -18.833616
31.537241 78.327438 -18.633236
31.075533 78.331528 -18.617167
31.140829 78.300789 -18.5888
31.61495 78.312714 -18.657789
31.536196 77.070755 -18.714396
31.321251 78.164497 -18.614502
32.732224 77.481377 -18.781717
31.076862 77.209236 -18.680481
31.286037 78.089661 -18.594627
31.775572 77.361214 -18.714037
31.431715 78.034348 -18.627293
31.46838 77.81179 -18.663797
32.73378 77.103432 -18.738297
32.273685 77.08313 -18.679502
31.551413 77.221375 -18.746908
32.27277 76.905518 -18.711725
31.813015 77.949295 -18.674625
32.711117 77.359352 -18.791601
32.698421 76.969177 -18.934727
33.112122 77.398132 -18.801676
33.046032 77.106438 -18.807535
32.112625 76.866455 -18.720098
32.84901 77.044098 -18.818642
31.917103 78.016624 -18.655087
32.339943 76.805908 -18.755451
31.459221 77.361351 -18.699049
32.134857 77.594727 -18.771179
32.995712 77.430748 -18.796154
32.713493 78.007431 -18.825424
31.812712 77.95462 -18.717978
31.325867 77.435112 -18.706944
31.241793 77.317719 -18.681545
31.689577 77.034836 -18.73353
31.401491 77.183823 -18.706129
31.920818 76.736389 -18.839642
31.073158 78.214127 -18.588951
31.264618 78.097336 -18.583731
31.270668 78.135071 -18.639029
31.233412 77.938667 -18.620832
32.093136 78.221512 -18.69594
32.383583 77.246773 -18.807089
32.698418 77.475586 -18.873529
