# .PCD v0.7 - Point Cloud Data file format
VERSION 0.7
FIELDS x y z
SIZE 4 4 4
TYPE F F F
COUNT 1 1 1
WIDTH 1511
HEIGHT 1
VIEWPOINT 0 0 0 1 0 0 0
POINTS 1511
DATA ascii
-7.232173 39.869038 -3.5783179
-6.4026217 39.179768 -3.4956841
-8.8984528 34.281219 -2.8624184
-7.6383672 35.773186 -2.9416473
-7.640976 33.620186 -3.5192554
-8.905653 31.126762 -2.8961895
-8.819953 34.236507 -2.8717029
-7.5333724 34.285515 -2.8787558
-8.5164948 31.445108 -2.8677297
-6.4808841 37.033123 -3.4783814
-8.976675 39.368065 -3.2639687
-10.188663 37.54578 -3.1148677
-8.028017 37.352642 -3.2051303
-5.6163759 34.824665 -3.2687137
-6.8428121 32.844383 -3.270618
-7.8214235 26.991564 -3.1054895
-6.1144037 36.50106 -3.3661623
-8.126359 29.700235 -2.7413261
-6.0224462 34.399452 -3.3255842
-7.6555648 33.534519 -2.8681753
-7.3824425 30.270037 -2.6904013
-8.2087622 27.653753 -2.5902646
-8.6026363 32.772038 -2.8110392
-9.053793 26.157146 -2.7947211
-8.0067568 31.404579 -3.394928
-8.9323769 30.191048 -2.8962917
-6.948379 28.387411 -3.0266275
-7.1903749 31.708298 -3.3124278
-9.3129702 26.16847 -2.6458774
-8.4119349 31.433609 -2.8547726
-7.9854674 26.258139 -3.1507096
-7.3431211 36.522346 -3.3145344
-8.1848106 27.803572 -2.5602255
-6.3889012 31.045717 -3.2034869
-7.302556 39.390068 -3.5162327
-7.9096065 38.686546 -3.0937793
-8.0956526 35.444061 -3.5247457
-7.129755 31.417797 -3.3058288
-8.4933205 35.530212 -2.9225085
-9.6841307 36.752422 -3.0860901
-6.8535762 24.754002 -3.0222869
-7.4113574 31.988518 -3.2601886
-8.9214706 39.43626 -3.249979
-8.7910423 39.232986 -3.1985934
-8.6049309 37.49181 -3.0861199
-7.6350193 37.813732 -3.6290548
-7.9231048 26.576794 -3.1420646
-7.8123212 26.960537 -2.7236509
-7.3037481 26.343426 -3.0608027
-7.483202 27.557703 -3.2334929
-8.3166485 27.118288 -2.8333781
-7.7673068 27.380499 -2.6476135
-7.8994207 26.47138 -3.1609101
-7.3972402 31.717073 -3.334686
-9.0914726 37.494686 -3.1160469
-6.758553 33.142822 -3.3515117
-9.0169277 25.25395 -2.6801581
-9.7057848 32.573391 -2.9211323
-7.7405448 29.049454 -2.6769655
-8.7887735 37.25211 -3.6372771
-6.937921 40.112144 -3.5594049
-8.8957024 32.799625 -3.509234
-8.3334093 37.388065 -3.6045966
-8.8219223 28.70845 -2.8753951
-9.6905174 36.926247 -3.0679705
-8.8037815 25.137444 -2.6317499
-6.6300359 38.396587 -3.486429
-8.3705635 32.69331 -3.4809933
-8.0790701 32.708221 -3.4778931
-8.3071756 24.150545 -2.5201695
-8.9920454 27.96838 -2.8170173
-9.9922686 28.589514 -2.7638342
-7.1880732 31.41287 -3.3078074
-8.1456251 31.403389 -3.0131106
-8.4967299 32.688442 -3.5361183
-7.9181457 29.039062 -2.7703116
-9.7773209 32.340904 -2.8481896
-9.1930552 37.480736 -3.110853
-8.1210585 29.612822 -2.7427084
-7.2080326 33.103569 -3.3223279
-9.2066126 32.751579 -2.8411646
-9.0926514 25.238417 -2.7250614
-7.6033478 39.397499 -3.5426695
-8.2168131 28.402863 -2.6788261
-8.8115616 33.484924 -3.470541
-7.6776576 27.726788 -3.1655328
-6.6491718 36.300362 -3.4079747
-9.1724386 26.155596 -2.8244362
-9.0069456 33.914314 -3.0150747
-7.9408607 31.523714 -3.3727884
-8.8020134 26.428177 -2.6998432
-6.7956686 28.88397 -3.0148287
-7.3751316 35.936569 -2.9638724
-7.6937709 27.633303 -3.1333044
-7.0387306 31.407814 -3.290437
-7.8289895 27.672979 -3.1586819
-7.6092243 27.650627 -3.1410091
-9.058567 38.405281 -3.2163446
-8.0162497 38.222179 -3.0055938
-7.9271469 28.064798 -3.3484547
-8.9025326 37.492603 -3.1046939
-7.2760477 27.854818 -3.106046
-7.4169016 28.813971 -3.0848684
-8.2116327 26.405571 -2.6042371
-6.1071701 30.286295 -3.0171483
-7.2209134 27.917105 -3.076484
-8.1149788 28.449823 -2.698699
-9.5124722 37.447468 -3.0890448
-7.9058042 37.806736 -3.6259089
-9.5878868 37.012928 -3.0491526
-7.8648467 24.930264 -2.9939213
-9.0050573 37.489258 -3.1090906
-8.0089245 28.464853 -2.6909208
-9.1903458 34.790714 -3.5678828
-9.4927282 37.575016 -3.1121981
-6.0140324 33.496429 -3.3301661
-7.2809057 29.325567 -2.6648145
-7.8247628 33.079063 -3.3425212
-7.8636727 36.964161 -3.6871362
-8.0093184 36.932461 -2.9124897
-8.1140327 34.850914 -2.9579823
-9.1986284 25.9515 -2.6263127
-8.904438 25.86227 -2.6160798
-8.4106464 30.774723 -2.8051994
-8.3184996 25.769142 -2.5960319
-7.4616528 29.285088 -2.6897371
-9.0992107 25.144812 -2.650234
-7.6081934 29.016933 -3.2110763
-7.6968718 36.168514 -3.5738695
-8.4044085 37.492954 -3.0686712
-6.8052545 27.546776 -3.1065905
-6.8379302 27.933796 -3.0208075
-9.1019192 24.589701 -2.6256244
-6.6263075 33.596886 -3.2825434
-6.2300978 31.166538 -3.1765256
-7.4047127 34.822807 -3.4329438
-9.4975843 32.765663 -2.893054
-9.9025879 32.762154 -2.9018989
-9.2091999 29.044607 -2.7482786
-7.3077259 31.50038 -3.3110392
-6.7452216 38.642338 -3.520314
-7.6100674 35.928486 -2.9580255
-8.9916954 39.448036 -3.2568705
-8.2140636 37.49622 -3.0544045
-8.0271378 33.218952 -3.4486015
-6.6039658 36.559402 -3.3539023
-9.2684135 34.263832 -2.9003861
-8.0944338 28.329922 -3.2722397
-7.8044734 36.479256 -3.4595401
-7.3992147 40.389294 -3.592922
-8.2045937 31.140757 -2.8316905
-7.1998544 34.05772 -3.374742
-7.4821177 40.398865 -3.6477783
-8.3165741 25.902052 -2.6137142
-7.5346913 31.80076 -3.3088892
-7.4829993 36.554462 -3.4145668
-6.2213459 34.468407 -3.3324721
-5.8741617 34.695004 -3.3512232
-7.7910638 29.571299 -3.26701
-8.8072062 25.505007 -2.7038224
-7.5636802 31.833334 -3.3033507
-8.5009394 34.273296 -2.8365452
-9.2891293 37.477699 -3.1107633
-8.026 32.522877 -2.9987519
-6.0050483 32.335007 -3.0524855
-6.9982023 33.56686 -3.203407
-7.2041683 36.477341 -3.4059739
-8.8975954 27.619196 -2.8358412
-9.066494 26.45023 -2.5661931
-10.158712 31.403112 -2.8444765
-8.1034069 38.248188 -3.0128419
-7.5027122 36.476727 -3.4332924
-6.249197 34.747055 -3.3576994
-8.0945406 29.732088 -3.3353908
-6.9026561 34.05505 -3.3718867
-6.8059864 33.9967 -3.2748663
-7.9955564 31.293018 -2.9405775
-8.1014566 29.61865 -3.3677363
-7.1596127 33.593407 -3.2591109
-6.9629169 33.160187 -3.242444
-6.6855955 31.756313 -3.1887665
-7.9698586 29.084934 -3.4307532
-8.1823072 29.819033 -3.4004364
-6.7083082 28.313984 -3.1531267
-9.1853228 25.990137 -2.6888297
-7.8360405 35.814445 -2.9480753
-5.5186849 34.808189 -3.20383
-8.3929615 30.124701 -3.4407721
-7.597568 31.669647 -3.3906536
-6.8709712 28.323618 -3.1142623
-7.6977887 30.102798 -3.2657166
-6.3076758 31.898985 -3.0793507
-7.8699431 27.472044 -2.6279428
-7.6348271 35.68668 -2.9352782
-7.0373011 34.720993 -3.4065914
-6.8968329 34.710831 -3.4363658
-8.4979734 30.264351 -3.3719249
-8.0038862 37.061131 -2.9798739
-8.201107 37.049873 -3.0148797
-6.6202898 34.750671 -3.4093349
-7.1727495 29.64373 -3.2117219
-8.0011826 25.110001 -3.1057253
-8.1269445 37.035858 -3.0120163
-7.9975853 30.125168 -3.3279407
-7.8778529 36.524651 -3.0012519
-7.5212293 27.617077 -2.6117468
-8.6127796 37.86293 -3.5736275
-7.0991702 34.503311 -3.4112985
-7.5196753 29.695753 -3.234792
-6.8110871 28.582441 -3.0067494
-6.5101657 34.467083 -3.3541558
-8.7975788 33.514427 -3.0556886
-7.7482524 33.723408 -3.4862123
-7.5254321 35.712906 -2.9612417
-8.7064562 33.495098 -3.033083
-8.3972406 28.882338 -2.7746401
-7.0316062 27.931993 -3.1802349
-8.006649 32.170689 -3.4534068
-8.0013704 32.085075 -3.345113
-7.9246984 32.795593 -3.4398506
-7.1842732 31.894402 -3.3605812
-10.287632 30.309549 -2.8742595
-9.1937685 38.234512 -3.1769028
-7.8054729 33.904594 -3.4711478
-5.9129982 34.626896 -3.3039589
-8.2092981 32.670574 -3.4909902
-8.5237741 35.829163 -3.0554376
-7.8008151 35.878098 -2.9659534
-8.0903025 30.532036 -3.3688579
-7.1783857 34.422287 -3.2877676
-9.019516 37.820961 -3.5726476
-8.2960749 30.78623 -3.3684993
-8.6006765 35.846111 -3.0653431
-7.4191766 31.642284 -3.2367077
-8.0484219 39.067871 -3.0236514
-8.7927256 30.288567 -3.4137738
-8.4917479 30.35844 -3.3777392
-7.6034145 30.457241 -3.3579378
-7.9363537 35.77124 -2.9635026
-7.9802485 38.959122 -3.0749927
-8.6951799 30.250101 -3.3990009
-7.6725597 28.290255 -3.1888244
-9.3139019 26.353004 -2.7578006
-8.8025093 37.872871 -3.584919
-8.3034372 31.448391 -2.8482833
-9.0065556 36.959122 -3.0846562
-8.1244726 39.353989 -3.0647388
-8.9060955 31.436481 -2.9083815
-8.7076435 31.046114 -2.8961217
-8.1773014 31.038898 -2.9041224
-7.4352889 33.812408 -2.8410366
-7.2082958 28.094526 -3.1207943
-7.8977389 38.976612 -3.0835683
-7.7078419 24.013735 -2.6792641
-7.144516 40.448566 -3.6430547
-8.3235722 32.710903 -3.597878
-7.3153219 33.743851 -2.8944728
-8.9986916 34.762257 -3.0479493
-8.8019066 35.836864 -3.0948114
-9.0731201 31.432806 -2.9137571
-7.5329399 25.532541 -2.9851997
-8.0181799 32.740917 -3.3994975
-6.767231 28.40778 -3.0438874
-9.2861443 34.771446 -3.153331
-7.9333601 39.032753 -3.0724633
-8.5916214 34.89782 -3.5027349
-8.7049189 33.470657 -3.4170012
-9.1785412 34.760902 -3.0998805
-8.529521 34.97261 -3.5025315
-8.7914143 34.91114 -3.5118358
-8.6929541 34.812748 -3.4045515
-8.2983093 34.019608 -3.1238413
-8.802907 33.459324 -3.389946
-7.7030158 31.658133 -3.3555217
-7.1089077 28.289 -3.1427755
-9.1002121 34.758072 -3.0703094
-9.9063244 36.711025 -3.0693052
-7.2757215 31.707617 -3.2739668
-10.003449 36.461243 -3.0695775
-9.871664 34.812893 -2.996213
-9.5394354 34.997345 -3.1579747
-9.1562672 36.486767 -3.1634626
-7.1517873 37.949364 -3.252229
-7.1250772 25.532244 -3.0757558
-8.2280016 38.306561 -3.0257466
-9.5174952 34.858063 -2.9149306
-9.8933926 34.915169 -3.0002229
-7.6700754 31.72303 -3.3062475
-9.6042976 30.960346 -2.8510044
-8.814312 34.983635 -3.5256386
-8.9898138 25.364288 -2.6634703
-7.2046499 26.26046 -3.0734007
-7.6145105 37.728161 -3.6339917
-7.3974462 30.268808 -3.1202111
-10.024152 34.903126 -2.9962914
-9.1234827 38.393051 -3.0705023
-9.0771799 25.348562 -2.6737702
-7.9310026 31.703358 -3.2476602
-6.0022097 33.544323 -3.3380508
-8.033412 38.491879 -3.180548
-7.2935591 39.642643 -3.6745
-7.7438769 37.719597 -3.6123023
-9.5975227 38.30304 -3.1056163
-6.6870699 31.844372 -3.0277803
-7.4999728 36.057442 -3.4878201
-8.0317249 31.667795 -3.2684863
-7.892045 31.608408 -3.3327069
-10.163229 34.761055 -2.9520974
-8.2244339 29.883316 -2.7038572
-7.3302588 24.558271 -2.4397824
-8.1194038 39.098255 -3.1119685
-6.2903051 32.442303 -3.2135186
-9.583271 33.544788 -2.9799573
-6.0122657 32.111397 -3.1726358
-5.9861546 31.851084 -3.1560884
-8.0931158 35.894806 -3.569937
-9.1053877 33.899551 -3.0396125
-9.4994841 34.810963 -3.0010757
-9.5105419 34.91605 -2.9955847
-7.923099 25.994854 -2.5659986
-7.595757 30.270445 -3.1542754
-8.2978745 39.406727 -3.1311729
-7.2806396 33.692574 -3.4625289
-7.0617971 35.073704 -3.3520858
-9.4949512 33.202614 -2.9329743
-7.7013721 37.551296 -3.5767689
-7.6988592 33.760418 -3.4345751
-7.231688 33.6796 -3.5054553
-8.0366983 34.068024 -3.4539518
-8.0090122 35.422821 -3.1209974
-7.2043924 35.183281 -3.3207257
-7.9940872 37.416115 -3.750469
-9.5955753 34.809647 -3.0010593
-9.6972237 34.802639 -2.9978762
-8.094451 37.060123 -3.61447
-6.5189409 31.823341 -3.1900558
-7.9241891 38.72245 -3.0697258
-7.9030581 37.505203 -3.6633136
-6.7888951 27.752663 -3.1524565
-7.8498368 37.673313 -3.6148112
-7.9171023 37.686825 -3.6058252
-9.774538 38.305614 -3.1138897
-8.1498375 30.204309 -2.65997
-7.8367605 37.065659 -3.5743513
-9.869545 33.570251 -2.9949076
-8.6990767 30.585608 -2.8515491
-8.0115824 36.991058 -3.7323656
-9.9282217 38.291195 -3.1490796
-7.9988194 36.931595 -3.5537288
-8.0292482 27.79356 -2.650239
-6.206996 32.898216 -3.230556
-5.2212563 33.337284 -3.1365056
-8.0076284 37.054863 -3.5986679
-7.9890409 36.938789 -3.6062913
-7.9104128 36.974422 -3.6044843
-9.5948915 33.206085 -2.9365468
-7.7045994 37.134319 -3.5468287
-7.6151304 37.135689 -3.5351171
-6.7489223 25.593441 -3.0748572
-5.3730507 33.341106 -3.1380806
-8.6442327 34.804562 -3.3734422
-8.0925474 36.963554 -3.6247561
-8.6941071 25.353333 -2.6344638
-7.5328383 35.804356 -2.944587
-7.5514932 33.628418 -3.5075734
-8.1031284 38.971035 -3.0942478
-8.1537142 27.776224 -2.5759101
-9.2905111 30.58124 -2.8966174
-7.2086711 28.421215 -3.1683693
-8.0444813 37.717533 -3.1596813
-8.0157022 37.812637 -3.0734818
-8.0674095 37.821976 -3.0842438
-9.1279354 28.234457 -2.8582549
-8.5075569 25.356804 -2.6129377
-8.6093769 37.54084 -2.9721427
-8.6060228 37.518749 -3.1393585
-9.7882681 34.905457 -2.996628
-8.0384016 37.394257 -3.0391786
-9.6991634 38.542637 -3.1457727
-10.200144 27.875031 -2.7432287
-9.8077421 29.249428 -2.7406266
-10.096376 30.374395 -2.8157506
-10.168926 32.242573 -2.9028857
-10.146975 35.152344 -3.0263329
-9.5126944 35.228527 -3.00403
-9.5961533 36.387352 -3.0425587
-9.587286 36.510075 -3.0675874
-10.11868 38.769245 -3.1619623
-10.119326 38.969227 -3.1887531
-9.0064373 30.343004 -3.3273654
-7.6864452 26.74383 -2.6394129
-9.9968824 30.303072 -2.8439493
-9.9046307 36.501408 -3.0721333
-9.479641 37.227768 -3.0752487
-9.7159567 37.68285 -3.1042242
-9.0313492 34.962242 -3.4711111
-7.1004372 38.363689 -3.5531511
-8.0936327 31.096918 -3.3730528
-10.010487 26.020861 -2.6814611
-9.9976692 26.07357 -2.7015197
-9.8913164 26.619755 -2.7111716
-9.4788027 34.444782 -2.9526515
-9.4995165 34.593113 -2.9875066
-9.8965769 37.356865 -3.112556
-8.8960962 36.417393 -3.5677156
-9.0376272 35.550518 -3.5656886
-7.1018038 38.932133 -3.551934
-9.5819769 33.36924 -3.0492148
-10.193233 34.56424 -2.9550922
-9.7798948 24.06131 -2.6494093
-9.5221424 36.602467 -3.0566294
-9.806694 36.924259 -3.0827003
-9.4090471 37.47583 -3.1080451
-8.0851755 30.977688 -3.3602331
-7.0813723 30.034796 -3.3078589
-9.5069799 34.181282 -2.9893689
-9.3901052 36.512035 -3.0556426
-9.4115267 36.933144 -3.1004081
-9.5068083 37.716938 -3.1431816
-9.9266663 39.623699 -3.1978796
-7.7542901 37.328835 -3.5291731
-7.8432813 32.653782 -2.8393626
-7.9541025 30.854294 -3.3048956
-7.9133511 31.071865 -3.3365853
-6.9429507 35.31543 -3.4458938
-9.7915754 33.95874 -2.9814014
-9.7936478 36.876759 -3.1371791
-9.710619 37.26635 -3.1283803
-8.688921 31.362301 -3.4073441
-7.8898435 34.606407 -3.457674
-8.6843843 29.092726 -3.3527765
-9.8830204 26.53619 -2.7333524
-8.8616476 30.446825 -2.9832826
-9.812314 36.507854 -3.0763271
-9.410265 37.182552 -3.1095831
-9.3976889 37.265274 -3.0957739
-9.6171169 37.489384 -3.1264317
-8.7389021 31.02367 -3.5479875
-6.9326568 38.640312 -3.5774691
-6.9320168 28.569069 -3.2290158
-10.007356 24.649839 -2.6274333
-10.204288 26.298737 -2.6933744
-10.173405 26.419218 -2.6943328
-10.159367 26.476183 -2.7039139
-10.028055 27.156031 -2.7299752
-9.3886147 27.193211 -2.6626961
-9.9806976 27.179922 -2.6828811
-10.16309 31.175533 -2.8804214
-10.205111 33.695339 -2.9472818
-10.171293 33.732765 -2.9666996
-9.9994087 34.57711 -3.0049734
-10.088848 36.917522 -3.0781
-10.005167 37.47924 -3.0989816
-10.020338 37.679581 -3.1075511
-9.9882708 37.777412 -3.1111703
-9.593049 38.09129 -3.1000047
-9.173769 36.013687 -3.5954969
-9.1036015 36.565796 -3.6363647
-8.1906958 29.594088 -3.360718
-9.4979992 25.827297 -2.6186604
-9.7083349 26.048594 -2.6482005
-9.6838226 28.924618 -2.7246215
-9.547224 29.4198 -2.7679696
-9.0975494 36.152042 -3.1234181
-10.100803 36.820507 -3.0788603
-9.7087879 37.252655 -3.0748436
-10.037682 37.30574 -3.0842912
-9.9960117 37.555157 -3.0997946
-9.9123373 38.406151 -3.1585655
-6.6053963 36.389687 -3.3195632
-6.5471082 32.66201 -3.3542523
-7.7409396 32.981182 -2.8896205
-10.109178 30.867224 -2.8404806
-10.085367 34.478241 -2.9842453
-9.7845287 36.08522 -3.0450788
-9.7104759 36.36253 -3.0452428
-10.199389 37.449577 -3.1012328
-10.167956 37.702885 -3.1204863
-9.3113585 37.855408 -3.7065029
-10.038657 38.601608 -3.1543832
-9.9051123 39.767365 -3.1933103
-9.5720568 32.922829 -2.9673438
-8.2154207 35.171547 -3.5804212
-8.2222538 35.303684 -2.8758013
-9.5903454 30.134869 -2.8835123
-10.062534 32.27457 -2.9382744
-9.8853168 33.969208 -2.9960191
-9.3970976 36.39444 -3.0254111
-10.231996 38.994068 -3.183398
-9.5994959 39.066788 -3.1587627
-10.208176 39.168438 -3.1553626
-10.200594 39.473656 -3.1810088
-9.5008488 39.522552 -3.1698742
-10.00449 27.259169 -2.7289093
-10.002312 29.818113 -2.8421533
-9.4960642 33.412193 -3.006211
-10.023358 37.059174 -3.1135416
-10.270426 39.094692 -3.1705201
-10.25712 39.155685 -3.1610353
-10.23411 39.287846 -3.1652451
-9.5271368 39.596104 -3.1855445
-10.21177 39.559879 -3.1853254
-8.0020828 34.828171 -2.9418426
-8.2443933 34.474155 -3.4664147
-10.101704 24.857431 -2.6184304
-10.213238 26.923985 -2.6869323
-9.7186823 27.527529 -2.6861136
-9.9739008 30.067984 -2.7714531
-9.8941574 36.491001 -3.0257945
-10.020361 37.260201 -3.0954769
-9.3978262 37.231613 -3.0653448
-9.595026 39.526283 -3.2071695
-10.195637 39.67392 -3.2133763
-8.2417345 37.133045 -3.5938177
-8.2601118 34.528095 -3.452069
-7.0717173 23.959457 -2.6369994
-8.1311626 32.746758 -2.7663114
-9.7857285 35.970329 -3.0510087
-10.09629 37.448719 -3.0961847
-10.019806 32.762413 -2.9413092
-9.9946442 32.901371 -2.9409964
-9.4059525 39.390579 -3.1681461
-10.005575 39.479893 -3.187567
-9.3692465 39.463257 -3.14924
-9.0313053 35.085484 -3.5698929
-7.1195412 38.054852 -3.565824
-10.009418 36.170898 -3.0443671
-9.6017256 36.688534 -3.04054
-10.030717 39.533348 -3.179065
-9.0539761 35.366558 -3.5515187
-9.784091 26.335478 -2.6998432
-9.6045341 36.956837 -3.0963666
-8.7708664 25.053698 -3.1872933
-7.9006367 29.412834 -3.3090336
-9.888937 33.251503 -2.9975345
-8.8780289 32.631893 -3.5299413
-8.8178425 32.921734 -3.5415304
-7.8841424 37.452526 -3.5722668
-7.9966173 27.889431 -3.2273841
-9.9912243 27.692368 -2.7811761
-6.8990993 33.562168 -3.2064919
-9.8129101 35.885406 -3.0581813
-9.486166 36.116131 -3.0566823
-10.173903 37.783871 -3.1103132
-10.081903 38.520039 -3.1414404
-9.6307793 39.470184 -3.1670222
-9.9316692 39.509804 -3.2105277
-9.3031206 39.503342 -3.1822665
-9.2909069 39.668678 -3.1711118
-7.7744527 32.774242 -3.3846614
-9.1152182 36.802723 -3.2050409
-9.0442667 37.694378 -3.7267227
-10.055045 34.592712 -3.0013092
-9.8990564 35.843346 -3.0423682
-9.8765907 35.96249 -3.0568259
-10.29943 37.143059 -3.093039
-10.287284 37.236076 -3.0979109
-10.270041 37.359882 -3.0999758
-10.189944 38.025681 -3.1202595
-9.4681311 38.733517 -3.0927935
-9.7103987 39.366489 -3.1760952
-10.005577 39.579651 -3.2091789
-7.0899782 25.136652 -3.0923095
-8.140151 26.985725 -2.531523
-8.5036154 28.911833 -3.4038289
-6.4014301 37.14436 -3.3982675
-10.215774 37.386089 -3.0978642
-10.182815 37.631275 -3.0926299
-8.5832548 36.520145 -3.594595
-10.127395 38.140125 -3.1493785
-10.067031 38.577778 -3.1309967
-9.9505148 39.55291 -3.1752343
-9.9961081 29.498009 -2.8079882
-7.6782579 27.663601 -2.6394761
-6.9926906 25.322977 -3.0416505
-10.071327 32.157944 -2.9223297
-10.022198 32.572159 -2.9465218
-10.084892 35.966496 -3.0582826
-10.072731 36.101284 -3.0779052
-9.6963806 38.823704 -3.1616807
-9.9297609 39.347576 -3.1808147
-9.9242325 39.507515 -3.1781328
-8.3881474 39.540215 -3.1712296
-9.3941393 29.803314 -2.8038914
-9.8598652 27.491558 -2.6749654
-9.1110468 30.307951 -3.3151491
-9.9050665 27.329044 -2.8011017
-10.332069 30.088718 -2.9568932
-9.5024509 37.265221 -3.102699
-9.9792595 38.1465 -3.1073892
-6.8436351 33.020016 -3.339056
-9.1592293 36.113552 -3.6405315
-9.0399437 33.263664 -3.5114555
-8.4051352 34.532295 -2.975734
-9.9136581 25.818447 -2.6327555
-9.4079494 28.89048 -2.7262278
-9.5985727 29.232286 -2.7161605
-10.175106 34.046738 -2.9658813
-9.9344711 36.794785 -3.0412819
-10.09251 37.586536 -3.0946014
-10.073753 37.669598 -3.0679059
-9.1079035 36.498169 -3.568243
-10.023582 37.950199 -3.087575
-8.322135 34.508484 -3.449373
-10.169357 33.210487 -2.918673
-10.186264 36.492683 -3.0607567
-10.013615 37.361259 -3.099467
-9.0976496 36.142517 -3.57566
-9.1233568 32.720997 -3.520407
-7.1133375 24.768599 -3.1165912
-9.2042313 31.04707 -2.8288796
-9.9296112 37.846081 -3.1140206
-9.1310034 35.637787 -3.5652122
-9.9664612 32.552322 -2.9100268
-9.6233892 32.74728 -2.907383
-10.081686 35.671497 -3.0423388
-10.02419 35.993073 -3.0545619
-10.034409 36.074463 -3.0566514
-9.2234669 37.211784 -3.0428128
-10.185638 39.414608 -3.1742806
-7.1110353 35.266106 -3.4572999
-9.9067907 37.461205 -3.0939212
-9.3936577 36.682827 -3.0357845
-8.9803486 34.136597 -3.6507783
-8.0326309 32.340923 -3.4044955
-7.9978909 32.592812 -3.4300828
-9.9217873 38.520649 -3.1667197
-9.8009129 39.296513 -3.19065
-9.5121565 39.386963 -3.1555285
-9.4771214 30.981123 -2.8997886
-9.9194412 33.313248 -2.9845798
-9.485034 37.188396 -3.10395
-9.4803667 35.554882 -2.9990757
-10.093018 35.815823 -3.0554225
-10.018913 36.176277 -3.0779028
-10.320923 38.067711 -3.124414
-10.291199 38.257778 -3.1362681
-10.260925 38.440235 -3.1376286
-10.247253 38.532326 -3.1465948
-10.166824 39.012352 -3.1554046
-10.093384 39.508957 -3.180197
-10.065125 39.708263 -3.2011037
-9.4263916 39.729969 -3.2156448
-7.0565896 39.090107 -3.6360488
-9.825757 25.915646 -2.5828431
-10.089674 32.379436 -2.9164863
-10.063946 37.022923 -3.091311
-10.318016 39.342537 -3.1659868
-10.28109 39.598961 -3.1816676
-10.28463 39.691109 -3.2730122
-9.1252756 32.578575 -3.5282073
-8.1517296 27.199873 -2.5257108
-6.0177183 35.760479 -3.3089292
-9.4394817 36.870689 -3.1011772
-9.7267075 36.933472 -3.1137328
-9.7175407 38.784863 -3.1692698
-8.9200249 36.600239 -3.6255116
-7.8148546 32.358635 -3.3698201
-6.8950605 26.414337 -3.0803144
-9.8283157 30.496469 -2.8766465
-7.5977311 25.783195 -3.0941613
-8.9186125 35.354488 -3.5986049
-8.7848892 32.822128 -3.6106479
-7.9772358 33.631023 -3.4574592
-7.8623104 31.027784 -3.3584485
-7.00138 35.473129 -3.4646385
-9.482213 29.293348 -2.8510265
-8.4982271 29.025272 -3.2884192
-9.7239714 33.685383 -2.9302607
-10.201263 38.831398 -3.1553042
-9.4848938 39.166756 -3.139523
-9.5073891 28.504166 -2.7441368
-9.1204729 35.342892 -3.5476215
-9.0612831 35.650604 -3.6646008
-9.2721014 34.587997 -2.8928864
-9.1894884 29.292929 -2.8231096
-9.5903406 37.23772 -3.0652235
-9.8748093 38.741276 -3.1579728
-9.5197678 38.926941 -3.1381023
-8.924366 34.392815 -3.587002
-7.1126251 39.748909 -3.6349478
-7.0844202 34.162262 -3.4046946
-9.3875694 35.79303 -3.0403996
-9.1727867 38.498631 -3.1340466
-8.7550745 34.283779 -3.6290147
-7.9075446 35.422207 -3.5026164
-9.7191935 35.28196 -3.0674393
-9.4909754 38.623276 -3.1665828
-8.7320318 37.711632 -3.7207084
-8.6686344 34.373615 -3.6433818
-8.64182 26.279398 -2.7739327
-6.8072848 34.139709 -3.4080894
-6.735745 30.53414 -3.2179856
-6.7928014 33.782394 -3.4211066
-7.6571836 35.620335 -3.5701919
-9.4026327 32.706757 -2.9370852
-8.6130447 25.126747 -2.6776674
-6.8396425 38.756828 -3.5315082
-6.7745934 36.224236 -3.4279244
-6.5955877 30.662113 -3.1928508
-9.5066595 32.702061 -2.9470112
-9.5288134 35.488617 -3.0450282
-8.0071096 24.010361 -2.6388423
-8.619853 37.020039 -3.640341
-7.7043819 24.827246 -3.0861409
-6.6847339 30.975082 -3.2378576
-7.0954838 24.364145 -2.5346169
-9.9254446 33.874817 -3.0259824
-9.6701069 35.177231 -3.0651684
-8.9618483 35.661938 -3.1800528
-9.3884783 36.63475 -3.0970943
-8.8721018 33.061077 -3.509074
-8.834753 33.24789 -3.5019057
-8.0085697 34.273029 -3.4859695
-6.37889 34.447758 -3.3016067
-6.8694 29.774876 -3.2513738
-9.9039135 35.559052 -3.0319641
-9.9652405 38.407497 -3.141597
-8.9176035 34.250748 -3.6587429
-6.935513 26.680323 -3.0961807
-9.299407 37.180984 -3.0995901
-8.1130753 37.397778 -3.7008469
-6.8284645 29.906334 -3.2507102
-9.4570255 33.804066 -2.9881096
-9.6978054 35.882 -3.0698528
-9.6759586 39.523445 -3.1870618
-6.7761879 30.994379 -3.2592084
-6.7165279 26.814266 -3.088484
-9.887064 35.028786 -3.032994
-7.4018192 32.351631 -3.3395898
-8.7346697 32.82156 -3.6143959
-9.4813595 38.023674 -3.1402824
-6.0185351 35.224766 -3.3042703
-8.5930519 32.425983 -3.4870441
-8.523778 32.626213 -3.4820039
-7.4644165 32.286469 -3.4896259
-7.6432543 30.1567 -3.2916491
-6.6310463 32.137192 -3.3031287
-7.1194372 24.098169 -2.6458921
-9.5640945 37.168316 -3.1202075
-8.445323 32.512348 -3.5461223
-7.6049838 37.52784 -3.6087031
-7.5666976 36.739315 -3.5115776
-8.5794411 35.023037 -3.5564559
-9.4333897 39.310265 -3.2171042
-9.3003941 36.25568 -3.088397
-9.5177402 38.757645 -3.2114232
-9.3821182 32.380127 -2.9396634
-7.4810338 35.781651 -3.4896898
-9.3953323 29.744583 -2.8693297
-7.4912915 36.12212 -3.5255632
-9.6250973 39.399265 -3.2232795
-6.3407617 33.008232 -3.3226101
-7.6781487 35.948677 -3.4945416
-7.6223793 32.565189 -3.3622484
-8.7897482 35.564766 -3.565203
-6.9050865 35.55238 -3.444716
-7.7009025 25.212217 -3.1123621
-9.6308222 39.184544 -3.1978374
-9.701828 38.549454 -3.1864014
-9.7148733 38.673203 -3.1768639
-6.7015128 33.770287 -3.3917603
-9.6831245 33.331207 -3.0635226
-9.5479088 39.630768 -3.2689755
-9.4144077 36.342712 -3.0908406
-8.5031471 34.361248 -3.5065453
-7.5292039 32.427868 -3.3434834
-6.6132674 34.292309 -3.3371301
-7.1183953 25.867203 -2.8951802
-9.598793 30.556385 -2.8421364
-8.302166 24.380379 -2.5385637
-9.400609 38.569618 -3.1641569
-6.7144351 32.198654 -3.3236206
-8.5289831 32.471264 -3.4882131
-7.5843315 30.623951 -3.2806304
-9.4064322 24.475904 -2.5957386
-9.3882761 28.37537 -2.8119433
-10.321939 30.618946 -2.8160458
-7.695755 24.086693 -2.5505948
-8.4252901 39.175755 -3.0354774
-7.5854945 39.775082 -3.6253941
-8.4497528 35.216595 -3.5700023
-7.6125031 39.61182 -3.6419916
-8.3319321 32.624138 -3.5158558
-9.4171257 28.065823 -2.8102376
-8.5097742 32.216125 -3.5448318
-8.4347429 32.478924 -3.488833
-9.4389114 27.285032 -2.7768817
-8.8092136 31.927397 -3.356082
-8.4964952 37.207111 -3.6455958
-7.5887027 32.385288 -3.340621
-7.5036573 29.405411 -3.2744594
-6.6313467 33.876053 -3.3551934
-9.4062948 37.719307 -3.1492205
-7.9459486 37.005478 -3.5424585
-9.4977741 38.463322 -3.202379
-7.4780688 30.840357 -3.2942078
-8.8008251 28.854666 -2.7540693
-9.5896568 37.296368 -3.1160479
-9.5065193 34.693958 -3.017009
-8.6376448 33.087517 -3.4885678
-6.7011118 29.431665 -3.1822281
-9.0988836 29.081406 -2.7963324
-10.028469 28.947599 -2.8260877
-9.4720116 38.887218 -3.1516647
-9.8937864 35.662106 -3.0622549
-10.092434 29.618559 -2.7389243
-9.958828 30.162878 -2.7726142
-9.3306541 26.870365 -2.5498552
-9.310648 27.084545 -2.5727735
-9.517849 27.641008 -2.6051002
-9.8544579 27.72014 -2.6363034
-9.4496117 27.940151 -2.6229117
-10.056362 26.867096 -2.6183004
-10.001247 27.098608 -2.631489
-8.5776634 36.225349 -3.5047781
-7.492702 28.698378 -3.0467749
-8.069066 35.607769 -3.5030656
-8.4861183 34.820107 -3.4577258
-7.7086453 35.681671 -3.484957
-6.7310677 34.162983 -3.3768685
-6.1117506 30.613039 -3.0808594
-6.2692208 30.628139 -3.1230788
-9.5192461 28.383924 -2.6760044
-7.87637 27.358561 -3.0893795
-7.60007 34.831589 -2.8897853
-8.598011 36.599983 -3.5886216
-6.9577851 28.629745 -3.1280503
-8.5997686 31.984224 -3.356086
-7.8225036 35.637794 -3.5508289
-6.7918248 34.249466 -3.3808036
-7.595892 26.169058 -3.091404
-8.3656549 32.984241 -3.4086485
-7.1992073 28.576996 -3.1649773
-8.6961117 32.04467 -3.4617758
-6.8782692 34.254986 -3.3739412
-7.9033356 32.345474 -3.3949101
-9.7050247 32.726452 -2.9504845
-9.5266428 30.70735 -2.8833368
-8.8073969 36.897099 -3.7968459
-7.8053136 24.506643 -2.5518117
-6.6894417 26.409487 -3.0761192
-9.6622667 26.527197 -2.7503629
-8.0019159 23.987919 -2.5330231
-9.771287 39.655407 -3.1775656
-9.6852274 37.180733 -3.1239471
-8.5775862 36.621414 -3.6347651
-6.6205635 29.984148 -3.2188463
-10.215973 24.570053 -2.6256425
-8.5550365 37.155949 -3.5989826
-8.6008244 34.305931 -3.5099862
-7.6745143 35.556591 -3.4776101
-7.6837287 32.662376 -3.3807402
-7.6468105 32.742496 -3.3691051
-6.7061534 36.833054 -3.4498265
-7.5896182 26.138456 -3.0652466
-9.1942835 25.159126 -2.460861
-9.2927332 28.149336 -2.6316423
-9.6075382 28.196758 -2.6700466
-9.5060511 28.768843 -2.6647103
-9.4435816 29.029835 -2.6801193
-9.5106897 39.444454 -3.182672
-6.7578206 36.360004 -3.3423431
-7.4165745 37.674797 -3.4813063
-6.7762532 37.680939 -3.4387236
-6.814024 37.592518 -3.5048673
-8.3704453 36.311562 -3.4845605
-7.7666073 36.072052 -3.4726205
-7.4033389 37.737206 -3.4546416
-9.7105827 27.884563 -2.7407868
-9.5990906 24.461296 -2.6012661
-9.5609932 25.321585 -2.6135707
-8.8698683 34.600449 -3.5659652
-7.1120396 36.307049 -3.4639874
-6.9373379 36.959049 -3.4796026
-7.9223151 29.849426 -2.7350192
-9.6489677 27.846632 -2.6805415
-9.2229233 28.05164 -2.661607
-9.3991508 30.585953 -2.782546
-9.51408 38.625355 -3.1367052
-7.6136289 28.829161 -3.1004226
-6.8974833 37.701084 -3.516881
-8.7384052 35.05883 -3.5152125
-7.8272481 36.223148 -3.5230548
-7.801425 36.311085 -3.5474889
-7.1966267 24.431236 -2.5145593
-8.7073402 36.205925 -3.5898247
-9.5919724 25.718674 -2.5555694
-9.5714188 25.806971 -2.5842304
-9.4806442 26.268745 -2.5666292
-9.7503586 28.518488 -2.6556468
-9.7245455 28.708992 -2.7077801
-8.7357082 38.720596 -3.0231378
-8.9903307 28.602571 -2.6611965
-9.2971725 28.976755 -2.688319
-9.5326462 29.508541 -2.7113423
-9.8138351 34.014362 -2.9302998
-9.913578 36.374367 -3.0465109
-9.7611523 37.000942 -3.0555515
-8.8196945 35.646458 -3.5459733
-9.201458 30.861784 -2.8507848
-8.8073626 35.070366 -3.0333261
-6.9174504 35.518162 -3.3953707
-9.9065704 37.514442 -3.1304796
-9.8842316 32.953083 -2.9936006
-9.9016266 27.595009 -2.8106241
-8.8139286 36.952698 -3.6473246
-7.900403 29.448582 -3.2816572
-7.0136447 33.89032 -3.4069433
-8.1074381 24.290762 -2.5285785
-9.3947792 29.181149 -2.8559506
-9.7676659 32.983147 -2.9665143
-8.7809238 34.314037 -3.5648117
-6.8158021 26.305006 -3.0553606
-6.8304167 37.674885 -3.5636411
-6.8066235 34.635025 -3.412394
-6.9135532 34.61166 -3.356075
-9.7062874 38.83638 -3.1978164
-9.1107063 27.838373 -2.6451802
-6.1103301 24.546593 -2.3098338
-7.6032319 25.111614 -3.0532973
-7.8136463 36.129665 -3.5755019
-9.1029062 39.629902 -3.2137833
-9.3900146 37.085175 -3.1268425
-9.3978252 30.551386 -2.8424263
-9.7532463 30.055498 -2.9071035
-9.5343132 27.501629 -2.8144786
-9.6709709 26.772415 -2.7926414
-9.6379509 26.947748 -2.8009305
-9.5767326 27.275028 -2.8080852
-8.5080509 33.6432 -3.5191081
-7.3047886 36.331535 -3.3653717
-6.6763115 32.866528 -3.3973622
-7.5238147 30.557812 -3.28847
-6.7738514 33.340458 -3.2769024
-9.4894638 34.011139 -2.8965511
-7.7103219 36.337715 -3.4146903
-8.7800531 37.288174 -3.578841
-8.0931044 23.983673 -2.5370042
-9.7738781 36.417381 -3.079668
-9.8550758 34.699821 -3.0287819
-9.9000921 34.497265 -3.0221019
-6.4102411 30.627592 -3.1384952
-7.5049419 23.977274 -2.4874303
-8.8602858 35.173645 -3.1631742
-8.8396835 35.279354 -3.6665764
-9.0991755 35.057362 -3.062783
-6.9163008 34.49194 -3.3997393
-7.8404737 29.772026 -3.2991621
-6.8275762 26.153193 -3.0623507
-9.7194052 36.984482 -3.0476315
-9.3673668 37.039593 -3.0121121
-9.582881 29.001822 -2.8382456
-8.5863733 36.319008 -3.5949523
-9.6776695 24.036203 -2.7487853
-8.8042231 29.011768 -3.3204758
-7.8763123 36.730003 -3.5068939
-6.6270576 33.602482 -3.3409526
-7.0156145 30.562288 -3.107404
-8.9975662 37.134235 -3.6362703
-10.015755 30.049967 -2.8218451
-7.8987002 31.913126 -3.2446647
-9.0355844 34.235966 -3.6170244
-8.9148426 34.786045 -3.5034943
-8.9832687 35.086548 -3.1428368
-6.9262943 37.978931 -3.5006881
-5.9861765 36.712788 -3.3881857
-8.4875097 31.9786 -3.424119
-8.8658695 36.962261 -3.779331
-8.8178806 31.978693 -3.3556767
-8.6761837 39.209003 -3.3265269
-8.5980129 35.616676 -3.5524316
-8.5054588 32.036671 -3.4205956
-7.9953122 37.248924 -3.5607355
-8.4577065 35.637653 -3.5406206
-7.5678968 37.35162 -3.5805705
-10.315194 28.094854 -2.742882
-9.3126125 38.552696 -3.1684399
-9.707716 27.979073 -2.7246406
-9.3745413 36.78878 -3.1183586
-8.4841328 34.450924 -3.5734522
-7.5147581 36.663647 -3.5544384
-6.4318981 37.404453 -3.3845477
-8.4035416 31.961941 -3.4450939
-7.9184012 31.060812 -2.8893027
-9.7906208 36.106461 -3.0903614
-9.5651312 28.300489 -2.8632858
-9.5542059 28.377113 -2.8836045
-8.8205996 38.772774 -3.2941589
-8.6392994 35.285465 -3.6533985
-6.7595634 34.547905 -3.4682198
-6.6475306 26.162746 -3.0377066
-9.7947235 35.781544 -3.0865235
-6.8384695 33.623585 -3.348685
-9.7931128 37.038578 -3.1825519
-8.6656361 31.938971 -3.3776362
-8.008997 37.255013 -3.6243665
-8.0410843 37.004646 -3.0382614
-7.7967577 23.823681 -2.651154
-9.8883476 36.084652 -3.1052928
-6.5334511 37.49324 -3.4397018
-7.8182459 32.254211 -3.4011114
-10.109776 30.575447 -2.9160602
-9.6040764 35.457253 -2.9487131
-9.6721563 34.607635 -3.0387919
-9.7508307 36.347633 -3.0878513
-8.6022358 25.289255 -2.6379566
-9.3973217 29.773586 -2.7293789
-6.9623413 38.043694 -3.5499389
-6.120636 33.84145 -3.2535532
-10.206679 37.945927 -3.0043705
-10.203805 38.080185 -3.1257346
-8.6129303 28.360714 -2.7655432
-8.0067997 28.462675 -3.3152602
-9.6332226 34.78968 -2.9399166
-10.185294 27.525282 -2.7453017
-10.164762 27.636955 -2.7333097
-9.3335238 28.039665 -2.6880534
-8.7724323 34.816578 -3.4634171
-7.1292658 32.677197 -3.3278036
-9.664031 37.695934 -3.1591194
-7.8810329 37.178108 -3.6148949
-9.6330633 25.146255 -2.662097
-9.755929 24.365055 -2.7321501
-7.914732 34.271378 -3.4861591
-5.9796629 37.491352 -3.3850427
-9.5052071 25.434111 -2.6245766
-9.5915928 24.4436 -2.6846609
-7.6003008 23.986977 -2.4917278
-9.8007612 27.028013 -2.7153113
-8.1889391 37.420395 -3.7081513
-6.9819837 32.45734 -3.4049947
-8.7959318 31.316013 -2.8696308
-6.9071102 34.693062 -3.372097
-6.8935537 31.800968 -3.3276467
-10.06254 26.175097 -2.6674719
-6.1895423 37.16729 -3.3669052
-6.9983683 37.583256 -3.5004978
-9.9164734 36.969749 -3.1091881
-9.8660583 37.281391 -3.121588
-8.0035257 24.471697 -2.5030618
-8.3020697 28.357861 -2.7579606
-10.203369 26.191572 -2.6182787
-10.171204 26.487137 -2.6649365
-6.6972818 37.821892 -3.4914999
-9.2807884 33.802662 -3.5999665
-9.3090382 35.737862 -3.0900104
-8.3619404 35.627213 -3.5437093
-9.9746408 25.859465 -2.6467807
-8.5097313 23.981857 -2.5765777
-9.602685 24.660517 -2.5953047
-7.7609177 34.687958 -3.4133506
-9.2196226 37.53772 -3.2325213
-9.1990366 32.857433 -2.9743931
-9.8469563 27.625605 -2.6531579
-9.7983112 28.366201 -2.6978991
-10.001284 37.535095 -3.1301942
-8.6052799 33.348076 -3.3448896
-7.1223273 34.312454 -3.4874058
-10.054935 35.229458 -3.0179579
-9.738512 34.869122 -3.0778954
-9.0385132 35.036266 -3.589767
-8.6016893 32.023621 -3.421809
-10.140201 27.876987 -2.7140954
-10.06647 28.663828 -2.7500761
-10.269046 33.291401 -2.9289854
-10.202456 33.786915 -2.9337831
-9.9796829 35.530136 -2.9817021
-10.299991 37.569584 -3.1021597
-10.271426 37.756447 -3.1166794
-10.218174 30.160727 -2.7926121
-10.166538 30.690054 -2.8163631
-9.1928425 33.402523 -3.3893232
-9.6004295 24.570305 -2.6009772
-6.2132826 37.820873 -3.4462354
-10.017521 27.588968 -2.685786
-8.9951649 31.922459 -3.3849833
-10.0299 35.84684 -3.0440683
-9.9884291 35.933083 -2.9976068
-8.912549 26.217899 -2.5391252
-9.9484539 28.787628 -2.6951351
-9.9869452 34.287075 -2.9947193
-8.0959587 34.240276 -3.4622157
-9.9554186 25.261225 -2.5306492
-9.917882 25.892052 -2.6226017
-7.2381644 34.415901 -3.5317883
-9.366827 25.311424 -2.5653989
-9.7789974 25.569534 -2.5911491
-9.7645321 25.791632 -2.6123693
-8.7022629 33.583378 -2.9925137
-9.0130262 35.362648 -3.6067066
-7.2943926 25.420183 -3.0508208
-9.1085644 35.226345 -2.9577756
-8.2725697 36.325188 -3.6235247
-7.2118921 29.547138 -3.3029766
-8.6753922 31.934912 -3.5215626
-9.9365263 24.416475 -2.7625182
-8.7960224 36.929325 -3.642417
-7.9298077 27.722561 -2.5310853
-9.2013998 26.183651 -2.6419053
-9.8948479 35.29343 -2.99228
-8.6644621 35.229851 -3.5919485
-7.9376917 36.17804 -2.9709551
-7.7932529 32.132153 -3.4252374
-6.5300918 30.775648 -3.2663796
-9.5066738 25.20779 -2.6216748
-8.4032879 26.084255 -2.608443
-8.9910498 34.339783 -3.4960628
-9.7682619 30.057295 -2.7875712
-8.7842197 32.048969 -3.4306543
-6.990871 35.341179 -3.4312835
-8.0019178 29.821741 -2.7557766
-10.615305 24.126904 -2.622817
-6.930933 35.94286 -3.3769426
-7.3568158 30.206951 -3.1335711
-8.3989573 25.26313 -2.6705258
-9.7845478 33.109894 -2.9546094
-9.1907701 29.800531 -2.7239854
-8.6624994 36.252274 -3.5460408
-7.814836 24.097696 -2.5603137
-8.7724085 34.568775 -3.5466709
-8.6959486 35.06562 -3.6599967
-9.9894123 33.965702 -2.9877844
-9.7163372 29.390524 -2.8206577
-9.9074249 34.162346 -3.0000439
-9.7984133 27.971506 -2.7267652
-7.6968379 32.700119 -3.5244954
-9.6115065 25.106667 -2.6289709
-9.2011509 33.961433 -2.9490759
-7.6318207 29.369289 -3.2900207
-6.8074694 33.036556 -3.4341214
-7.1963773 27.125502 -3.1049175
-8.9584169 35.406273 -3.5510173
-8.6030054 32.568436 -2.8644373
-9.6850557 31.179272 -2.9542294
-8.2010794 30.832125 -2.845557
-6.7991395 29.975533 -3.2388999
-9.2034922 27.242926 -2.6860137
-8.2435331 33.266735 -3.5238714
-6.8188891 32.869045 -3.2886212
-8.5889015 35.433739 -3.6065142
-7.2896943 34.758839 -3.2788925
-8.3933983 29.613033 -3.37075
-7.9054523 24.506445 -2.5575023
-8.2996235 24.596804 -2.573015
-9.7112141 33.967129 -2.9712315
-7.5887952 25.396545 -3.037415
-9.787734 28.86504 -2.8003826
-6.6039062 24.251034 -2.2558024
-9.4180651 33.782169 -2.9894757
-8.4070272 24.980108 -2.6701512
-8.2689533 29.552156 -2.620894
-9.3283024 25.076258 -2.6684611
-8.6765881 32.392498 -3.4527073
-7.7980671 32.709236 -3.4512069
-7.4079103 23.986814 -2.4801912
-9.7041588 35.438625 -3.0299566
-6.6982002 25.729576 -2.9895265
-9.0115223 24.563543 -2.5475061
-9.0078201 24.476835 -2.5679834
-9.695981 30.928379 -2.9480929
-7.2022891 26.622416 -3.1193292
-7.6257305 32.904881 -3.3832271
-7.616385 26.941183 -3.1190522
-9.3973112 34.235023 -2.8998072
-9.0179195 34.23592 -2.8842225
-7.0782599 26.975134 -3.0589876
-7.9009881 29.721294 -3.2635689
-6.9116096 25.889387 -2.8708477
-8.8045931 30.556683 -2.8188956
-6.7982812 32.545963 -3.2810581
-7.672473 32.80724 -3.3484576
-7.6014633 33.07095 -3.4109232
-7.5951753 32.692619 -3.411473
-8.3943501 36.072224 -2.9375236
-7.7158408 32.43137 -3.3564034
-8.7159033 30.814592 -2.8773012
-7.0685554 34.70322 -3.4362626
-8.8953009 33.960457 -2.9369471
-9.0352154 37.954613 -3.2359662
-9.9214916 32.6311 -2.8767428
-8.3307962 26.455574 -2.7676902
-8.3819952 34.767532 -2.8599005
-7.7068214 30.214003 -3.2610643
-9.0978155 34.498974 -2.9820058
-8.3112431 34.589947 -2.9086096
-8.5125084 24.071188 -2.5499973
-8.3597555 32.561134 -3.3978891
-7.4962301 32.767815 -3.3485487
-8.7246742 23.987133 -2.7688603
-8.9869556 32.724731 -3.4645119
-8.3125391 28.599249 -2.5845456
-8.1315355 32.809479 -3.4024153
-8.2023525 24.010096 -2.6500366
-8.7088146 31.852163 -3.4113162
-8.7037773 31.999908 -3.3740735
-9.1229649 28.507965 -2.7111862
-6.9404459 32.165977 -3.3569205
-8.0972404 34.115723 -3.4463115
-8.008297 27.210285 -2.4968939
-10.24091 34.241352 -2.9470952
-6.8223324 32.126736 -3.3170342
-6.8176336 25.192883 -3.0142705
-6.8074231 25.342571 -3.025923
-8.6397285 32.108696 -3.4815309
-6.66922 27.89444 -3.1179299
-7.9363647 35.737858 -3.0980804
-9.7980833 34.238281 -2.9481528
-8.195118 37.658638 -3.6030874
-6.5007639 27.673687 -3.1324589
-8.1295481 28.113474 -2.6611552
-8.7599888 29.156527 -3.4933436
-8.3041058 34.495106 -2.927815
-9.0071373 30.903492 -2.88708
-9.7863693 27.358179 -2.6277909
-7.3771892 26.758373 -3.0149488
-7.3679118 26.894457 -3.0240414
-6.6933775 28.880013 -3.0097914
-10.074699 35.750813 -3.0527508
-9.9132366 29.071568 -2.6862092
-7.5626507 29.211132 -3.1682799
-7.083952 29.445503 -3.1638117
-9.8614178 35.405762 -2.9629545
-5.341229 34.941345 -3.1627083
-8.8426962 26.45895 -2.8678682
-8.3401403 30.803596 -2.8563926
-8.503068 30.906219 -2.8383272
-10.106975 24.664711 -2.6156299
-9.9095936 30.489407 -2.7153523
-9.6804066 35.469524 -2.9284942
-10.055101 35.569046 -2.9580219
-9.2555408 35.725574 -2.9196742
-9.9714832 36.104519 -2.972297
-9.5505238 36.353065 -2.9544644
-6.8170724 37.833252 -3.5368171
-6.8004498 28.525589 -3.2057598
-8.51579 34.060646 -2.8824961
-10.093046 35.370178 -3.0810945
-7.3708954 34.752872 -3.2688291
-6.6173568 31.906368 -3.1216724
-7.0099902 28.697163 -3.2623165
-8.5136757 34.992916 -2.8973646
-8.1166506 24.884611 -2.48174
-8.7605581 30.191002 -3.356096
-9.8131943 24.663759 -2.5834055
-9.7296906 32.195477 -2.9251316
-10.038671 28.301588 -2.7954817
-9.9644518 29.044563 -2.8723161
-9.9374743 29.308661 -2.8785527
-10.008763 35.674961 -3.0908926
-7.4075737 24.512772 -2.5199513
-7.2206993 23.926214 -2.6943157
-6.5095582 35.804646 -3.3013411
-9.1095114 25.184687 -2.5563052
-8.4866018 28.136551 -2.5767806
-10.062756 34.98872 -2.9425783
-10.040356 35.17091 -2.963088
-9.9429436 35.932148 -2.9711051
-9.93153 36.020901 -2.9789071
-9.9073601 36.205318 -2.9764168
-8.6022387 30.907137 -2.8440154
-8.8234196 29.55401 -2.6491399
-6.3832722 30.26174 -3.0357449
-8.7169313 34.468082 -3.5080667
-7.4731374 28.772312 -3.2587359
-9.4300804 29.534323 -2.7022035
-7.5316744 30.483286 -3.3323545
-8.3060741 28.098768 -2.6736922
-10.040493 29.829002 -2.7440541
-9.7159014 35.496658 -3.0675421
-9.699666 35.790619 -3.0722148
-9.6837969 36.079876 -3.0777657
-9.8182402 28.478434 -2.6843841
-9.8008451 29.028187 -2.7044432
-10.280581 29.137159 -2.7504632
-9.7839994 29.564856 -2.7407658
-9.7735624 29.830458 -2.7338579
-9.5013332 32.174561 -2.9103398
-7.4975491 24.233 -2.3446426
-6.4454985 26.699087 -2.9992666
-8.5225372 29.853739 -2.8889413
-9.3000698 24.693651 -2.6020474
-9.9116163 26.682743 -2.6742978
-8.1212111 29.766363 -2.6199672
-8.9972563 30.115053 -2.7847857
-6.6781006 32.484077 -3.340111
-7.0942316 30.128666 -3.2942934
-8.0206861 30.767988 -2.8441079
-9.6005497 33.514019 -2.9468966
-7.5999994 24.509418 -2.5351646
-9.0973825 35.759041 -2.9890256
-9.3717623 25.102753 -2.6035514
-6.9363732 25.216042 -3.0518761
-8.6053076 39.704624 -3.1695015
-7.8879972 26.598076 -3.2770758
-9.4244967 39.427162 -3.2042656
-6.6904469 30.251499 -3.0602179
-8.7245226 30.077665 -2.6960773
-7.0002122 29.894756 -3.2057693
-8.1026392 24.505724 -2.5677872
-6.9947515 29.487951 -3.1933825
-8.7070551 28.190805 -2.5512252
-8.6842279 34.231525 -2.8423986
-8.709959 26.960403 -2.7147686
-9.969593 34.186642 -3.0015304
-7.7782164 30.755627 -2.7451556
-6.1159983 36.188244 -3.3554182
-9.3577089 24.392511 -2.7218716
-7.6006885 36.022156 -2.9595268
-7.7041388 36.542992 -2.9964964
-6.6583095 24.26536 -2.3753681
-9.3959484 35.761948 -3.0210843
-7.8782191 29.776524 -2.701195
-6.0437517 32.601681 -3.2290676
-7.536458 32.976627 -2.9208081
-7.5565686 33.168438 -2.8378234
-6.9104743 30.24423 -3.0486548
-7.5925169 28.909662 -2.6020637
-7.0037026 25.468374 -3.0765796
-7.0483942 37.402966 -3.5645292
-5.3708525 33.51746 -3.1426508
-7.7533021 36.130238 -2.9856372
-7.7729554 36.227669 -2.9890137
-7.8700013 36.698528 -3.023268
-9.3122959 25.738159 -2.6090062
-6.5930982 35.694386 -3.4005697
-8.5015516 25.258499 -2.6448441
-8.6002302 30.338083 -2.7853668
-5.0244665 33.431961 -3.1399348
-5.3560324 33.145988 -3.216815
-7.327148 34.018612 -2.8543584
-7.3607593 26.719267 -3.1576452
-6.4714541 32.744106 -3.2715905
-7.5816593 33.964081 -2.8826981
-8.3003845 28.177231 -2.5624661
-7.8020096 24.009859 -2.6059947
-5.3074231 33.49802 -3.1114905
-8.6480961 30.635017 -2.708957
-9.4857292 27.759436 -2.8321543
-7.9988189 30.452961 -3.3737776
-7.8022766 30.648035 -2.8023427
-9.3185425 37.91687 -3.0351875
-7.2511048 28.808332 -2.6168716
-8.1054411 24.703388 -2.6079173
-9.094286 34.404266 -2.9987936
-9.3890734 32.165703 -2.9068885
-7.4871435 39.539497 -3.4931276
-9.9922295 24.906393 -2.6300337
-5.1994505 33.416893 -3.0946429
-6.5507631 34.519379 -3.3052151
-6.4798865 31.918608 -3.1035464
-9.3832045 25.179255 -2.5841308
-9.1016874 30.766041 -2.8545818
-6.1874042 32.54813 -3.2072811
-7.7460279 33.102566 -2.8205454
-8.1370916 27.324215 -2.6132927
-6.3301516 32.537804 -3.218204
-7.3201556 33.006489 -2.7998261
-8.6003704 35.330322 -3.5377467
-8.7057848 35.604942 -3.0529726
-6.5922217 32.225838 -3.2449555
-7.8912864 33.777386 -2.8882637
-10.180437 24.189728 -2.6031194
-8.4055376 27.340712 -2.6150055
-9.428278 26.429007 -2.7479987
-7.2670207 28.630817 -2.6281137
-9.5972767 35.323414 -2.9762764
-6.2059546 24.631964 -2.4753711
-8.8063927 30.113792 -2.7712522
-8.5105743 27.435476 -2.5994816
-5.5761728 33.212059 -3.1376688
-6.6788383 34.471466 -3.3215857
-6.6254277 34.354843 -3.326762
-6.4907122 24.298491 -2.3397384
-7.7025824 35.238579 -2.9158289
-7.6826849 35.15033 -2.9100239
-8.3130875 29.773472 -2.6301541
-7.5515394 25.583401 -3.0491197
-7.4845304 29.787689 -2.67312
-7.5783353 34.703419 -2.9425273
-7.5292549 34.148262 -3.5503325
-6.6250606 29.478352 -3.1638129
-7.6488032 29.964226 -2.7179785
-7.6052294 29.726671 -2.7216215
-6.1006956 24.633423 -2.4648321
-7.664166 34.135525 -3.5328732
-8.1114979 24.009447 -2.6307542
-5.8770375 35.578205 -3.4053559
-6.7912445 35.687229 -3.4068606
-8.2101145 37.677376 -3.0123439
-6.828342 24.674824 -3.0519719
-5.8125114 35.366974 -3.3222048
-8.431797 27.100971 -2.6006453
-6.3148727 30.254274 -3.0247412
-5.5141335 35.001637 -3.2076452
-9.017395 25.372866 -2.7464607
-7.5968218 36.251896 -2.9713094
-9.8951855 24.144379 -2.5811977
-7.5257912 33.992676 -2.8967218
-8.6972084 31.910015 -3.3081956
-7.0952897 28.730549 -3.1922336
-7.4885659 28.824476 -2.6323495
-7.6275711 36.365982 -2.976665
-5.4993343 33.502895 -3.1992147
-6.5008554 32.562862 -3.2361882
-7.5795016 27.125679 -2.6491716
-7.6825647 32.775909 -2.8958352
-7.4200354 28.62603 -2.6240916
-7.7008667 39.394051 -3.5498598
-7.7199826 32.510712 -3.5238535
-6.7813005 32.659115 -3.2727778
-10.186367 28.075588 -2.7282081
-6.7157507 26.928452 -3.046334
-9.8967352 34.980473 -3.003705
-8.7996655 26.203356 -2.679131
-6.708869 26.368649 -3.0039399
-9.2141027 36.46452 -2.9845979
-6.917212 32.7356 -3.2837245
-6.6659803 28.188723 -3.1627731
-5.9315119 32.394108 -3.1623149
-7.276937 24.133108 -2.6045954
-7.208499 24.001913 -2.5779896
-7.7162437 32.99733 -2.9198577
-6.944097 28.22916 -3.1923635
-6.1175442 36.345512 -3.2635002
-6.6353693 25.740292 -2.9531934
-8.0058441 29.427439 -2.7811189
-7.5145702 28.142115 -2.6351349
-9.6987782 33.601112 -2.9423518
-7.5871034 36.803661 -3.0271921
-6.6722083 26.704409 -3.0557666
-6.6877308 35.373627 -3.358104
-7.4687753 25.171885 -3.073462
-5.7115445 35.344044 -3.311908
-6.9028306 29.65107 -3.1852679
-7.8481059 34.47559 -2.9216135
-8.7054586 29.29985 -2.7827759
-9.708662 28.068991 -2.715364
-8.2770653 31.759373 -3.4203274
-6.6278214 36.765991 -3.4129655
-7.6909318 34.493954 -2.8920102
-6.5866947 29.750294 -3.1282394
-6.7995305 24.681171 -2.4386661
-6.7346206 27.611156 -3.1485481
-5.6261635 36.316906 -3.2922325
-6.7225394 28.494576 -3.0999126
-7.8476005 33.712921 -2.8828855
-7.6408439 36.1063 -3.5640996
-6.8070936 36.171642 -3.400378
-7.8760557 36.739597 -3.0136919
-6.914104 30.767977 -3.2193782
-6.8913927 30.672939 -3.2033479
-7.903729 31.749861 -3.366086
-8.9932051 24.73909 -2.657933
-7.1041727 35.626286 -3.4140089
-7.2826033 40.872459 -3.5494523
-6.0968218 35.135868 -3.3257227
-7.916512 34.774513 -2.9382429
-7.793745 33.968815 -3.5419188
-7.6042886 34.682384 -2.8807688
-6.8328166 37.038692 -3.4670188
-5.9276819 36.602875 -3.3571007
-8.0106039 35.097008 -2.9876785
-7.8109689 35.137684 -3.5835023
-8.4176188 38.012356 -3.0280864
-7.7543368 35.080055 -3.5696628
-7.8364573 33.188946 -3.4256024
-7.9394236 37.363316 -3.0448787
-8.2985039 35.727917 -3.1415665
-7.1000776 31.904564 -3.1679857
-5.8834891 32.671864 -3.2212298
-7.6752501 32.381054 -3.5077832
-8.7117939 36.6889 -3.0990589
-6.3182793 34.473667 -3.2936549
-6.6978126 32.340553 -3.2610438
-7.8348413 29.517532 -2.7360694
-8.6012974 32.70256 -2.9012764
-7.1165452 34.207169 -3.4999104
-9.8908491 28.092236 -2.7579248
-8.0136967 34.214314 -3.6032853
-8.2093534 32.957542 -3.0136852
-6.0479107 36.810799 -3.350137
-6.5817175 35.106617 -3.2289181
-7.48842 34.391212 -3.4110878
-8.50949 36.105976 -3.0230286
-8.60287 33.616066 -2.8351135
-9.0157242 29.075663 -3.3803089
-7.085372 24.020241 -2.6356933
-8.0104694 37.096554 -3.1869431
-9.1052895 36.675179 -3.1391168
-8.9999056 36.099556 -3.050298
-9.266551 37.389557 -3.1349428
-8.2686729 34.1539 -2.8576419
-9.984416 33.636356 -2.9546845
-9.1715622 25.904951 -2.5345886
-9.2911682 32.980984 -2.885057
-8.7068233 27.119883 -2.6211751
-8.4837303 35.357338 -3.1144061
-8.8051529 24.473442 -2.5511088
-6.8043137 36.477188 -3.3703039
-8.8007145 23.987782 -2.6054747
-7.0256658 30.032589 -3.2393529
-7.0092654 28.735277 -3.1654334
-7.0978923 25.422447 -3.0392838
-8.6026344 33.910755 -3.5014524
-6.6709785 27.079647 -3.1711228
-8.144495 32.979622 -3.006856
-5.9156613 34.705463 -3.2812133
-10.001684 24.458883 -2.6245742
-6.4389458 29.342796 -3.109694
-7.5169306 32.531391 -3.3166194
