# .PCD v0.7 - Point Cloud Data file format
VERSION 0.7
FIELDS x y z
SIZE 4 4 4
TYPE F F F
COUNT 1 1 1
WIDTH 1558
HEIGHT 1
VIEWPOINT 0 0 0 1 0 0 0
POINTS 1558
DATA ascii
18.007698 47.848492 -20.180542
15.803294 47.353153 -20.194881
18.456919 47.743252 -20.376545
20.821274 49.691563 -20.524626
20.607744 48.927048 -20.372816
17.20112 47.700737 -20.311806
17.712959 48.067242 -20.347084
20.921106 48.308277 -20.295761
20.915503 50.218895 -20.632227
20.788803 47.675697 -20.256102
22.194832 47.802155 -20.279778
20.796335 47.799538 -20.313452
20.305136 47.482079 -20.256838
21.604948 48.777767 -20.490978
20.996647 47.81044 -20.316483
16.288324 47.352898 -20.166752
16.208755 47.351925 -20.16819
20.600451 49.983421 -20.585875
16.694555 47.789539 -20.297018
20.708075 49.659775 -20.489229
21.388605 48.836258 -20.348953
20.597794 48.084808 -20.239803
21.709238 47.78973 -20.408447
17.674629 48.097111 -20.230518
18.925358 47.305618 -20.368189
18.101852 47.471977 -20.248055
20.281519 49.959858 -20.596767
20.708521 48.711941 -20.35252
20.618635 49.659908 -20.479769
18.113451 47.289146 -20.252386
20.818842 48.184658 -20.221807
20.132986 50.154224 -20.621828
21.015865 47.709393 -20.403948
17.909838 47.456982 -20.180712
20.396702 50.069855 -20.556004
17.504812 47.864437 -20.189943
16.608116 47.721794 -20.372334
20.338932 50.092339 -20.586786
20.997515 49.264038 -20.513355
20.510675 48.935879 -20.371477
21.016094 49.368423 -20.481083
20.614517 49.784344 -20.527006
20.493813 47.484447 -20.253298
19.317474 47.329613 -20.345438
20.896519 48.811924 -20.340012
21.675449 47.878799 -20.495392
21.210644 47.785095 -20.239822
21.098419 49.245861 -20.444942
20.524618 49.784534 -20.532579
20.910679 49.23592 -20.436359
20.613091 49.247238 -20.432714
20.703712 49.23925 -20.429478
21.005749 49.240433 -20.435568
20.80653 49.238152 -20.423765
18.60574 47.19883 -20.200874
17.684486 47.39159 -20.338575
18.028616 47.838081 -20.476643
17.816196 48.077827 -20.243557
20.712431 48.744907 -20.398443
21.987196 48.255489 -20.376505
21.102167 47.867744 -20.288977
20.890589 49.271679 -20.497021
17.911652 47.883812 -20.362726
20.606209 48.707424 -20.325354
20.512264 49.647701 -20.490976
20.700903 47.862434 -20.294409
20.536442 48.574982 -20.346807
16.697493 47.604259 -20.330393
16.816315 47.365444 -20.184315
20.496578 47.703377 -20.318098
20.874218 50.048466 -20.528353
20.507418 49.876312 -20.547661
20.200335 47.5737 -20.254848
21.015825 48.591461 -20.292316
17.706598 47.792286 -20.217934
20.814487 50.048096 -20.512741
20.697208 50.038731 -20.545383
18.809427 47.577309 -20.254137
19.328243 47.526215 -20.38302
20.91107 48.845222 -20.39432
19.621264 47.506157 -20.329727
16.718939 47.614922 -20.244621
20.725895 48.890926 -20.326277
16.80756 47.698402 -20.329952
17.615967 47.565636 -20.17263
20.407681 49.660172 -20.489372
20.389919 47.509151 -20.320518
20.719442 47.867146 -20.354109
20.380484 48.918976 -20.308746
17.294592 48.087223 -20.333168
16.997768 47.427479 -20.185503
17.538628 48.055035 -20.31908
20.607166 48.002552 -20.251631
17.409904 47.352291 -20.188057
15.99084 47.368778 -20.177975
18.875837 47.511166 -20.343258
20.912786 48.090187 -20.232006
20.69005 48.090126 -20.24497
20.614601 48.810635 -20.323812
21.003164 48.806133 -20.348602
17.403725 48.09446 -20.332775
20.495174 47.868008 -20.376516
20.482775 48.276371 -20.283545
17.149015 47.973148 -20.296316
20.339249 48.268646 -20.333261
20.726027 48.328747 -20.297188
20.618011 47.867184 -20.354881
21.416401 47.802643 -20.30929
18.601208 47.578453 -20.243765
21.397436 50.108643 -20.666611
21.300632 48.836224 -20.39333
16.309252 47.608067 -20.377705
18.00613 47.355522 -20.192287
21.60277 49.779449 -20.641251
17.62888 47.829811 -20.489607
17.112894 47.578545 -20.255003
16.764664 47.748951 -20.382954
21.80669 48.753059 -20.488091
20.987411 47.819824 -20.455145
16.674843 47.34956 -20.188049
18.806492 47.696632 -20.291616
20.405626 47.710014 -20.393974
17.793192 47.353836 -20.194601
21.301228 49.763908 -20.569616
20.512665 47.738098 -20.387255
20.267879 48.889011 -20.394045
21.092276 49.452656 -20.448887
20.902092 49.359756 -20.486982
18.484694 47.523731 -20.168488
18.875175 47.515793 -20.163321
19.818207 47.719624 -20.378981
21.089386 47.716087 -20.399488
21.568226 48.846756 -20.49448
18.834585 47.556301 -20.189188
19.505224 47.697544 -20.298029
16.712103 47.914955 -20.368652
18.607683 47.677135 -20.238138
20.69648 47.572926 -20.248524
16.714594 47.713715 -20.336248
17.497684 47.353363 -20.194416
20.994066 49.420509 -20.450022
18.305107 47.386181 -20.244553
17.406916 47.484882 -20.264139
20.712862 49.865368 -20.534979
20.505512 49.117592 -20.395498
20.726326 48.947433 -20.448629
19.603382 47.471245 -20.242861
20.253904 50.004375 -20.662035
19.025751 47.504379 -20.358589
19.003387 47.4744 -20.244089
20.607349 49.874878 -20.546926
21.404613 48.172649 -20.257381
17.212976 47.638641 -20.394499
20.404409 48.70195 -20.322832
21.007359 48.186787 -20.242653
20.915392 48.189129 -20.236792
20.515661 49.339622 -20.444904
20.417404 49.867043 -20.526976
18.502804 47.679729 -20.233212
20.705561 48.953365 -20.383783
17.794073 47.701237 -20.295065
16.904125 47.698807 -20.31822
19.400593 47.669052 -20.255074
17.508005 47.57991 -20.252102
16.912498 47.568943 -20.24317
20.62085 49.131618 -20.397905
16.408772 47.782307 -20.301285
19.703667 47.667175 -20.257368
18.704552 47.677109 -20.24383
19.018009 47.451996 -20.203407
20.704935 49.336212 -20.434139
22.081287 48.23333 -20.406216
21.957985 49.329006 -20.538187
22.223949 48.844772 -20.540949
17.700281 47.677158 -20.241766
20.736946 48.169582 -20.234072
22.074369 48.832973 -20.517673
21.205231 48.448788 -20.352322
22.101835 49.995556 -20.732677
17.806133 47.451851 -20.174093
17.206734 47.460239 -20.183672
18.902323 47.673836 -20.247953
16.911419 47.369415 -20.192778
20.910633 49.343262 -20.443317
19.195648 47.550495 -20.178301
20.101599 47.451633 -20.181879
17.303228 47.266094 -20.201324
19.398535 47.448673 -20.191654
18.809792 47.358353 -20.198664
19.399355 47.7048 -20.30228
21.616066 48.133293 -20.302032
20.515635 48.72596 -20.339499
16.813097 47.886997 -20.379499
21.579609 48.608826 -20.383375
17.307304 47.801205 -20.301382
18.323317 47.538349 -20.188999
16.572493 47.898975 -20.363049
21.484154 48.624294 -20.36941
19.216566 47.461296 -20.186586
16.599154 47.787262 -20.293716
17.322113 47.466431 -20.167212
18.01123 47.455441 -20.175226
20.198925 47.446224 -20.200554
17.12022 47.444931 -20.188112
18.408129 47.45335 -20.181927
21.711065 48.09869 -20.326542
19.194227 47.527821 -20.335043
18.613058 47.459949 -20.189732
16.50234 47.784725 -20.317722
18.413744 47.817844 -20.401438
16.995651 47.570942 -20.25263
19.099581 47.444332 -20.196898
18.408707 47.360268 -20.194092
17.703785 47.359589 -20.190151
20.414551 47.509789 -20.449486
15.779995 47.2868 -20.160692
17.8076 47.803177 -20.290869
20.911222 49.653988 -20.496464
21.803097 49.99205 -20.70104
17.216579 47.273426 -20.204689
21.127163 48.756229 -20.396585
21.100286 48.315639 -20.286819
17.695038 47.596119 -20.30744
21.905111 50.006268 -20.705946
19.00009 47.672897 -20.25198
21.598091 49.974064 -20.643612
17.907551 47.789627 -20.213261
19.301777 47.673771 -20.256584
19.290993 47.587597 -20.178038
17.316961 47.533577 -20.171526
17.118845 47.782681 -20.217102
19.101557 47.670311 -20.249435
18.696602 47.54493 -20.174349
17.00824 47.685436 -20.230783
21.671883 49.994045 -20.655313
17.023058 47.75024 -20.226522
15.796764 47.483379 -20.180113
21.654459 50.033237 -20.679533
21.102783 48.620998 -20.331833
18.899166 47.698566 -20.29274
21.339352 48.331524 -20.370827
19.181271 47.333378 -20.357313
21.19874 48.620277 -20.337793
20.4718 48.890537 -20.319407
19.30438 47.69854 -20.292345
22.098188 48.273022 -20.418232
20.711069 49.434933 -20.444754
17.120518 47.362938 -20.196253
17.806705 47.376461 -20.251961
17.094273 47.531509 -20.467974
17.21904 47.361103 -20.194666
21.471766 50.385693 -20.720016
18.205355 47.378021 -20.246954
17.29644 47.361172 -20.182693
19.353626 47.561016 -20.416101
20.060474 47.514225 -20.406084
17.897646 47.558399 -20.186867
18.804379 47.685791 -20.416132
18.809689 47.628651 -20.405851
17.700453 47.852631 -20.184282
19.782009 47.667519 -20.44557
19.43539 47.527351 -20.412514
19.119942 47.30056 -20.289165
18.394192 47.328686 -20.371937
21.675129 48.034943 -20.331926
20.905088 48.399189 -20.29948
20.005272 47.812176 -20.486948
22.032843 47.768539 -20.247692
18.059811 47.745388 -20.433046
19.697668 47.572872 -20.252573
18.680508 47.716759 -20.440676
19.389114 47.670555 -20.406586
18.691616 47.608395 -20.412189
17.980679 47.538349 -20.410496
18.702923 47.299023 -20.271948
18.006166 47.278015 -20.258808
19.495083 47.5574 -20.164284
18.59576 47.694466 -20.439802
18.985529 47.710018 -20.403833
18.613268 47.4818 -20.367802
18.349331 47.544182 -20.384871
19.108768 47.394798 -20.377317
20.101614 47.577957 -20.259283
18.402794 47.382164 -20.242886
20.11511 47.53001 -20.145798
20.503872 49.161705 -20.426085
20.813597 49.420017 -20.432491
17.782314 47.342422 -20.337042
21.316999 48.300823 -20.301994
20.581739 48.580414 -20.282026
19.711498 47.621136 -20.420742
19.760736 47.338646 -20.344521
16.916029 47.477497 -20.178745
18.504629 47.458954 -20.172956
19.611876 47.541927 -20.17593
19.883631 47.614975 -20.402693
18.379414 47.602753 -20.411739
19.903709 47.300613 -20.271801
19.034828 47.623142 -20.411816
19.404198 47.602169 -20.318932
16.025948 47.43956 -20.183836
19.997601 47.710388 -20.40419
19.511063 47.57732 -20.257517
19.49659 47.391876 -20.245955
20.813438 47.807896 -20.362473
21.886946 48.469246 -20.440031
17.713274 47.828716 -20.40196
21.881359 47.777412 -20.415148
18.496357 47.29697 -20.295958
17.914766 47.835598 -20.368746
18.701765 47.482868 -20.329985
18.379789 47.281384 -20.257132
17.306746 47.279831 -20.264986
21.908417 48.109692 -20.331135
18.21682 47.292297 -20.268196
18.482641 47.468681 -20.351181
18.510529 47.386509 -20.247723
18.699284 47.581917 -20.247236
17.832853 47.751408 -20.37154
17.097185 47.695568 -20.32662
20.719162 49.458618 -20.480333
19.419922 47.496822 -20.344341
21.19138 48.50106 -20.301462
17.989683 47.823681 -20.372679
16.463135 47.78574 -20.371229
18.603605 47.384361 -20.24625
18.612709 47.301003 -20.255901
18.002733 47.631794 -20.142176
19.107458 47.578453 -20.252102
19.001173 47.578602 -20.252865
18.303202 47.466515 -20.189564
17.499928 47.692455 -20.299994
18.206751 47.68552 -20.290007
17.610415 47.361683 -20.195766
19.400221 47.305336 -20.260851
19.308916 47.307339 -20.269634
17.500429 47.385933 -20.252611
17.406199 47.388512 -20.258101
15.928627 47.681572 -20.227276
17.907455 47.805248 -20.286762
20.09433 47.740871 -20.386724
20.095266 47.282871 -20.269773
19.507942 47.718998 -20.385288
19.120539 47.620117 -20.172604
18.005756 47.797668 -20.286362
18.404396 47.702633 -20.290733
18.103512 47.259998 -20.200357
17.710699 47.804157 -20.288349
20.11342 47.508778 -20.332012
20.570322 48.33807 -20.28791
19.909067 47.701168 -20.30607
17.503986 47.669956 -20.242601
18.301342 47.696407 -20.289349
19.095783 47.604774 -20.295019
17.201511 48.00629 -20.337008
22.091885 47.855953 -20.272392
17.604479 47.804768 -20.290241
18.005541 47.673225 -20.241932
19.203573 47.605522 -20.302919
17.408482 47.87273 -20.188824
19.897522 47.723404 -20.379513
20.310768 47.608639 -20.316675
16.391502 47.898323 -20.36124
20.405933 47.472984 -20.253115
20.916574 49.427464 -20.442484
20.80821 47.488811 -20.336008
20.821041 48.503212 -20.294117
20.107399 47.605709 -20.307388
20.916874 47.501793 -20.466209
18.206926 47.263672 -20.198402
21.026279 47.507751 -20.469351
20.82373 48.818764 -20.335194
20.71562 47.706741 -20.391047
17.904802 47.70908 -20.294823
18.901619 47.578999 -20.252733
21.726557 49.579502 -20.584932
20.600847 47.702183 -20.405676
18.896114 47.618744 -20.305811
18.012087 47.607887 -20.30793
18.427319 47.495121 -20.358398
20.713909 48.49398 -20.288754
19.208096 47.699486 -20.295424
18.27215 47.750126 -20.364653
20.610388 47.601601 -20.321293
20.001944 47.605507 -20.316151
20.124363 47.737877 -20.510065
18.700514 47.357807 -20.196854
17.196175 47.778206 -20.226089
18.703339 47.696915 -20.299976
17.412199 47.281372 -20.26067
18.203032 47.805733 -20.28672
18.102119 47.672897 -20.236191
19.999132 47.578537 -20.261185
20.904655 47.5947 -20.325653
21.201443 49.449047 -20.492729
18.098404 47.697578 -20.296333
22.281782 48.083858 -20.404821
21.39225 48.313522 -20.301229
21.285019 48.115673 -20.321957
20.308048 47.704388 -20.310268
21.206604 47.69141 -20.338121
17.025467 47.911018 -20.383352
20.199669 47.382317 -20.256548
17.196838 47.678886 -20.240879
20.802422 49.153221 -20.423084
19.893925 47.382114 -20.24785
21.195129 48.304661 -20.287067
21.192083 48.183403 -20.24193
18.210033 47.793949 -20.210434
20.429308 50.193676 -20.581318
20.197197 47.699619 -20.305801
20.787796 47.598 -20.33082
19.305941 47.388256 -20.244751
16.091835 47.700172 -20.328966
21.204315 49.641663 -20.505426
20.506409 47.598652 -20.316748
21.914143 47.956352 -20.314371
21.330284 47.810699 -20.372557
20.902609 47.708 -20.329193
17.207504 47.873985 -20.180462
17.707264 47.313606 -20.365597
18.201004 47.360878 -20.195032
17.281666 47.191799 -20.122875
18.707603 47.392113 -20.243515
19.401367 47.388451 -20.24844
20.005003 47.697392 -20.301096
21.299191 49.569134 -20.551981
21.7852 50.172874 -20.710592
20.80275 48.712418 -20.32876
18.294373 47.308655 -20.261801
18.697298 47.447788 -20.19206
19.890869 47.449539 -20.196442
18.804365 47.445808 -20.194038
19.702328 47.697281 -20.300337
20.104956 47.702114 -20.302464
21.304659 49.468166 -20.518021
16.08338 47.577732 -20.220507
18.098064 47.386593 -20.25119
22.118292 47.930363 -20.346476
21.305655 48.085064 -20.245796
20.912094 49.732647 -20.49435
19.306158 47.580597 -20.252354
19.699852 47.444969 -20.202953
21.894016 49.132942 -20.499176
22.208511 48.523094 -20.485048
22.107481 47.993568 -20.374157
21.289211 49.479519 -20.574951
16.827116 47.581123 -20.248348
17.813042 48.005894 -20.244341
18.787083 47.792496 -20.465273
21.095898 49.027157 -20.395262
15.984085 47.58791 -20.227322
21.602585 49.466572 -20.572012
22.25304 48.583992 -20.525833
19.599329 47.801495 -20.473955
17.603224 48.031162 -20.340202
21.694822 47.984123 -20.293789
21.199463 48.649002 -20.407351
16.236509 47.381474 -20.227535
21.304142 48.18251 -20.243837
17.239946 47.196423 -20.138325
17.49972 47.825069 -20.37504
17.605734 47.57584 -20.25598
20.806768 47.866863 -20.286814
18.806841 47.485413 -20.245934
20.905642 47.865208 -20.287617
21.205126 47.885056 -20.351452
19.26626 47.443077 -20.341064
17.183508 47.502956 -20.314518
20.606094 48.098869 -20.355421
17.601332 47.698933 -20.307123
17.412653 47.695023 -20.307503
16.520367 47.870815 -20.280319
17.005989 47.882942 -20.287676
22.166424 48.164188 -20.394167
19.000645 47.697304 -20.293444
21.598139 48.462173 -20.328831
20.604231 49.686512 -20.529016
21.405935 48.496891 -20.297607
17.202744 47.480171 -20.267426
20.502831 48.923698 -20.463593
17.609653 47.794319 -20.214422
16.215752 47.786366 -20.278677
21.304405 48.628426 -20.351892
18.902971 47.482784 -20.247314
21.383169 49.561005 -20.508509
19.801353 47.474804 -20.249969
18.512278 47.611542 -20.31023
19.902149 47.479782 -20.250862
21.104013 48.810253 -20.351946
21.987644 47.805847 -20.415457
17.999926 47.581821 -20.249399
20.335796 47.420124 -20.324596
21.755152 47.982964 -20.302162
17.614433 47.465504 -20.184406
20.19393 47.518547 -20.319141
21.597551 48.511459 -20.376965
21.729761 49.48122 -20.602449
19.704454 47.615475 -20.307993
18.603462 47.484802 -20.248133
18.403009 47.476795 -20.243893
18.309792 47.476093 -20.243063
20.400026 47.390141 -20.266159
17.709497 47.58371 -20.259037
21.406988 47.59848 -20.344299
21.296736 47.608006 -20.342024
18.277981 47.339924 -20.357544
21.615629 47.599136 -20.335756
20.701309 47.603893 -20.326416
18.7041 47.478996 -20.246262
20.989212 47.789032 -20.371124
20.917976 48.579773 -20.287012
16.605755 47.693832 -20.344994
17.203003 47.577263 -20.253439
20.819174 49.447063 -20.465649
20.919243 47.995747 -20.244909
19.904636 47.578167 -20.259535
19.96595 47.442654 -20.343027
17.406904 48.107933 -20.23617
21.60549 47.786385 -20.42874
16.30232 47.601379 -20.218807
20.722055 48.623608 -20.28858
21.389526 48.0867 -20.256887
21.496044 49.409283 -20.579687
18.104513 47.578316 -20.243563
21.511999 48.079117 -20.269035
17.405474 47.795864 -20.303892
20.826523 48.653095 -20.405176
20.114305 47.385082 -20.258503
21.20133 48.087479 -20.239012
18.80414 47.387192 -20.246183
17.500097 48.097252 -20.229963
21.198719 48.588791 -20.292013
21.090706 48.981514 -20.336666
17.308834 47.671288 -20.230644
21.802267 49.466843 -20.606232
22.046404 49.54023 -20.649405
21.916616 48.738747 -20.449127
16.806023 47.460873 -20.251612
21.526543 49.481052 -20.581341
19.795835 47.403725 -20.347839
18.702147 47.254185 -20.198013
21.095745 50.177059 -20.604347
21.406271 47.991879 -20.256151
18.609137 47.821686 -20.378166
20.84852 48.627518 -20.281151
20.807978 47.580837 -20.257227
21.388033 49.787521 -20.567366
21.995214 48.123615 -20.354908
21.201054 48.750916 -20.399136
18.506039 47.201962 -20.207802
18.205309 47.577957 -20.248241
21.002975 49.868702 -20.551706
21.679634 50.088223 -20.679821
20.91135 48.925461 -20.386499
21.001881 47.501175 -20.336329
18.596474 47.615047 -20.298429
20.598537 49.486725 -20.432468
18.179899 47.615833 -20.295338
18.006422 47.257637 -20.198902
21.413273 49.491795 -20.56687
20.59763 47.85754 -20.283304
20.644123 47.974464 -20.368443
19.902929 47.490986 -20.35318
19.614861 47.614899 -20.303165
18.301523 47.358814 -20.194605
21.001217 49.458477 -20.482752
18.993616 47.388123 -20.247332
19.197964 47.788586 -20.383282
18.292194 47.603165 -20.299545
19.312771 47.607029 -20.303492
17.198519 47.595345 -20.311361
17.905392 47.443203 -20.381336
20.599369 47.796513 -20.310404
20.718048 49.153702 -20.424597
18.112488 47.606785 -20.303724
20.502851 49.443275 -20.432419
18.604965 47.257484 -20.195116
19.407303 47.574238 -20.258142
20.891853 48.04055 -20.177673
21.704018 49.13282 -20.495588
21.006521 47.871593 -20.283749
21.084808 47.66856 -20.238617
21.008717 49.647736 -20.497683
18.71595 47.157612 -20.152834
17.496513 47.924465 -20.383854
17.804678 47.580914 -20.244684
17.40867 47.901779 -20.364754
17.422964 47.199722 -20.225252
20.981882 47.671577 -20.252079
19.204567 47.581642 -20.255203
17.112089 47.273777 -20.208786
21.771341 49.164337 -20.500507
17.503168 47.599724 -20.305193
21.106571 48.08213 -20.22805
17.407316 47.201504 -20.149303
18.30682 47.575016 -20.246016
21.392239 50.39278 -20.664265
21.91913 49.166622 -20.515194
19.597458 47.674347 -20.256533
20.553658 48.065544 -20.319973
19.702045 47.523052 -20.351181
17.800493 47.594196 -20.307194
20.906404 49.459011 -20.482283
17.904514 47.594322 -20.305059
18.302773 47.803551 -20.287455
18.717323 47.606125 -20.297132
20.207258 47.488537 -20.254215
20.438791 48.27108 -20.286459
21.20599 49.243313 -20.45253
20.416527 47.819973 -20.388628
18.396652 47.261738 -20.195564
18.102459 47.198128 -20.219444
17.061153 47.440804 -20.368118
17.209259 47.792088 -20.304529
18.11079 47.453941 -20.17808
17.399273 47.599804 -20.303144
20.909136 48.976318 -20.453394
21.060791 47.653851 -20.490839
21.989233 49.119057 -20.576416
21.79092 49.639034 -20.623003
16.375978 47.601444 -20.246206
20.504925 47.79718 -20.306347
20.703959 48.40591 -20.295101
20.404568 47.792049 -20.306112
18.604223 47.706722 -20.293848
20.609753 49.345444 -20.434919
18.391991 47.611553 -20.297216
20.710554 48.831699 -20.337183
18.996773 47.605892 -20.309971
20.309265 47.379677 -20.263081
21.701164 47.891766 -20.29817
21.303988 47.721848 -20.388199
20.911892 49.129696 -20.390684
20.400343 47.605011 -20.313591
21.944115 47.966747 -20.444836
17.609144 47.698215 -20.406847
21.512615 49.167007 -20.541914
21.11562 47.703228 -20.338442
21.491219 50.095421 -20.669333
19.098934 47.699867 -20.296144
16.689283 47.670898 -20.238813
20.843145 49.379951 -20.469322
16.852465 47.655102 -20.202785
16.206266 47.589256 -20.223913
20.317272 48.722195 -20.349741
21.202078 47.972553 -20.196993
16.592062 47.290829 -20.179316
20.707111 47.47657 -20.274828
17.905493 47.57711 -20.247074
21.484877 48.914753 -20.438293
18.15966 47.573997 -20.432634
22.110146 47.840775 -20.373209
17.305628 47.38409 -20.257051
20.724249 49.69072 -20.530022
17.493593 47.281326 -20.250017
18.820713 47.603577 -20.301945
20.811348 48.750916 -20.407486
20.719074 49.217606 -20.390377
21.588997 48.207863 -20.336596
22.185589 48.262142 -20.412111
16.906067 47.66711 -20.226788
20.302679 47.575726 -20.260328
22.060869 49.631989 -20.676302
17.016914 47.604843 -20.322432
21.593941 50.110226 -20.69841
21.003908 50.184116 -20.597929
17.405531 47.787773 -20.216278
19.806133 47.298374 -20.265074
19.109274 47.386223 -20.240515
20.417719 49.476402 -20.468813
18.506123 47.260292 -20.199123
21.010117 47.995979 -20.239334
17.608431 47.395336 -20.252384
20.495701 50.170574 -20.603035
20.40789 47.583069 -20.257761
21.695415 49.337139 -20.545835
15.991891 47.300552 -20.197075
21.488718 48.968426 -20.47307
20.703833 47.489502 -20.344532
17.403877 47.458614 -20.173971
21.460863 48.687698 -20.340424
20.897079 47.671055 -20.245281
20.460424 48.715397 -20.399723
21.107258 48.275711 -20.249374
20.524193 47.460785 -20.207367
19.107256 47.473114 -20.24687
17.69211 48.022945 -20.261982
17.887762 48.073055 -20.221485
21.297859 48.273212 -20.241425
19.499582 47.611698 -20.30286
22.265293 48.014145 -20.439833
20.611086 49.45903 -20.494038
18.274818 47.650394 -20.386686
19.301878 47.486134 -20.244686
18.87574 47.180435 -20.270063
17.21413 47.90023 -20.36306
21.294197 49.555573 -20.519745
18.879385 47.386345 -20.380146
18.510172 47.698429 -20.299871
18.010044 47.698872 -20.294044
20.306608 47.880192 -20.453114
21.016016 48.273415 -20.245272
20.10516 47.486034 -20.251289
17.707426 47.699661 -20.298439
21.808617 47.941654 -20.496571
18.699347 47.82024 -20.478569
20.601606 47.480106 -20.199268
20.804108 49.033955 -20.385153
17.807688 47.29171 -20.261702
20.415318 47.674416 -20.256941
18.855988 47.615864 -20.393099
20.798321 48.282173 -20.242767
20.007252 47.295776 -20.260143
20.928543 48.092285 -20.316582
21.106421 49.457523 -20.48724
21.300451 48.717365 -20.347893
20.934479 47.88303 -20.355963
20.50276 49.460857 -20.487425
18.647116 47.591351 -20.410715
20.723629 49.058266 -20.45262
19.504738 47.48035 -20.246899
21.197233 48.284618 -20.249334
19.1556 47.648499 -20.41061
21.757881 48.002571 -20.349754
18.632303 47.173405 -20.15011
18.629726 47.371544 -20.370398
18.505312 47.575291 -20.244352
20.838095 48.628609 -20.344133
18.35989 47.430092 -20.360468
20.633427 48.749599 -20.3988
18.17897 47.470615 -20.176258
22.197643 48.771217 -20.540035
21.106789 49.96151 -20.553905
21.188061 49.419979 -20.439791
22.323414 48.965927 -20.599298
21.791866 48.422993 -20.414244
21.309429 50.033035 -20.660995
18.087334 47.590054 -20.397375
20.203417 47.606697 -20.314669
19.608423 47.578827 -20.258511
20.404701 48.945095 -20.36285
18.88796 47.272377 -20.254717
19.182365 47.824825 -20.511934
18.850456 47.422626 -20.431665
21.423103 48.016079 -20.320646
20.895069 48.273693 -20.241571
21.398554 48.830711 -20.417988
17.613222 47.998543 -20.240538
21.29954 49.149403 -20.448761
21.800615 49.586246 -20.643606
19.60161 47.38995 -20.242491
19.90554 47.610851 -20.311089
17.79055 47.512432 -20.355616
19.196129 47.385582 -20.250717
18.080864 47.532982 -20.30805
17.804667 47.672371 -20.226641
21.598463 48.151184 -20.26325
21.216484 49.049488 -20.448219
16.901497 47.510502 -20.321535
22.269703 48.656494 -20.531998
16.61805 47.444717 -20.174816
18.083143 47.151428 -20.124601
20.796541 49.126987 -20.388372
17.506521 47.200172 -20.228432
22.036407 48.73962 -20.524109
22.304676 48.869568 -20.587795
19.503262 47.454079 -20.199532
19.301111 47.765366 -20.498117
21.707521 49.870335 -20.644243
19.362232 47.440926 -20.392065
19.51236 47.285851 -20.261545
20.309971 47.725281 -20.403555
18.980923 47.407017 -20.379238
21.402264 48.960907 -20.45775
21.492054 50.010189 -20.680231
19.606243 47.707855 -20.305223
21.13065 49.716698 -20.492887
21.393454 49.887436 -20.611393
21.101547 49.7677 -20.543573
20.441561 49.870911 -20.583031
20.368841 49.92326 -20.527845
16.175003 47.730785 -20.312248
21.201277 49.368824 -20.493881
21.006651 49.771046 -20.533733
16.221401 47.286156 -20.162861
17.502905 47.266117 -20.201063
18.400013 47.726006 -20.411577
22.154938 47.982933 -20.414484
21.781048 49.385315 -20.531885
20.115423 47.397972 -20.339787
20.579683 49.762657 -20.450949
21.124456 49.890751 -20.594584
21.198851 49.900661 -20.600416
16.42697 47.709953 -20.318876
17.615829 48.079716 -20.228872
21.100803 47.587254 -20.336643
19.803122 47.606781 -20.316969
17.106094 47.655495 -20.227209
18.488205 47.177586 -20.151239
16.265516 47.701584 -20.286776
21.012793 47.59742 -20.338081
20.515963 47.998459 -20.358011
19.802721 47.697651 -20.301437
19.204876 47.481121 -20.24231
20.005184 47.477417 -20.247953
21.578281 50.350067 -20.655849
21.221058 47.678791 -20.255201
21.714865 47.970264 -20.449135
20.626198 49.887615 -20.581984
21.876299 49.36974 -20.594034
19.805843 47.577869 -20.258915
16.793922 47.477413 -20.197628
20.695438 49.735821 -20.493086
20.680307 50.024689 -20.672096
19.702503 47.481842 -20.245623
20.995945 48.307762 -20.288576
20.98077 48.706638 -20.279804
16.801216 47.59737 -20.324488
21.592346 49.548801 -20.564974
19.709589 47.39024 -20.243563
18.802805 47.25264 -20.198174
16.631542 47.591545 -20.336775
16.311581 47.299751 -20.126663
21.719135 50.427444 -20.713682
17.115103 47.593632 -20.313179
18.104401 47.35873 -20.19096
21.833656 48.958294 -20.51663
19.906315 47.814373 -20.498781
21.010618 49.117821 -20.39978
20.127117 50.071754 -20.69459
21.616434 49.360111 -20.539875
20.296339 47.808662 -20.381485
21.788338 50.375889 -20.721863
16.684731 47.490875 -20.328335
20.801395 47.884899 -20.376589
21.0051 49.335094 -20.448996
20.18257 50.098694 -20.658236
21.599134 48.726753 -20.38279
17.595961 47.595135 -20.308699
20.218086 47.741241 -20.369429
21.394258 48.618958 -20.374384
20.816444 47.729534 -20.390537
20.906307 47.721901 -20.400267
21.807034 50.075962 -20.632053
18.18433 47.819511 -20.382885
18.008955 47.382969 -20.248373
21.91188 49.337055 -20.562628
16.597471 47.887653 -20.281248
21.31325 47.993744 -20.24567
21.100491 48.399155 -20.287405
20.519274 49.916393 -20.59638
20.82859 48.305458 -20.28051
16.409327 47.807976 -20.360695
22.043238 50.028542 -20.722942
18.888386 47.453411 -20.189573
19.807262 47.382725 -20.252037
20.903103 49.911983 -20.600739
20.701515 47.702427 -20.323118
21.808865 47.877731 -20.292059
21.643461 47.863483 -20.373976
21.416954 47.798302 -20.388777
20.796532 47.701832 -20.328922
20.595207 47.47842 -20.26895
20.615328 47.698532 -20.322897
21.199961 49.552967 -20.500189
17.511557 47.482025 -20.254992
17.508579 47.802685 -20.291977
21.520164 49.578358 -20.589703
18.079973 47.619198 -20.174286
17.709688 47.381958 -20.250574
21.204708 50.136974 -20.640205
16.804411 47.799309 -20.383932
21.123198 48.221676 -20.300882
17.329296 47.812294 -20.421955
21.100164 48.418736 -20.352547
21.611437 47.692905 -20.347101
20.913118 48.210934 -20.30282
18.408449 47.678608 -20.241943
21.304417 50.099037 -20.66118
18.90073 47.384716 -20.248701
18.306309 47.678841 -20.245537
17.304562 47.699409 -20.313679
21.783844 48.556995 -20.440161
17.570744 48.100025 -20.329054
20.902134 47.804199 -20.307077
17.105152 47.827564 -20.375238
20.925459 50.085346 -20.587603
21.002304 48.402519 -20.285851
17.592714 47.482857 -20.255487
21.8922 47.993866 -20.344946
16.574953 47.510063 -20.331278
18.104502 47.806194 -20.289816
20.603109 47.809486 -20.382505
21.318626 48.819901 -20.331501
20.501753 47.818497 -20.375956
17.57749 47.824394 -20.380337
18.81757 47.28672 -20.267391
18.706556 47.198887 -20.20303
21.389473 47.698391 -20.338215
17.310087 47.568737 -20.251389
21.322744 47.646858 -20.4939
20.185974 47.292633 -20.265116
21.600479 48.40205 -20.328899
21.302788 49.361477 -20.504042
18.077976 47.565052 -20.175035
15.738875 47.396366 -20.163431
20.89777 47.500511 -20.327682
20.808487 49.341129 -20.433363
22.083572 49.145981 -20.573454
21.099434 47.497677 -20.346373
20.705624 47.80558 -20.372507
19.819099 47.511192 -20.322922
21.852425 47.638283 -20.51376
21.985071 49.555996 -20.627674
21.015306 48.353233 -20.243563
20.004274 47.391167 -20.251974
21.109146 49.376637 -20.487913
21.190683 48.714317 -20.33881
21.382877 48.693817 -20.364304
21.190586 48.806515 -20.349392
17.900419 47.361118 -20.189495
20.616028 49.221893 -20.386408
17.111666 47.47831 -20.275169
20.915119 49.211704 -20.397219
21.011793 49.026669 -20.394556
21.098593 49.337769 -20.453259
21.700613 48.631683 -20.433538
21.423145 48.654709 -20.40864
17.292273 47.601219 -20.313337
16.89432 47.376667 -20.283556
21.611155 50.374428 -20.706413
21.508333 47.596745 -20.351187
21.916683 49.903389 -20.687799
20.50102 48.820904 -20.335199
17.003109 47.791683 -20.321453
21.545454 48.24625 -20.382685
18.060663 47.176163 -20.322701
17.310907 48.009991 -20.349705
21.805775 47.808918 -20.405888
15.75212 47.634235 -20.223858
17.502939 47.200562 -20.263521
19.505512 47.513393 -20.345997
21.818092 48.17445 -20.397549
21.094709 47.803471 -20.319149
18.293207 47.185276 -20.311508
18.799118 47.671242 -20.245932
20.908009 47.798737 -20.378977
17.522816 48.025455 -20.328924
17.109119 47.882286 -20.280922
17.90847 47.858208 -20.281086
17.003677 47.870461 -20.189102
19.504084 47.673405 -20.254477
20.613827 48.889668 -20.310753
17.012251 48.018547 -20.35614
17.39827 48.014645 -20.335558
17.809843 47.856365 -20.2773
17.711782 47.479523 -20.24873
16.82806 47.872028 -20.268808
17.509909 47.869835 -20.278913
21.198837 48.106884 -20.310781
18.502375 47.483875 -20.241142
17.801525 47.479172 -20.249062
20.798424 48.096531 -20.245674
21.116817 49.790745 -20.608849
17.503942 47.794804 -20.206654
17.995165 47.541435 -20.139191
17.910748 47.676678 -20.240459
17.414198 47.682205 -20.242426
21.493275 50.191025 -20.696814
17.1047 48.02914 -20.354853
21.399235 50.20961 -20.672579
20.394209 47.436901 -20.202679
17.602802 47.859447 -20.193096
18.004545 47.486168 -20.248859
17.712088 47.462517 -20.171444
20.717909 48.234219 -20.304323
17.924858 47.645512 -20.154781
18.005083 47.85981 -20.280275
21.402885 48.08128 -20.317959
17.605061 47.674675 -20.244846
20.354132 49.972454 -20.545473
18.109434 47.793495 -20.21468
17.292204 47.788391 -20.217243
18.18084 47.553501 -20.181067
18.195486 47.483742 -20.24861
17.499548 47.99247 -20.243746
17.700506 47.86462 -20.275669
17.399374 47.877743 -20.276049
17.603584 47.870682 -20.268366
17.908335 47.464848 -20.247719
20.907522 49.029526 -20.39138
20.515619 49.959263 -20.519726
21.408312 48.391781 -20.311239
18.202297 47.673092 -20.237934
20.630024 49.96629 -20.551695
21.541433 48.153446 -20.284128
18.605446 47.362267 -20.195183
15.931064 47.452564 -20.187319
20.702303 47.796188 -20.309937
20.706062 49.960041 -20.547598
19.808285 47.670895 -20.255602
22.23634 48.8894 -20.56344
18.2036 47.858372 -20.281816
17.404465 47.583141 -20.246847
18.102995 47.859406 -20.276672
21.012896 49.960484 -20.553801
19.622795 47.703335 -20.383112
20.710238 49.770191 -20.524849
15.977713 47.491405 -20.218676
17.306671 47.873226 -20.275579
19.211323 47.67598 -20.252958
21.714832 48.107147 -20.481426
20.100792 47.671928 -20.256237
17.208857 47.87933 -20.272017
17.101585 47.79961 -20.315144
21.711672 50.306908 -20.691698
22.042345 48.638817 -20.487982
20.982079 49.060482 -20.440002
19.401596 47.474854 -20.243719
17.794123 47.844395 -20.354456
19.299824 47.450237 -20.201664
18.018322 47.361835 -20.095839
18.097368 47.900299 -20.362972
21.312649 48.404858 -20.299114
21.092369 48.982002 -20.450596
21.100258 48.720078 -20.346708
21.007113 47.697834 -20.334269
20.59997 47.590542 -20.252596
20.816353 50.083866 -20.586094
21.103516 49.050323 -20.437778
17.398731 48.00198 -20.248795
20.501722 47.584259 -20.256325
21.100008 48.931015 -20.385748
17.427574 47.834972 -20.382938
18.589811 47.53907 -20.178726
19.912304 47.667473 -20.257927
21.104235 48.186878 -20.240721
21.206266 47.730831 -20.394583
21.32501 49.340267 -20.467909
18.004749 47.793674 -20.205925
18.104111 47.848354 -20.181986
21.308634 48.929913 -20.407709
20.699755 48.646416 -20.387362
20.206749 47.67313 -20.247461
21.718664 49.087849 -20.544691
16.493793 47.580753 -20.235788
19.993231 47.664989 -20.261494
21.301243 49.245083 -20.458035
21.403727 47.620323 -20.403507
21.402721 47.728809 -20.416061
21.866285 48.412594 -20.407328
21.497658 49.149036 -20.4806
21.197191 49.028419 -20.405249
21.199017 48.836311 -20.387133
21.010538 48.832546 -20.382463
20.655958 48.832775 -20.366638
21.59861 49.141708 -20.485302
16.715862 47.792072 -20.363062
21.200413 49.141651 -20.440796
21.306086 49.032871 -20.403997
20.60248 48.877777 -20.411001
19.794182 47.469135 -20.467899
20.797413 48.826759 -20.396406
17.408352 47.574539 -20.153128
20.642107 49.298843 -20.497028
17.080591 47.444046 -20.10358
21.192297 49.273304 -20.5084
21.503021 49.25975 -20.521542
20.493155 49.227444 -20.42905
20.698986 49.024567 -20.372652
20.808189 49.561905 -20.487875
21.090956 49.645859 -20.504148
20.801924 49.777134 -20.52713
20.806862 49.866253 -20.547365
21.50845 48.418045 -20.367327
20.703485 49.553627 -20.478043
21.309332 49.676579 -20.566492
21.314375 49.795456 -20.601749
21.19701 48.935757 -20.390244
20.637375 49.366646 -20.480326
20.907385 49.552227 -20.491737
20.918991 49.604317 -20.53396
20.912195 49.673992 -20.530516
20.907656 49.782658 -20.537109
21.185606 49.854122 -20.554781
21.195969 49.975811 -20.594929
21.198889 50.085865 -20.603037
20.623343 50.086712 -20.590429
21.213093 50.209595 -20.641079
16.900507 47.871956 -20.276581
16.410036 47.872196 -20.278429
21.003601 49.560238 -20.496723
20.995054 49.895351 -20.593672
21.293173 49.984406 -20.607496
20.717709 50.001678 -20.575354
20.698315 50.089062 -20.579483
21.008848 50.083744 -20.589417
21.003992 50.214542 -20.632473
21.416592 49.26461 -20.510242
19.81522 47.456612 -20.200346
17.040657 48.08947 -20.427803
21.201042 49.770836 -20.550684
20.49662 48.84177 -20.403116
21.101749 49.146847 -20.435801
20.832047 49.983398 -20.573648
21.106174 49.993446 -20.590979
20.511469 50.00951 -20.585724
21.104282 50.085972 -20.598288
20.502932 50.091988 -20.59763
21.102484 50.199291 -20.636665
22.029087 47.948204 -20.434914
20.906286 49.147266 -20.434416
21.194868 49.334347 -20.455278
20.608469 49.563835 -20.473345
21.20048 49.67181 -20.541319
20.912081 49.875011 -20.540876
20.914478 49.990929 -20.577387
20.913969 50.183479 -20.601868
20.499159 49.552837 -20.477901
20.423634 50.289993 -20.633549
16.47567 47.598392 -20.333029
21.792513 47.709202 -20.330013
21.800383 47.809566 -20.300848
20.560383 49.059139 -20.440172
20.769661 49.003975 -20.453074
21.008287 48.925694 -20.382284
20.495022 47.680748 -20.249369
20.414934 50.009743 -20.575396
21.70657 48.427208 -20.374878
22.207508 47.917896 -20.38641
21.508675 47.87529 -20.28742
20.534771 48.227871 -20.29175
20.808899 48.207653 -20.294674
20.302727 47.671616 -20.249453
22.004185 47.873795 -20.282137
20.115448 47.638435 -20.438303
21.991358 47.914158 -20.361984
21.522909 47.806187 -20.247568
21.401581 47.879257 -20.2778
21.895714 47.880283 -20.298786
19.915459 47.572495 -20.184019
21.901207 47.923138 -20.36655
21.783064 48.195557 -20.33942
16.089197 47.381756 -20.19878
16.3277 47.866768 -20.299208
22.183081 47.760983 -20.248987
16.326979 47.780899 -20.38834
21.004698 48.71674 -20.340532
20.803148 49.656246 -20.488354
20.819687 49.721371 -20.505157
21.092014 49.872578 -20.553635
16.231516 47.793396 -20.366987
21.108477 47.578087 -20.256418
22.086514 47.808022 -20.26663
20.997622 47.587498 -20.246632
21.878639 47.674572 -20.236752
21.878834 47.738388 -20.254129
20.710726 47.678276 -20.254406
21.896641 47.798786 -20.316971
17.001724 47.385143 -20.273436
21.713198 47.679489 -20.234369
21.381363 47.757122 -20.251352
21.499605 47.804165 -20.305769
21.985041 47.831245 -20.285395
20.917088 49.959648 -20.543446
21.634512 47.683052 -20.257055
21.1113 48.840916 -20.38386
21.10577 49.29343 -20.50424
21.731993 47.918179 -20.351189
17.333447 47.440262 -20.10507
16.985035 47.80397 -20.355843
16.429073 47.628544 -20.330027
22.226524 47.972797 -20.471149
21.008541 49.989349 -20.581308
20.893753 49.059181 -20.444674
21.908136 48.231174 -20.402287
21.809223 47.964005 -20.528481
21.193314 47.803413 -20.315365
16.399342 47.364227 -20.178312
20.009581 47.53968 -20.189257
21.925238 47.697418 -20.274641
21.10503 49.557308 -20.50021
21.916246 47.893875 -20.228527
21.601177 49.18441 -20.532944
20.913803 48.711189 -20.341486
20.903252 48.526516 -20.340725
20.604952 48.402187 -20.290352
20.807629 48.411854 -20.279661
20.791656 49.939835 -20.547358
21.003593 48.6199 -20.338182
20.910484 48.500351 -20.291529
19.60862 47.458664 -20.196802
20.992836 49.735977 -20.484745
16.89871 47.810207 -20.320076
17.30024 47.477604 -20.257446
17.301725 47.518707 -20.318586
16.902939 47.477753 -20.282845
17.1978 47.384735 -20.270628
17.098392 47.381149 -20.28021
17.007883 47.472271 -20.261593
16.798824 47.496399 -20.326363
17.913988 47.384678 -20.251959
21.391104 49.238861 -20.465218
21.502653 49.442837 -20.53303
21.588848 48.305725 -20.379183
17.298424 48.092201 -20.223108
21.30917 49.266968 -20.499439
21.141426 49.502388 -20.423281
17.498493 47.462181 -20.161985
21.610336 49.082123 -20.544039
21.398912 48.738914 -20.409475
21.170687 48.996407 -20.334436
21.494884 48.200947 -20.31871
17.021355 48.000626 -20.258711
20.987511 48.708138 -20.4006
21.321438 48.724522 -20.401255
21.201958 47.805775 -20.378099
17.097839 47.55003 -20.139164
17.250065 47.530739 -20.191555
20.585114 47.515282 -20.337215
21.485477 49.98267 -20.633823
21.605793 50.18821 -20.69058
21.623302 50.226269 -20.745203
22.099081 49.936317 -20.71977
21.810993 50.096581 -20.701492
22.139002 50.102024 -20.717327
22.127987 50.205185 -20.763466
22.163233 50.21756 -20.777525
22.163229 50.124264 -20.719883
21.894283 50.190357 -20.715004
21.691313 50.183762 -20.700645
21.695955 50.255802 -20.739754
21.906408 50.093182 -20.704067
21.683939 50.290398 -20.744095
22.018766 50.211987 -20.748228
17.506977 47.563274 -20.160854
21.917048 49.640743 -20.598591
21.929987 49.682346 -20.626583
22.075872 49.684784 -20.674345
22.11849 49.784512 -20.688759
21.605146 49.040615 -20.485405
21.823679 50.271542 -20.75845
20.828699 47.626854 -20.398958
21.492191 50.235268 -20.739807
22.040775 50.274403 -20.759224
21.697872 49.261383 -20.52677
21.814915 47.703342 -20.414951
21.499025 49.349358 -20.52993
22.104071 49.294441 -20.601118
21.795216 49.371052 -20.595304
22.095413 49.453712 -20.617985
21.507458 47.642757 -20.415726
21.672466 48.838085 -20.50676
21.68502 48.935966 -20.48918
22.108419 47.746758 -20.441971
21.810535 49.248436 -20.567217
21.901119 47.63644 -20.426756
21.621632 47.719269 -20.414465
21.90332 47.725422 -20.443815
21.83964 48.333687 -20.403162
21.612461 48.418121 -20.381254
22.145491 48.417847 -20.432467
21.626375 48.544685 -20.453386
21.589777 50.006744 -20.67901
21.97234 50.134335 -20.748249
21.900059 50.213387 -20.757895
21.514589 48.10463 -20.326572
17.605272 47.276691 -20.263399
21.617201 47.624645 -20.414305
22.014435 49.241451 -20.56896
21.99271 49.370857 -20.598452
22.057554 49.41803 -20.606884
21.034048 49.604321 -20.533436
21.707487 48.204124 -20.356199
21.403921 48.209923 -20.305176
21.711884 48.314003 -20.389566
21.480343 48.337105 -20.377285
22.034546 48.503078 -20.444439
21.526869 48.577293 -20.427279
22.068129 48.597012 -20.440504
21.425177 50.329273 -20.717119
15.892065 47.394207 -20.18288
21.97196 49.029045 -20.532736
21.392668 49.03796 -20.457621
21.714035 49.1675 -20.543907
22.116224 49.510414 -20.655287
20.595829 47.521439 -20.196184
21.097109 47.798012 -20.378553
21.705564 47.718559 -20.414585
21.439924 50.020168 -20.670187
21.302683 47.683033 -20.334373
21.79987 48.103718 -20.330669
21.929808 50.311573 -20.76582
20.303373 47.510475 -20.3207
22.017221 48.341034 -20.415546
21.398523 50.077263 -20.626719
21.39451 50.227139 -20.720234
20.96645 48.21302 -20.305031
21.6049 48.829243 -20.44331
21.42642 48.862045 -20.474974
21.987793 48.957878 -20.50881
21.7092 49.041409 -20.482763
21.791115 49.142403 -20.525381
21.916098 48.273373 -20.406553
21.876059 48.506939 -20.447283
22.148092 48.54248 -20.453375
21.891972 48.627441 -20.445221
22.174765 48.687428 -20.494814
20.678387 47.600536 -20.394768
21.681789 47.611576 -20.414778
21.993114 47.710869 -20.449787
21.505922 47.721313 -20.413584
21.645794 48.191044 -20.388926
22.191448 48.309486 -20.43684
21.509809 50.321186 -20.721691
15.915424 47.700783 -20.323097
22.090389 49.802872 -20.712362
21.604233 49.92794 -20.690655
22.105717 50.101097 -20.760464
22.17555 50.298767 -20.804396
22.169081 50.334263 -20.875156
21.660048 50.346146 -20.844837
16.515795 47.377407 -20.181839
21.513411 48.522816 -20.374613
21.540058 48.655437 -20.452637
21.814177 48.856918 -20.522635
22.098373 48.942703 -20.546663
21.605614 48.932571 -20.472954
22.109821 49.091991 -20.568695
21.686693 48.601547 -20.398167
22.000818 49.462273 -20.608767
21.569246 49.668404 -20.632458
21.783119 49.704292 -20.650492
16.820761 47.80933 -20.312246
22.028774 47.736904 -20.477133
21.740314 48.5625 -20.479038
21.763538 48.682571 -20.510866
22.075266 48.976883 -20.566475
21.816883 48.967083 -20.564865
21.83898 49.063725 -20.564341
22.197653 47.780819 -20.465786
21.842367 50.129883 -20.749699
21.82081 50.216145 -20.747046
22.113974 50.280289 -20.802322
21.616398 50.318119 -20.732307
22.120993 50.327587 -20.813126
21.512796 48.725937 -20.416487
21.894653 49.247993 -20.555378
21.61145 49.262585 -20.527355
21.889973 49.495281 -20.610765
21.996119 49.649612 -20.648779
21.794449 49.783115 -20.630354
22.019434 49.83987 -20.687677
21.506029 49.815159 -20.618252
21.787874 49.889172 -20.665564
22.048914 50.077583 -20.73465
21.517179 47.803013 -20.385294
21.304407 48.214199 -20.297026
21.610971 48.295113 -20.324184
21.609667 48.645344 -20.420174
21.612123 48.735474 -20.425987
21.909628 48.869408 -20.473753
21.904526 49.042686 -20.488571
21.311905 49.886047 -20.615164
21.723591 47.678543 -20.356926
21.507151 48.312031 -20.333969
21.783943 48.743877 -20.447374
21.398161 49.154873 -20.475533
17.710224 47.286221 -20.250494
21.884291 48.511253 -20.392479
21.400274 48.524509 -20.359615
21.683601 48.719364 -20.420341
21.687378 48.830402 -20.445171
21.91037 48.829777 -20.462231
21.921085 48.923889 -20.473169
16.856966 47.951656 -20.273294
21.413797 49.362206 -20.522142
21.408535 49.569519 -20.562731
21.701014 49.642597 -20.595568
21.916079 49.771702 -20.643215
21.429741 49.797665 -20.616467
21.480789 49.88765 -20.618786
21.804722 48.260494 -20.336439
21.293018 47.810246 -20.32732
21.404871 49.465134 -20.524124
21.489994 49.75119 -20.591436
21.47294 50.281269 -20.690708
21.290857 50.396847 -20.72204
21.506184 47.699093 -20.352896
21.413624 48.437351 -20.358532
21.656357 48.561085 -20.378796
21.398714 48.925457 -20.417566
21.733286 49.451401 -20.551743
21.184847 48.206028 -20.307667
21.687138 48.299217 -20.349239
21.311468 48.527374 -20.347746
21.746105 48.919975 -20.449474
21.506346 49.055706 -20.475462
21.570734 49.458485 -20.539701
21.598183 49.68132 -20.588322
21.53124 49.653713 -20.57589
21.77342 49.961262 -20.647202
21.317345 50.200512 -20.652473
21.208139 47.871532 -20.283314
21.731766 48.384182 -20.336966
18.812634 47.523773 -20.307196
21.195927 47.983379 -20.237953
21.303482 49.040615 -20.453751
21.29777 47.877014 -20.275267
21.096319 48.517879 -20.349073
21.019491 48.515942 -20.342102
21.113619 49.606846 -20.536142
21.104155 49.681042 -20.532045
21.403717 50.302544 -20.682524
21.40793 49.991322 -20.635836
21.404179 49.846966 -20.559124
21.195091 50.182968 -20.61021
21.303644 50.37645 -20.652876
21.199211 48.402248 -20.289988
21.203018 48.522778 -20.34346
21.316319 48.435108 -20.347141
21.655642 49.247009 -20.481997
21.010244 48.499268 -20.293747
21.308676 49.862644 -20.554655
21.503199 50.132408 -20.620295
21.204351 49.59568 -20.547688
21.289452 50.089905 -20.616434
21.582653 50.300804 -20.680103
21.756771 49.040409 -20.486162
21.525471 48.392406 -20.343836
21.38652 47.868851 -20.372963
17.619816 47.199486 -20.284412
21.384388 49.337196 -20.460417
21.000912 49.686249 -20.532656
21.19467 47.517551 -20.454706
20.915787 48.617756 -20.33708
21.100666 48.501526 -20.298153
21.477873 48.513752 -20.31591
21.193886 49.952663 -20.554825
21.100513 48.578991 -20.301556
21.270426 49.197281 -20.400827
19.314577 47.798267 -20.468021
21.293486 48.497952 -20.292242
21.198425 49.743603 -20.481359
16.812683 47.382702 -20.273216
21.388817 49.044109 -20.406708
20.620813 47.664154 -20.251368
20.825249 50.216911 -20.627424
21.16275 48.352699 -20.248194
21.418079 47.7313 -20.261236
21.28882 49.943665 -20.561481
19.053806 47.114758 -20.245365
18.461151 47.400608 -20.3417
18.012062 47.220318 -20.268251
19.090517 47.53022 -20.340286
20.526234 50.198383 -20.635475
21.96991 48.854801 -20.487064
20.443598 48.46484 -20.345057
20.274994 49.855022 -20.553326
21.858749 49.038151 -20.549126
18.014927 47.522785 -20.326845
17.106808 47.507938 -20.315086
15.728951 47.516987 -20.213236
16.12192 47.506607 -20.229038
17.301487 47.998737 -20.236084
18.040192 47.380085 -20.334297
17.68716 48.009022 -20.186897
20.614212 49.043991 -20.387161
20.97208 50.060211 -20.546495
21.098009 49.10704 -20.401636
17.420065 47.507298 -20.312153
22.000719 47.854134 -20.222284
21.200754 49.123951 -20.396334
20.813723 47.965111 -20.258268
17.006899 47.512341 -20.316109
16.302258 47.786671 -20.290684
20.607264 48.502472 -20.270952
19.222361 47.714317 -20.390532
20.435385 49.559105 -20.477005
20.807293 48.94215 -20.309244
17.304842 47.909294 -20.366455
19.211657 47.207516 -20.302113
20.603846 49.144558 -20.438169
17.989174 47.899265 -20.361582
17.622568 48.145939 -20.233522
15.701587 47.430592 -20.176893
18.489948 47.13562 -20.292379
18.21312 47.882431 -20.381317
17.585796 47.942554 -20.404882
20.498064 49.680882 -20.548433
20.371328 49.712414 -20.569557
17.498762 47.503345 -20.305738
19.189018 47.298668 -20.265327
20.720499 48.140575 -20.329109
20.432907 48.245193 -20.276772
20.391321 48.773777 -20.233473
20.520645 49.81974 -20.591238
16.513445 47.518333 -20.323574
20.523537 48.507698 -20.333071
20.881046 48.917603 -20.326357
20.406961 47.613216 -20.406195
20.475704 49.548607 -20.423826
16.221418 47.451431 -20.158972
20.59296 48.178577 -20.287069
16.999851 47.356743 -20.195606
16.108484 47.485466 -20.194794
16.891735 47.945793 -20.431116
19.550018 47.215672 -20.331224
20.652121 48.476391 -20.349102
20.988491 48.410465 -20.350985
20.829311 48.509556 -20.352699
20.187946 47.571774 -20.183186
20.709396 48.437035 -20.345285
20.92585 48.445713 -20.356712
16.411919 47.471722 -20.17297
20.716745 48.533615 -20.339716
17.617989 47.400303 -20.338837
16.613276 47.587093 -20.215256
20.916325 47.577484 -20.244951
17.598484 47.499252 -20.312359
16.688587 47.453808 -20.196632
18.894295 47.53651 -20.42366
19.921318 47.511578 -20.480673
18.607597 47.476677 -20.429243
19.532341 47.404224 -20.445601
19.00634 47.249271 -20.398706
18.944878 47.190224 -20.393839
19.485312 47.521637 -20.423611
19.940201 47.379929 -20.366877
19.935751 47.341637 -20.399199
17.845819 47.178219 -20.336279
21.053406 47.571461 -20.464626
19.090202 47.702141 -20.404888
16.099791 47.282066 -20.174555
15.711615 47.581379 -20.209721
21.110067 47.625931 -20.432884
15.924369 47.574245 -20.202284
16.174107 47.497192 -20.209986
16.281097 47.508652 -20.215437
15.817538 47.552647 -20.217207
16.362837 47.493656 -20.219765
16.508287 47.500187 -20.262821
16.285904 47.467487 -20.194613
15.794862 47.642899 -20.2153
16.254574 47.307007 -20.198217
16.603172 47.358982 -20.167963
16.498613 47.460083 -20.170275
21.011442 49.151299 -20.428711
16.617149 47.491802 -20.263079
16.428703 47.557877 -20.181808
16.628147 47.538231 -20.174879
16.541246 47.532841 -20.170504
16.581028 47.889015 -20.438665
16.901852 47.564384 -20.162676
20.591061 47.567799 -20.421595
17.016356 47.548748 -20.163797
20.01211 47.500664 -20.344244
