# .PCD v0.7 - Point Cloud Data file format
VERSION 0.7
FIELDS x y z
SIZE 4 4 4
TYPE F F F
COUNT 1 1 1
WIDTH 1612
HEIGHT 1
VIEWPOINT 0 0 0 1 0 0 0
POINTS 1612
DATA ascii
13.980205 15.314822 32.729366
14.568357 10.106501 32.499184
14.358273 9.2677822 32.631634
13.572363 14.692045 32.692604
14.873067 14.977472 32.843136
14.18479 13.34155 32.704037
14.388787 10.030255 32.45359
15.111505 10.013461 32.698997
15.33371 12.790072 32.710457
14.86798 14.236833 32.898701
14.082526 10.382077 32.562054
14.781071 13.354265 32.717869
14.986226 9.708499 32.576534
13.569962 14.592283 32.700123
14.072273 13.337169 32.713467
15.157324 9.9317017 32.576351
14.877511 9.9412804 32.577221
13.586451 14.262524 32.671642
14.05239 12.335562 32.773766
13.701926 13.362892 32.805824
14.980919 11.043631 32.559929
14.970238 13.237914 32.60281
14.655741 12.532519 32.817287
14.479208 13.348321 32.716114
14.283559 12.88341 32.735939
14.648093 14.285108 32.879684
14.672628 8.9815998 32.532688
15.174657 14.648665 32.757835
14.37371 8.7685499 32.522064
14.286983 10.130386 32.65509
14.277758 11.177496 32.674305
14.351452 12.901569 32.742496
14.904306 9.9101372 32.491837
15.037112 10.132578 32.512577
14.376165 10.069668 32.54261
13.699507 12.810049 32.720207
14.477909 12.91268 32.749397
14.954095 10.234174 32.735134
14.679607 13.350296 32.712177
15.068973 12.62154 32.672848
13.451172 10.953541 32.613041
14.47798 9.890522 32.495171
13.951068 10.401549 32.3535
15.09705 15.670247 32.816994
13.774986 14.289227 32.61145
14.386976 12.346975 32.572227
14.38082 13.346868 32.716278
14.875761 13.349229 32.716652
14.581982 13.348248 32.71059
14.074166 12.339525 32.562359
13.964468 8.0266142 32.505604
14.495972 12.350354 32.5714
14.204922 12.624937 32.716393
13.787912 9.7388792 32.521442
14.379815 15.950287 32.770115
14.012587 11.320061 32.616795
14.180176 14.741417 32.759819
13.8848 12.314612 32.629852
13.759589 8.7715902 32.498238
14.866017 8.632556 32.551407
15.075758 9.3260956 32.494228
14.575805 10.064585 32.561913
13.57407 10.102898 32.523048
14.97548 13.441257 32.750343
13.511158 10.896097 32.515095
14.362868 12.658381 32.763031
15.392767 13.343991 32.716537
14.976436 9.3023005 32.555916
14.774818 8.9854574 32.530663
13.888059 10.624714 32.500221
14.293445 15.072399 32.78352
14.290271 10.153692 32.572083
14.08797 9.1660309 32.66983
14.378254 8.9884853 32.516228
15.201797 10.134205 32.714077
14.943124 11.532488 32.801239
14.376961 12.530807 32.629814
14.814104 9.7620115 32.443909
13.970356 13.667538 32.724941
13.806563 11.426632 32.697845
13.844345 10.57601 32.442509
14.086395 12.125532 32.577656
14.606821 9.8766642 32.391918
13.882659 12.746572 32.620522
14.281906 9.5650539 32.473244
14.966415 11.606498 32.563519
14.64937 9.8165522 32.487988
13.83873 10.82993 32.455502
13.266867 11.216855 32.534252
14.48345 9.6227703 32.559845
13.975589 14.968606 32.751686
13.563451 12.337743 32.57399
13.880536 10.1614 32.560268
13.766621 10.136547 32.553265
13.692436 12.117057 32.57597
13.525888 9.7831697 32.529713
13.855635 8.9645205 32.486076
15.210506 15.977446 32.865105
14.381804 10.193939 32.520695
13.782905 8.8805962 32.487637
14.674175 8.8956633 32.508492
15.077625 10.913054 32.605675
13.673021 15.746369 32.90493
14.274422 14.736031 32.758396
15.180843 12.017694 32.696537
13.676004 8.9309502 32.475231
14.683572 9.9671154 32.711472
15.083825 10.153991 32.582024
15.098004 10.440298 32.684494
14.090708 13.796702 32.690296
14.575077 10.603158 32.574215
13.284084 12.572927 32.666317
13.982529 13.793096 32.694424
13.50447 12.566377 32.626232
14.768345 12.13308 32.56839
14.477278 9.5729151 32.635212
14.282426 8.9843245 32.513752
15.072392 9.9742041 32.546242
15.064876 13.926007 32.705547
14.774269 8.8929691 32.51096
14.184172 10.559821 32.621006
15.168554 10.202907 32.474957
14.282185 10.602765 32.559868
14.186826 14.970448 32.754589
15.276883 10.929773 32.60614
14.870234 9.5246344 32.550724
15.324581 9.7731371 32.457054
13.40092 11.397807 32.53035
14.573524 14.608077 32.660496
13.985168 15.810722 32.784927
15.340607 12.904223 32.719482
13.991001 9.8786039 32.482838
14.573112 10.561122 32.619469
14.28199 15.089252 32.735348
14.376219 12.126428 32.579823
14.372288 9.800293 32.616371
14.175093 9.5255003 32.532471
13.764552 10.603314 32.405033
15.008246 10.208335 32.520844
15.072931 14.961965 32.770191
14.276176 10.882843 32.642662
14.273299 9.4949293 32.446949
13.671723 8.6893873 32.472977
14.173576 12.405997 32.646133
14.776686 11.551316 32.633099
14.27816 9.6179991 32.554066
13.625481 13.436758 32.835072
14.875075 14.455853 32.705036
14.184402 9.6170511 32.557854
15.159801 11.998563 32.63895
13.886858 10.696422 32.59185
14.480142 8.8526964 32.544113
14.681376 10.605174 32.578987
15.074991 9.5155277 32.553913
13.876902 12.428863 32.594917
15.162661 10.246044 32.591305
14.575523 12.12074 32.573471
14.211155 9.5489483 32.630569
13.231613 10.274534 32.558037
14.875362 8.3566284 32.49781
14.674433 8.858923 32.545929
15.270091 10.851801 32.646618
13.576694 14.661598 32.732822
15.175962 11.139016 32.601616
14.457856 14.584665 32.800159
15.219845 14.294817 32.65731
14.457719 9.9846611 32.726646
14.778471 10.596899 32.576378
15.164957 12.225134 32.625908
13.788644 10.593783 32.546597
14.081508 11.771614 32.608936
14.579985 13.699244 32.690845
13.687504 13.062537 32.638695
14.088947 9.3162928 32.555405
14.79392 9.5586147 32.470345
15.531621 11.536561 32.568062
14.479488 10.024586 32.606571
14.175839 8.8966446 32.490131
13.916492 8.5681505 32.510735
15.484382 14.204885 32.703384
14.385157 14.553023 32.721745
13.302767 10.899271 32.632507
14.768479 9.3493252 32.494297
15.176298 14.107984 32.736706
14.578336 10.471595 32.595535
15.329762 12.244248 32.596855
15.070343 10.021002 32.602875
14.883116 14.553346 32.736099
14.578133 10.380473 32.575298
13.966844 9.3681431 32.647163
14.085815 13.656377 32.73579
13.90726 15.841358 32.791256
14.774266 15.593841 32.793682
13.774099 12.41442 32.645947
14.970852 13.310237 32.664997
13.688618 12.428202 32.656342
14.283638 15.664189 32.678226
14.808619 13.419317 32.848866
13.622831 9.5922956 32.483845
14.474988 13.698574 32.684147
13.782282 14.245843 32.684593
14.858477 12.471801 32.841267
13.654585 13.789783 32.688332
13.463442 11.938196 32.535839
13.761638 13.918767 32.657791
14.48213 8.9375143 32.57653
14.080617 11.861571 32.625469
15.197005 14.045681 32.803646
15.06648 10.825233 32.573746
14.367188 12.049439 32.712914
13.983332 9.2447729 32.445778
14.703381 16.222494 32.945835
14.081221 13.067465 32.63229
15.242799 14.996246 33.117588
14.383932 13.701776 32.67947
14.878425 9.9163084 32.71299
14.475745 13.660162 32.739468
14.87397 15.946379 32.787506
13.988796 10.378204 32.556099
15.368522 14.975989 32.766399
13.682404 10.932712 32.561512
13.560667 11.393967 32.693237
13.583899 13.788958 32.689617
13.398363 9.5922203 32.57465
14.63827 12.287663 32.792652
15.166742 10.160323 32.581036
14.714393 13.969857 32.883339
14.578984 10.826404 32.568954
15.177484 8.5006294 32.642662
14.69339 10.062671 32.725983
14.084149 12.663727 32.594711
13.977845 12.806453 32.691795
15.103073 8.4139118 32.596474
14.579274 11.263401 32.535717
14.578927 11.50954 32.696518
14.474763 13.064887 32.643574
14.479877 14.289433 32.621941
13.777061 9.6148386 32.372723
14.481601 7.9993553 32.512817
13.694763 13.829556 32.638187
14.263412 10.244773 32.449005
14.171539 15.265924 32.762444
15.6473 15.512201 32.774769
14.661711 9.5746956 32.476158
14.872734 10.878893 32.635723
13.841631 9.1646528 32.417309
15.251324 12.883736 32.770992
14.16567 8.9386139 32.565838
14.382334 15.544876 32.718552
14.779055 9.1635942 32.565907
13.692698 12.419782 32.594513
14.186069 14.903635 32.663692
14.4878 12.498128 32.68515
13.896775 12.980004 32.625313
14.577904 8.6702137 32.510773
13.936547 13.183605 32.832001
14.921656 15.268949 32.858162
13.791479 8.690711 32.428112
13.285361 12.480459 32.736725
14.989062 15.676536 32.826569
14.478109 13.254072 32.688
14.755383 11.469244 32.779995
14.775578 15.502185 32.779358
13.815987 10.249629 32.449501
14.485212 8.5347252 32.628002
14.880241 15.687433 32.820423
14.714518 8.7483406 32.654621
14.887827 9.5953979 32.638504
14.668747 13.071562 32.656445
15.081442 12.309759 32.653946
14.549297 10.103356 32.621342
14.085567 15.849804 32.743343
14.977063 13.969749 32.751568
15.0955 13.394622 32.862255
14.481373 10.159943 32.572968
15.257897 15.71784 32.809448
13.722282 8.1689758 32.412277
15.316537 14.645903 32.81427
14.581085 14.433546 32.745975
14.774963 10.203979 32.529137
14.67437 14.463242 32.704243
14.480074 12.526552 32.625916
14.786852 10.094192 32.639843
14.380683 8.8940773 32.494156
14.784292 8.8031492 32.65797
15.172781 15.93775 32.797394
14.579915 15.950183 32.767563
13.593602 13.823955 32.649254
14.366757 8.316988 32.366005
14.620154 11.411566 32.505749
14.088153 13.456602 32.509899
14.58852 12.656936 32.589432
15.120398 9.574544 32.453983
14.77411 15.218256 32.709988
15.510324 13.089954 32.661919
14.776318 10.155985 32.584122
13.676065 12.538679 32.600269
15.6073 15.598623 32.792675
14.771976 10.411225 32.488811
15.07617 10.065149 32.564404
13.38401 9.4747839 32.595619
15.378798 12.303772 32.631649
14.999059 11.589006 32.786484
14.011725 10.890789 32.642719
13.583456 9.6587372 32.490318
14.692501 12.414169 32.811703
14.473364 12.577106 32.567139
14.075984 9.6567345 32.485249
13.745542 12.982524 32.533249
14.479995 14.913604 32.675003
15.078326 10.877358 32.63036
14.581388 15.367431 32.802979
15.26135 12.302276 32.639301
14.873896 14.241546 32.712265
15.092419 12.371806 32.589817
13.708305 12.883749 32.835182
15.144643 8.6799126 32.388496
13.789193 14.015046 32.69175
14.07988 11.148104 32.564243
14.1916 14.872128 32.729214
13.276577 11.760754 32.647865
14.480863 12.399305 32.66098
14.650682 15.029716 32.630741
14.181838 11.86904 32.635086
14.75753 9.4099503 32.685219
14.779078 14.011235 32.717854
15.029548 15.12651 32.802834
14.678589 9.3074293 32.537655
14.285009 10.028519 32.602108
15.085906 14.157133 32.701488
14.853986 14.138223 32.681042
14.767855 8.2680645 32.465942
14.873498 12.693534 32.61784
14.384176 12.672369 32.5952
13.48081 11.026148 32.660686
14.854751 10.41356 32.525043
14.874578 10.061767 32.563137
13.799464 13.825577 32.702137
14.16702 12.658652 32.592739
13.543602 13.464582 32.873028
15.077229 10.695222 32.596535
15.431655 14.339957 32.749214
13.880196 15.289045 32.779285
14.875225 10.665421 32.49575
14.142335 15.349211 32.782021
14.97217 13.887527 32.733818
13.78687 12.422942 32.583206
14.680485 9.9392738 32.579601
14.241182 11.410872 32.455463
14.777166 9.5252419 32.550064
14.180474 12.345552 32.56218
14.174937 10.151472 32.578644
14.779599 15.448521 32.699699
14.089296 11.896586 32.585255
14.608228 8.1660728 32.558216
14.978874 15.451633 32.889088
14.880667 10.197481 32.707203
13.869196 13.173502 32.734455
13.972992 9.1213617 32.470325
13.662686 12.036279 32.562675
14.175323 10.002437 32.448109
13.596143 10.722525 32.540257
14.7855 10.334699 32.617577
15.187017 8.1928825 32.621712
15.058428 15.870792 32.765396
15.276591 12.50436 32.691708
14.37695 13.886566 32.734264
14.574744 10.011528 32.467396
14.882748 10.645922 32.663284
14.707528 13.731714 32.7644
15.326934 13.077594 32.68047
14.674183 11.673953 32.603649
14.476124 13.57943 32.712833
14.879771 9.7507534 32.548981
14.476977 13.89415 32.739212
14.481923 15.283405 32.779583
14.576221 8.8034258 32.474731
14.787813 14.260176 32.887051
14.576047 13.57453 32.712578
15.362661 15.28232 32.794979
14.281231 11.047376 32.549458
14.683348 13.605831 32.668648
14.28976 13.891741 32.730778
14.279887 12.646786 32.584518
13.770537 9.1933861 32.359325
14.352218 9.037816 32.616924
13.797702 15.004533 32.696823
15.27434 13.867501 32.739426
14.015189 10.021879 32.608212
14.581814 15.045652 32.78096
14.793403 8.1920967 32.653404
14.506573 8.9374132 32.431919
14.878297 10.03634 32.604332
14.754355 10.074018 32.726841
14.166333 8.6979103 32.593151
14.583115 12.180269 32.660812
15.176449 10.602601 32.587589
14.092083 10.031167 32.606865
14.475576 15.312191 32.731152
14.055433 9.2451525 32.656219
14.584425 14.647901 32.742531
14.082147 13.920111 32.67123
14.574183 12.309826 32.638405
15.346945 11.615719 32.664974
15.171308 15.59824 32.807835
14.382225 11.963477 32.665726
13.398289 12.350388 32.61887
13.922709 13.698397 32.743252
14.873358 9.1720324 32.5634
15.06954 15.282915 32.785744
15.271971 10.458172 32.704586
13.559191 8.8839674 32.547783
14.664608 8.581604 32.490818
14.775594 13.26359 32.698868
14.486885 11.180299 32.507278
14.200589 9.8954477 32.686398
13.719649 10.05752 32.629799
13.785088 10.878677 32.484852
14.580942 14.201542 32.74897
14.774883 10.021542 32.601204
14.775568 10.383577 32.583141
14.470819 12.654934 32.592243
14.742693 9.1472654 32.418388
13.316519 9.6368523 32.534897
14.178139 10.426376 32.504345
14.003878 9.6816978 32.580856
14.381899 10.024281 32.605366
15.071513 10.255415 32.593369
14.573213 12.802258 32.700062
13.699801 11.977869 32.584614
13.679389 8.9293404 32.430428
14.244623 15.36159 32.664314
14.081985 8.9539461 32.592789
14.150099 15.925633 32.68124
13.779267 10.461999 32.589615
14.774724 9.0823059 32.546852
14.878057 15.727448 32.787815
14.579735 10.91276 32.591656
14.694857 9.5855026 32.667976
15.055273 8.762455 32.410172
14.478308 11.419128 32.653843
15.350984 10.718743 32.578148
14.97636 10.380923 32.582027
14.57703 11.411891 32.653347
13.860471 9.2328491 32.432781
14.481771 10.646176 32.5005
15.081696 15.824133 32.811317
15.472174 14.260649 32.796677
13.704533 11.904829 32.571423
14.479336 9.8003902 32.462765
14.677371 15.939254 32.780422
14.171873 11.557339 32.618969
13.570074 9.0534945 32.524448
13.699585 10.739704 32.513687
13.788065 10.275972 32.527851
13.878679 11.42122 32.491455
14.930928 10.402496 32.728527
14.971623 8.8920383 32.514393
14.54981 14.049575 32.780903
14.47835 8.5447035 32.52816
14.07934 11.954442 32.660549
15.05653 8.9524565 32.62949
14.176991 9.2474575 32.63419
13.621295 12.662821 32.615639
14.377528 10.47786 32.598827
14.076904 8.5819082 32.46563
14.189661 10.05584 32.607204
13.394816 11.187425 32.517231
14.666068 12.668909 32.600407
13.783132 13.828453 32.646587
14.471775 9.1214142 32.491703
14.455685 9.7366285 32.681656
14.978194 15.72199 32.796539
14.573506 11.45139 32.607109
14.844574 9.8709774 32.75169
15.062955 14.410435 32.932697
14.291584 14.912052 32.673145
14.875523 10.60455 32.582268
14.728487 10.997858 32.450726
13.663977 10.61353 32.55732
14.97156 12.709913 32.548107
14.875137 10.071863 32.751411
14.774848 15.408872 32.769035
14.997636 12.451178 32.604523
13.581197 11.040381 32.553482
14.089061 15.224044 32.693081
15.106785 8.1669941 32.595276
14.676614 11.552427 32.630898
14.670545 8.9502373 32.576736
13.97687 13.760374 32.610844
15.059375 15.633163 32.772675
14.574883 12.586987 32.713646
14.574927 12.535074 32.636082
15.256427 12.401443 32.676773
14.969383 10.340543 32.637218
14.872627 13.837059 32.86544
14.477396 10.740536 32.53664
15.266252 11.882298 32.587585
14.183351 8.4871616 32.446712
14.764512 12.339837 32.582893
14.481813 13.610702 32.658169
13.682533 13.690438 32.658276
14.666194 14.303796 32.640789
14.376566 13.441201 32.745461
14.37731 13.183434 32.598248
14.685348 12.589884 32.711819
14.675352 14.594526 32.666714
14.170935 12.539927 32.623722
13.598627 12.628708 32.641129
14.877386 10.155974 32.582172
15.077745 14.431726 32.751175
15.167883 9.1711702 32.557568
15.160013 11.418932 32.644737
14.371758 14.300017 32.885151
14.077828 12.444609 32.597828
13.884159 8.6745701 32.479679
14.652071 12.461032 32.518898
14.574828 12.942367 32.674641
14.676264 13.387676 32.678055
14.470752 15.140662 32.674595
14.463826 13.523213 32.767445
15.544011 11.653005 32.572124
14.282227 15.71674 32.768612
14.354193 16.1143 32.922642
14.479234 8.6432219 32.554958
14.677288 13.163115 32.679493
15.688544 13.200953 32.592999
13.709106 10.631091 32.499046
15.101974 15.756753 32.968407
15.068731 9.1708202 32.564316
14.887966 8.183568 32.625805
14.682601 14.202852 32.747192
14.079544 14.461169 32.691387
14.882537 8.666214 32.518085
14.957592 10.120736 32.642418
14.663225 14.594398 32.821655
13.911823 8.503746 32.596283
14.956615 13.210748 32.765446
14.981764 15.914133 32.818779
15.236535 9.9601793 32.548702
14.268208 14.206781 32.753296
14.974506 14.235666 32.721935
15.259881 15.285591 32.783669
13.577579 13.704865 32.690178
14.479135 14.464627 32.690228
13.974221 10.28304 32.53183
15.165202 15.717591 32.799366
14.385995 16.204317 32.969501
14.390959 12.566825 32.547642
14.577338 15.590377 32.796501
13.752439 14.459273 32.606743
13.905085 8.576746 32.59864
14.672016 12.445352 32.607929
13.589631 11.977576 32.617767
14.745267 16.026276 32.968636
15.076055 15.72249 32.801739
15.075932 9.0384951 32.479576
14.577676 14.237123 32.706699
13.467661 8.606823 32.482922
14.013109 13.328821 32.559868
14.676813 12.531554 32.644009
14.478617 8.673254 32.505127
14.679696 13.793299 32.709957
15.18121 11.048014 32.550549
14.97571 15.947135 32.793701
14.613309 14.437939 32.868336
14.073546 10.282768 32.525524
13.29997 8.9381752 32.494801
15.275841 8.533741 32.661732
13.686457 8.7829199 32.46019
14.063254 14.195852 32.762253
14.676113 10.189987 32.5214
15.1638 15.383304 32.814423
14.855547 10.109187 32.464043
15.264624 13.254243 32.69825
15.178978 8.7881451 32.475563
14.378056 10.565045 32.622437
14.580858 15.404141 32.753014
14.774469 15.054322 32.777802
14.386916 10.730159 32.533836
14.680012 15.724513 32.779976
14.680705 16.208237 32.851357
14.482203 11.547955 32.620327
14.088651 7.9950624 32.507568
14.679592 15.406753 32.763988
14.877467 14.431569 32.749527
14.063894 8.9483919 32.43412
14.985184 15.150097 32.819408
14.578545 10.001419 32.750557
14.378818 11.419479 32.651321
14.779849 9.3035507 32.540489
14.285048 9.9716663 32.515007
13.79912 11.018318 32.595615
13.495028 10.05407 32.618271
14.760779 14.25144 32.629131
15.075562 11.647927 32.648037
14.806936 12.558293 32.837132
14.487017 10.199083 32.513218
13.680899 10.276683 32.524403
14.001304 11.588825 32.457771
15.087839 11.396173 32.784985
14.679921 10.221221 32.721291
15.162969 10.548555 32.607883
13.884323 15.403256 32.746742
14.478173 12.938492 32.671829
15.168924 9.9668427 32.53566
14.577503 15.726211 32.776661
15.068821 15.4073 32.781071
14.866042 15.763261 32.969837
13.326289 9.6490793 32.442249
14.08538 15.195856 32.743744
13.888658 8.7090149 32.433674
14.75817 12.649051 32.581799
14.085058 8.8037014 32.461048
14.682041 13.887184 32.727036
14.187268 14.194771 32.749722
13.847031 10.443947 32.434444
14.383758 10.921293 32.586327
15.263508 14.430861 32.748585
15.450858 13.314077 32.732822
14.677788 14.965353 32.759956
14.75813 9.0691471 32.669506
14.779339 12.404987 32.664577
13.971815 15.224148 32.694946
14.974501 10.829124 32.568607
14.777272 12.476439 32.807095
14.276678 15.306659 32.728481
15.203403 12.974028 32.826607
14.163951 15.775345 32.690838
14.369287 11.735665 32.68647
13.699244 15.318826 32.729519
14.564306 14.303555 32.643936
13.263298 11.740542 32.551441
15.183164 14.250756 32.723972
14.281899 15.765085 32.707794
14.469005 15.141704 32.8144
14.874662 12.402203 32.668869
14.380283 12.626522 32.655495
15.174521 8.8614292 32.541019
14.566864 9.9731979 32.528408
14.678844 9.2109947 32.521595
14.480746 14.973746 32.755314
14.858746 11.712087 32.786674
14.125354 13.798615 32.531075
14.533312 15.755178 32.889404
14.777763 9.4754801 32.587009
13.778776 9.308527 32.621819
14.171529 15.407091 32.747414
14.320841 11.674695 32.805668
14.972795 14.967505 32.76886
14.079566 9.8639317 32.483246
15.168822 12.670128 32.615105
13.367583 11.461422 32.647804
14.380526 13.161026 32.670452
13.678208 10.774719 32.585865
14.08293 15.758639 32.690903
15.28124 14.205181 32.759853
15.380519 14.407816 32.762276
14.650798 15.439199 32.698605
14.865012 11.182733 32.657104
15.081361 11.412657 32.647835
14.592935 9.8026228 32.608959
15.073565 13.343317 32.712208
14.975994 13.474448 32.702644
13.592436 8.7173834 32.459007
14.386264 14.193048 32.748299
14.764511 10.915663 32.764111
14.476316 12.592157 32.707752
15.071023 12.587159 32.708996
14.479898 9.2073221 32.510067
15.029378 11.864572 32.808292
14.976651 13.352067 32.716328
14.975977 12.045966 32.689751
14.838284 15.478189 32.715282
14.878802 9.9790926 32.539505
14.980148 9.9771519 32.537991
14.771723 12.30273 32.652328
14.282331 14.517599 32.77401
14.581301 9.9315805 32.58157
14.691022 13.485668 32.841988
14.879002 10.378962 32.578735
14.179354 11.678365 32.588993
13.981793 12.620038 32.647987
14.972111 12.581437 32.702881
14.877231 16.039005 32.800747
14.189104 9.1771412 32.677059
14.587252 15.454062 32.70187
14.180756 9.1949196 32.515263
14.676174 8.3180161 32.532639
14.761183 14.44046 32.913876
15.083344 12.03294 32.684834
14.306952 15.925505 32.659081
14.575578 9.5275526 32.543514
14.0825 10.695446 32.593155
15.276211 15.400992 32.781845
14.269388 9.7950773 32.470722
13.471254 11.799172 32.532742
15.352638 15.096752 32.772652
13.503651 12.64542 32.629875
14.875421 12.440652 32.616825
14.270326 11.142295 32.573574
14.987982 9.4826717 32.587456
14.476235 9.9663315 32.525906
15.372028 13.113488 32.680183
14.777639 10.692374 32.601841
14.532398 15.694651 32.700058
15.266267 8.7282133 32.602287
14.571369 12.462047 32.805866
15.170175 11.01406 32.616631
13.794569 12.015002 32.533352
14.77739 12.625143 32.66642
15.236026 15.648809 32.76701
14.204899 10.86028 32.481388
13.696401 12.260562 32.688107
14.095417 14.415465 32.736053
15.440688 12.586402 32.648479
13.976607 9.2646112 32.62291
14.685628 15.600657 32.79377
14.289715 11.326318 32.625896
14.039463 11.785951 32.755249
14.483439 16.03772 32.790295
13.88417 11.363451 32.573166
14.480753 13.793653 32.708721
15.172906 9.7762871 32.713657
14.361461 15.130877 32.805084
15.245554 11.010056 32.625175
13.961732 9.09797 32.632175
14.878016 15.633817 32.760956
14.475164 10.505127 32.5406
14.975411 10.249011 32.590721
14.182556 8.6763182 32.494156
14.681614 10.063554 32.560535
15.168116 10.057208 32.574547
14.685238 15.906544 32.814812
14.286566 12.625778 32.644363
13.229761 9.2005253 32.498886
14.877035 13.388447 32.67564
14.174273 13.833639 32.652309
13.753293 14.126696 32.581017
14.383169 14.424994 32.746498
15.109432 15.561268 32.947529
14.966736 8.169301 32.651985
15.052128 10.063148 32.75058
13.561586 11.227276 32.57972
13.972892 10.199328 32.495853
13.78495 9.0509501 32.511734
14.286504 8.3150883 32.52758
14.280679 12.533862 32.622532
13.699581 10.859666 32.493565
13.71908 8.4211531 32.441013
14.087008 12.631577 32.642418
14.705882 8.1924467 32.599499
14.773716 13.400208 32.557091
13.529585 15.325702 32.70837
13.998322 8.5523567 32.535419
14.776055 15.716384 32.784672
14.571743 15.908707 32.817947
14.382634 13.830164 32.791847
14.575262 13.076381 32.65451
15.170455 15.40866 32.781506
14.387936 12.497605 32.682991
15.079771 11.735298 32.67548
14.081268 15.408675 32.744335
13.683256 11.493059 32.533787
14.793133 13.322171 32.839603
14.579936 13.258092 32.688171
14.958416 12.551035 32.81609
15.176649 14.424569 32.756523
13.881813 12.279035 32.516502
14.852439 9.4848223 32.600578
15.149201 9.4712143 32.58075
15.174804 10.336599 32.628082
15.264615 13.163635 32.681362
14.838255 11.392984 32.774963
13.832863 13.244078 32.836918
14.779202 13.660194 32.73563
14.873182 8.897954 32.510834
14.97245 12.627351 32.667068
14.080641 11.017833 32.596844
14.58126 15.19208 32.757679
13.75419 12.641351 32.630161
13.983912 8.3869963 32.40657
14.385416 15.59713 32.794376
14.679029 11.330861 32.629124
14.777028 13.160154 32.679276
14.395406 15.055549 32.785301
15.158561 14.464448 32.707355
14.574313 14.456698 32.693317
14.873033 12.621912 32.669918
14.882404 11.058732 32.547226
14.483616 8.3208551 32.526764
14.479602 9.4797153 32.592468
13.605017 12.029711 32.548046
13.87921 9.2770185 32.635723
14.482141 12.624395 32.651955
13.773716 14.621578 32.663601
14.777634 10.246403 32.594364
15.313462 12.588861 32.752811
13.446269 13.034958 32.601711
14.979187 9.1742344 32.563011
14.679764 14.240682 32.710945
15.004254 13.319286 32.839882
14.879507 13.886506 32.733345
14.57313 14.511886 32.774109
13.653061 9.2027712 32.506687
14.874783 12.58922 32.717339
14.658001 9.2542334 32.470726
14.67855 9.4862843 32.593884
14.370599 8.3168917 32.536942
14.479123 12.180502 32.667023
14.774039 10.825064 32.571804
15.063517 13.228028 32.81258
14.059078 11.515011 32.699886
14.186733 15.225646 32.691204
14.473679 11.364919 32.574116
13.887543 10.071355 32.527901
13.274461 10.117543 32.575703
14.372941 15.680097 32.690086
13.891899 13.38765 32.662502
14.388774 9.838624 32.549572
14.355104 12.274282 32.548687
14.559427 13.515962 32.795643
14.671851 9.1598978 32.567806
13.576897 12.443786 32.604801
14.683016 12.623526 32.663158
15.783728 15.29918 32.806351
14.468188 9.0178776 32.464153
13.610512 15.389024 32.7523
14.780516 13.791845 32.718941
15.25034 9.4925098 32.586227
13.904078 11.672806 32.451588
14.777128 13.894279 32.730709
13.880266 10.295409 32.521107
14.981783 13.377883 32.686314
14.974853 10.565497 32.61517
14.302922 9.2676134 32.615807
14.166121 13.557293 32.851723
14.975205 15.05739 32.781406
13.885708 8.386323 32.41555
14.913959 15.528097 32.907463
13.287895 11.468022 32.535698
14.090678 9.9735441 32.509548
14.989641 9.2115173 32.533703
14.285511 9.0268431 32.46183
14.974434 15.816046 32.804737
15.371258 15.675423 32.862003
14.969301 15.008326 32.889416
15.081039 12.81673 32.705143
15.363074 9.6044693 32.562477
14.479695 12.045453 32.709801
14.682024 15.051075 32.783382
14.084511 10.668558 32.682289
14.481786 15.407631 32.757519
14.287856 12.178791 32.671841
14.583171 15.751365 32.712849
13.33286 12.599621 32.642578
14.426118 15.798647 32.922852
14.471411 15.44703 32.69709
13.563436 11.464563 32.569134
14.954298 13.833168 32.659264
13.332264 10.699828 32.571915
14.993979 10.064629 32.710697
14.982804 10.113462 32.486713
14.47736 9.0797138 32.640396
14.802698 14.071798 32.834202
14.477597 10.287114 32.544113
15.268682 9.2999668 32.543922
14.178842 11.49663 32.532288
13.594792 11.78302 32.606091
13.583672 9.2064867 32.517521
15.075805 11.542959 32.633118
14.174429 14.429093 32.736958
14.169271 12.449143 32.601044
14.779266 8.6726265 32.511806
15.720607 13.17862 32.679089
13.785703 10.731662 32.514454
14.783617 15.758913 32.719872
14.575662 8.3181143 32.534882
14.684729 11.95207 32.66666
14.977036 8.3239851 32.533348
14.192978 10.63283 32.496666
15.261182 12.621203 32.663979
13.780572 9.1984329 32.501095
14.153347 8.4005661 32.428867
14.178671 14.459766 32.689796
15.258831 15.124154 32.676521
14.578236 9.8406334 32.562752
14.578749 13.794559 32.706161
14.872868 9.2182655 32.532085
14.778278 9.2056923 32.529194
14.974603 10.062209 32.573463
14.366783 14.278925 32.635418
14.283498 15.854159 32.740471
13.692967 11.84534 32.628307
15.041882 10.69457 32.481556
14.37694 8.5794001 32.474316
14.377381 14.233933 32.700432
15.264629 9.6445093 32.772537
13.797708 11.600933 32.552608
15.233815 9.5633774 32.439281
14.856988 10.309961 32.718346
13.714676 11.393598 32.62402
14.573645 8.0965576 32.537556
14.806478 10.295059 32.724873
13.975876 12.496756 32.682713
14.569585 10.191033 32.723629
14.59009 13.31824 32.814907
14.775443 8.7374363 32.620701
13.712646 11.234203 32.566345
15.178656 8.6695852 32.518173
14.675776 14.819565 32.785107
15.269281 10.811861 32.580528
14.473374 11.045961 32.557415
13.895159 8.0148163 32.504662
14.49236 8.0841255 32.545975
14.77449 12.937642 32.68203
14.689738 7.8899984 32.577099
13.885751 10.506444 32.523022
15.246623 14.920308 33.043419
14.082099 12.305092 32.621262
15.052302 8.701189 32.631977
15.162582 11.602118 32.581852
13.970289 15.844844 32.738689
14.63843 12.513606 32.553059
13.595559 9.0170279 32.462582
15.076159 8.6333094 32.551197
13.712366 8.7385015 32.454636
15.079794 14.23938 32.717422
14.978224 14.207598 32.749897
14.481359 14.241154 32.696869
15.071422 9.203413 32.53426
13.585348 12.735393 32.656616
15.486665 14.429133 32.740269
15.081483 10.787519 32.611366
14.58873 15.145318 32.678574
13.272741 9.9881306 32.612251
13.858489 12.266088 32.692795
13.717806 12.749211 32.684944
14.884058 10.434685 32.724197
14.875707 15.404883 32.774319
14.0813 9.5183487 32.525688
13.980907 13.701225 32.664124
14.579301 8.8915977 32.504135
15.17548 12.31283 32.663742
14.080137 8.4799623 32.440037
14.298336 9.71632 32.447746
14.573956 8.0508108 32.472141
14.365355 15.680775 32.820515
15.190169 8.7128105 32.625282
14.865753 8.0975494 32.54401
14.590027 8.630208 32.55349
13.74883 13.417192 32.579334
14.379539 13.382098 32.661034
15.409903 11.820117 32.567341
13.768354 9.2526302 32.437733
14.302783 8.7208204 32.593643
14.712303 11.420405 32.441502
14.578834 13.61358 32.662312
14.152118 14.025108 32.542042
14.669382 14.371128 32.666435
14.279944 14.463249 32.690289
13.812374 11.449256 32.516224
14.972801 13.79046 32.72073
14.679008 12.401702 32.661636
15.167394 8.9050961 32.518806
14.591076 12.039202 32.701641
14.170561 8.3582163 32.477043
15.173781 11.722084 32.666046
15.171901 10.207855 32.773605
14.026838 9.2022552 32.67561
15.275605 14.24348 32.730194
14.479517 10.111855 32.491859
14.294044 12.809278 32.705898
14.583238 9.0912046 32.630043
13.785757 9.5304937 32.452919
14.174686 10.725031 32.526264
14.181823 12.276334 32.535172
14.673696 10.3336 32.625973
14.499434 8.6858883 32.599724
14.189517 11.586216 32.567642
14.480413 15.818976 32.788437
14.392195 8.7180824 32.598419
14.678727 14.011928 32.713078
14.046076 8.762764 32.618797
13.874156 12.701638 32.666649
14.980337 14.646996 32.754776
14.867759 10.520355 32.71423
13.678578 12.662557 32.589302
14.772785 12.535906 32.644772
14.477746 10.341265 32.624786
14.4804 14.425383 32.746391
14.168699 12.345756 32.734657
14.946877 11.3865 32.779179
13.454775 12.058638 32.547222
14.685612 9.0201626 32.467449
14.680721 9.7121706 32.584507
14.375217 14.462481 32.693851
14.180482 9.709693 32.584934
14.781173 14.742351 32.759476
15.074779 10.33134 32.616951
15.072687 10.595908 32.584473
14.487982 15.724254 32.768883
13.794771 10.501221 32.537685
14.094003 12.399908 32.635941
14.579666 12.625322 32.656075
14.08094 8.8623028 32.545715
13.593117 10.373877 32.573055
15.386925 13.804734 32.720402
14.290504 15.975459 32.8396
15.274363 14.050777 32.8288
14.384598 12.401277 32.656826
14.380002 13.531381 32.774994
13.683641 15.296012 32.884037
14.27597 12.401771 32.657413
14.298895 12.589948 32.554276
14.889176 11.623323 32.77142
14.379852 12.307406 32.63213
14.977818 15.40953 32.778561
13.751332 13.394597 32.71727
14.288862 13.498268 32.780277
14.382273 15.86393 32.73209
14.972714 8.250102 32.675499
14.678147 14.870155 32.746136
15.180775 9.7057085 32.57793
15.080795 11.045904 32.562805
13.577972 11.180275 32.566502
14.429871 8.322238 32.655243
14.226301 15.111741 32.812397
15.271204 10.597987 32.579876
13.878765 13.171591 32.557056
14.091215 11.584188 32.552498
13.435771 12.639446 32.587067
15.080908 8.8909378 32.514393
13.873557 11.498479 32.539471
14.273938 15.816448 32.781174
14.551246 15.561739 32.604836
14.292793 12.275944 32.694485
14.479167 15.951792 32.767548
14.175794 10.195512 32.496639
14.278591 10.509942 32.527039
13.582677 15.007658 32.735546
14.599048 11.363459 32.74802
14.674356 10.873708 32.644623
14.276244 15.502526 32.762974
14.18314 12.941174 32.667114
13.160299 11.885894 32.564915
14.382586 15.819128 32.797443
15.302522 9.5534115 32.67548
14.919899 8.2559443 32.665531
15.092325 13.468153 32.900478
13.664552 8.3622656 32.47575
15.264195 9.6539116 32.731144
15.048386 15.770875 32.938942
15.240674 8.3410292 32.541073
14.187492 11.953654 32.662251
15.071254 15.093996 32.752876
15.171974 13.790905 32.724316
14.081053 10.160678 32.579025
14.773528 14.243132 32.717731
13.902038 10.853067 32.637318
14.6742 14.422956 32.743534
13.572539 10.43352 32.600853
14.581291 11.011843 32.609783
13.62157 15.629006 32.659554
14.185694 8.0051613 32.52314
15.056254 11.005273 32.691719
14.917063 8.7242861 32.581577
15.018078 10.019392 32.437897
14.08057 13.162283 32.654213
14.378905 10.600692 32.559025
15.075495 13.800228 32.72681
14.087294 8.3126497 32.524227
14.382732 12.71431 32.675591
15.168507 12.615768 32.664661
14.953657 13.403653 32.88546
13.322803 10.978438 32.584713
13.991412 15.598222 32.662231
14.777803 14.43231 32.74564
13.788828 13.698165 32.668011
15.069884 15.946138 32.793793
14.095269 10.736931 32.523991
15.270281 15.826058 32.813576
13.709494 13.204215 32.607094
14.282416 13.702085 32.684807
15.182267 10.695114 32.595184
14.477349 9.5253611 32.538048
14.913698 12.351933 32.532845
13.583144 13.229576 32.615242
14.572966 9.7090054 32.585495
14.577478 15.850038 32.742699
15.259624 12.233264 32.618538
13.715939 15.097307 32.649307
15.301378 10.74674 32.549076
15.591664 15.386746 32.771488
14.10005 10.878772 32.637527
13.772614 10.101568 32.487072
13.97827 14.908978 32.663734
15.233631 8.1433601 32.600506
14.578231 14.962733 32.75724
15.17571 9.4012003 32.56427
14.173306 10.69454 32.579361
14.481463 12.722127 32.67725
14.378777 14.957794 32.757637
14.38076 11.493166 32.538933
14.969737 9.5787086 32.496078
15.36919 10.601057 32.566074
14.569975 12.039991 32.547184
14.488647 15.852235 32.742958
14.466722 10.823838 32.558525
13.98358 9.3439322 32.4715
14.00072 12.653989 32.590382
14.980297 10.020534 32.60051
14.774781 13.392575 32.682835
14.595389 10.444721 32.654892
14.382204 8.9528217 32.44714
14.285032 13.344932 32.718929
15.170229 10.821676 32.56625
14.374582 10.381191 32.568871
13.999394 15.289523 32.777847
14.475079 10.552999 32.477303
13.675203 9.2688074 32.644203
15.172153 14.864651 32.761189
14.57924 14.334443 32.723621
15.374784 14.224116 32.722214
14.77873 12.352918 32.756302
14.573603 9.8920994 32.5047
14.775641 8.447648 32.514557
14.990656 16.175756 32.969208
14.573862 12.272249 32.686951
13.688426 11.761158 32.601307
14.661566 9.3408499 32.489292
15.072392 13.743681 32.756081
13.982235 12.55968 32.553677
15.380634 12.531446 32.644917
13.986101 9.2060299 32.506004
14.943362 9.341114 32.494427
15.256632 12.536335 32.636292
14.085333 14.916333 32.667397
13.670856 11.54561 32.58374
14.797543 9.5805902 32.669662
14.380045 9.1718082 32.574329
13.381674 10.484378 32.611214
13.636842 12.899167 32.591393
13.284512 12.699661 32.675018
14.580539 11.644471 32.645645
14.059847 15.895395 32.811619
14.899922 13.337804 32.817108
14.197441 11.398877 32.648373
14.215458 13.417908 32.732372
15.185724 15.667588 32.820629
15.077148 9.2986698 32.554512
14.379295 12.028585 32.549183
14.572546 15.23017 32.708282
14.275912 14.554437 32.712822
13.8787 12.123187 32.580276
14.376275 15.276125 32.776596
14.077927 14.267197 32.625546
14.974936 13.729902 32.755779
14.576149 15.135309 32.811752
14.313314 10.485766 32.693039
15.313532 13.647076 32.749767
14.172382 8.8092976 32.452087
14.174357 12.315041 32.619888
15.185831 13.30547 32.85281
13.799723 9.9487238 32.570183
14.676115 10.822598 32.559978
14.976954 15.494791 32.79081
14.983745 15.637856 32.773014
14.581745 15.62815 32.752148
14.292044 8.948945 32.591793
13.888233 8.7928209 32.458633
13.890287 13.164239 32.657536
14.784554 12.58576 32.710102
13.870057 12.390331 32.658569
14.377942 11.545859 32.62278
13.985312 11.553361 32.614788
13.994057 14.290704 32.624393
14.178285 10.291986 32.528931
14.282726 10.287067 32.536434
14.724848 15.127359 32.797554
14.28226 11.545473 32.619007
13.749631 13.926039 32.582977
14.871278 15.311347 32.74424
13.371013 10.499986 32.492561
14.479702 13.383674 32.664375
14.090633 13.480798 32.676014
15.051907 15.853269 32.894291
14.18464 8.4507313 32.504276
13.401661 9.2919264 32.621956
14.390222 12.816166 32.853424
13.483751 9.2661457 32.661175
14.569421 12.811079 32.54018
15.173123 12.399096 32.67308
14.375129 15.319352 32.731449
13.790137 13.657755 32.727787
15.267004 9.3482256 32.470535
13.907995 15.937317 32.755951
14.277482 13.509759 32.61562
15.081071 11.208039 32.526276
14.184653 11.431169 32.447914
13.777987 16.017273 32.777248
14.466375 8.7245226 32.432072
13.591337 9.3326035 32.495953
14.007106 12.244975 32.50436
14.774864 12.496066 32.683342
14.310676 12.698061 32.768818
14.19372 15.947331 32.76387
14.576607 12.446477 32.604149
14.577126 15.497585 32.771996
13.260006 9.2757912 32.550331
14.876832 10.69519 32.598373
14.770322 11.141782 32.59523
14.758911 12.439271 32.615547
14.855181 9.2071257 32.391426
14.579471 10.63707 32.505154
14.650995 10.657802 32.499908
14.29108 10.242869 32.597504
14.130755 9.9449282 32.338352
14.50637 13.230379 32.75563
15.076555 12.404297 32.665012
14.977145 12.399285 32.668533
14.083838 8.0499401 32.442616
15.338619 9.8966751 32.472183
14.767448 10.285166 32.557537
14.677096 12.220531 32.61441
14.859258 8.8086596 32.484497
14.870023 12.538626 32.647972
15.17061 14.203729 32.752361
14.926098 8.8236485 32.687252
15.080145 14.204541 32.752224
14.875672 14.200529 32.750137
15.379812 14.206224 32.767475
15.069958 12.266816 32.688038
13.276325 11.358193 32.657719
13.750319 13.560848 32.710987
14.084009 8.9755325 32.521088
14.678373 10.911227 32.593842
13.88465 15.307073 32.725796
14.217205 10.695736 32.415768
14.577226 8.6981974 32.572582
15.16675 11.545136 32.62822
15.444364 13.219897 32.675541
14.981404 10.160067 32.581379
14.973772 11.013709 32.615288
14.665416 8.7158585 32.451794
14.875474 15.150796 32.846733
14.459185 8.0883875 32.410091
13.994929 11.592399 32.553577
13.867105 14.146216 32.674297
13.587734 14.112866 32.668011
13.703684 14.167216 32.656773
13.982132 10.168188 32.574966
15.38239 11.552428 32.602299
13.877489 11.550381 32.616333
13.584282 13.615195 32.655144
15.071317 10.478045 32.596836
15.480594 11.350904 32.555103
15.73251 14.818464 32.7939
14.485731 15.631371 32.752354
13.976799 11.485538 32.533379
14.094379 8.0953865 32.396297
15.76892 14.666434 32.737968
15.080601 14.11214 32.738388
14.827799 10.183955 32.795429
14.480695 12.845578 32.649094
14.378257 13.977282 32.620148
14.751354 10.879154 32.460629
13.764483 11.564 32.597759
14.012352 10.573239 32.625175
14.784921 9.709733 32.581081
13.873004 14.969945 32.760357
14.480754 14.826381 32.640823
14.875263 12.229376 32.629074
14.3001 10.866046 32.496941
13.578268 12.857368 32.770214
14.069542 10.480189 32.584991
13.974314 8.980546 32.512737
14.87462 11.375057 32.584
14.780042 10.330105 32.464638
15.177608 10.870226 32.646759
14.67828 8.0042248 32.514862
14.872811 13.194573 32.762016
15.40048 12.39381 32.677917
14.27429 8.0073967 32.513428
13.982212 14.327791 32.718616
15.174504 10.788487 32.610519
13.867614 10.388854 32.552155
14.675653 10.287299 32.552567
13.777665 12.205332 32.596066
13.795547 10.349207 32.470612
13.897914 9.9817076 32.505695
13.78788 14.32077 32.723637
15.41289 12.517958 32.680069
14.083539 11.549021 32.608418
14.774588 13.531435 32.813114
14.682534 12.271535 32.690773
14.284033 11.363225 32.575214
14.782354 11.819384 32.568832
14.578846 12.355289 32.714539
14.878689 12.493385 32.687885
14.570084 11.89479 32.594299
15.075527 9.710331 32.579857
13.669964 9.9766016 32.491421
14.882428 15.285246 32.785187
15.16573 12.545821 32.644287
13.988746 14.179662 32.735962
13.414653 11.825484 32.549953
14.182976 9.9745731 32.507633
13.885486 8.5802517 32.444099
14.48316 10.382569 32.567898
14.876849 12.304211 32.652332
13.876558 14.195056 32.737331
14.780153 14.96563 32.765549
14.458834 8.8651896 32.346439
13.682341 11.351105 32.569721
14.072161 11.353778 32.56469
13.613471 8.9761229 32.52634
14.478258 10.919834 32.584606
14.086476 10.421385 32.510067
14.694384 8.8928881 32.706642
14.171388 8.9831715 32.514336
14.166501 9.1206818 32.475891
14.282373 13.06619 32.639915
15.171474 15.820634 32.807785
14.378756 10.827364 32.55584
14.385583 10.650107 32.505058
14.376937 10.28935 32.536755
15.629308 15.669603 32.789707
14.810377 8.4088612 32.406197
15.265084 10.557859 32.620548
14.772202 10.4817 32.59306
14.203535 13.754048 32.781178
14.244382 14.044207 32.796604
13.808329 8.2115192 32.499355
13.592094 13.393282 32.66544
14.388741 9.1167631 32.483143
14.480927 8.8146658 32.643242
14.967901 15.651211 32.959747
13.786867 10.423952 32.494957
15.071079 9.4003687 32.559315
15.175499 8.3618965 32.685997
14.484508 15.21939 32.701687
14.695747 11.107033 32.757191
15.343828 15.364143 32.792446
15.119821 8.3620796 32.717739
13.642538 12.365614 32.560402
13.886631 14.264599 32.627811
14.673819 8.6690121 32.512348
14.785809 12.053727 32.698647
14.369409 8.6202879 32.542179
14.783834 9.8041611 32.609085
14.084438 14.023644 32.689983
14.677129 9.9753714 32.533405
15.12736 11.457655 32.771206
13.615327 11.525019 32.63271
15.175439 13.443724 32.738914
14.849439 11.039838 32.749542
15.36755 14.004998 32.711678
14.585482 10.755782 32.524879
13.711965 12.5867 32.700836
14.183271 14.104589 32.716797
13.846542 10.712976 32.440273
14.678913 14.552924 32.728569
14.979145 15.761184 32.92255
14.683088 9.8362055 32.564388
14.475461 12.754052 32.62722
13.685079 9.6371555 32.482773
14.271794 13.427797 32.76685
14.583918 13.44049 32.746071
14.9792 8.2313385 32.515076
14.813474 15.788331 32.962238
14.782002 12.271438 32.693501
14.180786 8.8573494 32.550392
14.87385 15.822155 32.801277
14.773675 15.819742 32.799694
15.168135 9.4337425 32.52261
13.839646 12.59851 32.704803
15.215886 9.3412485 32.472301
15.155752 15.62649 32.779118
14.083282 12.216252 32.59763
15.081931 9.2530956 32.590652
13.876619 15.841017 32.743183
14.074826 9.7100382 32.590961
14.093272 9.2105169 32.695061
14.372716 12.582912 32.720726
14.879026 8.0181303 32.520889
14.01945 15.675265 32.821239
14.582032 10.787315 32.60865
14.583533 15.824269 32.788513
14.700383 8.6446333 32.669041
13.596321 11.921165 32.555233
14.388376 9.6029329 32.626072
14.543886 9.5609064 32.618008
15.073092 11.367551 32.593967
15.174477 10.373274 32.586346
14.651248 10.150774 32.641689
14.89407 12.363818 32.740063
15.279154 12.074733 32.656723
14.176596 8.630888 32.546993
13.682456 12.873612 32.787762
14.587874 11.960916 32.665501
14.383686 11.861356 32.637478
15.080567 11.011646 32.617603
14.881151 11.957382 32.667526
15.281567 8.5556421 32.484615
14.480019 14.55866 32.722279
14.278094 11.684426 32.59137
14.975074 14.113177 32.73489
14.059981 12.604395 32.74897
15.08612 12.218127 32.634094
14.753115 13.818045 32.81979
14.677529 13.033353 32.696785
14.874279 8.5845938 32.490662
14.383362 15.434718 32.684948
14.379934 12.254388 32.684986
13.692247 15.645238 32.857727
14.059699 15.364701 32.830791
14.493948 13.515471 32.629139
13.886848 9.8973961 32.485298
14.887705 10.921673 32.504074
14.577421 12.405604 32.656734
14.130175 14.960267 32.865639
14.756176 15.1304 32.799347
13.977943 16.039762 32.776367
13.600713 12.113534 32.585587
14.103148 11.658184 32.652554
13.943002 11.93591 32.645485
14.40709 10.442595 32.664253
13.871243 11.151508 32.506458
13.843499 13.358047 32.539398
13.786223 14.1586 32.657181
14.362885 13.750063 32.772213
14.100593 13.331796 32.540676
14.194395 11.736081 32.500847
14.053818 15.575624 32.651253
14.570729 13.761737 32.770126
13.915119 14.501561 32.75071
14.574981 14.831906 32.793182
14.452719 11.388382 32.487297
14.480343 13.160532 32.669922
14.554493 9.8206568 32.473133
14.581688 8.9560099 32.574787
14.375341 14.828655 32.80162
14.109642 14.816968 32.772804
14.082815 14.551584 32.707905
14.483243 11.96112 32.669312
14.277151 11.507755 32.702015
14.088588 15.049595 32.642994
14.273845 8.9553366 32.44091
14.380052 14.014532 32.700748
14.775507 12.810179 32.702511
14.330687 9.8557062 32.363472
14.280087 13.921022 32.676579
14.281173 14.773619 32.71088
14.182395 12.114275 32.576519
14.468759 12.126507 32.57663
14.979342 10.602886 32.584526
14.782752 9.6836548 32.429676
14.569387 13.66418 32.737621
14.961603 13.068965 32.663383
14.376544 11.89733 32.587048
14.416643 15.91375 32.692417
14.185753 11.359058 32.572197
14.479971 12.279198 32.693718
15.168302 12.177817 32.665157
14.675562 9.1105919 32.49514
15.277916 13.357295 32.727509
15.279952 13.441097 32.757565
14.676902 9.3969812 32.565639
14.829344 8.7122555 32.696819
14.978177 12.299841 32.65276
15.074356 12.542692 32.651321
14.666237 11.358074 32.58316
14.976738 12.533251 32.651657
15.1553 14.872981 32.682854
14.16692 9.823369 32.387909
15.259703 14.532025 32.779736
14.811497 8.0664959 32.67347
14.618792 11.550371 32.778709
14.775346 13.693401 32.700294
15.185304 13.969652 32.759579
14.278547 11.599893 32.712032
13.891162 14.620185 32.657505
15.629433 13.24904 32.677521
14.477427 11.458095 32.601723
14.483627 9.7065258 32.58239
14.382154 8.5384426 32.527775
14.277776 8.5456314 32.528343
15.132727 9.744009 32.453152
15.521204 11.886256 32.603352
14.781883 11.364077 32.584778
14.702664 8.410964 32.659416
14.680377 8.6302843 32.555054
15.243195 10.799211 32.602982
14.87513 11.684536 32.60532
13.087316 11.902611 32.607433
13.979015 15.507526 32.762203
15.264763 13.787357 32.712109
14.973701 10.69773 32.589176
15.056586 12.124514 32.78862
14.267566 9.1625957 32.698208
14.081758 10.639079 32.492706
14.763103 15.999327 32.67355
14.176508 14.553823 32.712967
14.380256 13.798328 32.712334
14.176887 11.781071 32.605579
14.486174 12.081625 32.637566
15.282086 13.868188 32.837383
14.882599 13.738239 32.77203
14.477632 11.899246 32.587914
14.287584 11.651266 32.653156
13.89883 11.33476 32.616333
14.379479 8.6695061 32.502384
15.073647 11.770138 32.637047
15.263147 13.268542 32.819412
14.374788 11.678489 32.595516
15.245386 11.92859 32.681976
14.683755 15.822142 32.792953
14.705832 15.761221 32.993027
14.683293 13.124655 32.721436
13.763405 14.061986 32.638771
14.187817 9.1781902 32.589825
14.383351 11.643621 32.650433
13.97888 14.022519 32.691685
14.935591 10.95307 32.655525
15.113205 10.143943 32.646091
14.981969 11.960986 32.662792
15.168297 11.961546 32.665958
15.159317 13.346712 32.722794
14.48022 10.607929 32.565079
15.171354 12.604692 32.703804
14.280253 10.415048 32.504719
13.965652 11.431346 32.657246
14.07051 13.509247 32.620613
13.780621 13.527187 32.61726
14.185365 15.863784 32.733078
14.382508 9.9685287 32.520016
13.977335 11.0506 32.53767
14.577192 13.117965 32.732422
14.376121 15.907948 32.813419
13.573969 8.9247589 32.469456
14.969612 14.511805 32.767235
15.265072 8.89785 32.498756
15.071971 10.372851 32.589191
14.638514 14.657282 32.91058
13.579397 13.074483 32.656891
15.456261 12.128418 32.596649
15.547903 12.735138 32.65691
14.783884 12.749985 32.632092
14.77248 12.8474 32.667053
14.37923 12.943613 32.671341
14.375874 13.070017 32.638065
14.771574 11.013534 32.615482
14.360286 13.508969 32.624477
15.237508 13.538053 32.623718
15.27343 13.62475 32.655807
15.264424 13.737339 32.625332
15.278646 13.843368 32.626793
14.480226 11.013172 32.609253
14.315289 14.41229 32.561993
15.144939 14.388754 32.638897
15.271709 15.209474 32.690414
14.888369 12.197985 32.523739
14.970629 12.812286 32.54652
15.003189 12.887282 32.591244
14.18219 12.884974 32.565887
14.166294 11.72075 32.657013
14.18573 11.095052 32.629154
14.172807 16.045465 32.784687
14.281098 14.021307 32.700771
13.976496 10.947716 32.664783
14.074146 12.026203 32.535007
15.169456 13.665894 32.743248
14.376272 14.111943 32.727577
14.279734 11.775551 32.612804
14.173764 11.043356 32.542019
15.55512 11.757695 32.57584
14.673922 11.767146 32.626316
15.566716 11.868018 32.57896
14.667281 11.902515 32.594254
14.113788 12.053049 32.44582
14.060874 12.118068 32.481926
14.886059 13.288005 32.64566
15.276655 13.39877 32.671711
14.874336 13.477205 32.699886
14.173058 12.756746 32.617088
13.995752 8.2976532 32.520367
15.081514 12.49934 32.680393
14.272439 12.12256 32.571045
14.774662 11.868415 32.645138
14.878605 12.184136 32.667122
15.487453 8.8167801 32.453491
14.778265 12.183037 32.663063
15.172092 12.481977 32.686604
15.251857 12.718099 32.678257
14.476972 12.810693 32.704086
14.878386 12.808702 32.702206
14.874647 13.258317 32.702915
14.785594 13.201661 32.752476
15.242738 13.510334 32.788387
14.881603 13.658255 32.735275
14.795188 10.67549 32.65567
14.375545 10.783131 32.618538
14.067746 9.7743988 32.459167
15.517429 15.137094 32.740715
14.376272 11.234262 32.600121
15.190763 11.278464 32.543449
14.377308 11.367004 32.569675
15.168263 11.368968 32.579205
14.375465 11.459301 32.595562
15.169048 11.457831 32.612408
15.173816 11.688948 32.623295
