# .PCD v0.7 - Point Cloud Data file format
VERSION 0.7
FIELDS x y z
SIZE 4 4 4
TYPE F F F
COUNT 1 1 1
WIDTH 567
HEIGHT 1
VIEWPOINT 0 0 0 1 0 0 0
POINTS 567
DATA ascii
36.367615 -7.8282943 3.374784
37.254196 -7.8716316 3.0122242
37.166893 -7.9107242 3.1031506
37.129223 -10.053855 3.7556911
36.893745 -7.9053707 3.3459077
37.236679 -10.091388 3.7258863
37.308353 -7.8320651 3.2687752
37.067005 -7.8635969 3.3746023
37.522995 -10.010053 3.3934579
37.34623 -7.7085819 3.1400032
37.625729 -8.6206799 3.3404505
37.38747 -8.2327394 3.1539941
37.269264 -7.8433867 3.2138746
37.311623 -7.9826269 3.136663
37.195648 -8.1321878 3.3446779
37.281303 -8.0382929 3.1608016
37.180347 -7.7957449 3.288214
37.481224 -10.195671 3.48388
37.357494 -9.3494043 3.3690195
37.146561 -9.7122049 3.4127312
37.29871 -9.2826538 3.457408
37.288921 -9.3530512 3.5118153
37.306385 -9.3339958 3.3863876
37.315598 -9.368926 3.3428292
37.32806 -9.807888 3.4143755
37.310081 -9.6808338 3.5512424
37.379986 -9.8723221 3.5665617
37.09742 -10.045524 3.4720564
37.381023 -9.7506866 3.472651
37.289112 -10.065703 3.6610763
37.320263 -9.8911715 3.5855081
37.313419 -9.9651022 3.5676525
37.292751 -10.301784 3.5788291
37.332516 -10.129571 3.4745684
37.295338 -10.042725 3.4209039
37.378975 -10.275867 3.5850754
36.798714 -8.3730364 3.2024703
37.04068 -9.5991011 3.5701258
36.759167 -9.4613895 3.6738076
37.099171 -9.6022377 3.5417945
36.810272 -9.6438856 3.7102964
37.111042 -9.9418612 3.5958536
36.722187 -9.676219 3.6305597
37.098785 -10.247383 3.4548783
37.171421 -10.219646 3.454422
36.877056 -9.9702206 3.3100791
36.945389 -9.9513283 3.3014226
37.151585 -9.926815 3.3769095
37.172478 -9.8003511 3.4759245
37.073891 -9.9570217 3.3782749
37.100815 -9.8001833 3.4968252
37.098446 -9.3810282 3.4230037
37.093235 -9.0958567 3.292572
37.183239 -9.349618 3.4442773
37.177742 -9.3811274 3.3685448
37.114944 -9.0479183 3.3183937
37.060905 -7.9260645 3.153368
36.831486 -7.8731146 3.2045405
37.49646 -8.4719133 3.217078
37.0863 -7.9970231 3.1618149
37.30201 -8.468503 3.2414243
37.348064 -9.2656918 3.218801
37.157352 -9.2820883 3.2522705
37.299229 -8.9329433 3.2037146
37.37978 -10.050845 3.4046705
37.377056 -9.9424925 3.5379665
37.377571 -9.6111755 3.4947667
37.382168 -9.2949667 3.2704101
37.361198 -8.9251423 3.1912112
36.866318 -9.3390779 3.3456631
37.123035 -7.8275681 3.3356435
37.379486 -9.8678646 3.366854
37.005295 -7.8562636 3.307647
37.291676 -9.2028894 3.4085374
37.21122 -10.158725 3.5247943
36.997826 -9.1498661 3.3199017
37.193752 -9.9595861 3.4481077
37.310177 -10.272749 3.4782741
37.391342 -10.136367 3.4522738
37.379551 -9.2611151 3.3050282
37.291164 -10.39236 3.3959687
37.375633 -10.188212 3.4238141
37.404057 -10.382179 3.3640587
37.142807 -10.01658 3.652941
37.171917 -8.8646116 3.2742212
37.227402 -10.015531 3.6354377
37.173527 -7.6021566 3.2357795
37.567677 -10.252986 3.4263673
36.912052 -9.1072016 3.3802853
36.996498 -9.9627466 3.3953502
37.209301 -9.9392338 3.5732648
37.603165 -10.347052 3.3948061
37.586159 -10.424105 3.3754759
37.194942 -9.7485437 3.5187659
37.270958 -9.6567831 3.3451295
37.37149 -9.8017759 3.4204044
37.45718 -9.6602888 3.3014369
37.377571 -9.8039112 3.52648
37.321281 -9.8125896 3.5611141
37.490849 -10.279236 3.4596052
37.425163 -9.6457853 3.3208435
37.028042 -10.219638 3.6457958
37.09494 -9.848999 3.4615457
37.060341 -9.442544 3.5489588
37.366268 -9.5348978 3.4208159
37.309376 -9.5606127 3.4407616
37.094997 -9.871171 3.6283109
37.208004 -9.5390596 3.4751143
37.226181 -10.204921 3.5288072
37.293518 -9.1432304 3.3506324
37.345757 -9.4526892 3.4948959
37.28941 -9.4778843 3.5192754
37.169384 -10.256092 3.602663
37.185478 -9.8842916 3.4333262
37.181049 -9.8481035 3.5321698
37.17947 -9.4594259 3.422004
37.293308 -8.0666666 3.2714391
37.475212 -10.335543 3.4606473
36.900181 -8.8706264 3.2375059
37.298889 -9.9541197 3.4227395
37.098915 -9.9527407 3.4902816
37.107201 -9.8741331 3.5669611
37.100677 -10.351342 3.5821402
37.102974 -10.252192 3.5298746
37.101131 -9.4648571 3.4628778
37.022251 -10.192479 3.5620255
37.37944 -10.275955 3.4433727
37.023655 -9.7735081 3.5528111
37.004959 -9.5095263 3.5939469
36.997669 -9.5625076 3.5425234
37.086929 -9.5748377 3.3950329
37.081226 -9.5662003 3.5181584
36.576786 -10.178658 3.4555984
36.531898 -8.0417843 3.365556
36.888206 -9.3054562 3.4049253
37.215126 -8.4587975 3.2953475
37.076622 -8.4756765 3.2005847
37.269257 -8.4271984 3.1431677
37.091442 -10.222573 3.4908695
36.9468 -7.926558 3.3701351
36.905151 -9.4909754 3.5168588
37.35186 -8.581152 3.2373416
36.869289 -9.3849497 3.482949
36.620361 -7.853147 3.3259766
36.872852 -10.09249 3.6000402
36.622723 -8.2202978 3.2072308
36.573532 -7.8705211 3.127969
37.293228 -8.802989 3.2961147
36.982357 -9.549943 3.4300048
36.953087 -8.9716673 3.3394961
36.769573 -8.8585405 3.2980933
37.29253 -10.35499 3.5276515
37.529339 -8.9523764 3.3132899
36.600155 -8.0156908 3.197057
37.122543 -10.217554 3.6001995
37.033855 -9.4310188 3.445199
37.000969 -9.2187119 3.381444
36.996807 -9.0640697 3.3974369
36.996742 -8.8637323 3.3335388
36.582729 -9.243268 3.5401089
36.599957 -9.2573061 3.4402397
36.873489 -10.208776 3.6859491
36.795689 -10.286954 3.6655452
36.892818 -10.202857 3.5567925
36.791252 -9.524622 3.603271
36.698425 -9.5372705 3.5251851
36.993851 -10.341472 3.6196091
36.788986 -9.5413809 3.4931464
36.697479 -8.0688686 3.3334899
37.20282 -10.263912 3.4997661
36.901913 -9.6040869 3.3819299
36.996178 -10.290286 3.5663929
36.639313 -7.7462349 3.344219
36.907925 -9.590827 3.4856231
36.859627 -9.0155964 3.4069905
36.960976 -9.4306059 3.5260758
36.591434 -9.1395092 3.4531319
36.711082 -8.89326 3.3466206
37.023033 -7.6474094 3.2672873
36.675472 -9.5776968 3.565403
36.682396 -9.1364737 3.4401925
36.702118 -9.6298103 3.5062368
36.789207 -8.9437466 3.2465355
36.716675 -7.8396149 3.2942607
36.892048 -8.8963232 3.2920098
36.863575 -7.8635068 3.1759331
36.808739 -8.895896 3.3204463
36.80204 -9.2444696 3.4918742
36.812763 -9.0165205 3.4046373
36.905865 -9.2328148 3.4542222
36.921822 -9.7904329 3.576792
36.986546 -9.8897924 3.4895794
36.947594 -9.3530684 3.1798694
37.21212 -8.9408665 3.2357993
36.952206 -8.3126554 3.0751073
37.193218 -9.3376865 3.2320945
37.383823 -8.6529198 3.3101292
37.005333 -8.4030352 3.0831017
37.319057 -9.4520998 3.3843327
37.321117 -9.8927126 3.4775512
37.198109 -8.9107523 3.2197244
37.094852 -7.8361506 3.0623648
37.262474 -8.8545933 3.2912374
37.214882 -7.7133703 3.1429365
37.190102 -8.2392454 3.2272272
37.069912 -8.9878025 3.1706743
37.181557 -8.6407461 3.1643817
37.200325 -8.9995775 3.366616
36.979816 -8.1698599 3.136622
37.361122 -9.874507 3.4890232
37.189354 -9.6559277 3.3512223
37.297794 -9.5976248 3.3932393
37.58968 -10.470302 3.3385196
36.900829 -8.3054686 3.1108112
37.097488 -9.9795418 3.4305704
37.183224 -9.5961304 3.4054115
37.020275 -9.9456711 3.6154242
37.133194 -9.4630899 3.5194037
37.30162 -10.228165 3.548058
37.103519 -8.9816322 3.2821419
36.989864 -7.8196335 3.090642
36.993805 -7.7823782 3.1305156
37.453728 -9.4728584 3.3494763
37.20269 -8.5765076 3.1563306
37.34594 -7.9480767 3.1200881
37.192432 -10.034249 3.449481
37.288361 -9.7135448 3.3895323
37.303749 -9.3162537 3.2598114
37.362953 -9.0732899 3.2571011
37.458344 -8.6506376 3.2837119
36.867935 -9.721837 3.4933741
36.991444 -9.2940645 3.3766406
36.993534 -8.8967218 3.2738633
36.999454 -10.01692 3.5270619
36.904579 -7.8017588 3.1067874
36.897789 -9.6290884 3.4426143
37.382492 -9.6609888 3.3128088
37.418724 -9.4018373 3.4249544
37.190151 -10.456 3.5606906
37.002712 -9.5964775 3.4698076
37.075535 -9.2497416 3.3041284
37.105228 -9.2879906 3.318042
36.968868 -9.9841299 3.3572443
37.097996 -9.6410475 3.3807964
37.186005 -9.2663498 3.3787501
37.105122 -9.6418848 3.4924953
37.183468 -9.0494843 3.3429909
36.997238 -9.632863 3.4178443
37.086449 -9.6010275 3.4417505
37.184395 -9.2990227 3.2991638
37.182747 -9.2044592 3.4426429
37.195408 -9.5422134 3.358439
37.000244 -8.5554552 3.215538
37.075508 -7.9911184 3.3005967
37.090527 -7.7287426 3.1637707
37.187393 -8.5726414 3.2940719
36.700344 -7.7770295 3.2292509
37.089287 -8.6727962 3.1256573
36.566689 -9.6595154 3.506803
37.003864 -8.8284645 3.2719958
36.610592 -7.8246775 3.1777611
36.937466 -8.606431 3.1381137
36.796482 -8.1811152 3.1799188
37.201954 -10.338614 3.5489433
36.619373 -10.275446 3.3869331
37.184139 -8.4811087 3.184093
37.327766 -9.1953392 3.3244338
37.685944 -10.466017 3.3997099
37.168991 -7.7433648 3.2581108
37.12674 -9.8053846 3.3914039
36.65723 -8.1104288 3.2085872
37.076057 -8.3813705 3.2637527
37.364914 -9.6532688 3.4311008
36.984299 -8.652607 3.4078298
37.160072 -10.102619 3.3630228
37.259121 -7.9913378 3.1978614
37.084942 -8.0664597 3.2173996
37.205833 -7.9676104 3.2356951
37.206169 -7.9181042 3.2036576
36.896614 -8.0703535 3.276022
37.362213 -8.0690956 3.122201
37.04044 -8.4218025 3.1574316
37.082333 -8.1860857 3.1216414
36.885094 -7.956574 3.345665
36.945267 -7.7630467 3.3479955
37.052776 -8.8385239 3.2252126
36.68222 -7.9382329 3.3819821
36.98 -8.7367258 3.351588
37.286015 -8.706481 3.2575991
37.40852 -8.4495773 3.2145097
36.879631 -10.287068 3.6229672
37.383842 -10.016977 3.572592
36.804935 -7.9757824 3.0781455
37.37273 -8.6884699 3.2088082
36.998276 -9.2186375 3.2299478
37.308994 -9.6228733 3.5115714
37.592121 -10.459014 3.4290097
37.363087 -9.6705647 3.5391002
37.200027 -8.6455774 3.3534923
37.229939 -10.059236 3.5805776
36.703793 -7.7447047 3.2976186
36.963264 -8.0637598 3.0969434
36.885181 -8.1075773 3.1208935
37.097328 -7.7445869 3.2847056
37.211159 -9.6241932 3.5182216
37.276558 -7.7285323 3.2017822
36.643703 -9.2639112 3.4917705
37.396751 -10.452675 3.4960587
37.089039 -8.8557558 3.2884214
36.899002 -10.347119 3.6474574
36.619713 -7.8754945 3.5414963
36.977993 -8.049036 3.2433839
37.289768 -8.6246061 3.1923552
37.47694 -9.9714136 3.3622985
37.388691 -9.9412956 3.4044313
37.103416 -9.2504454 3.4063909
37.418488 -8.7635307 3.2939839
37.29718 -9.261075 3.3451617
37.000828 -9.2360897 3.4314766
36.902878 -10.267879 3.5175385
37.337734 -8.6913528 3.3504879
37.450123 -8.7060823 3.3483114
37.268959 -9.7477427 3.5878313
37.388954 -8.9141645 3.2732623
37.084606 -7.8392978 3.1653838
37.380608 -8.1210546 3.156846
37.401409 -8.3840113 3.1727431
36.998547 -7.7632866 3.029599
37.311771 -7.8405094 2.9570093
36.909977 -8.9213066 3.3840075
37.140144 -10.159931 3.7104332
36.682911 -7.9976315 3.4277763
37.173962 -8.0546093 3.1917176
37.286434 -8.1236105 3.1914523
36.679504 -7.7600608 3.4800878
36.99958 -8.9059334 3.3663833
36.898201 -7.7309718 3.2334435
36.879196 -8.0049648 3.1180999
37.514862 -8.6382494 3.3521791
37.135105 -10.07523 3.5993333
37.00856 -7.9329805 3.2391834
37.227535 -8.8626709 3.3537614
36.816063 -7.8258548 3.1283076
37.328144 -10.141973 3.6109531
36.795288 -9.2884579 3.4616964
37.50396 -8.5347061 3.3386564
37.278194 -8.8762693 3.3357117
37.368626 -8.5098486 3.1938112
37.305622 -9.7273169 3.4977891
37.303364 -10.010338 3.4889209
36.723747 -8.9382467 3.2965388
37.309345 -8.9175615 3.2869854
36.900799 -9.2492561 3.3412895
37.10046 -7.8336377 3.2809203
36.578575 -7.7820897 3.3701351
37.184711 -8.5209885 3.2292917
37.21608 -10.139524 3.5771229
37.091774 -9.748148 3.5811555
37.16576 -8.108077 3.1472876
37.400661 -10.342408 3.4820743
37.110199 -9.3180056 3.2370038
37.18354 -7.9186597 3.2967422
36.888424 -9.2819557 3.2814536
37.093372 -8.5193138 3.2476423
36.985977 -9.3048096 3.2507429
37.294918 -8.9462624 3.215688
37.101639 -9.9838991 3.5453782
36.890415 -8.1298885 3.2273605
36.837513 -9.3712444 3.5260019
37.197937 -9.660224 3.4817517
37.329021 -10.237329 3.6343956
37.457062 -8.7558107 3.2344205
36.675365 -8.0521374 3.2555246
37.167664 -9.5743494 3.3304768
36.518196 -7.8198066 3.2662997
36.630096 -8.0622025 3.3487258
37.098598 -10.045985 3.3591301
37.186424 -8.1837463 3.1930225
37.372547 -7.856739 3.2059085
37.090321 -8.9114971 3.2480071
37.107456 -10.015312 3.3039269
37.496605 -8.5883369 3.3276691
36.813381 -10.239326 3.576473
36.177029 -7.7452807 3.5418169
37.536644 -7.831655 3.1277995
37.312817 -10.055743 3.5384836
36.597031 -7.7189131 3.4315715
37.100201 -9.3306103 3.4448452
37.197433 -7.8400993 3.2532997
36.707352 -9.2779493 3.3389831
36.753696 -8.0562773 3.2229593
36.477615 -7.7799459 3.4187579
37.305458 -9.5465565 3.5421753
36.369038 -7.7890353 3.4707847
37.300014 -8.3736029 3.2127502
37.465443 -10.303332 3.5790319
37.017982 -9.3022833 3.4979544
37.017887 -8.9423151 3.1974516
37.195827 -8.1272717 3.2424181
37.316147 -9.6602631 3.4399951
37.002556 -7.7264509 3.0731103
37.190792 -9.6922445 3.2718461
36.993202 -9.9789696 3.4565201
36.994476 -9.2438478 3.306643
37.300442 -8.5222702 3.2231145
36.762882 -9.2040758 3.3258624
37.203362 -8.1212339 3.3119776
37.056351 -8.6585112 3.2697871
36.992634 -7.7938161 3.25735
37.274693 -8.6597824 3.3167627
36.581299 -9.6715851 3.4810395
36.693237 -8.8664713 3.3141577
36.990166 -10.219732 3.52949
37.085953 -9.2197828 3.3552139
36.769302 -7.884666 3.5339322
36.903946 -7.7931352 3.288228
37.278099 -7.7795877 3.1537061
37.002201 -8.1325006 3.1762464
37.194408 -10.007084 3.52332
36.749836 -7.8640409 3.3606236
37.175774 -9.2025642 3.3323531
37.165142 -8.7205992 3.3002148
37.371147 -10.219762 3.6327343
37.104786 -10.11744 3.410645
36.840267 -7.8504453 3.0442276
36.894264 -8.899622 3.2059548
36.670723 -8.9078169 3.2706168
37.386635 -10.145316 3.5823236
37.462444 -10.12958 3.3829212
37.472496 -10.04322 3.3798876
36.833267 -8.913125 3.2162755
36.803627 -9.2994385 3.3050082
37.46476 -10.049628 3.3015914
37.289948 -8.3293791 3.1841075
37.063522 -8.7384748 3.2811956
37.382404 -7.8321028 2.9517112
37.169056 -8.3169079 3.2350535
36.874908 -7.7359214 3.4144087
36.75779 -7.9181557 3.362576
37.08823 -9.702178 3.3344934
37.092422 -8.1777611 3.2016771
36.893703 -8.1659565 3.145026
37.01405 -9.9782743 3.5615842
37.183514 -8.3801422 3.2426186
36.984406 -10.038825 3.6592374
37.374554 -10.062756 3.5326483
36.891888 -7.7749133 3.0586686
37.263187 -8.2441349 3.1377735
36.734699 -7.8946295 3.4897397
36.97216 -8.8608665 3.2156358
37.377296 -9.4973803 3.3564625
37.066944 -8.3537359 3.1987333
37.36237 -7.7839947 3.1186388
37.142761 -10.064163 3.2687595
37.19619 -9.1316767 3.3665133
37.105564 -9.1477413 3.4043424
37.135109 -8.2244816 3.100337
36.839966 -8.1912498 3.2175374
36.791245 -10.243889 3.5489633
37.375034 -9.7200813 3.3722255
37.111477 -9.4247551 3.3373485
36.686607 -7.7833424 3.1517689
37.372971 -9.1528072 3.2688782
36.994801 -9.6033869 3.3536351
37.377663 -9.2148333 3.3439419
37.463581 -8.7688704 3.1520295
36.964722 -8.109808 3.1194508
37.167244 -8.2248449 3.0727155
36.578835 -9.2033644 3.4055011
36.803028 -7.7659564 3.3092773
36.794971 -9.2448244 3.3797302
36.89526 -9.5576515 3.3220847
37.201454 -7.8764372 3.3425641
36.581009 -7.8669724 3.4729598
37.170357 -7.8065801 2.9840891
37.329601 -9.8699617 3.393997
37.295086 -9.4102306 3.4489279
37.285877 -10.045499 3.314446
37.451992 -10.057822 3.254318
37.195248 -10.051871 3.3476379
36.989735 -10.044439 3.3930292
37.445076 -7.841845 2.975579
37.296867 -10.45505 3.5292046
37.070274 -7.6667223 3.1224558
36.283836 -7.7912283 3.4662514
36.615299 -7.905467 3.3563371
36.470001 -8.0160217 3.4929249
36.482456 -7.7857385 3.3109202
37.194237 -7.7964644 3.2104239
37.086933 -7.7937317 3.2327557
37.269287 -8.4048157 3.3339546
37.117382 -7.6398339 3.2173212
37.533882 -10.182685 3.3183398
37.497932 -10.455322 3.4650075
37.383167 -10.003069 3.4567103
36.436272 -7.913918 3.5291429
37.195656 -9.4331236 3.4872224
36.653408 -9.6742916 3.4587739
37.273994 -8.3298559 3.2400663
37.196823 -7.7803349 3.07516
37.073448 -7.7165127 3.0400987
37.509819 -8.3429041 3.1537101
37.082382 -7.7843242 3.1118684
36.402321 -7.778337 3.2661769
37.009438 -7.9371986 3.142401
37.311047 -10.021107 3.5987151
37.009911 -7.6522937 3.135927
37.370346 -10.187468 3.5268884
36.266621 -7.7930145 3.444478
37.273937 -7.7825036 3.0465884
36.898808 -7.7003517 3.0847785
37.080486 -8.5675983 3.1717753
37.370914 -8.5103874 3.2562182
37.462345 -8.0277786 3.1546466
36.89238 -7.7819653 3.1692231
36.891064 -7.8286777 3.1920936
37.093323 -9.5964813 3.3465877
36.998211 -7.8405671 3.1968422
37.084785 -8.8073778 3.2696288
37.084843 -7.9090543 3.2199976
36.868439 -9.6037483 3.2825294
36.97934 -8.2101851 3.1618288
36.579536 -8.1087208 3.2272732
36.802902 -8.1782656 3.2849698
36.786404 -7.7299056 3.1710694
36.942406 -8.371006 3.1007967
36.709885 -7.8090124 3.1613202
36.773678 -7.8180318 3.2504134
36.822495 -8.8181858 3.3288717
36.994717 -9.7934465 3.65273
36.81604 -7.7562437 3.0507796
36.865807 -8.207818 3.22879
37.373524 -8.3996429 3.3199065
37.378059 -9.3187113 3.4236369
36.832512 -9.9559269 3.324115
37.371441 -8.5902767 3.0978811
37.689835 -10.436205 3.3389404
37.29493 -7.8317256 3.0931444
37.181229 -7.8338227 3.1323659
37.2878 -10.012003 3.3701351
37.292721 -8.1794682 3.1583049
37.371227 -8.1943254 3.1239045
37.354229 -7.8243322 3.0186343
37.280384 -8.5899353 3.2631087
37.286304 -8.260993 3.2014825
37.296898 -7.9169455 3.1481338
37.07629 -8.1232424 3.1617026
36.806721 -8.0675468 3.3279684
36.463634 -7.9883676 3.4137969
36.797928 -8.1230221 3.2445393
36.624424 -8.0242701 3.4889901
36.426701 -7.713202 3.533246
37.457069 -10.051413 3.5148685
36.44759 -7.7131195 3.4677441
36.65773 -7.8630672 3.4226139
36.793129 -7.7249718 3.4102082
36.861553 -7.8853412 3.3170173
37.397305 -7.835402 3.0678263
36.798878 -9.1295042 3.4156079
37.187698 -9.9977684 3.4057891
37.508533 -10.372334 3.3412075
36.987793 -7.7409153 3.1960692
37.003914 -8.1686382 3.2402887
36.802143 -7.7773037 3.206799
36.885597 -9.5492334 3.4546835
36.914066 -8.8005104 3.3243501
37.007767 -9.7758112 3.4879873
