# .PCD v0.7 - Point Cloud Data file format
VERSION 0.7
FIELDS x y z
SIZE 4 4 4
TYPE F F F
COUNT 1 1 1
WIDTH 540
HEIGHT 1
VIEWPOINT 0 0 0 1 0 0 0
POINTS 540
DATA ascii
-8.3106384 -0.43104032 -7.1387548
-8.2566977 -0.36505583 -6.8998141
-7.8824072 -0.39361581 -7.0471845
-7.0487661 0.46124625 -6.7150426
-8.0879145 -0.05699455 -6.9623332
-6.46808 0.27495739 -6.7776842
-8.4704809 -0.28745767 -7.0461578
-8.2319012 -0.3096436 -7.0291996
-7.6927042 -0.31347263 -6.9618344
-8.6732349 -0.32540894 -6.9976168
-8.6840363 -0.32114631 -7.0418196
-7.5846334 -0.33736032 -6.9132776
-8.567131 -0.35894197 -7.0754552
-8.9088345 -0.13666764 -7.2701159
-8.4226894 0.097854145 -7.0570221
-8.9842854 0.1839211 -7.1756549
-8.1559963 0.34170589 -6.872025
-8.4269819 0.14629421 -6.9312873
-9.1607227 0.016657876 -7.2387009
-8.9247313 0.028817715 -7.1693645
-8.6403675 0.12405315 -7.0958476
-8.2436838 -0.2776911 -7.1559873
-9.4493332 -0.25143805 -7.3286877
-7.5367508 -0.26542306 -7.0611176
-8.8780422 0.0017989167 -7.1519771
-8.8298473 0.21940672 -7.0859914
-7.6192331 -0.29834691 -7.0318923
-9.0424767 -0.1032372 -7.2000985
-9.0270805 0.20557803 -7.1190681
-8.9671135 0.18253493 -7.0336156
-8.9377756 0.27411026 -7.0449505
-7.7156739 -0.11044104 -6.9035392
-6.968452 0.10853665 -6.83357
-9.2259045 -0.12077097 -7.2329383
-8.9218979 0.21480414 -7.0895743
-8.8155565 0.25746229 -7.0339203
-9.1310549 -0.09708444 -7.2287731
-6.7343946 -0.17421292 -6.8452134
-7.3547506 -0.04847772 -6.9077783
-7.1126747 -0.38777685 -6.8998556
-7.4334078 -0.41380534 -6.9259934
-6.3481598 -0.40421456 -6.8313613
-6.8397598 0.17361985 -6.7869859
-7.5092945 0.30109134 -6.9322929
-8.549077 0.20236111 -7.0440941
-8.4723129 0.18307514 -6.9279752
-6.9394884 -0.38773936 -6.8878679
-6.5647855 -0.059787277 -6.8286581
-7.0051155 -0.41239449 -6.8804326
-6.4560618 0.23215912 -6.7938681
-7.3135891 0.14486483 -6.9094319
-6.424654 0.51109028 -6.6786461
-7.0122666 -0.31188536 -6.8773193
-7.0195355 0.10069906 -6.8639493
-7.9241028 -0.27309456 -7.111444
-7.3122334 -0.36952201 -6.9145942
-8.7359686 0.19849925 -7.0658236
-8.5292282 0.1955277 -6.9441314
-9.0204086 0.04835007 -7.2021604
-6.7891245 -0.48719606 -6.8941636
-5.8013172 0.51620072 -6.620975
-6.9584308 0.26460934 -6.7758975
-9.5217743 -0.20458932 -7.3823838
-7.933363 -0.16218354 -7.0043035
-8.3177061 0.16463067 -7.0727577
-6.4792962 0.2119386 -6.8357544
-6.1583071 -0.17156155 -6.7678933
-7.9221525 0.21820433 -6.8560071
-8.3057775 0.1182894 -6.943193
-7.7319622 -0.048544578 -6.9698133
-8.4216585 -0.20823805 -7.1598253
-8.3034983 0.36655205 -6.8941741
-8.2186241 -0.17110056 -7.0237064
-8.2356911 -0.12803973 -7.0765343
-8.5135326 -0.28432241 -7.2129035
-8.5116358 -0.31927046 -7.0429745
-6.5483255 -0.073369637 -6.9506192
-7.0488586 -0.035002269 -6.8683114
-8.4364042 -0.12636168 -7.1246138
-8.0280933 -0.13621902 -7.0426431
-8.3192282 -0.13310264 -7.0744834
-8.4195709 -0.014121231 -7.0624647
-6.540534 0.26338965 -6.7357712
-8.1220617 -0.12763196 -7.0583668
-8.2321348 0.067965157 -6.9875813
-6.9789791 0.22888127 -6.8710957
-6.5393157 0.19322924 -6.7772975
-8.4229469 -0.19568624 -7.0667701
-8.2214785 0.43530959 -6.8697476
-6.0299659 0.28007352 -6.6877308
-6.5401216 0.32196048 -6.7752953
-7.4506025 -0.13346557 -6.9700665
-7.4444327 -0.046477173 -6.9312344
-7.8442097 0.062278021 -6.9325519
-6.9353476 -0.02771139 -6.8536186
-8.1287861 -0.15544489 -7.0063028
-7.9297619 0.16622491 -6.8967166
-6.0402517 0.49246761 -6.6284819
-7.0357361 -0.13952611 -6.922966
-8.4606695 -0.31552008 -7.0957823
-7.1335754 -0.28820622 -6.9745822
-7.9298711 -0.1326115 -7.0339532
-8.1276522 0.16789266 -6.9219933
-7.4299092 0.13527502 -6.9263144
-6.5898442 -0.2642737 -6.9232521
-8.4099026 -0.26512721 -7.1948991
-8.2259617 0.36056346 -6.8844476
-6.025352 0.37052393 -6.6424108
-8.7325268 0.34983206 -6.9707756
-8.7278728 0.25081742 -7.0300403
-8.6161776 0.23583558 -7.0214162
-6.2893486 0.45058101 -6.7127538
-6.0544949 0.38476861 -6.6612711
-6.5175791 0.39716718 -6.7238107
-8.551795 0.10138207 -7.0728469
-6.857491 0.36297315 -6.7513947
-8.8175564 0.1124435 -7.1141877
-6.0330296 -0.2065938 -6.8454795
-8.5546455 0.080677658 -7.0177279
-7.9380231 -0.21391912 -7.0815187
-5.9757614 0.019864786 -6.7715855
-7.238482 -0.31330472 -6.9728165
-8.2343521 -0.30903026 -7.1267967
-7.8341947 -0.30039987 -7.0604358
-6.5056806 -0.26580769 -6.8982391
-6.0331078 -0.035619445 -6.7651553
-6.0287523 0.66595286 -6.5832605
-6.9357386 -0.26278815 -6.9773474
-6.6581845 -0.071763203 -6.9545569
-6.0664296 0.26899093 -6.7303777
-7.2258573 -0.21780981 -7.0021892
-6.1558309 0.060930021 -6.7073388
-6.7375579 -0.21891876 -6.9285998
-5.5946703 -0.2581895 -6.8195372
-5.9469738 0.25585544 -6.6917229
-7.9387927 0.23243129 -6.9053335
-6.8688641 -0.339149 -6.8627558
-8.336072 -0.30728501 -7.1268277
-8.4272118 0.19525474 -7.0253186
-7.7500238 0.057357121 -6.9173198
-7.1467748 0.15393692 -6.8026977
-7.8344383 0.16331716 -6.885869
-6.6531258 -0.019732557 -6.8398628
-8.1191797 0.041031718 -6.9796247
-7.3323126 -0.30231202 -6.9956741
-7.5380569 -0.17884901 -6.939014
-7.4423227 0.061041888 -6.882153
-8.748455 0.17140473 -6.9916582
-7.8618102 0.10607197 -6.9771204
-5.8758793 0.049132593 -6.7727189
-6.9830933 0.28363723 -6.842515
-6.7120748 0.078956649 -6.793128
-6.7404213 -0.28798968 -6.9217143
-7.9382472 -0.28722531 -7.0830112
-6.0281906 -0.11756065 -6.798646
-7.5287089 -0.31178871 -7.0121984
-5.9335103 0.084689416 -6.7517252
-7.533289 -0.13311523 -6.9863782
-5.9378891 0.67568278 -6.5685382
-7.1346397 0.2963672 -6.8634515
-6.0583267 0.080139056 -6.7208123
-9.3305197 -0.24280469 -7.3243823
-6.2079272 0.061854564 -6.7415309
-6.1367044 0.66482389 -6.5987549
-7.8355742 0.1872454 -6.9147925
-7.7249379 0.16137069 -6.8710957
-6.6550469 -0.35018387 -6.828907
-6.8128934 0.074105933 -6.8098178
-7.3537731 0.048696727 -6.8641753
-6.9333577 -0.22731902 -6.9536939
-6.9332957 -0.24438979 -6.9239988
-8.2103214 -0.39174923 -7.1285033
-7.0322218 -0.22349742 -6.9690971
-8.6222706 0.2212957 -7.0534835
-7.5291195 0.0604106 -6.9008279
-7.139782 0.062736385 -6.846756
-7.6211381 0.20459419 -6.8238459
-7.6291075 0.16251884 -6.8588758
-7.9348927 0.18902799 -6.9243593
-7.0323019 0.068728335 -6.8442841
-7.6280475 -0.37157848 -7.0664225
-7.336628 0.18651156 -6.859262
-6.4894485 0.034828663 -6.7941689
-6.2423978 -0.28505442 -6.852942
-6.3677077 0.042384569 -6.7797251
-8.2203913 0.10116121 -7.0246391
-5.8461185 0.6602056 -6.675139
-6.7123728 -0.40749028 -6.8744154
-7.4230237 -0.30265489 -6.9972939
-6.9327307 0.18739462 -6.810513
-8.0273323 0.18907449 -6.9399476
-6.239378 -0.26689604 -6.8934574
-5.9641676 0.28550005 -6.7008276
-6.5928388 0.18798068 -6.7211714
-6.4301252 -0.3002584 -6.907464
-7.4292789 -0.45548972 -6.9810596
-6.6608052 -0.46253175 -6.8710957
-6.8343782 -0.22144662 -6.9421496
-6.3247895 -0.24313076 -6.8282385
-6.7140331 0.098199353 -6.8744817
-6.7438273 -0.49801227 -6.8971057
-8.5953083 -0.39046517 -7.0784578
-8.1374884 -0.24951652 -7.0624189
-6.242774 0.46224362 -6.6061039
-7.8461113 0.21193258 -6.8510919
-8.76474 -0.046569236 -7.1482644
-7.7530723 0.1392563 -6.9830556
-6.6429691 -0.22080185 -6.9182572
-8.5181885 -0.3251152 -7.1446099
-7.851738 -0.026327506 -6.9711871
-5.8467793 -0.12679958 -6.7564363
-7.7269087 0.18934247 -6.8979688
-8.2684641 0.19496946 -7.0918312
-7.354105 -0.47059068 -6.9538226
-6.2350206 0.59743023 -6.6038113
-8.336503 -0.20296831 -7.0339398
-6.2271767 0.47719273 -6.6397367
-8.5303974 -0.24070863 -7.1046028
-6.8209324 0.44298711 -6.8399906
-8.1414948 -0.30445275 -7.0966372
-6.1370106 0.49254176 -6.6179023
-7.7356706 -0.30406621 -7.0432925
-5.8430586 0.64182717 -6.5968852
-7.6128602 0.1017788 -6.9378562
-7.2302551 -0.25993726 -7.0232329
-8.4302254 -0.24689245 -7.0902109
-8.0324183 -0.16371894 -6.999939
-5.9403553 0.47496396 -6.619472
-6.2134876 -0.24445246 -6.8292823
-8.0400028 -0.24602722 -7.0533867
-8.3426743 -0.2013596 -7.1476836
-6.5288653 -0.22307311 -6.9011626
-8.1569958 0.45392102 -6.8342414
-8.2323551 0.20167287 -6.8969703
-8.2361212 -0.24481383 -7.0799694
-7.2183852 -0.03184719 -6.9072409
-6.9262333 -0.30153227 -6.9379339
-7.4290023 -0.24757458 -6.9873991
-7.0274668 -0.26243153 -6.9922414
-7.2213593 -0.12528905 -6.9515491
-8.8493137 0.16734581 -7.1554623
-7.8361368 -0.24775825 -7.0312929
-6.6447296 0.25952387 -6.738061
-7.5305095 0.16167074 -6.8485732
-7.0211215 0.32170105 -6.8184142
-8.226079 -0.039366674 -7.0253654
-6.7311215 0.49660239 -6.6940794
-6.7068701 -0.034269746 -6.8673882
-7.7743859 -0.3474184 -6.9678922
-7.2403483 0.18581364 -6.8446007
-8.1266661 0.24264821 -6.9261031
-6.7277045 0.2477835 -6.8445621
-8.3301907 -0.28194255 -7.1771135
-6.8212047 -0.30089346 -6.8159585
-7.6146169 0.2260821 -6.862834
-6.9265509 0.47947466 -6.728054
-7.533494 -0.21842472 -7.0339456
-7.941081 -0.24901377 -7.0451298
-8.3408775 -0.24729289 -7.0797729
-8.028615 0.20869119 -6.8747935
-8.3353424 -0.095380589 -7.0125356
-7.9343514 -0.023651721 -6.9758444
-8.1362906 0.21077719 -6.8845944
-6.1479692 -0.12582694 -6.8083754
-8.9067717 0.10230801 -7.1291556
-7.0480309 0.1951029 -6.8279958
-7.7256622 -0.13027139 -7.018558
-6.5404868 0.49514726 -6.6908674
-7.4434261 0.21851784 -6.7754917
-7.0464902 -0.2876662 -6.9619427
-7.7214227 0.20519671 -6.8452039
-6.7327104 -0.24872728 -6.9021192
-6.1554785 0.34970307 -6.660562
-6.2875271 0.45550805 -6.6344619
-7.7307911 -0.24772903 -7.0190549
-8.1148491 -0.26666987 -7.1452103
-6.4372268 -0.26285949 -6.9168296
-7.909411 0.23822826 -7.0387635
-7.0162973 0.17806539 -6.7731242
-5.929327 0.58959389 -6.5606022
-7.5290408 -0.24897288 -6.9998174
-7.5308022 0.19009589 -6.8851795
-8.0228291 -0.31860134 -7.0780516
-6.0432825 0.59458113 -6.5864038
-7.2346654 -0.24926946 -6.9620318
-7.930634 -0.40636495 -7.0842733
-6.332366 0.60560095 -6.6159244
-6.6288724 0.5128774 -6.6719232
-7.7424984 -0.28287652 -7.0941534
-8.6262836 -0.24973992 -7.1194801
-6.9224901 -0.28252068 -6.8245745
-6.2381473 0.63328439 -6.6500287
-7.8661289 0.23764186 -7.0202565
-6.4288864 -0.2225731 -6.8881583
-8.6098394 -0.13649088 -7.254014
-7.1332927 0.20563619 -6.7546434
-6.1298561 0.64365351 -6.6308255
-7.524581 -0.47914901 -6.9725461
-6.1374464 0.59523046 -6.5918465
-7.1373358 -0.24501197 -6.9482059
-8.101428 0.21994047 -7.0275984
-7.1223993 -0.034925561 -6.8973956
-8.130847 0.19376753 -6.9606919
-8.3148117 0.19225849 -7.0035572
-7.4339228 0.1913062 -6.8761759
-8.2252779 0.19745147 -6.9787846
-7.9248161 0.054946128 -6.9392762
-8.0344839 0.20867343 -7.0279403
-8.5751514 -0.12323131 -7.2574821
-7.7175336 -0.2174543 -7.053082
-8.1244297 0.38399044 -6.9797969
-7.0363889 -0.24278226 -6.9363976
-8.0537863 -0.38769326 -7.005764
-8.3443737 0.21402377 -6.9318514
-7.616828 -0.25837246 -7.0680742
-6.6513934 -0.22081815 -6.794405
-7.8295379 -0.20889184 -7.0679941
-5.8063183 0.12036005 -6.7191916
-7.1350608 -0.2208215 -6.9838729
-6.1334038 0.031758904 -6.7829838
-6.0234976 0.023170885 -6.7706461
-6.2185163 0.27512991 -6.6910076
-8.1383305 -0.20808651 -7.1237822
-6.1528864 0.27778381 -6.6954408
-7.6240907 0.063699417 -6.9013157
-8.1421633 0.10297494 -7.0378079
-8.1126499 0.04039064 -7.0414667
-6.8375025 -0.26638004 -6.9592028
-6.2281218 0.66488194 -6.6104255
-7.9422245 -0.46042833 -7.0395331
-5.9411893 0.6452899 -6.5967178
-8.0391026 0.11607951 -7.009357
-8.1645155 -0.02643054 -7.0013742
-7.6285448 0.19293332 -6.8937478
-6.255867 0.039768897 -6.8072271
-6.2267694 0.16259475 -6.6909838
-6.6325941 0.2058467 -6.7900529
-7.6758642 0.024548301 -7.0138206
-8.7904415 -0.082975619 -7.2121263
-7.7180052 -0.17631754 -6.9585333
-6.7033587 0.1325743 -6.7758527
-6.5432491 -0.24362384 -6.8720288
-6.3005552 0.17847997 -6.7425437
-6.7226124 0.37266657 -6.7194996
-7.8284559 -0.16006698 -6.9872689
-7.9772625 -0.2303443 -6.9386473
-6.7252889 -0.11395346 -6.8828878
-6.0692358 0.12821043 -6.7440243
-7.9401603 0.13070056 -6.9822726
-6.6993604 0.45679101 -6.6616135
-7.0322657 0.50514984 -6.74226
-6.2128353 0.36192119 -6.6578374
-6.4097152 0.14188397 -6.7072573
-6.6320276 0.38129961 -6.6977854
-7.1326895 -0.2593725 -7.0020046
-6.2439885 -0.13356611 -6.8398442
-6.2386904 0.10348871 -6.7674146
-6.4376698 -0.24478336 -6.8596759
-6.7240963 0.20371495 -6.7855544
-6.2501945 0.18905856 -6.7368212
-7.9672627 0.21412945 -7.1046596
-7.8379364 0.22622168 -6.8924904
-6.7922969 0.27744162 -6.7453341
-6.5304852 -0.26314288 -6.9172139
-7.3350477 0.22987774 -6.8273482
-6.3366699 0.27002788 -6.717226
-7.2240415 0.10456708 -6.9158173
-6.8144898 0.47758216 -6.6692052
-6.1342082 -0.025527371 -6.776042
-7.6091375 -0.3755523 -6.9791408
-7.3285065 0.47430474 -6.7290859
-7.6356549 -0.13463993 -6.9964185
-6.1500387 0.09342999 -6.7526646
-6.6758466 0.2694461 -6.8080087
-6.1419497 0.16682853 -6.7244678
-6.6432753 0.015608153 -6.8756905
-6.1372237 0.31779182 -6.7097015
-6.6504006 0.23843786 -6.8641281
-6.6428714 -0.23922467 -6.8826785
-6.6410527 0.12332561 -6.8536873
-6.7981663 -0.18191713 -6.875082
-7.94175 -0.37306029 -6.991333
-6.3278632 -0.26126671 -6.8991613
-7.5334287 -0.023129586 -6.9364953
-6.2064095 -0.026618991 -6.78266
-7.5439715 0.11028907 -6.9191399
-6.4613037 -0.066923223 -6.8033538
-8.7504339 0.080571495 -7.1155767
-8.2503691 0.017972883 -7.0675697
-7.6445951 -0.16142841 -6.9598951
-5.740881 -0.12138136 -6.7601242
-6.0592766 0.23170426 -6.7456121
-6.10886 0.44862109 -6.5760126
-8.3056974 0.065408669 -6.9900985
-6.3185759 -0.11407066 -6.8252778
-8.0017872 -0.020929703 -7.0003347
-8.1163235 -0.38468027 -7.0316491
-7.1846089 0.29787818 -6.8593163
-8.6439905 0.019736983 -7.1145339
-7.0271125 0.38048342 -6.7442646
-9.1524677 0.23238297 -7.1713948
-9.6203051 -0.15626064 -7.3566747
-6.9370198 0.33208293 -6.7390985
-9.0315418 -0.087831028 -7.2643023
-9.5563517 -0.18133324 -7.3669286
-8.9701214 -0.083736837 -7.2269402
-8.4369135 -0.069980681 -7.1552253
-9.2047472 -0.081965826 -7.2590027
-8.7422009 -0.0090104351 -7.1584473
-9.1548586 -0.081908047 -7.2662287
-8.4408188 0.24674973 -7.0482483
-8.872611 0.1505114 -7.0078115
-7.8595572 0.33390298 -6.9493165
-9.1506252 0.044612389 -7.1502357
-6.5526023 0.36090061 -6.6936984
-6.5547795 0.099826902 -6.8315282
-8.077487 0.32775301 -6.9501686
-8.332757 0.32368389 -6.9846807
-8.8413668 0.30886853 -7.0628877
-8.5213957 -0.091692597 -7.1786551
-8.3867397 0.32055426 -7.01402
-7.7851543 -0.081783436 -7.0671101
-8.701086 0.29085597 -7.0577488
-9.0524521 0.26456305 -7.1151557
-9.1545887 -0.038726997 -7.21068
-6.4324436 0.44637698 -6.6427503
-6.737124 0.38641453 -6.753561
-8.4753323 0.023466764 -7.0907745
-5.9771547 0.42112148 -6.6609874
-6.1404114 0.4049198 -6.6576724
-7.5258155 -0.07344269 -6.88552
-5.8024831 0.39620131 -6.619658
-9.1611986 0.26015067 -7.1060495
-7.4513927 -0.10361905 -6.8970695
-8.2444973 0.1361074 -6.9364963
-8.5189924 -0.18246658 -7.101028
-7.1408825 0.50654703 -6.7634177
-8.0222197 0.024515159 -7.0569839
-6.731266 0.26814014 -6.7653432
-6.7248402 0.0086950511 -6.9056296
-7.2335534 0.042951025 -6.8703365
-7.0610213 0.38078251 -6.7902966
-6.8162584 0.51714516 -6.7014623
-7.577457 0.45021659 -6.8104944
-7.5112896 0.22864076 -6.9576287
-7.0962396 0.32198089 -6.7595534
-6.2761812 0.32079974 -6.7986012
-7.9226503 -0.25932658 -6.9503741
-6.5405025 0.0187614 -6.8789043
-8.1724815 -0.31947428 -6.9614167
-6.4547772 0.28473708 -6.7275057
-5.7473369 -0.19583116 -6.7714615
-7.456563 0.41872528 -6.767199
-9.3120022 -0.046609115 -7.2856607
-6.746881 0.53829569 -6.7820449
-8.9412823 0.018319635 -7.1111345
-8.707653 0.074904718 -7.0775995
-8.5215902 0.24900073 -6.9742808
-7.6498508 -0.038545545 -6.9497705
-7.3371158 0.16120209 -6.8246145
-6.0415325 0.63380522 -6.6211476
-8.436142 0.03283279 -7.0531988
-7.3335147 -0.26399028 -7.0485401
-6.7333217 -0.26279253 -6.9526267
-7.4132786 -0.27402565 -7.0512753
-8.78409 -0.052843206 -7.1536164
-7.3863554 0.31946903 -6.8034792
-7.628345 -0.24827446 -7.0076313
-8.9540319 -0.11171665 -7.1906481
-6.448595 0.21437158 -6.6609039
-7.344727 -0.18546307 -6.9295168
-7.1309676 -0.12018096 -6.8782086
-7.430377 0.1553013 -6.8320966
-7.3545146 -0.14247589 -6.9505367
-6.6004443 0.076505579 -6.80054
-7.2383614 0.15050656 -6.8195243
-7.6032019 0.21837823 -6.9673901
-5.9611211 0.15144938 -6.7159467
-6.2215576 0.39855111 -6.6734838
-7.8241596 -0.27790409 -7.108397
-8.3182144 -0.051471755 -7.036901
-7.5578046 -0.3973771 -6.9403553
-8.340229 0.25484633 -6.971067
-7.8246393 -0.13251179 -7.0138555
-8.0237408 -0.27005661 -6.9646573
-7.3373551 -0.24691679 -6.9771643
-8.5251303 0.45274943 -6.95225
-8.2274094 -0.36988172 -7.0420752
-8.6039524 0.37422967 -6.9683542
-7.3787313 0.37610593 -6.7920141
-6.8181992 -0.29784492 -6.9392834
-6.3166575 -0.28343102 -6.8718319
-6.631392 -0.28623754 -6.9118891
-6.400774 0.41681027 -6.7118592
-7.4502912 0.23489764 -6.9650655
-7.3646579 0.23633923 -6.9260726
-8.6126633 0.028207147 -7.2184219
-7.5443702 0.21293476 -6.807271
-8.5773468 -0.064897545 -7.0819921
-7.7096977 0.46109289 -6.7968683
-9.1609011 0.10853885 -7.1477709
-8.0200558 0.078868508 -6.9531131
-8.444953 -0.47871524 -7.1201186
-9.0688353 0.25152823 -7.0682492
-8.2866793 0.44153467 -6.895587
-7.7434335 0.21753927 -7.0308228
-7.5252666 -0.30869856 -6.9130831
-5.9263258 0.14742574 -6.6655436
-7.7228971 0.22925849 -6.8763261
-5.9670668 0.43090078 -6.5730624
-8.2882004 -0.086350098 -7.140522
-6.4476032 0.047804613 -6.7753754
-7.3414764 0.21501508 -6.7777247
-6.6373167 0.41606733 -6.7137442
-6.9331632 0.38357538 -6.7904539
-9.3385096 0.079506248 -7.1561365
-7.4386415 -0.15157725 -6.9274683
-7.6974006 0.41917941 -6.8419971
-7.1944771 0.27194276 -6.7861848
-7.1471481 0.40617836 -6.8035026
-7.5284486 0.23439619 -6.8469548
-7.630331 0.46969309 -6.7666421
-8.4142952 0.28225955 -7.002563
-7.4316864 0.22151461 -6.8407078
-7.1231694 0.2731353 -6.8184938
-7.830358 -0.31068093 -6.9600391
-7.7927427 -0.25973916 -6.8886299
-8.5266209 -0.097088709 -7.1318851
-6.8385854 -0.24494864 -6.9059362
-8.5640984 0.37309569 -6.9654813
-5.6172633 0.59358549 -6.5371056
-8.0336456 0.16279605 -6.9050403
-8.0512552 0.23971434 -6.9218879
-8.2352686 0.26290321 -6.9371595
-9.0373716 -0.025110418 -7.177587
-9.1384516 0.19993711 -7.1493192
-7.6333132 -0.21806338 -7.044714
-8.2305813 -0.20171663 -7.1204557
-8.0325298 -0.20812123 -7.095726
-5.8406539 0.58563638 -6.5541558
