# .PCD v0.7 - Point Cloud Data file format
VERSION 0.7
FIELDS x y z
SIZE 4 4 4
TYPE F F F
COUNT 1 1 1
WIDTH 722
HEIGHT 1
VIEWPOINT 0 0 0 1 0 0 0
POINTS 722
DATA ascii
13.464386 42.180519 18.942909
13.708504 43.061813 18.857874
13.764701 42.823544 18.896257
11.917638 43.195793 18.788733
13.426602 42.148193 18.915663
13.628957 42.163933 18.91061
13.702286 43.044537 18.829441
13.401706 43.516766 18.814528
15.037451 43.15937 18.654942
10.786942 43.422989 18.897633
11.874515 43.688255 18.768366
10.90529 43.426159 18.880459
12.03124 43.380749 18.687767
13.505961 43.137115 18.99214
11.851474 43.493259 18.763121
11.919434 43.561863 18.802265
13.396954 43.662861 18.78322
13.501157 42.133026 18.878443
11.177876 43.598537 18.729845
13.804857 42.912388 18.784088
13.698968 43.288258 18.703054
13.893685 41.980976 18.815542
14.748484 43.204136 18.599831
12.609992 43.301319 18.756851
13.883387 42.240402 18.801926
13.801923 43.039555 18.786283
14.766726 43.205975 18.64455
13.874212 42.509361 18.813078
13.889932 42.103394 18.840273
12.613379 43.570171 18.697855
12.201316 43.011707 18.855688
13.715693 42.459507 18.823496
10.662298 43.438347 18.922756
13.973444 41.955128 18.926203
12.521856 43.578434 18.791388
11.485497 42.78405 19.035027
11.573017 42.785931 19.015856
12.73301 43.452156 18.919149
12.559759 43.030121 18.864424
11.600726 43.43288 18.839285
12.978691 43.668499 18.780642
12.879981 43.60281 18.841749
11.746641 43.030827 18.890652
11.803961 42.915062 18.878061
13.293737 43.646156 18.814821
12.481184 43.313911 18.89768
13.444463 42.306129 18.955915
15.296008 43.44104 18.588991
14.335953 42.986588 18.752159
12.851287 43.018322 18.841709
14.055327 43.626064 18.784777
14.150092 42.142601 18.90793
11.476433 43.279392 18.947802
13.885675 42.325378 18.809912
11.995095 42.9119 18.857323
11.704511 42.769478 19.103798
14.441641 43.666924 18.65897
11.873996 42.886066 18.892006
14.598407 43.148357 18.764528
12.399423 43.478874 18.773876
14.865948 43.189804 18.644714
12.084756 43.350098 18.79653
14.096498 42.336121 18.913332
12.307829 43.415833 18.884361
14.397619 43.123478 18.794207
14.099423 42.029915 18.917294
10.690875 43.321049 18.938702
15.078354 43.053871 18.652033
13.930742 42.115639 18.905907
14.153827 43.143044 18.855022
13.702645 42.610035 18.867319
12.478305 43.357609 18.772055
13.402448 43.425915 18.711365
14.253673 43.12867 18.810146
14.242669 43.124058 18.868547
13.595281 43.348053 18.692017
13.583753 42.159512 18.93516
13.694291 42.140835 18.91939
13.720035 43.584286 18.797527
13.907871 42.265083 18.861853
14.296324 43.413696 18.568777
13.679928 42.30526 18.890366
12.426743 43.543396 18.729309
13.617494 41.955849 18.915619
12.394663 43.410763 18.680584
13.782039 43.57439 18.735218
12.389978 42.996746 18.86562
14.679429 43.189064 18.663202
12.254558 43.583843 18.820923
13.968305 42.367668 18.894915
13.820492 41.959324 18.87652
13.402439 43.248508 18.845894
12.197939 43.356251 18.79438
13.452154 42.485641 18.902157
13.504807 43.546284 18.846422
13.372862 43.609013 18.843233
13.510846 43.256599 18.819921
12.252922 43.461029 18.78615
11.287355 43.216393 18.796112
13.600051 42.273041 18.925196
11.696349 43.299496 18.805523
11.787443 43.347832 18.820017
13.579374 42.118073 18.916609
14.689402 43.524517 18.556334
11.790874 43.299656 18.802267
11.381907 43.350876 18.843534
13.683318 42.399208 18.867002
13.670928 42.096367 18.921202
13.634913 42.402981 18.89027
12.457737 43.58773 18.707712
13.816191 43.153625 18.759159
12.390264 43.30975 18.90863
13.873 43.133636 18.72979
11.388883 42.826942 18.902271
14.047991 43.217255 18.620232
10.803473 43.348995 18.862158
14.946905 43.011871 18.639757
12.391274 42.823097 18.8442
13.85767 43.038456 18.787752
13.782166 43.429264 18.791296
12.196244 43.287811 18.777981
12.081224 43.301563 18.773819
13.593006 43.12801 18.826061
12.32315 43.079144 18.868189
11.975609 43.289906 18.783216
10.790286 43.335243 18.93512
10.984342 43.290997 18.82645
13.685451 41.961937 18.897612
12.292258 43.30085 18.778257
11.591068 43.290478 18.812288
14.793949 43.431736 18.549578
12.179669 43.596851 18.76123
11.503849 43.300343 18.820028
13.457349 43.026608 18.83367
11.599003 43.526463 18.848099
12.018767 43.444763 18.791346
13.486665 41.957928 18.939966
14.088109 43.110764 18.860994
13.127081 43.09676 18.772123
13.371595 43.000778 18.830276
11.389325 42.760502 18.874949
11.497938 42.758732 18.875458
13.778573 43.255497 18.813482
12.45429 42.918804 18.848339
11.797974 43.485714 18.967741
12.07003 43.51017 18.97415
11.579353 42.982216 19.022598
11.558831 43.494778 18.962492
11.388796 43.289524 18.821856
11.536754 42.97451 19.037336
12.58859 42.907593 18.840651
13.305206 43.607166 18.780079
14.063323 43.137737 18.834929
13.572212 43.576832 18.750147
13.712181 42.900875 18.788092
13.977216 42.591187 18.876064
11.684635 43.349239 18.821955
13.972141 43.419384 18.813929
12.751272 43.408485 18.885942
11.171162 43.420902 18.918446
14.694168 43.265709 18.622581
11.581247 43.423027 18.924366
11.306101 43.430405 18.937984
12.091623 43.421303 18.891064
14.088585 43.249779 18.807959
12.910795 43.423199 18.854849
11.79007 43.412716 18.891588
11.485658 43.441395 18.9298
11.676662 43.42556 18.927002
13.532237 43.384514 18.843134
12.406585 43.393219 18.87286
12.00333 43.422981 18.915638
12.672783 43.408524 18.885023
12.155341 43.409481 18.901159
12.977608 43.38895 18.860859
11.922439 43.426258 18.898481
11.352527 43.414322 18.914234
13.484059 42.209373 18.993355
13.989114 43.303726 18.816999
13.17367 43.41016 18.859653
11.188177 43.352314 18.847591
12.014239 43.685966 18.787552
11.089757 43.360336 18.852884
11.07639 43.300327 18.841108
11.371464 43.270374 18.970982
12.711094 43.245693 18.889437
11.288545 43.357201 18.848841
13.872345 43.432297 18.824377
13.198443 42.911423 18.895298
11.887424 43.284584 18.794775
13.97121 42.497627 18.766115
12.454775 42.982376 18.786343
13.465345 42.981361 18.859785
13.9811 43.254108 18.818207
13.183582 43.279343 18.783222
11.880307 43.344711 18.812572
11.484859 43.350754 18.834364
13.876801 43.276733 18.675919
13.909336 41.958618 18.90546
12.379677 43.357334 18.782423
14.369127 43.403011 18.781839
13.669136 43.390717 18.820644
12.271901 43.574417 18.741005
11.281883 43.291061 18.826183
13.878241 43.482258 18.612925
13.431458 42.394623 18.938126
13.587112 43.685608 18.794287
13.455523 42.326981 18.943398
14.208035 43.398609 18.780376
13.636429 42.401394 18.795731
13.786027 43.405014 18.865921
13.584105 43.421787 18.830753
14.454141 43.421394 18.652657
14.106411 43.287117 18.655432
12.882299 43.695419 18.734112
14.961903 43.325226 18.761843
14.100252 43.362362 18.674242
13.600228 41.838959 18.905045
12.81253 43.301277 18.742598
13.785978 42.825161 18.751467
13.252942 43.195435 18.964918
13.586454 43.291531 18.706877
11.488078 42.826035 18.898285
14.234576 43.016422 18.680101
13.796952 42.743176 18.795412
14.188197 43.268391 18.721359
12.389034 43.327145 18.834492
12.986443 43.549175 18.786722
12.470614 43.671307 18.735004
12.282557 43.35265 18.784695
11.587299 43.343163 18.831217
11.076584 43.454762 18.822653
14.287374 43.249649 18.791271
11.788932 42.827408 18.884787
11.18748 42.826283 18.910778
13.093209 43.264755 18.844601
12.78639 43.358994 18.755711
13.29119 43.325558 18.787731
12.986756 43.353004 18.755495
12.677855 43.69709 18.730209
11.398824 43.154755 18.87409
12.886606 43.322052 18.8092
14.157842 43.015549 18.765581
13.598673 42.078686 18.882332
13.256933 43.488316 18.675127
12.822784 43.064201 18.846573
12.983891 43.278439 18.794289
14.890851 43.235279 18.77561
13.785043 43.488537 18.743572
10.987536 43.349174 18.855997
13.157662 43.63839 18.839155
13.204319 43.313797 18.853716
15.198891 43.554295 18.745602
12.910299 43.30645 18.755957
12.884446 43.280014 18.803902
11.18654 43.301334 18.830017
13.890523 43.667355 18.751125
11.595868 43.30682 18.958479
12.964783 43.477489 18.730614
11.986213 43.31741 18.944147
14.472045 43.279919 18.644552
12.476064 43.294846 18.769644
14.893995 43.527702 18.777786
12.987967 43.323296 18.805943
14.185212 43.253769 18.798111
13.693408 42.881668 18.839195
14.688145 43.100517 18.779507
13.488234 43.277046 18.764376
13.885826 43.322273 18.759226
13.185521 43.321278 18.792994
12.403378 43.144718 18.763952
13.887478 43.301067 18.827911
12.777744 43.426853 18.766449
12.210483 43.158894 18.74781
12.312292 43.312393 18.927437
12.791119 43.294712 18.882202
11.82301 43.708496 18.743113
14.347458 43.706314 18.750393
14.488168 43.263412 18.706007
14.47707 43.241627 18.772013
11.665015 42.892033 18.950424
11.284344 42.822392 18.908371
14.790271 43.268394 18.605417
14.493332 43.317448 18.794106
14.68383 43.258713 18.69315
11.827523 43.054317 18.831217
14.877731 43.252533 18.608711
13.287855 43.276367 18.783918
13.889668 42.823284 18.750845
14.123193 43.48782 18.920137
14.088897 43.263977 18.732494
14.824409 43.525024 18.836557
14.48877 43.349403 18.643095
11.88478 43.327126 18.942785
13.088739 43.416603 18.885193
14.786043 43.34433 18.707937
10.892198 43.352833 18.864538
13.486609 43.323467 18.781452
13.98622 43.266052 18.740818
13.666306 43.257565 18.830219
12.673546 43.298946 18.749672
11.584975 43.275955 18.94347
12.515609 43.260448 18.890244
11.5875 43.282276 18.868076
11.680482 42.75621 18.920965
13.671507 41.849201 18.895807
11.390087 43.281811 18.87949
11.183703 43.285538 18.885042
12.075846 43.285248 18.838633
13.886756 43.262981 18.810724
11.581871 42.765903 18.878042
14.291591 43.298069 18.804893
11.763369 42.720901 18.98888
14.228038 42.276207 18.765951
12.189403 43.32515 18.846029
11.668091 42.697109 19.011009
12.875621 43.292934 18.883244
13.092209 43.324493 18.799578
11.588082 42.823071 18.894901
13.678484 43.329067 18.825867
13.876103 42.167458 18.866314
14.188363 43.309105 18.811501
13.799546 42.164051 18.850794
14.238811 43.486172 18.785564
12.28875 43.327122 18.841415
11.494267 42.751892 18.932951
13.096806 43.486336 18.939009
15.293997 43.288063 18.584394
12.78819 43.258591 18.870867
14.904418 43.489609 18.798178
14.314848 43.591549 18.693012
13.394082 43.483803 18.899504
14.849627 43.168991 18.755962
12.596468 43.559925 18.783958
10.896881 43.333462 18.915245
12.670473 43.55463 18.724672
14.081748 42.886913 18.832109
11.187093 42.806496 18.970303
14.275787 43.142353 18.659657
14.391241 43.313049 18.786789
14.129595 43.066437 18.775669
13.181247 43.261513 18.851963
15.189359 43.446152 18.722647
13.770407 43.297764 18.816683
15.083083 43.449486 18.746708
14.584282 43.327133 18.725616
13.684479 43.327827 18.771852
14.57709 43.269386 18.634912
11.692792 42.8988 18.907574
13.476944 43.07246 18.871536
14.589952 43.410763 18.75564
11.986194 43.347923 18.806913
15.276592 43.446049 18.665558
13.280355 43.419422 18.743876
14.358404 43.069889 18.760088
13.651434 42.446419 18.89859
11.289518 42.764919 18.87875
14.956514 43.405125 18.71278
13.541106 43.480988 18.96703
13.895443 42.491356 18.925991
14.894358 43.256737 18.674635
13.197866 43.184853 18.749302
13.605765 43.259392 18.84042
15.252878 43.239414 18.628321
13.992211 43.073608 18.885233
10.903279 43.274818 18.905783
14.700693 43.295803 18.778725
14.283033 43.466888 18.682178
14.204932 43.652985 18.736498
14.882253 43.567352 18.662769
14.788449 43.3111 18.777845
12.882419 43.341423 18.752993
13.987394 43.325581 18.757444
13.286791 43.24464 18.850569
13.475776 43.313919 18.840847
13.484211 43.296646 18.707912
11.379688 42.758072 18.935686
11.592922 42.8885 18.952694
14.178683 43.407715 18.841637
12.691113 43.313477 18.881002
12.487546 43.323917 18.833458
11.36189 42.765354 19.050041
12.375791 42.878838 18.930773
11.783791 43.322727 18.958372
11.592348 43.332375 18.881357
11.791958 43.282703 18.860565
11.383348 43.336266 18.894114
14.779321 43.258335 18.686903
11.786893 43.328819 18.873575
12.790206 43.280087 18.8081
12.789272 43.324776 18.816242
11.890063 43.284225 18.850929
13.985996 42.808098 18.80826
13.571808 42.600475 18.878325
11.989322 43.283707 18.850235
11.486889 43.332737 18.886568
11.868631 43.464836 18.825233
13.384464 43.291859 18.699072
12.088667 43.328888 18.851364
11.68174 43.286839 18.861427
11.295014 43.283531 18.882917
11.983575 43.328426 18.856419
11.684914 43.33284 18.874334
12.588633 43.323875 18.828537
13.386263 43.32045 18.786068
10.989574 43.333282 18.916285
12.689254 43.326763 18.820641
14.096838 43.317814 18.817299
11.410033 43.29929 18.955833
11.885215 43.329472 18.858435
13.384496 43.275154 18.768486
11.28788 43.338055 18.89892
14.168801 43.495029 18.910858
11.090317 43.343906 18.910883
12.688601 43.277523 18.815994
12.97887 43.302071 18.866287
12.574911 43.489773 18.944994
14.591098 43.263771 18.696606
12.675216 43.577835 18.768078
14.966856 43.277809 18.608669
14.383765 43.263142 18.714249
11.675526 43.190369 18.855843
13.787379 43.271465 18.755722
12.18375 43.281837 18.837122
12.582289 43.28083 18.820295
13.60148 43.321404 18.848015
14.981586 43.255474 18.660475
12.576221 43.324913 18.909937
13.977717 43.402428 18.847094
12.58824 43.417183 18.896553
13.890481 42.810516 18.809649
11.089189 43.287876 18.891048
11.975618 43.246674 18.916201
13.281399 43.350285 18.718252
11.190053 43.339153 18.904575
13.090045 43.280655 18.792696
13.414111 43.173256 18.949194
15.175276 43.494678 18.814089
11.483862 42.808468 18.949711
14.290129 43.264641 18.727461
13.989828 43.562019 18.80299
11.685822 42.810944 18.934071
11.480824 43.285709 18.870258
12.902129 43.23687 18.863102
12.32754 43.223721 18.915447
13.305078 43.318356 18.854265
12.295835 43.281609 18.833752
14.788269 43.248226 18.767576
14.388887 43.246693 18.780981
13.687794 43.27256 18.758064
11.792535 43.474976 18.80423
12.48985 42.83054 18.839336
11.689392 42.824566 18.889387
13.204129 43.343864 18.734152
13.786124 42.812874 18.815584
12.391028 43.280445 18.827381
13.075828 43.356586 18.735882
14.882553 43.418629 18.692781
14.281934 43.286575 18.656738
13.868798 42.74416 18.797041
12.896978 43.475979 18.910366
13.085837 43.285828 18.88328
14.194833 43.336761 18.660059
12.984074 43.269051 18.879547
13.979077 43.282368 18.674627
14.01084 43.523251 18.881897
12.393921 43.30558 18.779989
12.389202 42.80888 18.889055
14.580982 43.33926 18.642849
14.079689 42.808887 18.805799
13.814445 42.630966 18.797506
13.893866 43.533638 18.714998
14.490942 43.324287 18.734341
14.291881 43.3214 18.744513
13.526671 42.10976 18.901178
11.698544 43.429691 18.831295
13.088977 43.126984 18.871561
13.284939 43.282578 18.707586
12.102471 43.140949 18.828886
12.061568 43.300087 18.914734
13.66706 43.585682 18.775316
12.487533 43.282993 18.823437
13.673922 42.165703 18.900089
13.825067 42.096474 18.844385
11.704166 43.031273 18.924608
14.402543 43.287022 18.642183
11.892366 43.257744 18.942619
11.383332 43.481827 18.842964
13.49298 43.437843 18.874977
14.873311 43.395275 18.784695
13.07061 43.29628 18.723171
13.991096 42.901703 18.843252
12.178669 43.305866 18.909033
14.185278 43.282612 18.655689
14.187541 43.166138 18.785841
12.881175 43.542088 18.797617
13.389566 43.137444 18.835215
13.939159 42.568909 18.783733
13.791319 43.351639 18.6957
13.339948 43.399521 18.867619
14.599036 43.388126 18.792282
14.573016 43.309917 18.77372
13.140824 43.020573 18.983805
13.88134 43.38501 18.86627
14.778845 43.38287 18.774254
13.987288 43.120461 18.825678
12.905165 43.137882 18.865463
13.798585 43.108894 18.793346
13.893549 43.119019 18.805147
13.584946 43.272701 18.762888
14.397719 43.184856 18.698002
14.479063 43.370926 18.839245
13.285841 43.12923 18.843103
13.706158 43.334496 18.705662
13.721274 43.438007 18.651655
13.490241 41.83881 18.908625
13.589962 43.047451 18.814966
13.694139 43.688965 18.750959
14.104925 42.906372 18.73418
14.451067 43.148628 18.772745
13.709946 43.406731 18.881004
14.45273 43.033073 18.74011
11.653386 42.7547 19.013365
13.38023 43.309032 18.851578
12.86625 43.492443 18.945175
13.882849 43.271873 18.741402
13.491755 43.115421 18.844498
13.204885 43.295631 18.730612
13.884873 43.085339 18.92074
11.770922 42.896893 18.951189
14.402779 43.34399 18.64699
15.110999 43.290398 18.597063
13.30967 43.066265 18.935949
12.230803 43.26878 18.905127
10.784959 43.273148 18.924337
14.077143 43.164589 18.71204
13.40979 43.458908 18.86729
11.619985 42.84367 19.067385
11.669671 43.330265 18.954483
14.683414 43.338688 18.63876
15.070176 43.36573 18.621117
12.680657 43.350521 18.767246
13.004993 43.303543 18.7285
13.592055 42.997154 18.872318
15.374077 43.369308 18.702204
13.071237 43.435116 18.837271
13.870364 42.910671 18.761707
14.278624 42.893215 18.802725
13.13181 43.006058 18.832581
11.586699 42.80859 18.942785
15.103411 43.266678 18.659969
13.173429 42.980171 18.916771
11.289265 42.809193 18.965725
11.384045 42.807674 18.957359
11.489945 42.88485 18.959696
11.791465 42.811424 18.92531
11.881059 43.063236 18.834404
11.40253 42.898476 18.987726
14.394913 43.395538 18.831217
15.233595 43.251961 18.72867
13.109833 42.957005 18.942829
13.961473 43.658195 18.770338
12.55269 43.457932 18.927723
13.794937 42.496204 18.823505
13.559304 42.462006 18.887882
13.594757 43.634396 18.838232
13.827535 42.35849 18.806267
14.288497 43.387997 18.859783
13.192232 43.412941 18.893244
12.271276 43.13916 18.857365
14.773559 43.349323 18.624218
12.609171 43.129974 18.8584
13.686774 43.130703 18.825233
14.584312 43.245922 18.773161
12.460019 43.178715 18.883152
14.980241 43.252628 18.746634
14.896347 43.342407 18.627934
13.794101 43.298157 18.687298
15.486398 43.29063 18.541395
13.880287 42.613514 18.803839
12.072707 43.252388 18.914722
13.585606 43.425198 18.870134
12.681757 43.417896 18.780643
11.992814 43.586189 18.818756
14.094861 43.393379 18.871399
13.784613 42.905613 18.846964
13.896059 42.897972 18.852217
12.186858 43.445259 18.958269
13.58772 43.323013 18.777218
14.183055 43.325863 18.745184
14.698142 42.911671 18.718302
14.981596 43.340607 18.709682
14.384867 43.330158 18.728554
13.892226 42.588402 18.868954
13.405739 41.827106 18.909748
14.088305 43.325825 18.759193
13.206107 43.559746 18.771275
12.783945 43.57048 18.769262
14.887957 43.332687 18.700987
14.684123 43.325291 18.728388
13.783756 43.328026 18.766796
14.681847 43.256699 18.763769
13.543168 43.471386 18.64131
13.282221 43.42342 18.889774
14.9819 43.319962 18.627052
12.993604 43.428944 18.894152
12.567871 43.269913 18.890934
13.807323 42.318123 18.830637
11.570455 42.747585 18.934662
12.451488 43.42963 18.84515
14.297949 43.350277 18.656969
13.869028 42.397964 18.833294
11.977331 43.631901 18.797626
11.781271 42.754299 18.92557
13.394719 42.97876 18.885876
11.277496 42.883595 18.974123
13.08267 42.887928 18.888386
12.484876 42.811295 18.881184
13.779865 43.731396 18.790731
11.787575 43.2775 18.929859
15.178354 43.344303 18.702082
14.677851 43.456276 18.655478
10.986497 43.286964 18.904528
15.2147 43.245441 18.640406
15.091625 43.347771 18.707533
13.816331 42.018833 18.842218
13.773318 42.551781 18.803862
13.784102 42.593567 18.83168
13.73682 42.025623 18.863512
12.596922 43.450157 18.762526
12.193807 43.473927 18.793959
13.784965 43.671314 18.756166
12.211379 43.079208 18.81686
12.582981 43.360062 18.768724
13.385324 43.346771 18.716961
13.814605 42.318855 18.854704
12.195192 43.562939 18.791132
13.981157 43.341312 18.686579
12.225743 43.107983 18.834614
13.493441 43.355644 18.721773
14.936048 43.012993 18.67387
12.122318 43.459396 18.804327
12.032752 43.631653 18.756613
12.084964 43.592678 18.740982
13.993768 42.29509 18.883902
12.039515 43.538544 18.706518
15.489603 43.431915 18.659849
13.889628 43.346394 18.691641
12.639429 43.205009 18.767973
11.520834 43.334549 18.964642
12.300016 43.17997 18.859411
12.963541 43.281696 18.955469
12.516014 43.083794 18.768677
12.601276 43.048374 18.790165
14.887913 42.939125 18.687874
14.01368 42.910065 18.740782
14.981421 43.460922 18.645695
14.86988 43.491337 18.65337
12.120062 43.000732 18.815842
15.282733 43.35638 18.6973
15.168296 43.340019 18.766178
14.787548 42.928368 18.696724
12.661835 43.762924 18.804867
13.615479 43.556515 18.810572
11.481927 42.885284 18.910467
11.576159 42.879112 18.913319
11.166335 43.048317 18.92325
11.755456 42.955097 19.017668
14.711884 43.561707 18.679516
14.789787 43.623402 18.686947
14.582352 43.783573 18.613178
12.954283 43.172543 18.834679
10.775206 43.418285 18.925013
15.411259 43.426746 18.676218
13.531981 43.534309 18.739517
15.061788 43.413998 18.63582
15.18041 43.419506 18.648556
15.469152 43.377724 18.62462
15.306913 43.326294 18.747684
11.804682 43.402515 18.679556
12.673741 43.063946 18.779963
15.491928 43.324127 18.73003
15.34922 43.303028 18.768709
14.099076 42.15284 18.884922
15.10702 43.272949 18.744312
14.030223 43.053204 18.815636
13.978434 43.004013 18.848034
15.256667 43.68084 18.732296
13.910186 43.005371 18.842651
12.413479 43.059143 18.798399
14.063544 43.015671 18.850296
14.905357 43.281914 18.768328
15.168333 43.191303 18.602449
13.990098 42.157902 18.887285
13.797181 43.512844 18.78063
13.928926 43.547718 18.817646
10.822154 43.508717 18.794319
13.920255 42.406921 18.877462
10.983506 43.48595 18.775049
11.015079 43.557743 18.75746
14.01471 41.92284 18.945526
11.152083 43.121494 18.914522
14.178748 42.115532 18.815065
10.999828 43.403717 18.780138
11.151766 43.481297 18.773258
11.087011 43.479519 18.727913
11.152514 43.42614 18.837749
11.29409 43.428146 18.851822
11.135772 43.352802 18.764193
10.862397 43.424099 18.919109
12.909199 43.418159 18.746609
12.283311 42.881672 18.919533
13.3227 43.433254 18.821283
13.286186 43.528702 18.822561
13.383054 42.003185 18.825813
11.482632 43.576118 18.790766
13.32279 41.986885 18.804544
13.334265 42.031967 18.770025
10.987154 43.432564 18.879107
13.514616 42.006618 18.834375
11.412477 43.021038 18.935925
10.997118 43.383396 18.985697
