# .PCD v0.7 - Point Cloud Data file format
VERSION 0.7
FIELDS x y z
SIZE 4 4 4
TYPE F F F
COUNT 1 1 1
WIDTH 552
HEIGHT 1
VIEWPOINT 0 0 0 1 0 0 0
POINTS 552
DATA ascii
35.298878 58.022236 -27.48464
35.483368 58.099293 -27.549538
36.88916 58.514313 -27.869854
35.574059 58.358948 -27.694252
35.858738 58.029297 -27.548403
36.471291 58.297276 -27.693169
35.755676 58.382481 -27.684113
37.220814 58.467228 -27.60454
37.012875 58.274483 -27.727379
39.539181 58.347397 -27.679384
36.807274 58.342903 -27.448624
37.512039 58.421066 -27.512861
38.334625 58.446774 -27.633434
36.777866 58.356598 -27.708096
39.35162 58.337257 -27.673313
36.668102 58.316734 -27.403015
38.111942 58.387417 -27.536493
37.551174 58.421764 -27.635525
36.802967 58.419952 -27.594643
37.074467 58.525097 -27.840166
38.462685 58.451656 -27.905491
35.520706 58.539692 -27.802706
36.305061 58.438389 -27.529953
36.664341 58.201302 -27.698549
36.361229 58.354385 -27.555643
36.629036 58.422737 -27.572603
36.934093 58.439514 -27.580463
35.933823 58.32584 -27.567867
35.350677 58.191872 -27.560665
35.243546 58.373032 -27.507828
34.903004 58.38974 -27.498852
35.560318 58.351871 -27.531828
35.556862 58.436176 -27.551357
35.630905 58.353115 -27.552259
36.641266 58.357136 -27.580231
35.391277 58.186337 -27.470203
35.366531 58.361866 -27.515377
34.832054 58.271931 -27.487335
35.251507 58.237995 -27.458252
35.049175 58.333714 -27.483179
35.85482 58.343365 -27.561253
35.351276 58.301014 -27.531246
35.179268 58.376167 -27.531351
34.981396 58.251652 -27.472599
35.149269 58.440937 -27.57604
35.450558 58.346592 -27.534363
36.0681 58.352066 -27.550428
35.862312 58.243149 -27.60294
36.538723 58.150936 -27.594856
37.853031 58.454773 -27.721842
38.653305 58.467133 -27.797745
36.54533 58.357521 -27.70896
38.806747 58.408165 -27.939129
36.56041 58.360279 -27.638874
37.353161 58.16909 -27.622213
38.747334 58.46162 -27.80518
37.853519 58.157585 -27.645546
36.554169 58.374954 -27.494955
37.531181 57.995289 -27.609518
38.461521 58.461254 -27.790745
39.622158 58.333511 -27.689159
38.451981 58.358925 -27.702293
38.560505 58.463978 -27.794962
38.053574 58.352547 -27.688519
37.833031 58.358513 -27.773853
36.456764 58.355457 -27.637085
38.949577 58.352928 -27.723228
37.951397 58.356003 -27.682867
37.751621 58.362499 -27.680885
36.102173 57.989937 -27.550343
37.752731 58.457214 -27.720768
38.111481 58.365429 -27.777563
36.153454 58.35302 -27.624594
39.35128 58.253014 -27.654959
37.249584 58.361298 -27.659765
38.948895 58.158375 -27.620367
34.988041 58.043808 -27.448284
39.249832 58.164505 -27.625864
36.661037 58.346859 -27.646912
36.40855 58.291088 -27.456642
39.069073 58.367382 -27.899858
35.618023 58.214035 -27.687717
36.056419 58.018658 -27.41568
36.037434 57.903229 -27.474838
35.79866 58.435459 -27.574472
36.046452 57.923717 -27.557045
38.63261 57.980946 -27.633207
36.558971 58.068085 -27.575583
37.15078 58.455463 -27.695419
38.445774 58.452541 -27.742716
37.753479 58.16238 -27.57732
35.448799 58.004425 -27.436911
38.649338 58.359314 -27.716209
36.957512 58.457199 -27.680777
38.351818 58.374237 -27.529243
36.149704 58.011898 -27.41114
35.952908 57.849495 -27.471954
38.452461 58.252399 -27.634632
35.642658 58.226219 -27.424335
36.848694 58.258419 -27.566883
36.81316 58.147999 -27.699068
36.988422 58.142712 -27.712175
36.372368 58.165848 -27.588364
35.571686 58.253933 -27.51038
38.350277 58.174995 -27.658934
35.939396 58.00835 -27.404642
36.636692 58.253189 -27.559458
36.646721 58.268147 -27.61655
36.351295 58.262859 -27.599096
37.356239 58.454811 -27.7017
36.065826 58.268665 -27.538692
36.9543 58.254555 -27.569742
36.550083 58.067028 -27.498047
35.94714 58.161728 -27.51454
36.750923 58.151306 -27.52973
38.849331 58.260372 -27.645147
38.851616 58.269886 -27.691038
38.051987 58.26939 -27.657537
38.274899 58.377281 -27.773119
37.34684 58.342258 -27.60663
36.865353 58.423252 -27.511843
37.245434 58.34515 -27.580534
37.146412 58.375317 -27.585308
37.445389 58.371208 -27.599863
38.065487 58.362186 -27.773588
38.054195 58.16375 -27.64757
37.358738 58.248302 -27.584843
38.451534 58.271156 -27.675673
38.359135 58.343182 -27.793543
36.364933 58.149616 -27.519083
36.248348 58.162804 -27.579426
35.439518 58.064564 -27.447094
37.033501 58.357864 -27.72319
39.151955 58.263393 -27.647604
37.052635 58.452526 -27.688753
35.118279 57.97385 -27.457914
37.057117 58.253887 -27.578985
37.565651 58.168465 -27.638493
36.457054 58.164223 -27.593061
36.008411 57.798512 -27.411295
37.857632 58.446243 -27.618755
38.752083 58.160133 -27.615337
37.849979 58.26963 -27.65214
35.855141 58.174736 -27.515276
37.158478 58.170242 -27.617561
35.961002 58.462582 -27.713726
38.251938 58.267807 -27.667606
38.257965 58.252823 -27.626518
38.939209 58.157196 -27.779873
37.65575 58.164051 -27.576982
37.946281 58.268131 -27.653238
38.05825 58.252365 -27.617327
38.428669 58.185375 -27.797134
37.552113 58.356686 -27.674196
36.089645 58.467133 -27.799019
38.448681 58.346081 -27.797277
37.247875 58.265404 -27.635429
35.650612 58.073418 -27.466005
37.059441 58.164154 -27.615334
37.856655 58.160877 -27.582891
36.755695 58.083649 -27.588852
36.551674 58.15844 -27.521519
37.554409 58.260281 -27.59646
39.181503 58.229683 -27.819746
38.651653 58.248199 -27.636316
35.948959 58.00045 -27.472227
38.054668 58.391674 -27.873129
35.567093 58.06617 -27.44261
38.352108 58.360561 -27.70083
36.080711 58.06274 -27.57251
38.149929 58.170258 -27.654657
36.153648 58.068359 -27.480097
37.675106 58.308098 -27.730377
36.260818 58.25502 -27.549387
39.250488 58.355125 -27.744215
35.643417 58.176849 -27.604818
38.358093 58.467125 -27.785845
36.968464 58.093513 -27.848909
37.554916 58.156109 -27.570145
39.250378 58.260494 -27.651514
35.977699 58.446831 -27.582642
39.048859 58.160667 -27.621473
38.647442 58.269932 -27.681576
37.248051 58.259594 -27.578138
38.757996 58.252144 -27.641113
38.65823 58.338543 -27.637468
39.34845 58.156086 -27.62768
35.761215 58.051849 -27.460535
37.66013 58.10561 -27.620897
36.852436 58.354458 -27.654434
36.755501 58.363914 -27.560375
35.463448 58.141613 -27.413891
36.455616 58.066563 -27.496426
36.450661 58.158104 -27.421034
35.854263 58.17271 -27.584843
37.159264 58.265675 -27.63612
35.187927 58.285061 -27.498652
39.050602 58.250599 -27.649948
37.170673 58.0811 -27.60321
36.253864 58.145149 -27.406898
35.857933 58.169636 -27.438236
37.059349 58.084103 -27.592508
38.953159 58.250046 -27.644039
38.85416 58.360027 -27.724497
38.841297 58.087627 -27.682165
37.00893 58.117863 -27.814548
39.134895 58.270996 -27.563477
39.049549 58.060402 -27.662971
37.156013 58.16095 -27.557362
38.741188 58.093906 -27.661329
36.130531 58.155869 -27.414581
36.946892 58.263805 -27.629143
36.854061 58.267101 -27.623871
39.157471 58.157444 -27.624472
39.249645 58.259167 -27.714197
36.299267 57.917397 -27.485161
38.945751 58.062103 -27.670258
39.170631 58.082829 -27.669649
38.255745 58.462429 -27.790073
39.256741 58.357113 -27.679363
36.656948 58.065987 -27.505735
35.956482 58.067577 -27.477449
38.727077 57.961353 -27.716904
38.65237 58.174561 -27.674026
36.058342 58.055172 -27.478207
36.361614 58.248512 -27.551321
37.352905 58.05629 -27.610046
36.341614 57.997059 -27.558195
38.547638 58.270897 -27.679258
37.66732 58.515564 -27.877172
37.551025 58.263157 -27.645094
36.55138 58.254547 -27.549429
37.272335 58.363808 -27.858379
37.492973 58.012936 -27.600668
37.837143 58.51973 -27.900816
37.852367 58.362057 -27.683765
36.338989 58.16013 -27.422075
37.448982 58.442169 -27.593784
36.154678 58.474297 -27.576813
36.069519 58.140049 -27.424904
38.455677 58.432743 -27.657354
39.276215 58.353405 -27.806931
37.760498 58.173626 -27.639687
37.536625 58.455013 -27.875643
38.150356 58.269974 -27.662603
38.482044 58.203186 -27.759289
35.651855 57.984726 -27.46566
36.864559 58.156944 -27.605278
36.94809 58.166683 -27.598589
37.061737 58.344357 -27.596758
39.144588 58.170963 -27.813116
39.051533 58.169334 -27.679371
37.793007 58.521301 -27.87199
37.952492 58.455582 -27.722742
38.748165 58.266857 -27.68615
36.550243 58.158459 -27.43331
36.749733 58.349586 -27.648863
38.513382 58.065014 -27.747301
36.336246 57.993237 -27.473307
36.449886 57.979927 -27.590315
37.343807 58.471157 -27.753433
37.147717 58.247002 -27.57822
37.862823 58.065048 -27.627844
38.666603 58.062672 -27.657671
35.245525 57.981071 -27.467455
37.458435 58.162441 -27.569309
39.278107 58.284935 -27.79023
35.634872 58.349167 -27.687002
36.86124 58.462467 -27.735939
35.549103 57.997257 -27.435797
36.627758 58.3867 -27.7201
37.759514 58.460079 -27.771383
39.155113 58.356335 -27.739361
38.850845 58.163647 -27.614433
39.460003 58.340279 -27.670176
37.049644 58.360008 -27.660858
37.739117 58.453411 -27.622728
38.253128 58.451599 -27.73185
36.448135 58.159229 -27.526419
36.658604 58.455215 -27.673506
37.751125 58.367821 -27.749853
37.112682 58.259583 -27.495008
36.910084 58.425442 -27.482704
36.862125 58.353947 -27.570274
39.054493 58.341553 -27.663834
37.654613 58.261612 -27.650183
35.872684 57.993229 -27.46101
38.896828 58.198952 -27.83243
36.442501 58.004223 -27.485327
35.381233 58.013363 -27.454514
36.542538 57.998981 -27.500881
37.937912 58.433285 -27.542473
36.145397 58.000835 -27.472462
38.550053 58.247356 -27.632891
36.500294 58.098156 -27.583385
37.768379 58.088707 -27.621426
36.152302 58.028149 -27.596594
36.969067 58.349773 -27.584843
39.4515 58.353642 -27.757042
36.052444 58.001591 -27.467598
37.156029 58.357254 -27.661364
36.259644 58.011673 -27.466251
37.16827 58.440941 -27.591818
37.044411 58.45451 -27.744007
37.044895 58.449738 -27.58128
37.539337 58.081097 -27.616112
36.946918 58.154873 -27.541935
35.879406 58.342331 -27.677341
37.140625 58.472122 -27.745228
35.565956 58.164413 -27.499815
38.357418 58.247257 -27.624336
36.14946 58.459305 -27.712706
35.269363 58.162991 -27.438961
38.859154 58.164318 -27.674965
37.651276 58.357185 -27.674503
38.953918 58.263508 -27.699638
36.251476 58.423729 -27.80158
38.359821 58.295254 -27.933643
38.263653 58.37244 -27.912951
38.565464 58.36433 -27.802471
38.749203 58.354645 -27.809299
38.449425 58.182323 -27.661812
38.149036 58.355427 -27.693319
39.252705 58.166336 -27.687227
35.639606 58.178913 -27.500132
36.324764 58.487034 -27.819777
37.569355 58.460094 -27.758957
34.767967 58.206139 -27.42239
37.255016 58.456337 -27.750847
36.918873 58.084858 -27.729849
34.826561 58.173126 -27.440887
35.762787 58.157494 -27.501497
35.154755 58.174377 -27.451923
37.248478 58.455849 -27.69499
35.423817 58.255634 -27.423834
36.762711 58.254257 -27.475571
36.458637 58.254547 -27.545767
36.752945 58.261944 -27.554121
34.987869 58.479103 -27.547207
37.351784 58.161915 -27.563707
36.646259 58.167912 -27.591038
39.072601 58.150841 -27.776192
38.749474 58.45369 -27.751284
38.153595 58.471539 -27.783846
38.252117 58.357513 -27.697931
36.875309 58.261799 -27.698957
35.083561 58.610336 -27.686562
35.647179 58.465626 -27.622473
35.941387 58.165272 -27.571398
38.150833 58.449635 -27.730349
38.150101 58.245392 -27.623472
38.654373 58.454323 -27.748003
37.752205 58.246765 -27.604704
36.396099 58.343777 -27.477688
38.267693 58.358654 -27.623152
38.647316 58.368755 -27.790047
38.872623 58.324303 -27.891327
38.848637 58.146736 -27.803234
34.763695 58.110992 -27.384481
39.137299 58.379112 -27.844011
37.629982 58.454441 -27.598064
38.835541 58.359104 -27.649401
36.543949 58.37606 -27.553991
37.540432 58.264721 -27.758537
38.73584 58.173855 -27.785076
38.250729 58.250832 -27.818956
38.334183 58.522827 -27.995684
38.73447 58.335167 -27.896568
38.750675 58.172916 -27.673931
38.028236 58.480083 -27.640711
38.625385 58.430183 -27.587982
37.249447 58.202129 -27.773914
37.135475 58.368126 -27.751417
37.171749 58.183144 -27.703451
37.271717 58.352978 -27.753313
39.156162 58.178673 -27.683924
37.247242 58.416939 -27.919226
38.504627 58.218819 -27.876925
36.741192 58.33688 -27.802544
39.351589 58.362862 -27.828594
38.051273 58.242184 -27.764093
37.956612 58.165066 -27.641224
37.886467 58.142403 -27.739134
36.380558 58.447666 -27.726753
35.319485 58.467209 -27.703169
38.530434 58.438183 -27.668272
38.348072 58.357315 -27.639376
38.465702 58.35141 -27.649021
39.35014 58.360081 -27.751715
37.949818 58.252247 -27.617285
36.151672 58.460052 -27.660658
37.753033 58.340473 -27.601515
36.072296 58.421097 -27.505177
38.753155 58.355492 -27.720642
37.532272 58.332359 -27.600428
37.459286 58.357277 -27.671476
37.551109 58.453323 -27.709599
38.350742 58.270218 -27.669321
38.947819 58.342701 -27.801954
36.15007 58.376217 -27.541355
38.552788 58.453033 -27.743315
37.45438 58.469158 -27.750067
37.966404 58.447464 -27.603178
39.1516 58.264084 -27.708183
38.053589 58.470501 -27.783413
37.850334 58.248264 -27.607506
36.749924 58.272034 -27.617701
35.549007 58.351334 -27.617954
35.444973 58.299942 -27.520058
37.654331 58.451488 -27.711859
35.646481 58.359463 -27.6105
36.163509 58.260101 -27.54529
36.160767 58.153027 -27.518351
35.637268 58.236637 -27.523327
35.850845 58.358612 -27.627638
36.8484 58.453602 -27.685947
35.748344 58.465797 -27.625681
35.7589 58.255455 -27.50592
36.553986 58.468418 -27.673561
37.053322 58.16264 -27.552767
35.365837 58.242561 -27.582027
38.0518 58.452747 -27.727924
35.861984 58.464111 -27.707001
36.449818 58.461491 -27.739395
35.953453 58.265774 -27.542784
36.853336 58.155216 -27.544319
36.760208 58.45203 -27.681932
35.540421 58.294655 -27.59531
35.467686 58.45652 -27.605247
37.747288 58.270378 -27.648087
35.849575 58.260983 -27.542818
35.956371 58.443733 -27.647755
37.458755 58.245609 -27.592804
35.342674 58.373951 -27.563135
35.857059 58.453903 -27.648766
36.35537 58.453865 -27.668819
37.354874 58.271053 -27.639208
39.165554 58.361202 -27.668283
38.550457 58.359268 -27.709908
38.548862 58.17783 -27.655943
35.565136 58.46558 -27.619513
38.339432 58.24744 -27.75897
39.375492 58.262478 -27.797979
37.349979 58.355862 -27.741354
36.953369 58.362579 -27.657019
36.659058 58.461903 -27.729733
35.662712 58.47646 -27.716196
35.754135 58.463055 -27.727917
36.75642 58.463741 -27.733089
35.869705 58.540504 -27.751188
36.862686 58.356213 -27.716022
37.25211 58.157185 -27.564207
36.060562 58.163662 -27.505878
36.558693 58.463993 -27.738182
39.051777 58.259193 -27.699551
36.555439 58.263302 -27.614525
36.16325 58.268143 -27.612915
35.579269 58.451622 -27.711882
36.167049 58.343006 -27.716629
36.143242 58.173355 -27.575817
37.652275 58.479862 -27.767382
37.647366 58.181065 -27.639849
36.642403 58.085655 -27.595669
36.250607 58.348812 -27.701197
35.22501 58.338737 -27.673088
36.245739 58.259197 -27.600311
35.221043 58.220764 -27.604954
37.248238 58.177238 -27.623907
35.214817 58.107292 -27.532007
36.455318 58.26886 -27.623516
37.450695 58.174953 -27.622818
36.081745 58.482521 -27.722578
36.05299 58.365295 -27.624292
37.048351 58.264317 -27.629267
36.046017 58.249409 -27.618538
37.838852 58.477558 -27.773462
36.845615 58.061989 -27.588787
36.941814 58.451576 -27.740421
35.981564 58.37051 -27.712025
38.950401 58.172142 -27.67622
35.946449 58.237179 -27.600454
35.965157 58.099674 -27.552807
36.05265 58.377758 -27.703671
35.525139 58.094803 -27.585228
36.046722 58.156998 -27.585148
39.445591 58.25584 -27.669199
38.134933 58.284779 -27.835938
35.942162 58.363327 -27.614717
37.457481 58.449249 -27.705143
39.252804 58.078186 -27.673
36.750648 58.180984 -27.610746
35.454273 58.177631 -27.485495
38.34267 58.1744 -27.837896
35.738201 58.360229 -27.616667
38.950489 58.364952 -27.648544
36.25716 58.063923 -27.489973
35.665409 58.261993 -27.593285
36.463882 58.446018 -27.661161
36.246784 58.351028 -27.62146
35.572601 58.142258 -27.552021
35.461903 58.450569 -27.719786
35.757381 58.251137 -27.596094
36.256268 58.153267 -27.51527
35.392464 58.466484 -27.616808
36.231434 58.462547 -27.713915
36.262409 58.45612 -27.662544
37.531342 58.355572 -27.755207
35.465881 58.264698 -27.626059
37.354843 58.360847 -27.668495
38.569195 58.357231 -27.645863
39.257015 58.287464 -27.548223
38.559666 58.404236 -27.564703
38.060139 58.346386 -27.627151
37.335285 58.466244 -27.621017
38.145214 58.353359 -27.630806
38.755547 58.357681 -27.652008
37.448082 58.268387 -27.64572
35.473213 58.375549 -27.602081
35.770214 58.362736 -27.562351
36.057682 58.458263 -27.657167
37.9263 58.307674 -27.772852
36.324944 58.075397 -27.564852
36.361492 58.357773 -27.632687
38.352303 58.453655 -27.737793
36.654026 58.16156 -27.535948
36.354176 58.068188 -27.494389
39.051643 58.244267 -27.833635
36.241199 58.374428 -27.56452
37.239498 58.086956 -27.605467
37.464291 58.071087 -27.614025
37.955826 58.467258 -27.772764
36.449512 58.356003 -27.706438
36.24498 58.453472 -27.581047
37.653305 58.256107 -27.600079
37.659565 58.342369 -27.615934
37.93914 58.347523 -27.631716
36.542446 58.459084 -27.589611
36.440353 58.373005 -27.559561
37.936115 58.114555 -27.792002
38.21587 58.167683 -27.822695
39.050785 58.360714 -27.73629
38.949093 58.27293 -27.799015
39.054874 58.361752 -27.789288
38.873852 58.356869 -27.8046
39.007668 58.261776 -27.55813
36.978256 58.463028 -27.828333
37.855667 58.355389 -27.614201
39.242645 58.423656 -27.676697
38.062542 58.516083 -27.867136
36.123714 57.91613 -27.474646
38.464355 58.534634 -27.895735
35.995285 57.837334 -27.373453
