# .PCD v0.7 - Point Cloud Data file format
VERSION 0.7
FIELDS x y z
SIZE 4 4 4
TYPE F F F
COUNT 1 1 1
WIDTH 581
HEIGHT 1
VIEWPOINT 0 0 0 1 0 0 0
POINTS 581
DATA ascii
38.203468 97.113457 -37.32317
37.75214 96.966141 -37.232822
37.515656 96.963608 -37.199848
37.650543 98.332748 -37.372707
37.76218 97.496597 -37.427044
37.783844 96.623688 -37.276821
37.722679 96.600777 -37.192921
37.814041 96.612755 -37.211926
37.863564 98.276512 -37.403179
37.723473 98.116257 -37.342075
37.708187 98.356621 -37.370686
38.159676 98.038872 -37.429966
38.04784 96.956856 -37.249851
37.896168 97.029099 -37.230175
37.640991 97.817116 -37.295479
37.438831 98.118225 -37.282501
37.631153 98.157021 -37.31197
37.828094 96.950783 -37.25819
37.90242 97.852547 -37.300045
37.615978 96.978004 -37.208813
37.989853 97.408592 -37.299877
38.176971 97.075386 -37.375359
38.10128 97.288475 -37.344269
38.096954 97.405342 -37.387253
38.100338 97.031715 -37.312332
37.676376 97.194153 -37.437504
37.805092 97.247124 -37.40052
37.081821 98.639877 -37.463623
38.049801 97.236694 -37.432705
37.703011 96.630379 -37.254414
38.109055 97.716919 -37.386562
37.991444 97.279121 -37.272671
38.032784 97.210518 -37.275879
37.892315 97.755379 -37.346233
37.059681 98.362213 -37.404163
37.080067 98.391037 -37.39658
37.249439 98.171463 -37.36499
37.064426 97.707512 -37.389271
37.206264 98.021446 -37.42646
36.92178 97.749863 -37.341553
37.07412 98.57135 -37.459114
37.321587 98.311661 -37.465408
36.921604 97.970802 -37.354996
37.133228 98.878975 -37.485458
37.225815 98.334862 -37.46167
37.610043 97.495285 -37.427101
37.582035 98.122696 -37.430809
36.958126 98.324287 -37.375179
37.206085 98.096642 -37.420692
37.006596 98.419518 -37.424297
37.107426 98.720039 -37.457958
36.950874 98.605698 -37.461334
37.410011 98.416107 -37.457031
37.587322 98.341583 -37.529816
37.55888 98.244751 -37.515671
37.526085 98.121391 -37.455856
37.474407 97.951942 -37.475178
37.017685 97.038033 -37.286934
37.406258 98.331306 -37.477196
37.028877 98.311852 -37.402355
37.313309 98.103645 -37.435024
37.027767 98.17836 -37.403332
37.024857 98.104996 -37.396172
37.113686 98.197182 -37.401791
37.02084 97.889053 -37.368599
37.505516 98.409538 -37.475349
37.414768 98.101349 -37.444031
37.508194 97.044472 -37.334942
37.318855 98.207779 -37.424782
37.706184 97.891869 -37.415405
38.020283 98.233475 -37.458313
37.515064 97.873741 -37.404175
37.877174 97.281937 -37.384331
37.614212 97.888039 -37.410824
37.504173 98.50502 -37.450996
37.701431 98.196098 -37.441593
38.0653 98.380173 -37.472935
37.218243 97.036064 -37.313499
37.910831 97.945999 -37.37043
37.593483 98.739616 -37.491199
38.103863 98.535423 -37.425697
37.592144 98.192474 -37.440948
38.004429 97.426926 -37.393822
37.868568 97.067955 -37.354107
38.021297 98.29937 -37.451847
38.103352 98.247704 -37.397804
38.061665 98.564606 -37.472836
38.031448 98.520508 -37.489243
37.78249 98.260208 -37.397415
37.532082 98.261948 -37.366467
37.809036 97.94735 -37.382175
37.704952 98.546204 -37.418152
37.999828 97.146385 -37.353333
37.713345 97.45195 -37.343739
37.302418 98.248138 -37.355217
37.79985 98.162025 -37.404453
37.703999 98.254974 -37.388927
37.427284 98.733681 -37.495026
37.992695 98.369659 -37.396111
38.001263 98.389816 -37.451488
37.507164 96.68869 -37.242882
37.104755 97.036507 -37.301147
37.816307 97.012245 -37.302708
37.707253 96.694946 -37.256741
37.605938 97.413513 -37.302422
38.013664 97.232758 -37.344391
37.989994 97.324554 -37.336411
37.912281 97.983917 -37.427856
38.001984 98.703209 -37.494938
38.005775 97.961166 -37.400387
37.809696 97.983276 -37.410748
37.109272 98.282509 -37.401363
37.416737 98.395248 -37.406914
37.613049 98.511986 -37.454456
37.804661 98.381912 -37.428333
38.013409 97.670776 -37.404785
37.423107 97.009262 -37.266693
37.89669 97.231094 -37.340946
37.698624 98.174599 -37.394176
37.619015 98.256119 -37.38163
37.509251 97.007988 -37.271259
37.815445 97.134682 -37.340355
37.809509 97.3237 -37.329079
37.514114 97.445442 -37.336269
37.524796 97.426125 -37.288433
37.710243 98.711166 -37.455696
37.705513 97.954735 -37.368565
37.998615 97.008751 -37.308792
37.713528 97.016357 -37.286472
37.703602 97.328117 -37.311596
37.115662 97.881866 -37.380398
37.391689 98.884415 -37.511745
37.912178 96.702263 -37.283012
37.902691 97.008713 -37.316895
37.309353 97.018005 -37.258476
37.898102 97.327179 -37.33609
37.896 97.447357 -37.368912
37.810833 97.44976 -37.366272
37.894577 98.020706 -37.370888
37.613003 98.068962 -37.388386
37.312935 98.079071 -37.37748
37.613949 98.171593 -37.387329
37.915787 98.160614 -37.4249
37.302227 98.171516 -37.368782
37.612137 98.295929 -37.417946
37.515118 98.386955 -37.411274
37.821342 98.519295 -37.469238
37.203247 98.511856 -37.430065
37.210045 97.452522 -37.316879
37.214638 98.069023 -37.369385
37.516506 98.166389 -37.381577
37.207069 98.244888 -37.346203
37.511936 98.286644 -37.413029
37.21814 98.296906 -37.402145
37.807076 98.29805 -37.429317
37.714764 97.128365 -37.328518
37.307644 98.301865 -37.406326
37.310452 98.394005 -37.399536
37.614811 98.383476 -37.415504
37.863171 96.640434 -37.298206
37.814316 96.69899 -37.266705
37.422112 98.081535 -37.379795
37.11784 98.412949 -37.427452
37.698879 97.986176 -37.404915
37.412125 97.979324 -37.393459
37.70628 98.072815 -37.404308
37.412022 98.289078 -37.413651
37.720051 98.29113 -37.432232
37.083359 98.310158 -37.437828
37.711002 98.389648 -37.42292
37.91935 98.69133 -37.465584
37.613377 98.790977 -37.448757
37.305431 97.70253 -37.420036
37.517788 97.975075 -37.396702
37.809078 98.072906 -37.406364
37.515709 98.07373 -37.388203
37.418095 98.166809 -37.377274
37.023815 97.033951 -37.23991
37.615395 97.446274 -37.342606
37.212696 97.758514 -37.343914
37.799568 97.673233 -37.395493
37.603477 97.135323 -37.313873
37.312298 97.754807 -37.35471
37.77824 97.726631 -37.340305
37.617332 97.666473 -37.380493
37.411625 97.66259 -37.363323
37.208447 97.657631 -37.359894
36.905579 97.436432 -37.312241
37.404629 97.446426 -37.321808
37.533459 97.478218 -37.40731
37.202652 97.708534 -37.40731
37.513805 97.136627 -37.313812
37.124756 97.450066 -37.321911
37.709435 97.676842 -37.38987
37.300251 97.669281 -37.357178
36.932823 97.245819 -37.314835
37.831455 98.046707 -37.3433
37.973255 96.612061 -37.212284
38.017773 98.001816 -37.416607
38.069363 98.765915 -37.483517
38.065166 97.378441 -37.323963
37.221958 97.014458 -37.255226
37.135574 97.015388 -37.254765
37.419483 97.045082 -37.326756
38.029663 98.792282 -37.467598
37.115753 97.621002 -37.277866
37.902386 97.631889 -37.370365
37.121296 97.141846 -37.291801
37.425484 96.657051 -37.322094
37.632053 98.032654 -37.342564
37.04937 98.061821 -37.37418
37.215992 98.726196 -37.462662
37.122395 98.505104 -37.432819
37.947094 98.8218 -37.47934
37.467022 97.919907 -37.479141
37.820248 96.823151 -37.325577
38.100052 98.138626 -37.433212
37.410313 98.197548 -37.427662
37.811394 97.104408 -37.287258
37.210239 97.88446 -37.387444
37.81926 97.879196 -37.430847
37.310497 97.893806 -37.396008
37.882618 97.903839 -37.437733
37.911381 98.391029 -37.450867
37.895065 97.673538 -37.4072
37.404072 97.890419 -37.409508
37.209007 98.415688 -37.444115
38.010696 98.173119 -37.423828
37.895382 97.138901 -37.338116
37.20393 98.194046 -37.414539
37.893032 98.232597 -37.463982
37.223888 96.818779 -37.273361
38.005173 96.812325 -37.288162
38.107258 98.295662 -37.45554
38.110809 97.9105 -37.415466
37.419399 97.855034 -37.348598
37.703442 97.862457 -37.370174
37.915462 96.82785 -37.323597
37.210106 97.857674 -37.33849
37.896469 97.855927 -37.385281
37.708183 96.825638 -37.305645
38.001045 97.864471 -37.405884
37.316166 97.852196 -37.348557
37.588589 97.281769 -37.224934
37.124977 97.832481 -37.318909
38.06789 97.573509 -37.386086
37.879211 97.820572 -37.452019
37.506927 97.944672 -37.341049
37.097225 97.104149 -37.221272
37.704853 98.800713 -37.454308
38.129303 97.797478 -37.2897
37.119598 97.165596 -37.214409
37.77816 97.794212 -37.319237
37.180161 97.185844 -37.358456
38.168312 98.0299 -37.403625
37.506935 97.170029 -37.389076
37.045212 98.020775 -37.405842
37.509628 97.852211 -37.357456
38.066422 96.855751 -37.327183
37.712231 96.793373 -37.254799
37.713108 98.485611 -37.426003
37.232601 97.968697 -37.307449
37.721607 98.744888 -37.496822
37.216602 98.822235 -37.470043
37.338318 97.201698 -37.218372
37.91436 97.193169 -37.294861
37.931015 98.841667 -37.498539
37.697071 97.269211 -37.385914
38.018951 98.251755 -37.421097
36.937778 96.912735 -37.244762
37.225628 97.38903 -37.267269
37.226742 98.380951 -37.386055
37.297592 98.023804 -37.440445
37.614368 97.014381 -37.281521
37.225143 97.39492 -37.385368
37.596901 98.558189 -37.394547
38.001671 96.821831 -37.329624
36.917343 97.367516 -37.297005
37.609478 97.857063 -37.360828
37.610455 96.822456 -37.304237
37.120869 96.812782 -37.268112
37.865013 96.766914 -37.364071
38.003292 97.546715 -37.37759
37.035023 97.985123 -37.386608
37.902767 96.783844 -37.27943
37.202969 97.26548 -37.331421
37.608009 97.985672 -37.397449
37.308403 97.971703 -37.392612
37.58831 97.79039 -37.442062
37.610676 98.920067 -37.47596
37.305058 98.413582 -37.447601
37.016674 96.811096 -37.265453
37.620594 98.407669 -37.470753
37.773609 97.337372 -37.238609
37.309338 96.820335 -37.280052
37.418339 97.253365 -37.351089
37.144238 98.026566 -37.422882
37.796928 97.544983 -37.355377
37.676075 97.903503 -37.293255
38.010223 97.097878 -37.306255
37.017284 97.563293 -37.307518
37.991657 98.471245 -37.444309
37.506573 97.537964 -37.331383
37.516964 97.571785 -37.377254
37.419071 97.764717 -37.357555
37.839184 98.440994 -37.488979
37.727718 97.572601 -37.402763
37.608009 97.538055 -37.334324
37.792713 97.50148 -37.297356
37.71006 97.539635 -37.344334
37.30875 97.571945 -37.373821
37.785809 97.569527 -37.401749
37.604816 97.57505 -37.399303
37.641964 97.514404 -37.286793
37.73402 97.4963 -37.284561
37.407894 97.57869 -37.385246
37.51157 98.278496 -37.498611
37.514442 98.198242 -37.427116
37.096378 96.938492 -37.316689
37.406971 97.36319 -37.337315
37.991501 98.102654 -37.430428
37.016418 97.573128 -37.339382
37.10619 96.764694 -37.220047
37.602478 98.605675 -37.440277
37.942318 97.513649 -37.308296
37.611546 96.793228 -37.24892
37.910084 97.535919 -37.374626
37.213337 97.54557 -37.318176
37.044357 97.274551 -37.319702
37.391727 97.77359 -37.416779
37.224453 96.829758 -37.215862
37.407768 96.787407 -37.228615
37.104691 97.558105 -37.353313
37.208015 97.576881 -37.357956
37.317383 96.795357 -37.230865
37.204472 97.985634 -37.384781
37.501331 97.667328 -37.36771
37.806732 98.184273 -37.460461
37.812126 96.791496 -37.265541
37.057724 96.944794 -37.292919
37.607414 97.326576 -37.303528
37.414646 96.956398 -37.333508
37.601719 96.908791 -37.364571
37.51355 96.787605 -37.240543
37.503605 97.242867 -37.373444
37.905792 98.081314 -37.410191
37.881248 97.545952 -37.419647
38.014919 98.612701 -37.485355
37.416965 97.536537 -37.325256
37.405396 96.825607 -37.287018
37.917908 98.923615 -37.494537
37.203342 96.949791 -37.316525
37.126266 97.262848 -37.329571
37.319847 97.545219 -37.313446
37.599186 97.269043 -37.375233
37.104958 96.919502 -37.248219
37.03389 97.762589 -37.37619
37.504051 96.822144 -37.294403
37.121704 97.320923 -37.259144
37.809654 97.427475 -37.316578
38.15036 97.18589 -37.381401
37.806259 98.821968 -37.495361
37.59988 97.043152 -37.328907
37.315819 96.953072 -37.335232
37.155792 96.873787 -37.204559
37.209415 98.604118 -37.436363
37.308411 97.788544 -37.409924
37.191711 97.806602 -37.40226
37.705208 97.806786 -37.436226
37.10088 97.782448 -37.385345
37.478844 97.808487 -37.41045
37.521194 98.572556 -37.400486
37.413837 97.324211 -37.291992
37.511845 97.232361 -37.303387
37.794029 97.347977 -37.386497
36.942909 97.667015 -37.34087
37.111908 98.825043 -37.461285
37.51675 97.321053 -37.299263
37.320824 97.235497 -37.292904
37.116444 97.218307 -37.288223
37.807308 97.226036 -37.331383
37.70224 97.231773 -37.317444
37.084621 98.135086 -37.355412
37.61002 97.223503 -37.31057
37.800167 97.858437 -37.378002
37.307953 97.352966 -37.340881
37.112408 98.615822 -37.433788
37.916359 97.358261 -37.379211
37.304245 96.86042 -37.346092
37.512486 96.951035 -37.35424
37.206146 97.350739 -37.320839
37.710754 97.039406 -37.354183
37.90744 97.409088 -37.339218
37.318249 97.053833 -37.312996
37.821686 97.045601 -37.356716
37.978737 97.372383 -37.368755
37.408279 98.629471 -37.489956
37.314728 97.410118 -37.277042
37.366741 96.878456 -37.339233
37.616264 96.690117 -37.254372
37.06609 97.56604 -37.310711
37.427536 97.206635 -37.24493
37.611599 97.19989 -37.254223
37.506744 97.200157 -37.23991
37.307358 97.181885 -37.370758
37.415951 97.168922 -37.376774
37.121246 97.986298 -37.371948
37.432163 98.027481 -37.31525
37.720135 96.7202 -37.325645
37.812389 96.74054 -37.343723
37.972244 98.7612 -37.509659
37.410988 96.739105 -37.308311
38.000717 97.632408 -37.366982
36.931229 97.223846 -37.274384
37.715939 96.893555 -37.246742
37.798355 98.785156 -37.466782
37.717297 98.509155 -37.458542
37.798111 96.885208 -37.252991
37.402874 97.409248 -37.279396
37.409393 98.257584 -37.354595
37.616085 96.884018 -37.23991
37.521149 98.62381 -37.508675
37.613182 97.106766 -37.274696
37.004326 96.907288 -37.235588
37.224102 96.909874 -37.262444
37.5989 98.827461 -37.47279
37.519306 97.103477 -37.26598
37.516235 96.729187 -37.315052
37.52039 98.48156 -37.399776
37.920044 96.901451 -37.26363
37.499542 97.708801 -37.292931
37.410957 96.619713 -37.249962
36.927605 98.714622 -37.436852
37.89492 97.099152 -37.305241
37.245934 96.867844 -37.207088
37.236866 98.799736 -37.411713
37.220066 97.633316 -37.291252
37.789455 98.568466 -37.422588
37.805557 98.715744 -37.461128
37.709103 97.72303 -37.329254
37.601238 96.721725 -37.328205
36.997154 98.722466 -37.43111
37.705742 97.418129 -37.304913
37.42635 96.860847 -37.229553
38.008904 96.868629 -37.278862
38.013805 98.82209 -37.509052
37.322578 96.853004 -37.215778
37.990185 98.599884 -37.434811
37.607178 97.730598 -37.316704
37.970516 97.726143 -37.339466
37.324329 96.715439 -37.300774
38.006901 96.705688 -37.280891
37.711407 98.598312 -37.447487
37.892929 98.599426 -37.471821
37.509144 96.880775 -37.225437
37.417782 98.603134 -37.432056
37.80159 97.196411 -37.267796
37.508923 98.720772 -37.491043
37.45454 98.57399 -37.384949
37.902515 98.525223 -37.474983
37.918865 98.714661 -37.52224
37.319046 98.723923 -37.474434
38.086674 97.113373 -37.311737
37.445641 98.646339 -37.368496
37.409504 98.791336 -37.420471
37.107735 98.076645 -37.367886
37.706875 98.039864 -37.34631
37.487202 98.786263 -37.42841
37.515167 97.348022 -37.359795
36.927521 97.127823 -37.272366
37.895161 98.292496 -37.457039
37.121853 97.362442 -37.323185
37.249847 97.076447 -37.260906
37.317753 97.323059 -37.278381
37.417374 96.916817 -37.270294
37.050896 97.322769 -37.271812
37.797676 97.643921 -37.347908
37.609936 96.916153 -37.288536
37.710224 96.917137 -37.293896
37.512894 96.906471 -37.281395
37.411362 98.041794 -37.473888
37.31641 96.920555 -37.25956
37.325287 97.641594 -37.302364
37.416645 98.921173 -37.477448
37.41449 97.125267 -37.301895
37.614414 97.756432 -37.364002
37.507637 97.756805 -37.361721
37.30064 97.13311 -37.303768
37.718033 96.971336 -37.355385
37.020378 97.121475 -37.278297
37.707756 97.768303 -37.3727
37.912868 97.760231 -37.39505
38.014668 97.747704 -37.400509
37.799873 97.76004 -37.387596
37.804806 96.914238 -37.310158
37.997105 96.925087 -37.326431
38.086391 97.793434 -37.380093
37.304764 98.795227 -37.406872
37.41563 97.634903 -37.316601
37.345058 97.713043 -37.287384
37.71014 98.920517 -37.480526
37.724194 97.352974 -37.361671
38.080597 96.956024 -37.317299
37.219013 97.13839 -37.28664
37.910164 96.919601 -37.316582
37.117363 97.770271 -37.336994
37.595303 97.350685 -37.365139
37.316185 98.688759 -37.428421
37.415833 96.700417 -37.239868
37.405792 98.697426 -37.425091
37.41753 97.737137 -37.305519
37.206741 98.93988 -37.487301
37.319565 98.513069 -37.437138
37.510105 97.630699 -37.329861
37.414593 98.507675 -37.454311
37.420326 97.114807 -37.254063
37.302616 98.949303 -37.510429
37.699902 97.111984 -37.285858
37.32954 97.085175 -37.256374
37.216312 97.31636 -37.288662
37.61034 97.073952 -37.187927
37.427952 97.943382 -37.346531
36.952492 97.519974 -37.296314
37.828949 96.930855 -37.374943
37.712494 97.781494 -37.264194
37.216923 97.231857 -37.286209
37.409096 97.22683 -37.292797
37.463104 96.880676 -37.361885
37.804646 98.479271 -37.428085
37.609005 98.695862 -37.447086
37.228188 98.497803 -37.386608
37.414986 98.486237 -37.398479
37.262222 98.556465 -37.3792
37.797726 98.749107 -37.506096
37.517647 98.689819 -37.441139
37.122601 96.729584 -37.280361
37.817734 98.604927 -37.472679
37.918678 98.498123 -37.44017
37.68705 98.66172 -37.502022
37.514988 98.602486 -37.438812
37.338177 98.637306 -37.4846
37.512867 98.826408 -37.469585
37.717522 98.830437 -37.4809
37.248585 98.702583 -37.417068
37.319366 98.6045 -37.432034
37.479969 98.502861 -37.525013
37.406548 98.825859 -37.478931
37.315334 98.811218 -37.468555
37.204575 98.637917 -37.477612
37.041416 98.661354 -37.397156
37.136375 98.695442 -37.406055
37.009808 98.604614 -37.420975
37.599892 98.610596 -37.523705
37.100929 98.105965 -37.410915
36.990505 98.657394 -37.464176
37.713757 97.638054 -37.337223
37.607979 97.632774 -37.331951
36.946831 97.457474 -37.344574
37.309776 98.477539 -37.392868
37.014118 97.466476 -37.328083
37.614277 97.949242 -37.355186
37.310108 97.950912 -37.339901
37.604153 98.48436 -37.413586
37.308498 97.255211 -37.355278
37.016769 97.658607 -37.339977
37.03236 97.344299 -37.316395
37.317673 97.455261 -37.323406
37.014141 98.506859 -37.429417
37.72538 97.191826 -37.273575
37.643478 97.394669 -37.431095
37.728199 97.600471 -37.263077
37.373375 97.441963 -37.391621
36.998844 97.766037 -37.343601
37.218704 97.476105 -37.372395
37.330917 97.470032 -37.389374
36.878166 97.864616 -37.348629
37.536469 97.534843 -37.247803
37.060974 98.793396 -37.428528
37.03418 97.21196 -37.264687
37.129261 97.49057 -37.362904
37.113552 97.660454 -37.355881
