# .PCD v0.7 - Point Cloud Data file format
VERSION 0.7
FIELDS x y z
SIZE 4 4 4
TYPE F F F
COUNT 1 1 1
WIDTH 753
HEIGHT 1
VIEWPOINT 0 0 0 1 0 0 0
POINTS 753
DATA ascii
12.720513 31.610954 25.680168
13.945306 31.628963 25.589231
12.619049 31.727636 25.764189
9.6793871 31.949162 25.670769
11.190963 31.567776 25.524597
12.204536 31.825403 25.533899
12.471687 31.411459 25.557196
13.342174 31.602377 25.502054
11.195553 31.996052 25.805151
12.963213 31.859741 25.530479
13.854136 32.53381 26.005516
13.05579 31.874166 25.562544
11.33863 31.867308 25.628672
11.010684 31.435537 25.458464
10.914346 31.555016 25.467142
11.715695 31.534035 25.592638
11.729611 31.56221 25.647982
14.382565 31.658085 25.654707
12.961256 32.024277 25.777632
10.951397 31.908958 25.639931
12.959442 31.449814 25.482498
10.522322 31.824625 25.588177
10.908767 31.419239 25.428185
11.07727 31.408821 25.443781
11.147472 31.603712 25.553125
12.980602 31.575998 25.518038
10.116043 31.992611 25.695776
13.869043 31.86167 25.532036
10.98984 32.031029 25.814268
11.290225 32.023701 25.745426
10.644496 31.989536 25.79812
12.902114 31.936134 25.72613
11.284589 31.505613 25.496874
12.372115 31.886288 25.667337
12.986229 31.952438 25.728582
10.061031 31.874094 25.739582
9.8837938 31.882708 25.756557
10.081398 32.02166 25.756344
9.7316055 31.83235 25.825382
14.169178 32.062305 25.729147
12.597357 31.881186 25.661541
11.389899 31.588268 25.562572
13.14507 31.920151 25.795153
12.317132 31.48171 25.453539
11.606349 31.448101 25.445467
10.794165 31.859121 25.723745
13.927763 32.481037 25.831713
12.162948 31.580357 25.561457
13.334157 31.987097 25.613508
12.317003 31.505913 25.526392
13.336175 31.695024 25.580114
12.261965 32.15839 25.830141
12.983 31.501616 25.487926
13.65198 32.145718 25.74058
12.578095 31.578808 25.559126
12.872411 31.531832 25.583637
10.702275 31.456297 25.541357
11.640031 31.526159 25.494265
13.405428 31.520115 25.53426
10.392076 31.449146 25.505621
11.653195 31.917225 25.642269
10.556762 31.41972 25.482588
10.43007 31.424902 25.489372
11.86827 32.083576 25.812908
9.9646587 32.040215 25.707943
10.144938 31.86055 25.645258
13.501813 32.575043 25.929075
12.17454 31.693529 25.624866
13.506649 31.877337 25.511988
12.367128 31.893816 25.580563
11.51765 32.009357 25.72028
13.207329 32.096661 25.855042
13.344546 32.18174 25.897268
13.249901 32.168705 25.756851
9.9831429 31.822365 25.62748
10.364161 31.357649 25.518589
9.8079662 31.870575 25.795021
12.061966 31.657665 25.734667
13.778852 31.833935 25.511286
10.972558 31.549892 25.57374
13.745867 32.509766 25.824741
13.657116 32.804142 25.942219
11.188459 31.943565 25.713413
13.803523 32.148674 25.762964
10.82011 31.846889 25.626543
10.183623 31.750397 25.732439
11.860587 31.956224 25.667616
12.975213 31.706228 25.702967
12.428472 31.920664 25.631195
13.976478 31.99761 25.828369
10.761147 31.350515 25.397474
9.9769936 31.796753 25.687283
12.662297 31.853331 25.665186
14.052353 31.799267 25.658108
13.631735 31.675762 25.655045
12.27698 31.688128 25.612793
14.793159 31.937349 25.648422
12.789093 31.910629 25.56629
11.039285 31.514973 25.508617
10.364953 32.047577 25.790819
11.383871 31.506369 25.501659
9.8943491 32.012241 25.76742
13.155065 31.722815 25.715788
13.560613 31.711634 25.714041
11.099812 31.618801 25.559462
11.280581 31.62746 25.559408
10.811524 31.661119 25.439457
13.564004 32.731354 26.003592
12.515948 31.647179 25.691322
12.374199 31.755156 25.656199
11.132915 31.709925 25.771385
12.691628 31.985973 25.706224
12.040554 31.466616 25.54804
13.65569 32.205223 25.918364
9.7680988 31.962307 25.659187
10.781377 31.693802 25.765383
12.150483 31.681324 25.706568
9.5786915 32.094273 25.70755
12.556296 31.405958 25.567394
12.672724 31.999119 25.828081
13.696095 32.492867 25.806025
12.087214 31.703056 25.620258
13.86912 31.797131 25.666906
12.836807 31.614458 25.609581
11.9676 31.707237 25.625469
12.970683 32.065899 25.766254
9.8900213 31.791077 25.667866
13.972387 31.798323 25.670897
12.392782 31.711678 25.614977
13.548986 32.167812 25.793865
11.071317 31.356634 25.382753
13.967731 32.297707 25.894953
13.658924 31.919432 25.673576
12.700749 31.447851 25.56234
12.694179 31.876429 25.762476
13.981939 32.066708 25.79167
14.091623 31.380899 25.538023
14.096193 31.575607 25.496725
12.878548 31.901499 25.594978
13.505569 32.748817 26.010038
12.767244 31.537933 25.587822
12.669092 32.096581 25.884956
13.884932 32.559807 25.92087
13.472474 31.987307 25.799755
12.773151 32.014256 25.809237
9.8257504 32.084747 25.751081
12.767039 32.099903 25.848644
13.20469 31.443083 25.50491
13.776824 32.666061 25.994471
13.581462 32.035545 25.821438
12.069592 31.749794 25.664928
13.808556 32.513313 26.109898
13.268097 32.018475 25.828506
10.077167 31.795439 25.676943
13.805271 32.481274 26.037714
13.904317 31.971718 25.734249
14.055998 32.571323 26.039684
12.7175 31.666975 25.672844
9.9793367 31.384356 25.533249
13.614183 32.535198 25.899694
11.129455 31.901413 25.598055
12.854118 32.025677 25.795025
13.571492 31.631779 25.518627
12.078026 31.942757 25.753233
13.899441 32.036942 25.793348
12.405428 31.966063 25.740667
10.650442 31.358473 25.410328
12.614242 31.486952 25.558947
10.386005 31.355831 25.414322
12.674973 31.502068 25.574404
12.75263 31.434441 25.541985
10.666094 31.855675 25.71435
13.862595 32.296669 25.894955
10.888204 31.44416 25.542429
11.157373 31.888357 25.7012
13.637748 31.994705 25.64835
13.265888 31.499681 25.576822
12.965745 32.167839 25.81868
12.884486 32.100285 25.789108
11.777796 31.824869 25.533705
14.041283 32.501991 25.992105
13.167533 32.231049 25.782356
13.94989 32.486446 25.992336
13.295484 31.856752 25.860498
12.357303 31.419497 25.621815
13.343712 31.842381 25.868633
13.813063 31.801243 25.877707
11.869442 31.391787 25.618937
10.853395 31.391224 25.639101
13.570953 31.814283 25.683662
10.68848 31.853022 25.624269
10.404245 32.040089 25.733452
11.947606 31.357769 25.574694
13.269332 31.857628 25.773922
11.765053 31.379595 25.583948
12.778275 31.813322 25.857849
13.038406 31.830975 25.790989
13.920087 31.787146 25.840839
11.355095 31.986139 25.714548
13.458173 31.811407 25.791187
12.390833 31.822123 25.812405
10.584074 31.848423 25.710693
14.128992 31.634506 25.38665
11.144408 32.000816 25.725388
10.653638 32.088169 25.841492
12.814353 31.793367 25.794954
13.553861 32.675274 25.999088
11.289967 31.882639 25.705137
13.46538 31.851883 25.643587
12.770287 31.561623 25.711321
10.875877 31.632294 25.582876
13.464412 31.835247 25.780878
14.156049 31.814766 25.667574
10.852226 31.819031 25.735807
10.995905 32.033253 25.756653
14.471903 31.814188 25.65715
13.888169 32.715931 25.949404
12.862675 31.320879 25.477306
13.96692 31.818819 25.756691
13.677692 31.813776 25.765406
10.928236 31.670694 25.541059
14.039857 31.860788 25.734446
10.073907 31.760382 25.63422
13.766178 32.294189 25.893908
13.039556 31.981359 25.60607
12.966595 31.826199 25.652529
13.657604 31.807251 25.684402
14.245022 31.408167 25.503607
13.885798 31.882837 25.766266
13.760031 32.716003 26.022394
13.864202 32.371704 25.973688
9.9720364 31.756445 25.637327
13.557888 32.352707 25.968502
12.578247 32.04686 25.821447
12.990791 31.596991 25.629095
11.843937 31.617672 25.547348
13.957579 32.395645 25.911768
13.9265 31.897865 25.512787
14.173132 31.55986 25.495747
13.954374 31.751167 25.767151
13.452136 31.953537 25.552057
13.27755 32.500637 26.03241
13.955319 32.353214 25.960093
10.273691 31.85358 25.720861
14.228971 31.480585 25.390064
12.975295 31.270588 25.437458
13.761265 32.350441 25.842936
12.264436 31.753254 25.657265
11.358123 32.09409 25.787134
11.906008 31.970102 25.68416
12.981766 31.315922 25.4851
13.670958 32.346916 25.850712
13.170476 31.758694 25.647491
14.167435 31.968828 25.621719
13.976576 32.569866 26.040119
11.587957 32.016106 25.738695
12.968358 31.841007 25.787729
13.087072 32.050037 25.734133
14.845571 31.524868 25.442476
12.291231 31.908588 25.606853
12.206701 31.92515 25.651098
13.161003 31.810703 25.689507
11.957072 31.964876 25.703148
13.865044 32.308422 25.7768
12.358331 32.019424 25.737942
10.467124 31.681051 25.562536
13.339226 31.464544 25.471998
10.669003 31.356918 25.501375
13.276487 31.721457 25.511616
14.293022 31.813725 25.642441
10.299785 31.815409 25.762009
12.160537 31.803236 25.735142
11.477806 31.930614 25.684202
11.076349 31.702108 25.658602
11.493799 31.819246 25.749353
13.388014 31.817911 25.783529
13.470115 32.514431 26.02116
10.953331 31.86714 25.711086
13.368312 31.791206 25.592245
11.307061 31.838982 25.842554
14.260914 31.801678 25.546274
12.555428 31.803093 25.720764
10.879853 31.270098 25.39006
13.325869 31.726685 25.71064
12.762651 32.165497 25.842699
12.668967 31.791794 25.619888
12.338313 31.704662 25.725224
12.478541 32.134212 25.833321
13.464484 31.514032 25.515856
11.933769 31.464415 25.664255
13.854818 32.15226 25.862406
12.769127 31.864355 25.793085
11.989164 31.846613 25.820189
13.640114 31.708675 25.549353
11.465131 31.780052 25.649651
13.871202 32.75256 26.014912
10.044206 31.800966 25.594694
13.36004 31.840771 25.640448
11.169153 31.777737 25.657473
11.374149 31.813828 25.769037
10.381043 31.706505 25.672054
11.382858 31.705816 25.64838
12.56472 31.720602 25.552778
11.60311 31.844408 25.848986
10.770496 31.261564 25.493359
11.876092 31.827839 25.837172
11.670332 31.781286 25.64328
12.666559 31.667597 25.611488
10.969684 31.779003 25.661644
11.674083 32.028343 25.711374
10.659495 31.414778 25.452103
11.118743 31.796005 25.738724
12.377563 31.736235 25.585207
10.020655 31.783344 25.80047
10.464785 31.278641 25.40543
10.661917 31.697273 25.554062
12.490951 31.837332 25.819042
13.579741 32.531647 26.051367
13.967611 32.349617 25.844389
12.170763 31.742727 25.584
12.824442 32.134731 25.871325
11.669569 31.746506 25.671686
12.955946 31.732302 25.546618
10.870267 31.814623 25.769075
14.544436 31.462612 25.405819
11.657948 31.812969 25.741455
13.565713 31.72319 25.525917
12.849669 31.73905 25.572142
9.8865433 31.738226 25.736895
10.773006 31.739531 25.698193
12.465961 31.754128 25.654613
10.065738 31.73233 25.726086
12.569519 32.150249 25.827587
14.864033 31.928099 25.679697
13.865636 32.256401 25.855598
10.860917 31.359537 25.487103
14.229136 31.908707 25.651449
13.765027 31.762695 25.508932
10.261299 31.733002 25.716108
11.147531 31.643812 25.700844
10.591236 31.304312 25.561428
9.9802141 31.80879 25.611324
12.761837 31.712706 25.732992
12.074677 31.734772 25.579069
13.779366 31.807024 25.675493
10.770163 31.311512 25.455914
10.184982 31.824039 25.583551
10.365965 31.847416 25.732412
10.669125 31.310299 25.459984
12.074522 31.842787 25.681551
12.575454 31.89245 25.821859
12.464561 31.788445 25.622707
13.144058 31.921907 25.556131
13.996986 32.033848 25.766632
14.446773 31.528675 25.435823
14.482133 31.450644 25.426485
13.06401 31.741865 25.547771
10.966184 31.314339 25.451485
14.368459 31.436666 25.455332
11.877356 31.809017 25.762882
11.469438 31.736866 25.60601
13.955742 31.703194 25.471313
9.6532993 31.978273 25.652905
10.566401 31.745644 25.629145
10.783897 31.643534 25.724421
10.767472 31.331533 25.54854
14.589577 31.841616 25.518951
13.971179 31.809679 25.557695
11.84687 31.736341 25.591602
13.569779 31.70001 25.560118
11.971536 31.782854 25.639992
10.558277 31.74091 25.709322
14.048013 31.532484 25.429173
12.381527 31.535658 25.499773
11.717499 31.671652 25.547186
12.880237 32.183846 25.809978
11.696934 31.673525 25.72625
10.180425 31.852562 25.717712
12.363718 32.025398 25.848404
13.173247 31.748734 25.54845
10.371173 31.786463 25.669966
11.867438 31.750591 25.668697
13.165244 31.825148 25.645756
12.280518 31.714285 25.545546
9.9689693 31.731953 25.735254
14.364328 31.925659 25.656031
10.469601 31.78159 25.67247
12.760921 31.747488 25.552011
11.881278 31.708801 25.633703
13.274381 31.469679 25.496704
13.464021 31.793243 25.584084
14.463827 31.948486 25.650623
10.176272 31.790236 25.683868
10.667678 31.809258 25.788996
10.772526 31.777197 25.670826
11.610764 32.127499 25.770037
9.8714714 31.762863 25.634642
14.403082 31.474077 25.538799
11.461272 31.703676 25.651834
10.270581 31.786278 25.679945
13.275951 31.835871 25.637192
13.162392 31.79101 25.601366
11.067516 31.775997 25.658499
12.567353 31.78648 25.619856
12.167071 31.783587 25.632721
11.868729 31.779953 25.644367
11.265002 31.741642 25.682814
13.112555 31.502918 25.451376
10.26603 31.702436 25.68458
12.243679 31.68598 25.515036
11.085368 31.647779 25.76926
10.545648 31.520758 25.6311
13.36606 32.056492 25.829088
10.869381 31.705074 25.667999
11.369934 31.745306 25.610558
12.875693 31.270685 25.435595
11.772207 31.779827 25.64286
11.355298 31.847208 25.851908
11.780239 31.700254 25.635557
13.06255 31.692377 25.589231
14.204974 31.458878 25.404949
13.574085 31.790146 25.573288
10.967454 31.78957 25.769323
10.566576 31.782986 25.672123
10.719315 31.685907 25.566616
10.674489 31.706944 25.674767
13.762021 32.34996 25.967989
10.659858 31.312107 25.529554
14.156215 32.409672 25.91165
13.267628 31.789986 25.590921
11.267011 31.77775 25.656569
12.071834 31.781765 25.637024
11.365619 31.778959 25.651457
12.099498 31.562313 25.587849
10.733658 31.981693 25.816458
12.864967 31.757303 25.647816
14.071846 32.726734 26.033943
13.866525 31.802099 25.546143
13.14228 32.189953 25.796228
11.560546 31.74122 25.599539
12.469562 31.725201 25.559286
11.784595 31.73698 25.572378
10.164141 31.75388 25.638252
13.66716 32.300701 25.800856
13.15987 31.675707 25.603561
12.374311 31.783802 25.627346
12.074296 31.791763 25.740641
13.67113 32.296997 25.895258
11.252689 32.08115 25.806196
12.952187 31.655909 25.59754
10.082363 31.694262 25.687805
10.661928 31.740978 25.705462
10.565676 31.70668 25.674259
10.863452 31.744822 25.627512
14.80191 31.474569 25.411264
12.048888 31.836277 25.829912
11.668477 31.712925 25.638378
10.371158 31.733105 25.713551
10.769546 31.708363 25.668287
13.7658 32.256721 25.855043
11.076366 31.983301 25.727413
12.972209 31.796438 25.713295
13.468808 31.759714 25.643673
12.771466 31.785276 25.613066
10.169869 31.708641 25.683228
12.471415 31.8123 25.729359
13.830675 31.643114 25.537876
13.468081 31.802021 25.68877
12.268102 31.781708 25.627325
13.760669 32.294685 25.792267
13.761053 31.797031 25.568089
10.991056 31.224192 25.43297
13.274546 31.757975 25.643629
11.785102 31.518244 25.464865
13.645902 32.697716 26.003962
11.174186 31.701868 25.659996
10.872218 31.265778 25.491333
10.672346 31.261137 25.497097
13.626644 32.420765 25.935472
10.569463 31.310362 25.458736
13.887407 32.136448 25.776226
13.459364 32.174904 25.787163
10.764987 31.808084 25.759163
11.06745 31.26985 25.369331
11.063907 31.847172 25.701756
13.760669 31.754679 25.630169
13.196488 31.955486 25.808231
10.248007 32.02647 25.7288
14.172251 31.818588 25.561329
12.039977 32.17057 25.812841
10.67438 31.77516 25.667454
13.569155 31.755072 25.645222
10.569821 31.809195 25.749256
10.869901 31.739838 25.698284
11.455668 31.60046 25.555063
13.928138 31.695728 25.589037
10.867614 31.77817 25.66477
10.478312 31.703671 25.672426
10.975348 31.703487 25.667223
12.966861 31.791212 25.601171
10.656974 31.742525 25.633009
14.149471 31.649038 25.561949
14.259074 31.720888 25.542425
13.641985 31.777723 25.511442
11.172148 31.80121 25.737562
13.110532 31.443295 25.524181
12.526247 31.940542 25.615141
11.809689 31.899422 25.65007
13.866579 31.760891 25.637486
13.588463 32.522041 25.994467
10.658815 31.600002 25.604595
13.667274 32.260452 25.856703
13.531186 31.455666 25.485693
10.868692 31.311186 25.451284
13.662941 31.755011 25.627436
14.300451 32.039768 25.797577
14.06868 32.040821 25.792698
11.652645 31.73472 25.594398
13.791018 32.073017 25.724957
12.89015 31.436626 25.524652
11.802933 31.852694 25.858675
13.480931 31.740416 25.53647
14.045662 31.677742 25.540411
13.958932 31.76317 25.623137
11.569376 31.831352 25.751282
11.992668 31.738241 25.55689
11.557904 32.154949 25.831247
11.258282 31.747763 25.611483
11.267379 31.697891 25.660162
11.727191 31.792015 25.715456
13.364561 31.759922 25.645481
10.476605 31.840397 25.628153
12.379507 31.795631 25.739996
12.024599 31.519167 25.496162
13.733074 32.06023 25.78898
11.071675 31.741638 25.688234
13.844427 32.317291 26.025997
12.27242 31.804419 25.73424
13.573476 32.304111 25.799526
10.076284 31.548252 25.611801
11.972168 31.691189 25.743334
13.064363 31.758633 25.644655
12.874435 31.787907 25.609529
14.062388 31.752848 25.499062
12.240342 31.534384 25.608572
13.619726 31.56576 25.524597
10.852791 31.474983 25.67967
12.942924 31.540825 25.579191
13.658279 31.794643 25.564968
14.059121 31.823048 25.550926
14.439384 31.819954 25.499249
12.68364 31.741468 25.563499
10.115866 31.543842 25.578823
11.168084 31.744211 25.688486
11.56647 31.774902 25.645311
13.390708 31.751366 25.533001
9.6183949 32.015411 25.659117
10.490997 31.870226 25.723696
10.970286 31.743765 25.626188
14.74136 31.814949 25.647247
10.969124 31.738876 25.691439
10.180727 31.814869 25.778082
12.495406 32.032429 25.75696
11.254388 31.632111 25.723038
10.988305 31.446918 25.585094
11.550533 31.520451 25.630915
11.56811 31.742741 25.673918
10.474056 31.742807 25.711338
12.429041 31.815481 25.540628
12.875157 31.809765 25.518803
10.573946 31.459267 25.589231
11.169847 32.106121 25.780128
10.473499 31.353672 25.507174
11.872793 31.321404 25.510946
11.973938 31.824619 25.772732
14.168934 31.961607 25.646187
13.460267 31.983746 25.645388
12.766929 31.757328 25.650091
11.525619 31.871592 25.689852
13.770864 31.84816 25.629244
14.080402 32.45451 26.039127
13.961367 31.857769 25.615662
10.960169 31.357922 25.493492
13.445774 32.221916 25.758282
11.367924 31.745489 25.683727
10.452732 31.607714 25.551479
12.164228 31.754082 25.661659
12.762362 31.697289 25.594528
10.661603 32.038754 25.744654
12.667368 31.759058 25.64883
14.071206 31.855494 25.61307
13.60494 32.437305 25.914877
14.36128 31.814711 25.547983
11.965352 31.754488 25.666082
13.238685 31.657318 25.580736
13.068753 31.787067 25.599436
10.992229 31.937906 25.781794
13.869593 32.662125 26.006075
10.940033 31.581757 25.435736
12.852005 31.846441 25.829712
14.302746 31.870335 25.530918
11.063334 32.119537 25.793003
12.566079 31.753428 25.653439
13.771832 32.509247 25.979969
13.05619 32.004356 25.771839
12.582425 31.689762 25.602844
14.354334 31.870611 25.619097
13.567944 32.262062 25.857487
12.969072 31.755548 25.646172
11.681442 31.863764 25.56707
13.358483 32.499977 26.011475
12.873466 31.683012 25.604124
13.671778 31.858656 25.637197
14.075882 31.749372 25.6224
13.704517 32.001045 25.874144
11.47069 31.744356 25.676226
11.575986 31.706762 25.648275
13.572611 31.839123 25.623611
12.471458 31.711472 25.613476
13.945783 32.657261 26.017588
11.772204 31.748808 25.671152
11.797972 32.067806 25.741371
12.871058 31.838915 25.636564
13.872113 32.361225 25.849775
13.271125 31.804041 25.686745
12.161188 31.843014 25.667551
13.096052 31.918394 25.747221
13.065727 32.141911 25.826906
13.060608 31.849823 25.647682
11.812225 31.60638 25.724453
12.872241 31.805058 25.707148
10.350358 31.548082 25.594732
13.962727 31.516262 25.574383
10.948418 31.250048 25.407932
10.472446 31.749256 25.632275
11.846169 31.812527 25.521408
13.088472 31.601847 25.60659
13.852027 32.503941 25.880306
11.489066 31.8265 25.829525
14.827176 31.763809 25.602438
13.068621 31.807716 25.706724
14.256124 31.879721 25.64703
11.273348 31.814619 25.771561
12.660362 31.807766 25.716423
13.36035 31.815025 25.701515
14.031904 31.923935 25.670206
14.008116 31.432814 25.466768
12.567918 31.613008 25.670128
14.151751 31.86797 25.622557
14.095013 31.434172 25.451117
13.291971 32.017071 25.590269
10.37361 31.933643 25.720089
11.759866 31.853382 25.691763
12.789838 31.805311 25.706421
10.254807 31.95607 25.684719
14.177831 31.756189 25.625208
13.689565 32.359665 25.955183
13.870975 31.847147 25.632904
10.29629 31.860622 25.626146
10.563566 31.351999 25.508421
13.861021 31.756594 25.516628
10.506711 32.118294 25.819313
13.849485 32.554081 26.07378
11.166621 31.740795 25.607777
11.075255 31.73789 25.614124
13.776723 32.412239 25.890667
10.365685 31.744453 25.639101
14.069273 32.415535 25.896423
10.773924 31.743759 25.627907
10.831666 31.315054 25.361
10.263307 31.74472 25.635962
10.163822 31.359917 25.5165
11.364138 31.946712 25.762739
11.369432 31.855604 25.698853
11.590105 31.671284 25.73291
10.889859 31.608374 25.749498
11.099797 31.620909 25.752953
11.368419 31.658545 25.755856
12.512834 31.560678 25.606907
11.547417 31.588593 25.529966
14.423058 31.662886 25.660336
11.93661 31.584831 25.553865
13.554883 32.036411 25.845728
10.880695 31.37237 25.399019
12.498745 31.564167 25.707729
10.327476 31.796427 25.772802
10.773812 31.352871 25.497509
11.690901 31.806065 25.522715
12.740475 31.837067 25.653818
11.798028 31.973164 25.745892
13.706481 32.542213 25.954119
11.585277 31.952219 25.721554
14.482521 31.790796 25.731829
12.438652 32.035637 25.778488
14.068917 31.587856 25.560944
14.362522 31.739323 25.482021
12.474727 31.860397 25.667778
13.16655 31.534243 25.577559
10.558558 31.362417 25.430073
10.848489 31.582327 25.812634
11.091969 31.576275 25.811872
14.43624 31.855751 25.649654
14.550204 31.919935 25.655558
13.264671 32.103958 25.855381
14.362877 31.808558 25.669712
14.638402 31.945818 25.654213
14.405457 31.482887 25.570042
14.565688 31.831852 25.649601
14.898289 31.79451 25.695593
13.692924 32.114899 25.871883
14.918551 31.865053 25.670576
14.532981 31.879446 25.630243
12.145588 31.556107 25.452101
13.880419 32.417809 25.903942
11.858909 31.883205 25.665331
14.636195 31.80537 25.659969
14.164662 31.30707 25.445866
14.301004 31.318941 25.438868
12.52063 32.066936 25.774883
10.978644 31.366236 25.415684
14.462152 31.947748 25.784809
14.5996 31.876251 25.768435
14.33995 31.748711 25.638103
14.306376 31.758011 25.64477
13.174726 31.614307 25.631927
14.394541 31.90798 25.7201
14.367733 31.948166 25.76754
11.545533 31.482805 25.471506
11.675756 31.609331 25.509808
11.687742 32.148884 25.784172
10.190334 31.58938 25.48283
13.158076 32.035233 25.819887
10.291265 31.318562 25.582264
10.270844 31.551107 25.558971
11.761974 31.60346 25.496559
13.853741 31.532022 25.422356
12.777895 31.856277 25.565899
11.964008 31.845016 25.687023
10.157523 31.493032 25.661655
11.636686 31.423695 25.551662
12.160535 31.375717 25.603811
12.212161 31.429729 25.421257
12.658587 31.923443 25.747236
12.004592 31.930843 25.714293
11.675533 31.840927 25.69462
12.370136 31.43117 25.536587
12.257188 31.87892 25.671423
12.143618 31.421598 25.512472
10.464334 31.792135 25.770985
11.082257 31.430069 25.545576
10.595955 31.570004 25.50053
13.675241 32.724789 25.98831
12.291711 31.932085 25.774343
