# .PCD v0.7 - Point Cloud Data file format
VERSION 0.7
FIELDS x y z
SIZE 4 4 4
TYPE F F F
COUNT 1 1 1
WIDTH 1612
HEIGHT 1
VIEWPOINT 0 0 0 1 0 0 0
POINTS 1612
DATA ascii
20.64489 34.100952 26.017687
18.127419 35.582787 26.141403
17.421026 39.807442 26.262608
18.912632 35.284641 26.02066
17.435553 34.235798 25.911682
19.911987 36.569027 26.160355
17.222904 39.472725 26.253242
17.206129 38.946877 26.369505
20.092102 33.580643 25.983452
18.604328 38.049026 26.255136
19.118248 35.988148 26.187006
18.409389 35.054249 26.100786
17.216837 34.509575 26.076954
17.996462 34.717236 26.158962
16.709293 33.811001 25.932789
18.700413 38.452415 26.309105
20.13373 33.443398 26.077181
18.12842 34.334408 26.000456
20.002466 37.113556 26.06797
17.606268 33.726398 25.89081
18.793085 33.614948 26.004515
18.413822 38.908237 26.28161
18.320452 37.45322 26.086161
18.527687 37.720921 26.282877
17.316427 34.782387 26.191296
18.710346 36.362541 26.155069
16.51972 34.699818 25.949194
19.627176 36.499752 26.109549
17.414394 39.785717 26.313026
18.215349 35.277599 26.025898
19.216848 35.340088 26.124672
19.518036 37.672489 26.225319
16.878532 39.566906 26.278534
17.885807 34.418037 26.050909
20.415709 33.68697 25.970776
16.796698 35.051201 26.135811
19.027374 36.654099 26.180344
16.612473 39.457485 26.267597
19.514137 33.796883 25.900434
19.115261 36.888809 26.143259
17.817158 35.21035 26.049086
18.221146 35.734055 26.004984
17.922947 35.50415 26.007107
18.501919 39.190342 26.145927
18.318893 34.836548 26.316015
18.124294 37.135849 26.065815
17.328142 38.998844 26.316835
17.633291 38.227749 26.174614
18.313292 37.816727 26.238686
17.067831 34.376461 25.951677
19.312906 35.23885 26.000212
19.736191 36.230068 26.208805
18.91423 33.62648 25.936071
19.811926 36.095348 26.23041
16.919937 34.717396 26.150549
18.011497 36.300518 26.041241
17.115747 39.847683 26.335611
17.984642 39.185986 26.375435
19.628168 36.030861 26.139542
19.295315 37.36808 26.246864
18.37196 35.233364 26.326735
19.618574 36.177708 26.084013
19.12059 35.807484 26.146544
19.276855 33.324825 25.854206
17.594231 38.532108 26.306156
18.602985 37.44981 26.128237
17.514057 39.222706 26.3097
18.114605 38.550522 26.311296
20.515512 35.258099 26.102665
17.916561 34.790886 26.199345
18.013845 35.258888 26.069248
19.131771 37.067276 26.051357
19.413496 37.28804 26.230284
19.005713 33.858471 25.743702
17.425169 34.632938 26.071726
19.314846 37.436481 26.219177
17.115265 39.219944 26.323372
17.803217 39.107506 26.284197
17.318426 33.912075 25.979433
17.103415 40.142792 26.385231
19.907 33.636147 25.922796
18.108835 34.884052 26.171062
17.399248 39.434116 26.306314
18.318262 35.577164 26.136499
17.523138 39.963165 26.326786
16.620817 39.976791 26.339113
19.210131 36.89138 26.144594
17.516394 39.783131 26.3097
19.08219 36.985725 26.027367
17.479149 38.885124 26.201298
17.099131 39.34433 26.441534
18.804012 35.944935 26.105164
18.414579 35.905006 26.161463
18.21726 35.3638 26.125805
17.978493 38.948021 26.174381
16.597216 35.243919 25.916323
20.145319 37.225227 26.061632
17.500359 34.111721 26.017929
19.907701 36.992954 26.118984
17.510977 33.577927 26.093414
19.613987 33.630577 25.922424
18.616472 35.231491 26.010326
19.223202 35.830574 26.079042
19.91963 38.359657 26.263306
17.111538 40.312107 26.242279
20.517946 36.237263 26.064293
18.207821 37.095978 26.165426
18.312174 37.739254 26.22987
18.011417 35.040199 26.104137
17.696434 33.530605 25.880753
17.51614 34.72419 26.154919
20.202827 36.31617 26.164995
18.723871 37.735153 26.228628
19.314434 37.188618 26.20804
20.036989 37.225243 26.151583
17.167107 33.937424 25.97361
18.405704 37.146122 26.077936
18.188963 38.416542 26.112885
18.91164 35.262707 26.073046
20.018169 36.617706 26.251537
19.117228 37.631695 26.192461
18.584965 36.339146 26.03195
19.822998 36.311981 26.242193
18.704945 35.373756 26.122116
19.014975 36.758682 26.17639
19.415529 38.282906 26.208849
17.326574 38.908001 26.296007
17.363682 34.683838 25.992174
19.220476 36.571041 26.132135
16.616924 34.727089 26.068144
18.915848 35.942829 26.119629
17.117079 34.6297 26.056728
17.511143 34.326157 26.025982
18.41873 37.51482 26.20838
19.220913 36.97094 26.181311
17.601156 39.484505 26.254051
19.116941 36.210751 26.181147
17.80932 34.326561 26.026365
20.205196 36.627605 26.285683
18.816666 38.277271 26.201513
20.42198 36.693432 26.306276
17.618349 34.78727 26.203329
19.605764 36.34095 26.153515
18.312719 39.018154 26.270794
19.741198 37.272301 26.222834
19.41729 36.88448 26.143778
19.113373 38.279293 26.203741
20.029636 34.107048 25.836166
17.570557 35.93552 26.119658
17.208717 39.314163 26.336124
18.141563 34.107307 26.023029
19.739082 35.604954 26.075697
18.11414 35.360889 26.12133
17.813896 38.534679 26.306232
17.616516 35.211651 26.047571
19.435074 35.459908 26.09976
17.119602 33.667656 26.01104
19.397091 36.047516 26.154285
17.203716 39.439297 26.313858
19.650545 35.499313 26.124681
20.114126 34.056435 25.917656
19.408461 37.115658 26.161367
18.321058 37.911236 26.273968
17.015526 34.661892 26.037153
19.299383 35.87606 26.062792
16.413177 39.985001 26.306356
17.21575 35.226089 26.00235
16.911093 33.659527 26.009169
17.187262 40.101997 26.312498
19.507912 37.104557 26.22521
19.754271 33.801319 25.882675
17.5103 34.625587 26.061014
18.407579 35.970257 26.012352
17.02243 33.787674 25.909666
19.117151 33.683022 25.954634
18.232988 35.692219 26.146503
19.299829 37.660873 26.215345
16.441719 34.707989 25.966572
20.428339 35.220573 25.994068
19.91498 36.203602 26.231012
18.4007 35.363163 26.116358
18.912178 35.334393 25.949932
17.021254 39.779945 26.319513
19.913345 33.683372 25.966909
18.213436 34.154411 25.96596
19.043404 33.6604 25.76729
17.027967 33.891525 25.970076
17.2178 33.661095 26.00536
18.813889 35.43137 25.965155
17.884064 36.180386 26.054588
17.487482 39.468021 26.243898
19.829096 36.97319 26.125051
21.014555 33.780678 25.92963
19.51783 36.344769 26.13028
18.509691 36.908455 26.09602
18.716343 35.284241 26.023575
18.709534 38.277863 26.204502
17.352757 38.357265 26.167809
19.033627 35.392788 26.071007
18.070921 39.349525 26.325006
19.222923 37.633137 26.215704
17.327229 34.841949 26.041599
16.652672 35.087578 26.105541
19.131628 35.337765 25.957506
19.810238 33.676331 25.969545
18.890556 33.536781 25.904644
17.419397 34.783859 26.193611
18.414593 38.993324 26.293177
20.020557 36.550953 26.165009
18.318529 34.538177 26.030758
20.954966 33.67836 26.026218
18.108391 39.08337 26.334597
17.610428 34.425823 26.042671
19.255535 37.147472 26.093693
18.776598 38.686966 26.250219
17.11566 33.929466 25.980867
18.100195 38.503132 25.992376
19.764315 37.076908 26.190752
17.715094 35.966469 26.086935
19.105942 36.486023 26.119938
19.326626 37.067905 26.21933
19.12093 36.701435 26.12599
16.912952 34.407681 26.058241
18.437841 33.616505 25.982727
18.814457 33.682804 25.955462
18.217794 35.257572 26.073862
19.015198 33.683308 25.953541
18.076691 36.417942 26.04287
20.209814 33.720406 25.900074
20.10807 33.722439 25.899582
19.170111 38.199829 26.262192
20.018265 36.813393 26.123943
18.61342 35.394703 26.08523
20.098705 33.754967 25.977797
18.398081 36.608685 26.0446
19.727879 33.273502 25.913399
18.300747 38.573185 26.266003
18.73243 35.91312 26.10216
20.222799 38.282883 26.221447
19.113651 35.214619 26.049997
18.300682 34.810314 26.146749
19.011559 35.261784 26.068037
19.211477 36.802311 26.128946
19.691563 36.970573 26.129719
19.296394 36.968258 26.016413
17.598907 38.934589 26.358692
19.015799 36.532104 26.21397
19.426153 37.648033 26.196531
17.816896 34.097794 26.011305
17.812597 34.804001 26.138344
18.812765 37.201717 26.184702
18.688835 37.17083 26.089577
17.516005 39.854244 26.280128
19.998554 36.305916 26.239042
18.096718 34.470718 25.937866
19.06436 35.17366 25.930552
18.023531 37.324688 26.158466
17.119141 39.434681 26.317322
17.840748 34.850098 26.317547
19.416063 35.585049 26.141499
17.915365 39.113232 26.008259
19.412331 36.91227 26.086378
19.215017 35.220474 26.053885
18.416128 35.396339 26.070154
20.302849 36.325394 26.173115
17.126377 39.121048 26.449841
17.643969 35.337605 26.205595
18.880676 35.864552 26.234426
16.611219 40.304615 26.250254
17.217798 33.880272 26.013409
18.356836 39.371521 26.184814
17.946474 37.553204 26.090466
19.128155 35.504223 26.112139
19.718985 36.292915 26.238211
18.417311 35.199348 26.069502
17.215349 34.521687 26.033075
20.788155 33.888668 25.935532
20.34977 33.66544 25.898813
17.994545 38.5676 26.312689
17.629833 34.628643 26.062567
17.432463 33.798981 25.915928
18.309301 35.377228 26.124615
18.354853 35.295238 26.179861
18.801615 37.311573 26.172804
17.168873 34.481171 26.017477
16.814831 39.803905 26.248898
16.520933 33.690594 25.960423
18.128695 37.836861 26.24037
17.911989 34.840393 26.321531
18.002525 34.848946 26.312555
19.721357 38.298618 26.16153
19.332357 35.599838 26.161615
18.322868 37.18449 26.20533
18.81805 35.983498 26.17664
17.11128 39.778023 26.322363
16.824141 39.628006 26.36544
19.431206 36.010517 26.195671
19.006083 35.213669 26.049465
19.221653 36.424553 26.17848
19.996199 36.260952 26.116602
18.714497 35.400375 26.085972
17.009571 34.200176 26.054615
18.522869 33.754414 26.063332
18.310577 36.089363 26.019609
18.356291 35.87109 26.016127
17.815102 38.504704 26.248907
17.918573 34.73473 26.070637
18.911333 36.331696 26.181053
19.533567 36.629467 26.24428
17.919542 38.718536 26.242426
16.514387 39.860229 26.279331
18.120905 36.29694 26.025917
17.621273 35.277443 26.024118
16.801233 40.276752 26.369055
17.907335 34.72121 26.168081
16.523029 39.785248 26.321938
17.654095 34.987606 25.9918
17.363049 38.690151 26.32592
18.112629 33.722939 25.883404
17.920485 36.253006 26.061497
19.830011 33.789936 25.925579
17.318478 39.808613 26.259853
19.912285 36.251766 26.143549
18.518843 36.232357 26.114046
18.491529 35.828419 26.011517
18.003983 38.625412 26.186405
17.015474 34.097233 26.035059
17.315863 35.280243 26.026039
19.517885 37.279976 26.229282
18.827333 37.945286 26.236027
20.001865 34.136829 25.929985
19.920479 33.803608 25.896427
19.412851 33.682549 25.956429
17.925644 39.061401 26.28471
18.337744 37.586216 26.071346
17.318541 39.436474 26.311354
18.014378 33.687386 25.947952
20.311504 33.648865 26.025404
17.3083 38.335121 26.267179
17.715389 34.863766 26.30883
16.821079 33.687588 25.958206
18.516369 35.209217 26.057316
20.47463 34.138393 25.988855
18.4939 36.400352 26.031763
18.400475 38.944138 26.176929
17.798319 37.348614 26.150742
17.305855 39.311813 26.34412
17.422281 38.236115 26.171312
20.689344 35.308838 26.040646
19.332968 35.762733 26.182837
18.709234 37.819958 26.243828
17.521227 38.342503 26.251221
16.803295 34.423241 26.039375
18.48782 35.445065 26.156353
19.585972 33.279076 25.843542
18.024513 34.130997 25.93401
17.52079 38.522587 26.246586
19.515112 36.563301 26.15221
19.828516 37.075462 26.243393
20.035431 36.172829 26.092182
18.626909 36.311581 26.164124
17.81307 38.686779 26.279366
18.016012 36.206257 25.954153
18.988562 37.253601 26.137074
20.002897 35.569981 26.14188
18.404287 38.750092 26.151611
17.730555 34.616226 26.057123
19.917332 37.083466 26.26528
18.199471 37.292919 26.228348
18.511185 38.213196 26.185347
19.114344 37.276157 26.337149
17.117832 34.098995 26.035973
19.010489 38.22847 26.179537
18.311846 38.229481 26.299034
19.217894 35.499458 26.13426
19.976822 36.041683 26.229345
20.315201 33.682854 25.973349
18.508627 35.267384 26.092609
17.416597 34.278252 26.059881
20.122314 36.62307 26.275419
19.217295 35.815475 26.146723
17.128618 40.057125 26.370068
19.12149 33.663464 26.01305
16.653452 39.370026 26.288862
19.496727 36.038006 26.139456
18.719013 37.102432 26.17205
17.313299 33.684204 25.949713
19.709585 37.335339 26.171091
19.392845 37.060001 26.211962
17.421429 38.913166 26.294756
18.314219 37.348461 26.078678
16.517565 34.774597 25.908712
20.654564 33.749256 25.918444
18.597067 36.167053 26.058859
18.651081 34.536671 26.082741
17.929836 37.837265 26.246363
18.41511 33.332535 25.837183
17.3153 33.760117 25.983
16.628654 34.787567 25.925478
19.81661 38.299618 26.164192
17.528183 33.884434 25.900633
18.023216 35.14901 25.961239
18.597687 36.955765 25.999956
17.374453 38.639023 26.3356
17.324795 37.861359 26.154175
20.030405 33.902817 25.909204
18.50914 37.727718 26.212742
20.006205 33.716972 25.888077
19.074656 37.824242 26.266829
19.016127 37.327858 26.175207
18.030876 34.919022 26.345722
18.94647 38.480343 26.049435
19.623949 36.990494 26.132692
17.002066 33.787338 25.987154
18.315737 33.686069 25.952263
17.793089 38.385723 26.175346
20.212797 34.037624 25.927889
19.739256 36.264294 26.050463
17.313238 38.230145 26.177187
17.045963 34.449589 25.994123
17.518595 33.685513 25.945877
20.240646 36.181862 26.203175
19.525051 37.354073 26.247673
20.293339 37.146641 26.112051
19.896622 38.404636 26.172848
17.715878 33.654346 26.008682
17.412874 38.27544 26.203474
17.28764 39.826759 26.191032
20.237617 36.438442 26.122408
19.31378 37.285221 26.229788
18.616823 33.684975 25.953373
18.910677 36.959175 25.998861
19.61204 33.679722 25.961706
18.519451 36.151066 26.033518
20.418253 33.704369 25.891079
18.906719 37.063702 26.236523
19.215143 37.068375 26.055595
19.210045 37.80373 26.232122
16.992834 33.646973 25.855902
17.515045 34.748203 26.103683
18.00716 34.743217 26.072678
18.406746 37.778114 26.106907
18.20718 33.540859 25.879169
19.996508 33.620766 25.934988
17.817015 34.792583 26.202
19.416067 36.564896 26.160379
17.224077 39.004318 26.331429
18.402512 37.236946 26.09586
19.480064 35.579258 26.142426
18.321831 35.19622 26.063242
18.328794 33.50351 25.880552
16.929976 39.129387 26.287502
17.921967 39.116543 26.290705
17.518557 39.308014 26.32728
17.116182 39.802315 26.260199
17.119644 35.284027 26.02071
19.89871 37.125702 26.201805
17.735752 33.796814 25.899233
17.597124 34.234249 26.010393
16.824745 33.787289 25.89353
18.503382 37.184334 26.090334
18.515985 37.607616 26.239103
17.122442 34.453907 25.96879
19.32148 35.800159 26.14712
17.026436 34.375469 26.128426
17.334816 35.342579 26.128906
19.11327 35.258095 26.070606
18.809271 35.511444 26.002485
16.712046 35.252689 26.078466
17.517563 35.21199 26.045847
16.618557 35.104412 26.038538
17.362209 33.566269 25.853275
19.117697 38.251492 26.13139
17.414129 35.252312 26.063356
19.731554 36.482605 26.090904
16.709784 34.704453 25.989393
18.422142 35.2561 26.085163
18.082964 35.940617 26.001553
17.408689 38.248318 26.135798
17.118769 35.209858 26.046455
19.317139 36.563072 26.140755
19.214056 35.237328 26.000292
18.413858 38.237915 26.137278
18.195753 33.878895 25.954163
18.013205 33.495682 25.875269
18.095137 38.664463 26.288965
18.817255 36.888386 26.134918
19.921839 36.181759 26.075325
17.252359 35.133648 25.937836
17.72076 38.680126 26.292574
19.800327 36.167976 26.077566
19.696217 38.350876 26.264029
17.830748 38.629612 26.179316
19.508585 37.201195 26.204973
17.517576 38.277855 26.203444
19.531296 37.528854 26.23279
19.00642 37.832478 26.241941
18.030375 38.998619 26.29594
17.213589 35.206257 26.048935
18.442265 38.997051 26.255976
16.526344 35.216343 25.986626
16.723694 39.773632 26.328302
19.514923 33.682343 25.957966
19.124598 36.325359 26.170393
20.70043 34.073067 26.022869
18.428591 37.170395 26.199629
16.711645 33.68811 25.950338
19.314808 33.682377 25.957741
17.904715 33.386948 25.892643
18.716192 33.683174 25.954165
17.200947 33.778297 25.996359
19.310881 35.360355 26.112593
17.418409 34.729031 26.158649
19.108551 37.708969 26.272591
18.612316 38.575081 26.257587
16.818428 39.777622 26.322168
20.013662 36.946327 26.193815
20.422935 35.302593 26.031698
19.213757 35.398426 26.070017
18.418356 33.684563 25.950836
17.016407 35.2052 26.050684
18.99358 37.924763 26.251682
17.313135 35.209648 26.049173
17.616604 33.68792 25.947287
18.40733 38.845646 26.15391
16.910667 39.769989 26.32213
19.113888 37.257561 26.139803
17.41069 34.211037 26.037355
19.01366 38.278072 26.206179
20.707638 33.806858 25.934925
18.72521 35.859093 26.084953
17.594046 34.207039 26.045309
16.820641 35.206612 26.048687
18.008543 36.486385 26.051147
18.216759 37.829659 26.239267
18.40011 35.869846 26.015848
20.090931 36.357349 26.184198
20.092869 33.800606 25.822363
19.412701 36.964611 26.203516
18.343426 33.656502 26.01899
17.780973 34.569954 25.930649
18.21534 33.685211 25.948347
18.212519 37.429634 26.20356
17.927542 35.750938 26.005133
18.515371 33.685822 25.95241
17.324389 38.248592 26.131809
18.114588 33.686974 25.948118
20.502647 33.595646 26.020967
17.631725 37.892925 26.182129
19.12508 37.370571 26.246229
17.013977 39.806511 26.253782
18.010851 37.833683 26.258673
18.014166 38.312939 26.339897
18.530947 34.37838 26.086603
18.61447 37.590466 26.378611
18.91655 38.27581 26.203257
17.02791 34.397282 26.064953
18.803942 35.402843 26.058527
19.092926 37.510433 26.170071
18.113482 39.396301 26.364578
19.313974 36.885849 26.141714
17.501532 33.823635 25.915331
19.021193 35.962242 26.130442
18.329132 33.301136 25.870573
18.312803 38.275459 26.209343
17.002392 39.843918 26.204117
19.113752 36.07238 26.033096
18.308489 38.805363 26.282661
18.115974 34.201077 26.095127
17.210445 34.192139 26.049322
17.034046 40.129051 26.301485
17.095568 40.106026 26.294651
18.224461 34.394512 26.045277
17.815586 34.727608 26.084969
17.724874 39.311016 26.291391
19.298435 33.885498 25.737757
19.460791 36.833012 26.247025
17.192303 33.79678 25.903238
20.208477 34.316113 25.982664
18.116543 38.796673 26.279509
18.287331 38.485851 26.259167
19.213385 38.295338 26.158413
16.918892 34.667606 26.030495
18.728329 35.669514 26.152412
17.921965 34.168808 26.052803
19.555967 37.565582 26.15873
18.989206 37.110909 26.083424
18.509102 35.706535 26.109461
17.631601 34.589329 26.099976
17.618147 35.32885 26.106758
17.024088 39.441723 26.315498
16.617863 40.254494 26.403522
17.696501 38.723431 26.237074
16.718958 34.671577 26.034845
19.128607 36.416386 26.25473
18.526169 37.860981 26.157011
17.715195 34.785454 26.199825
17.015886 40.087158 26.353153
20.139822 38.329842 26.28511
19.208202 36.16795 26.097532
18.574402 37.0583 26.071917
17.207199 38.87323 26.341423
17.323378 34.188171 26.036327
18.647909 39.211952 26.180935
17.506926 34.504261 26.076786
18.037485 39.088348 26.322285
17.614195 34.725704 26.160088
16.636856 34.205978 26.053909
17.795401 39.300518 26.336575
18.489624 37.583801 26.062799
19.43297 35.81356 26.136477
19.076328 37.149956 26.062904
18.837433 36.464157 26.100657
17.502853 39.0019 26.305212
18.401897 39.533764 26.144796
19.942055 35.611839 26.100958
19.824266 37.292198 26.23554
20.010254 37.315166 26.224691
20.001034 35.660397 26.100653
19.125593 38.223446 26.191339
19.869919 37.28746 26.252722
18.817385 35.676739 26.154394
17.121197 34.189682 26.054766
18.096113 35.166367 25.950371
18.018583 37.572781 26.055759
18.498022 34.965954 26.092007
17.230909 39.16436 26.360929
16.915722 39.442509 26.316357
18.172743 39.044353 26.193125
20.299858 36.51387 26.237247
18.682341 36.633751 26.128019
16.718166 34.188095 26.056047
18.107389 34.824871 26.150934
20.012081 36.766422 26.025198
17.108263 38.938622 26.248327
17.724501 34.27216 26.06144
17.313866 34.745907 26.090794
20.652433 35.2644 26.004574
17.469206 36.121189 25.860632
19.643326 37.066441 26.176056
17.016935 34.291378 26.08013
17.419947 34.232544 26.005507
17.312325 34.285614 26.067604
19.779629 35.761444 26.10998
18.097626 38.892101 26.287405
19.228992 36.366154 26.239111
19.915754 37.56929 26.143707
19.911047 36.40086 26.257313
16.718412 33.964355 26.066637
19.483601 36.767605 26.032936
17.72574 34.177502 26.044329
17.711334 38.76543 26.303215
17.997219 38.705406 26.249498
19.569269 33.254219 25.78566
19.211924 36.996769 26.13418
19.71472 35.969677 25.979801
17.842588 37.431915 25.893681
17.312866 39.347134 26.294352
17.793999 38.957199 26.235302
18.27504 33.804874 25.827517
18.519207 36.986523 26.106804
18.116751 34.778255 26.016598
17.816311 35.256557 26.063658
19.011818 37.497421 26.222849
18.628054 37.013187 26.112139
17.49943 34.204334 26.037617
18.215506 33.715775 25.886196
18.916521 37.002827 26.135504
19.215101 37.289993 26.231419
17.725311 38.225113 26.175522
18.922548 37.365845 26.244181
20.092461 37.190384 26.201286
17.917759 38.339241 26.32799
17.341078 38.871647 26.339544
18.712902 36.886692 26.132137
17.415094 36.242065 25.871256
17.705698 39.436802 26.315044
20.272882 35.993073 26.044872
18.818054 38.917641 26.188232
17.499495 38.59396 26.273342
17.715687 36.31485 26.07662
18.520123 38.24052 26.131134
18.103951 34.514809 26.057199
17.108225 39.381557 26.37579
20.27528 35.014046 25.96489
18.012924 38.410027 26.19734
18.526558 38.913769 26.159428
20.000111 36.326241 26.170153
17.815695 38.329376 26.341314
18.817461 37.01963 26.047358
17.831663 33.379345 25.884443
18.313736 39.073284 26.332844
17.954987 37.246391 25.889097
18.722836 37.610641 26.234674
18.470039 38.754051 26.246437
18.211342 34.802368 26.218628
17.170937 39.642189 26.168736
18.106537 38.648472 26.218603
17.717487 38.544353 26.30365
20.268906 36.022537 26.042904
18.949453 36.069733 26.053307
17.414333 39.909443 26.377937
18.235985 39.499222 26.185217
18.729923 38.42881 26.076674
17.120243 39.12273 26.299759
18.614426 36.886509 26.13308
19.726372 37.480568 26.282047
17.662451 39.587528 26.364002
18.047653 38.451775 26.106731
18.41309 39.48624 26.191298
18.351177 39.473484 26.194014
18.395061 34.503422 26.08169
16.919514 33.653687 25.866758
17.878897 34.039478 25.976517
17.919542 39.169052 26.165194
18.737926 34.026886 25.913378
19.809343 36.754475 26.21332
18.394215 35.20126 26.170437
19.216984 36.216949 26.178234
18.614868 35.038792 26.092247
19.939735 35.406864 26.060062
19.202608 35.763828 26.186615
17.224052 34.794418 26.127811
19.113632 37.00246 26.147284
18.615641 38.278248 26.201801
17.685656 34.484909 26.160749
17.82202 38.57819 26.26932
17.113523 33.715401 25.88785
18.507807 34.021244 25.918556
18.065319 37.069008 26.076132
18.816624 36.907654 26.094465
19.857101 33.838074 25.848036
18.216251 33.776024 25.969267
16.91398 34.239616 26.011869
17.90263 34.954948 26.290033
19.135458 36.610123 26.221525
18.816471 37.224854 26.127014
19.710739 36.851398 26.064447
20.117327 38.381123 26.190952
18.194271 37.14077 26.074717
17.602987 39.543766 26.327045
18.105867 33.723034 25.793739
17.317621 34.600021 26.098356
19.878918 37.636768 26.14185
19.375141 38.146023 26.25478
19.651827 37.219269 26.236609
18.092293 34.40752 26.046648
17.793032 38.368164 26.248964
19.018759 36.808151 26.126755
18.351286 33.371113 25.889914
17.716259 38.275738 26.202091
19.309885 37.502728 26.246916
18.623505 37.403225 26.244387
18.365889 34.380634 26.085102
17.470659 40.17326 26.410152
18.627459 37.306767 26.208612
19.119699 36.800369 26.12911
17.014629 39.527065 26.339396
19.51964 36.657227 26.187134
17.917303 37.579578 26.054693
17.014235 39.974972 26.330141
19.998533 34.071503 25.870319
17.697821 36.314522 26.024794
17.648592 36.294231 26.048542
18.01096 36.625362 26.043709
19.113808 36.911369 26.091106
18.50736 35.636299 26.076206
17.584414 35.40387 26.057219
20.624413 35.391678 26.067654
18.903172 37.202618 26.1875
18.757877 38.487438 26.244932
18.711859 38.244743 26.323196
18.807745 37.171551 26.271217
19.683565 33.209869 25.937212
18.220016 38.937035 26.284613
19.909315 36.334309 26.172855
18.911572 35.640545 26.10322
18.400915 38.536652 26.147869
20.514833 34.488216 26.00082
17.307457 40.064125 26.371042
18.813026 38.369438 26.189819
16.908085 33.995781 26.012087
18.81052 33.728626 25.889826
17.55928 39.177197 26.233305
17.994722 34.423725 26.042913
18.521065 36.833126 26.110149
18.658934 38.401379 26.12505
17.02919 39.141884 26.286644
16.521038 34.259926 25.90629
17.804106 37.8102 26.234137
19.508911 36.883453 26.146851
20.298487 36.743595 26.231949
18.30772 35.0793 26.037735
17.209429 34.277016 26.076935
19.293196 37.637455 26.260382
19.824451 36.964832 26.18935
19.293449 37.775574 26.293337
17.910709 38.225742 26.177845
18.103306 38.415287 26.204498
18.998264 37.093372 26.176214
17.016817 34.736324 26.077608
17.216415 34.743206 26.087172
17.63798 38.577248 26.277552
19.39373 37.173862 26.097549
17.025436 39.840698 26.347126
18.056307 37.265705 26.088261
16.918341 39.533161 26.333099
17.117098 34.739235 26.081755
17.125711 35.144978 26.10961
19.351725 36.031857 25.973463
19.908695 34.286251 25.892725
17.115583 34.373249 26.11945
17.141064 35.122131 26.01965
18.406525 37.912724 26.270279
20.506353 35.30368 26.064499
17.110987 33.888771 26.002878
19.663136 36.280807 25.954689
18.31332 37.108913 26.180637
18.224924 38.98856 26.295795
18.909119 36.852692 26.073002
18.254509 38.348083 26.34182
19.829704 36.039501 26.146446
16.687943 39.935047 26.219278
17.539078 38.90604 26.225922
17.722996 35.103409 25.951885
17.193279 35.122189 26.120106
19.127733 37.998569 26.2906
17.420391 39.308163 26.328249
17.686029 39.082703 26.338377
17.723553 38.585331 26.274117
18.799366 37.925579 26.272753
16.915173 34.743629 26.005432
17.660923 35.142891 25.909391
18.034569 36.362011 26.058464
18.605509 34.014759 25.910076
18.916107 37.090836 26.175211
18.194178 34.190361 26.068954
17.918129 34.807114 26.138922
18.622522 37.100395 26.169786
19.444912 35.615982 26.229177
16.906914 39.86327 26.282682
17.726328 38.995621 26.302937
18.41894 36.908165 26.094547
17.021694 39.093376 26.374336
17.412819 39.856869 26.283987
20.328476 33.823002 25.914593
19.125313 37.102608 26.17436
20.016655 33.773544 25.808661
18.134285 34.583435 26.088852
17.011494 39.488876 26.40707
19.951403 36.287029 26.063726
20.205151 33.821545 25.918396
19.123421 35.880527 26.167355
17.218573 39.128101 26.301287
18.606983 35.265198 26.07412
18.244093 34.421242 25.957535
17.374462 38.956501 26.242575
16.716042 39.87392 26.285658
18.616791 37.779572 26.31012
17.507662 39.251705 26.257502
17.81234 34.634232 26.053228
17.017626 39.863533 26.280581
17.415249 39.270267 26.45232
17.221046 39.864956 26.280178
17.315611 39.858086 26.280104
20.140375 33.950539 25.827682
19.592203 38.221436 26.180271
17.372894 38.395081 26.143074
18.731823 38.925018 26.165791
17.918043 37.893585 26.162651
19.794659 35.693119 26.176132
18.621908 38.050339 26.16881
17.916515 35.256668 26.066851
17.630289 38.716541 26.238235
17.219645 39.72134 26.217596
20.618078 36.591022 26.25421
16.817875 39.864468 26.285545
18.026556 35.467625 26.164438
18.319574 34.696259 26.227385
20.217598 36.261585 26.148287
18.114244 34.7994 26.213821
17.512299 34.785309 26.194281
17.830818 34.77158 26.267578
17.612366 38.999874 26.297377
20.301479 36.22908 26.145367
17.107935 39.581623 26.283468
18.669762 35.125633 25.961119
18.999475 33.834229 25.782234
17.22525 33.719791 25.884079
18.099257 35.161739 26.334185
19.822294 37.18782 26.012596
20.117231 36.244038 26.117065
19.720339 36.34034 26.154745
18.710434 37.203766 26.187962
20.397182 36.235451 26.125301
16.714022 39.805038 26.251507
20.819309 33.713863 25.91242
17.922709 34.448109 25.947939
18.36204 39.541782 26.173365
16.7096 34.950916 25.834721
18.636168 36.033981 26.135162
17.502377 39.35738 26.29063
19.733879 37.50383 26.231495
18.399254 36.181801 26.22571
19.915527 36.112514 26.175644
20.769567 33.829548 25.93335
18.228195 35.542027 25.994526
18.796392 38.261154 26.06015
18.075451 38.358223 26.353018
18.018972 39.097317 26.148109
17.705221 39.040501 26.258259
17.163811 39.032894 26.285734
17.826954 35.939045 26.02603
18.511568 36.887291 26.132479
19.334198 37.003925 26.129526
17.527899 38.729725 26.237198
17.011976 39.611229 26.352652
19.518354 33.631241 25.927006
18.081123 39.486565 26.009855
17.614351 38.276455 26.202579
19.416117 37.52784 26.229403
18.623838 38.228092 26.319933
18.413837 36.225285 26.103512
19.914068 36.885395 26.156086
17.118841 39.863213 26.279999
17.81175 38.718605 26.243145
18.586613 38.710876 26.25025
19.780617 37.517406 26.239456
18.614111 35.369404 26.124704
19.40799 36.857315 26.055296
18.121155 37.250908 26.07996
18.201818 38.577152 26.259638
18.702841 37.392143 26.197399
19.549564 33.83382 25.795412
18.125765 38.72435 26.230658
18.422237 38.808853 26.272133
17.620422 38.810745 26.271988
19.291225 36.501278 26.287123
17.11482 33.671406 25.863888
17.213797 33.651424 25.840612
18.309013 38.909023 26.295681
18.334612 36.180233 26.198721
17.440409 36.056816 26.021961
17.736238 36.525806 26.100283
18.409336 35.087345 26.024773
18.800865 36.186661 26.064335
18.635088 36.621605 26.04463
17.333889 39.039284 26.272957
17.213192 38.29221 26.161629
16.929722 39.714291 26.385689
18.170321 38.817982 26.295654
18.897217 37.229988 26.097351
18.220245 35.079094 26.059814
17.713255 38.296139 26.163153
18.90206 37.927143 26.251358
19.609121 37.291447 26.228987
17.974874 39.309723 26.339752
17.490856 39.166664 26.353354
18.404919 38.227451 26.303671
17.421925 39.720222 26.384829
17.312332 39.158134 26.386017
18.246342 39.235916 26.313059
18.706873 36.594318 26.055708
18.222359 35.126842 26.235371
19.913645 36.744347 26.217403
18.795424 35.125473 25.947842
19.319929 36.435757 26.176647
19.111492 37.599434 26.243662
19.316692 36.908913 26.08588
19.432993 36.987446 26.129934
17.021648 34.723866 26.149746
20.022114 36.74432 26.226202
18.221149 38.233662 26.327826
18.406239 35.136444 25.951183
19.484545 37.622299 26.237175
18.416622 37.009659 26.109982
17.51852 38.246563 26.135719
17.92494 39.062038 26.343334
19.99658 33.471561 26.04586
17.798193 38.530964 26.142241
19.91415 36.662224 26.211737
19.920742 37.276962 26.030748
16.81451 39.53352 26.348202
17.901886 38.24015 26.297075
18.139536 35.936672 25.880203
18.218071 39.545273 26.106047
16.720528 39.530891 26.362625
18.111713 38.242645 26.322336
16.503023 40.431011 26.255157
18.402395 37.357605 26.085646
18.018377 37.37727 26.097542
17.524446 39.130703 26.284115
20.590317 35.277 26.097874
17.424397 39.72364 26.225565
18.897146 37.629078 26.200159
19.093933 37.947563 26.226748
18.406122 37.999062 26.132626
16.922943 33.902477 25.953314
17.415047 39.110744 26.299576
17.524317 34.856018 26.239166
18.83106 37.553699 26.180511
17.655523 35.232162 26.145527
17.50625 34.693554 25.977123
18.204172 38.487904 26.250082
18.805407 37.8265 26.245049
20.034981 36.066689 26.143463
19.387884 35.711433 26.166346
18.932505 35.76984 26.19034
19.635313 35.703957 26.159237
18.104435 35.07312 26.021885
17.820036 34.595783 26.093103
19.208046 38.279537 26.205662
18.592508 36.202881 26.180283
18.018873 38.127487 26.166178
18.125719 34.714233 26.157024
17.391186 39.400799 26.361206
20.173321 35.621822 26.02309
17.472197 34.470833 26.138525
19.409105 38.251621 26.293146
17.94611 38.097683 26.140696
16.810217 40.060261 26.359777
16.816324 39.940491 26.374548
18.210928 34.528721 26.083832
17.001888 40.001282 26.40329
17.813545 34.221798 26.003107
18.333988 34.452892 26.019644
19.630274 36.301117 26.225435
18.122566 38.499218 26.251453
20.284401 38.346046 26.239399
16.932215 40.071987 26.349411
16.911633 40.040592 26.412071
19.782028 35.857563 26.095032
16.81838 40.154488 26.3776
16.721262 40.068108 26.355881
20.421661 36.467514 26.146971
18.214977 35.039127 26.092726
18.529745 33.765846 25.986734
16.603327 40.161991 26.374142
18.116837 34.950676 26.071735
20.577068 34.776543 25.962624
17.196257 39.378525 26.368036
16.724007 40.159546 26.389614
16.332094 40.121212 26.289347
16.617653 34.33989 25.914587
17.434948 38.497864 26.231527
19.814404 36.528835 26.234911
16.517181 40.378876 26.378433
16.485043 40.234619 26.404261
16.510166 40.172131 26.38571
18.401653 34.278019 25.904379
17.317112 39.11586 26.298805
20.125078 37.022457 26.247171
17.939247 35.278488 26.226727
19.007259 35.996288 26.184494
19.213276 37.383259 26.23852
16.835896 34.13464 25.974854
17.309982 34.881729 26.167315
17.445803 40.071514 26.280615
20.412531 37.042667 26.260601
18.348358 33.357159 25.807711
17.968412 36.214382 26.116856
18.294399 34.272869 25.929272
17.503622 34.380344 26.106274
19.780624 35.900463 26.192421
18.226263 38.134979 26.272297
18.621386 36.853523 26.074116
18.709087 36.850842 26.069231
18.013235 37.674831 26.093681
17.269661 39.988075 26.206738
17.511162 34.596222 26.104588
16.920139 39.176464 26.378845
17.806732 39.036537 26.270521
18.219025 38.397636 26.1908
18.836725 33.814842 25.911625
17.665628 34.847145 26.299324
20.581722 33.780937 25.984522
17.41083 39.08094 26.335318
20.194338 35.727222 26.185951
19.702503 37.605736 26.241751
17.41214 35.381882 26.056616
18.069397 37.689716 26.090984
18.030485 38.777485 26.313046
20.237888 35.984119 26.195648
17.620556 34.101696 25.926405
18.327009 33.415794 25.852039
20.123604 36.526443 26.245584
16.613922 39.779018 26.329641
19.922098 35.522774 25.992315
19.711924 35.501392 26.007763
17.514919 33.718594 25.888527
19.839424 36.045094 26.048265
18.731268 35.033253 25.947123
17.517159 38.770969 26.309216
20.155432 35.723133 26.094292
18.403675 33.409714 25.859114
19.008371 38.233437 26.137529
18.718538 38.250587 26.130436
17.075962 39.791496 26.091238
16.915516 39.067822 26.3368
17.59621 35.148441 26.123737
18.323076 34.45211 25.953526
17.210194 39.934261 26.231691
17.321377 35.138733 26.137812
19.529226 35.870865 25.961454
19.203636 37.506073 26.216131
17.814497 38.27282 26.202988
18.037466 39.171009 25.984673
17.11762 39.08939 26.337788
17.422939 38.784557 26.317661
19.097904 37.727722 26.240908
17.59495 39.389313 26.362968
19.423727 35.898781 26.177656
18.359415 37.37907 26.230871
17.221237 38.835911 26.283091
17.92161 35.150043 26.130047
19.193684 35.579655 26.139069
17.718086 38.344944 26.265903
18.326788 34.686825 25.927643
18.702219 38.660362 26.134172
17.962372 35.226967 26.350353
18.332367 38.635742 26.150537
18.928152 37.562355 26.147978
20.02075 33.787888 26.002111
18.316994 38.761078 26.307034
18.814405 33.734795 26.038126
20.082108 33.866447 25.999256
19.11178 33.761436 26.002455
18.437477 38.059284 26.251068
18.609856 37.918365 26.25988
17.309633 39.887215 26.223345
17.621372 38.781029 26.314112
19.95583 35.890755 26.027533
18.006958 34.673294 25.950054
18.702759 37.914497 26.27022
18.190624 38.634853 26.200996
18.020239 38.243839 26.141003
19.280712 35.705322 25.997726
18.59589 38.153774 26.086517
19.534538 37.242302 26.126829
19.991516 36.285141 26.015692
17.700569 35.218521 26.172684
18.07333 37.282093 26.211847
19.218769 35.677353 26.162069
16.596338 34.91143 25.979721
17.613605 39.655212 26.303541
19.001503 36.261795 26.147532
16.798494 39.733326 26.399807
17.220352 40.062187 26.361023
19.11414 37.282372 26.213135
18.644329 38.52951 26.308258
20.729347 35.328384 25.977272
20.157804 36.10339 26.22439
17.828789 38.160923 26.259926
19.048491 36.169849 26.084183
20.009911 36.532093 26.232372
20.211227 36.161087 26.171263
20.561985 36.06699 26.102516
20.221539 36.856815 26.248755
18.515749 36.850693 26.062737
17.355587 40.043827 26.411913
18.236492 38.527985 26.310966
19.199093 37.956814 26.212467
20.296993 36.048702 26.216003
20.418297 36.128609 26.194715
18.907845 36.154312 26.012709
19.652981 36.290169 26.053993
18.320772 38.546684 26.315275
17.016737 40.220642 26.413397
20.082104 35.838715 26.178648
19.026291 37.060661 26.233219
20.115854 35.879627 26.042736
19.865566 35.744381 25.970631
19.895395 35.675335 26.114008
20.162895 36.754681 26.19241
18.688234 37.393642 26.228548
18.230089 35.134388 25.959833
20.057451 35.565506 26.061214
20.580297 35.661816 26.075956
19.808447 36.664543 26.192362
19.908125 38.275715 26.215509
19.79866 35.825352 26.16798
17.855732 37.682247 26.121977
16.911091 40.117405 26.306229
16.587536 39.539486 26.267662
19.476179 35.452339 25.995289
17.620705 39.121487 26.281788
17.911354 38.239182 26.133516
19.593803 35.733227 26.15214
18.722168 37.868351 26.174147
20.403271 36.35297 26.188051
19.719246 35.802341 26.171366
19.613934 36.00256 26.203928
18.133493 39.116917 26.275011
20.008224 36.845264 26.24119
17.236814 38.798347 26.38567
19.530195 35.809082 26.163618
19.500286 35.674374 26.149691
16.716944 40.105782 26.276649
18.332228 39.129559 26.287663
20.700405 35.447899 25.991896
20.519909 35.2136 26.069462
20.422997 36.948608 26.165899
18.240053 34.670357 26.05603
17.218163 39.834972 26.333933
18.215677 38.047688 26.240725
18.336742 37.765965 26.119171
17.705284 39.11628 26.289888
19.6208 33.851612 25.990776
20.214758 34.773144 25.992392
17.006004 39.570393 26.296751
18.306196 39.206425 26.30328
19.031454 36.36734 26.245077
18.733303 37.683578 26.273985
18.714668 37.296379 26.208431
16.824883 39.435894 26.375431
18.426758 35.623161 26.056791
17.939196 37.704254 26.299286
18.070759 36.131207 26.029787
20.700191 35.203991 25.992483
17.421499 34.889442 26.188118
18.821808 36.977036 26.180452
18.213446 37.75835 26.125298
19.414337 38.299496 26.164089
18.636679 36.516998 26.038635
17.399588 35.355633 25.936689
17.533604 35.338215 26.11904
17.925879 38.065022 26.258499
17.176563 39.262497 26.252457
18.715071 37.34029 26.17536
18.08213 34.656132 25.941025
18.01392 36.496178 26.045736
20.550213 34.345409 26.017414
18.124306 38.054039 26.248236
18.811523 38.218651 26.188843
16.320995 40.289066 26.374807
18.332668 38.10004 26.164101
20.391619 34.336773 25.990702
17.186747 39.919102 26.391659
17.102736 40.056683 26.250565
18.153002 34.343021 25.955532
18.419374 33.722572 25.885408
17.34761 34.216511 26.002502
20.125071 36.824768 26.139368
20.587944 36.178757 26.101667
17.720854 35.256111 25.922398
18.406721 37.638866 26.199675
16.524206 40.119995 26.282644
18.604956 37.339756 26.174828
18.712576 38.222919 26.184761
16.448448 34.054089 25.894754
17.405972 39.991047 26.214979
16.620016 39.662151 26.282608
19.531771 33.721634 26.035788
16.615538 34.830345 26.04608
18.798279 38.125408 26.193218
20.324024 36.837147 26.279902
18.222485 36.064278 25.996851
20.584442 34.329803 26.015921
16.802841 40.192299 26.328644
16.603947 40.272076 26.344151
16.445457 40.442749 26.383156
17.093933 39.699005 26.417374
16.507832 40.279896 26.36347
16.718929 40.287075 26.346716
17.008318 40.142368 26.40583
19.113743 38.21241 26.27161
16.887619 34.591911 25.940014
17.237736 39.164406 26.182671
16.510107 39.845615 26.354485
17.109272 39.916985 26.400335
18.699327 38.187458 26.014656
17.644754 38.516983 26.245935
16.910614 40.15263 26.391129
17.92861 38.537769 26.143293
17.300459 34.965088 26.0907
18.413445 37.476738 26.103682
18.232988 34.763763 26.37582
16.635027 40.025135 26.253082
18.123917 39.213322 26.138678
18.721785 38.055614 26.246824
20.316132 38.418869 26.132053
16.717442 34.881187 26.019367
17.616051 39.441246 26.30582
18.254354 36.249538 26.023325
17.815586 38.237484 26.136108
17.227665 34.839123 26.252148
18.018345 33.401726 25.855597
19.813711 37.609486 26.248882
18.924343 37.8381 26.260038
19.206982 37.534821 26.183468
16.86713 35.096069 26.104263
18.925222 38.025391 26.259598
20.304504 36.147617 26.212412
20.231142 36.427662 26.200085
20.138294 36.640423 26.113472
18.509727 34.817108 26.141638
19.122978 35.379517 26.058651
17.525126 39.700653 26.434278
19.037006 37.971012 26.249653
17.119074 38.924404 26.368
18.317053 39.217636 26.147806
18.090582 34.58754 25.925453
18.342348 39.299885 26.177073
20.308037 36.491455 26.298891
16.999163 39.699211 26.372782
17.416965 39.678402 26.280828
20.158037 38.474724 26.153254
17.302589 34.85704 26.261629
19.7111 35.904205 26.172453
18.321608 35.161591 26.140182
17.161356 35.033848 26.119459
19.580158 35.518616 26.033161
20.14786 36.143269 26.150913
18.009071 35.584385 26.135798
20.493042 35.500916 26.053974
20.63063 35.547951 26.073381
19.65513 37.565674 26.19224
17.281645 39.194477 26.477371
18.986483 36.870506 26.333828
18.823366 38.444366 26.306332
17.890574 35.59502 26.130955
18.322054 35.940033 26.076124
20.505243 36.548027 26.138407
19.918318 37.697346 26.06312
17.187826 40.133366 26.423042
17.105598 40.260704 26.34453
17.092112 40.218731 26.327044
20.341539 36.424973 26.201319
18.837564 38.157997 26.259048
17.799873 39.433105 26.304401
18.898132 38.24234 26.326378
20.229862 36.382381 26.274944
20.629162 34.628681 26.040377
17.50001 34.144562 25.915125
17.424576 38.121544 26.151291
17.450842 40.066235 26.315632
19.603901 37.706902 26.187687
18.495619 35.881618 26.104084
19.947073 36.060429 26.138981
19.359789 38.053799 26.239157
20.067799 35.846771 25.974705
20.010376 38.369152 26.190607
19.392826 38.019485 26.244423
17.412483 34.131252 25.970661
20.011499 35.446896 25.98035
17.374489 39.605251 26.372986
19.394112 37.998917 26.192101
20.195755 33.965309 25.882513
18.258324 36.508621 26.042366
18.565201 38.841797 26.282108
17.880678 38.529137 26.313875
19.019356 38.029957 26.260727
19.584581 37.38242 26.257475
17.893671 38.856602 26.326735
18.326401 34.183468 26.020447
17.171421 40.268562 26.33452
18.806553 36.816177 26.112917
18.10005 39.231388 26.216389
19.090515 38.018627 26.258699
17.119659 34.290604 26.070086
20.029421 36.49052 26.274734
20.093264 36.013832 25.952763
18.307529 34.974186 26.07933
18.406895 34.830616 26.141523
20.563671 38.357586 26.229454
19.07398 35.836658 26.202784
18.989796 36.793682 25.985044
20.115337 36.937817 26.20504
18.909182 35.381989 26.044554
17.835178 35.359409 26.076887
17.481222 38.390327 26.342604
19.016409 37.732136 26.235636
18.21434 39.12896 26.285643
16.714142 39.842777 26.352482
18.876198 37.964584 26.233547
16.813631 39.921131 26.227072
17.242754 39.739578 26.400026
18.914743 38.140438 26.267797
16.506218 35.001163 25.953268
16.680595 34.875656 25.883757
18.841463 38.067261 26.256561
18.618856 37.650204 26.110161
19.725554 36.337013 25.955639
18.618139 38.732018 26.132862
18.314056 37.634247 26.203264
18.587181 39.326847 26.184603
18.60508 38.138035 26.279152
18.559362 38.561417 26.135836
17.445198 36.133286 25.980194
18.79417 37.866505 26.196667
16.545498 33.963604 26.074097
18.030502 38.162125 26.271685
18.510025 37.678883 26.086971
18.478569 38.785995 26.145567
18.425964 38.14085 26.262907
18.407145 39.173409 26.165735
18.403091 38.626999 26.156097
17.704983 34.472378 25.993406
18.415535 39.304623 26.176567
17.733959 38.839512 26.416924
18.408539 37.667709 26.107433
17.293221 38.779869 26.323862
18.00169 37.75264 26.120647
17.625626 34.457546 25.991632
18.142059 38.842171 26.024014
16.436783 34.460632 25.90259
18.316158 37.56031 26.11904
18.322912 38.789261 26.144537
18.784126 36.635262 25.916376
18.412367 34.190899 25.864885
18.399128 39.252514 26.184919
18.684555 38.086784 26.140009
18.202888 39.170803 26.166122
18.403875 39.383507 26.182993
18.622074 37.87759 26.216299
18.608524 37.77626 26.145847
18.717434 35.569633 26.006298
18.390591 33.972549 25.89628
20.177933 37.142773 26.085581
17.909632 37.763382 26.114157
16.527803 34.057354 25.882755
20.522121 36.144665 26.096958
18.82287 37.006287 26.122694
18.113119 38.345203 26.092445
16.748909 40.003448 26.274294
17.811247 37.761459 26.097853
19.23185 37.07568 26.22123
18.448814 35.578671 25.947119
18.093081 35.742722 26.151707
19.097668 35.771194 26.183044
18.873766 35.288822 25.835846
17.916706 38.762672 26.299936
18.422941 34.950649 26.075037
19.924446 36.416454 26.218111
18.325747 37.865349 26.181259
17.832304 37.426365 26.10157
18.155783 36.02132 26.146175
19.167784 36.757656 26.045105
18.348648 38.507092 26.143661
18.335274 37.709667 26.093746
18.415705 37.555748 26.106754
16.903797 40.022755 26.268524
17.204071 34.374725 26.103823
17.922394 33.714367 26.057684
17.379417 38.85696 26.341076
19.613459 38.300682 26.160908
17.596495 34.461357 25.893761
19.710947 38.279297 26.20982
18.411247 34.450249 25.951445
18.360668 34.622116 25.943321
17.893 35.891338 26.127634
17.853107 35.444916 26.015493
17.829334 35.088245 26.043489
17.333393 35.357227 26.02249
17.100416 39.261448 26.253361
18.111609 38.545422 26.133059
19.027071 35.747856 26.171793
20.723577 33.614674 25.938232
17.793797 35.626183 26.032742
17.688475 35.631001 26.007515
18.313385 33.802452 25.906921
18.328165 35.673706 25.987358
18.921564 35.673008 26.151346
17.504686 35.516743 25.977707
18.32246 35.532463 25.997538
18.380499 38.709682 26.215031
20.292721 33.599361 26.010063
18.402456 39.185516 26.135294
18.396852 36.167759 26.025166
19.00148 35.694759 26.159498
17.519979 35.240421 25.882498
18.339792 35.59483 25.972071
19.512062 36.080616 26.219715
18.412598 33.824303 25.911037
18.402788 35.532948 25.999916
18.500109 39.280018 26.170401
20.271259 34.681114 26.028837
17.309038 39.564255 26.274595
18.410316 35.428753 25.983177
17.202911 34.872139 26.164856
17.522886 34.882954 26.150549
17.616926 34.851257 26.238382
18.404211 36.220589 26.009129
16.505329 34.380054 25.88759
17.83259 34.457203 25.974228
16.900137 34.483635 26.085888
16.738022 34.484138 26.105661
18.402422 35.667473 25.981695
16.730194 34.050011 26.089912
17.418602 39.271366 26.272469
18.313391 34.997398 25.991175
17.506533 34.241821 26.009481
16.594221 40.375683 26.217518
18.401751 34.583031 25.93314
17.329782 34.147984 25.965754
18.257353 35.593357 26.017664
17.719604 35.364624 26.103659
18.432507 36.952122 26.021032
17.280075 39.63055 26.217663
20.599556 35.464191 25.98394
16.500397 34.237862 25.930328
17.009329 39.923603 26.215988
18.304918 35.182858 26.349453
18.410185 35.328568 25.948936
16.740808 40.191547 26.330379
18.3909 34.722221 26.180096
18.402872 35.910496 25.999859
18.109169 38.153912 26.277805
18.204544 38.345604 26.084248
18.221783 39.371601 26.159559
18.492973 33.404823 25.895012
18.372732 36.316906 25.964619
17.209587 39.219078 26.316963
18.409262 33.505062 25.879425
18.428707 34.743488 26.094643
18.216352 34.735275 26.074453
18.113598 38.274406 26.20236
17.358759 33.670807 25.868999
18.312901 35.619225 26.055056
17.202465 34.754784 26.018333
18.325336 35.411324 25.971964
18.349661 34.221344 25.976252
18.39019 34.532352 25.97467
17.911585 38.149303 26.264023
18.082911 38.808586 26.12219
17.020046 39.9375 26.391678
17.61047 34.383915 25.957258
17.331841 39.949123 26.388393
18.421801 34.901779 26.041769
18.428583 33.851215 25.805016
17.898342 34.604481 25.931101
18.516006 37.566799 26.150997
17.384045 35.289276 25.921724
18.611664 36.118511 26.220949
17.916063 38.274429 26.204082
18.011312 34.88649 26.185959
18.282356 35.243908 26.33309
17.619482 33.658417 25.867537
18.340952 33.765987 25.987724
17.306221 35.35783 25.919619
18.600924 35.095505 26.005102
19.385618 38.362587 26.187943
19.49427 38.361511 26.205589
17.01185 34.749722 26.012907
18.62809 33.393215 25.901796
18.647854 34.981293 26.225296
18.567987 37.91354 26.128893
17.200096 34.855537 25.9653
16.816998 34.712635 25.980103
16.643276 35.30875 25.940779
17.416054 39.216351 26.319843
18.607615 37.988152 26.291075
16.505573 33.927769 25.872597
19.223841 35.485958 26.019859
17.319681 39.215237 26.318457
18.896496 36.454182 26.152306
18.4098 38.202103 26.194889
20.201338 38.349857 26.256384
17.506878 39.438198 26.309042
17.021124 40.044926 26.279545
16.825535 34.682426 26.039856
17.805862 39.230671 26.314077
19.356541 33.352062 25.893698
18.0135 38.274685 26.203245
18.222651 38.221001 26.187761
18.091249 38.100094 26.192816
18.0606 34.642197 26.119045
17.115088 39.629524 26.35594
16.592619 34.394276 25.872158
16.806261 34.070847 26.078003
16.912783 40.185349 26.321249
17.639969 35.031181 26.105156
16.797943 39.570309 26.287209
17.82267 35.194458 26.297482
17.723055 35.085155 26.043589
16.911152 39.832455 26.345379
18.514875 33.8083 25.910694
16.410501 39.827244 26.351761
18.066109 34.00433 25.96225
17.406145 35.07003 26.047844
18.001888 34.474567 25.966133
18.417431 38.277939 26.205517
18.010607 35.099037 26.038298
18.502716 34.753792 26.088289
17.203768 35.336975 26.074566
17.510801 35.077236 26.009762
17.229521 34.964222 26.083115
19.416536 36.189632 26.072285
17.024733 34.837818 26.049229
18.039137 34.971325 26.190094
18.524298 36.321964 26.033342
19.241127 36.495472 26.120306
19.901035 36.947376 26.194626
17.020947 39.344563 26.28956
19.211866 36.284286 25.97809
16.606533 40.191818 26.339336
16.642143 40.106983 26.265261
16.943964 40.269199 26.342291
17.513657 39.03804 26.273937
18.71553 36.566402 26.150139
18.96213 37.880981 26.212263
19.510254 38.297085 26.165169
18.315559 34.758957 26.006945
17.118237 34.882469 26.166641
18.097622 37.3549 26.198322
17.107304 39.904724 26.20785
18.395842 38.086926 26.155087
18.739723 35.575661 26.237291
17.131386 34.964966 26.068211
17.20966 39.5299 26.333584
18.687984 38.368465 26.175463
17.432053 33.75412 26.042088
