# .PCD v0.7 - Point Cloud Data file format
VERSION 0.7
FIELDS x y z
SIZE 4 4 4
TYPE F F F
COUNT 1 1 1
WIDTH 1208
HEIGHT 1
VIEWPOINT 0 0 0 1 0 0 0
POINTS 1208
DATA ascii
20.597887 69.002861 27.200544
20.697371 69.42437 27.043848
20.444307 69.91893 27.037857
20.311802 68.974617 27.159798
20.456713 69.009239 27.186329
20.104624 69.053291 27.071329
20.804022 69.52269 27.062923
20.548357 69.102837 27.165031
23.601231 68.946541 27.400208
24.357765 68.948074 27.358608
23.35277 68.97876 27.382839
23.865349 68.959061 27.348633
24.063053 69.211739 27.294437
24.206459 68.991844 27.367956
23.062061 69.005508 27.314438
23.906511 68.943626 27.347158
22.093712 68.99942 27.270369
23.671089 68.999641 27.328712
23.396248 69.306488 27.240358
23.259401 69.008553 27.328999
22.570965 69.458076 27.402128
25.334095 69.67556 27.440063
23.666424 69.647804 27.105385
25.055408 69.832214 27.383549
20.7117 69.577995 26.924992
24.781498 69.583115 27.531549
24.428167 69.00444 27.341515
25.053848 69.545433 27.419083
23.54637 69.755402 27.227451
25.352175 69.772324 27.491865
24.057642 69.693527 27.245842
23.772921 69.199631 27.276894
23.850863 69.699631 27.146603
24.044706 69.274872 27.279198
23.157722 69.165161 27.331455
21.714104 70.042664 26.847765
20.324738 69.463806 27.190016
20.536671 69.42926 27.165955
24.449465 69.677071 27.265636
22.653383 69.170197 27.305901
23.539085 69.383064 27.282339
23.543072 69.60334 27.194883
21.661682 69.520493 27.104336
23.050707 69.61351 27.186108
20.169706 69.596481 27.081343
20.112806 70.028549 26.987722
20.175968 69.435104 27.088802
23.94499 69.393791 27.30151
19.202312 69.676193 27.005251
23.254581 69.170906 27.340248
19.930935 69.377266 27.088793
23.118586 69.274384 27.259365
23.676027 69.392479 27.280355
24.759745 69.282242 27.33523
22.467138 69.295876 27.210938
23.343527 69.60717 27.195623
22.084116 69.297478 27.185099
23.044233 69.37542 27.250513
19.511312 69.51825 26.998268
19.704319 69.18232 27.055225
22.644249 69.690422 27.155767
19.260273 69.590797 26.967936
25.567806 69.47963 27.264027
21.265774 70.028786 26.939747
20.257666 70.032356 26.924488
19.829533 69.172592 27.11783
21.353752 69.290131 27.161785
20.269886 69.233521 27.150265
20.042831 69.164146 27.13327
20.203991 69.761848 27.048153
20.243546 69.454216 27.060928
24.342072 69.091583 27.379141
19.960255 69.077309 27.162586
20.171486 69.092781 27.178804
19.689911 69.554291 26.994074
23.859417 69.164024 27.367275
20.268345 69.09053 27.160048
25.275442 69.593849 27.29546
19.083549 69.670036 26.981314
20.171106 69.267906 27.134993
19.855915 69.093742 27.156124
20.082478 69.321434 27.109274
21.257076 69.994835 27.115448
23.757614 69.269333 27.366468
20.06963 69.072128 27.127775
25.155775 69.606964 27.293116
23.461109 69.696144 27.215124
20.248356 69.547615 27.117151
20.65799 69.375435 27.194672
23.354982 69.69088 27.212877
21.042839 69.979187 27.08642
23.256693 69.688423 27.200918
20.798668 69.440331 27.176182
20.814964 69.659309 27.114546
21.764217 69.918411 27.03348
23.548725 69.697647 27.226456
21.265198 69.206444 27.13518
22.47117 69.402458 27.218563
21.580545 69.880684 27.206684
21.840691 69.863647 26.959106
23.153168 69.68969 27.195501
20.618973 69.449402 27.217302
20.769753 70.04554 27.050598
20.658535 69.07444 27.267899
23.061941 69.702194 27.190409
22.544441 69.598297 27.15526
21.655815 69.373817 27.175962
24.389915 69.197655 27.265762
24.363523 69.673622 27.265585
20.230234 70.075653 27.058508
20.09701 70.000595 27.015127
21.51943 69.233978 27.377132
20.842335 69.606827 27.065067
21.163437 69.125427 27.286177
21.242025 69.924385 27.012024
20.854874 70.012245 26.967014
20.564177 69.289345 27.16296
22.754858 69.71402 27.162407
21.093126 69.422096 27.188648
21.357075 69.147263 27.28467
22.254423 69.776962 27.230337
20.968521 69.647186 27.11755
20.665997 70.024689 26.94462
20.943262 69.132828 27.278967
20.966297 69.35318 27.191446
19.402941 69.392876 27.001713
25.334259 69.825317 27.424116
20.751772 69.267685 27.156191
21.261194 69.130501 27.277517
20.165737 69.997055 27.048592
21.147894 69.666725 27.141827
20.84803 69.064522 27.257542
20.766804 69.386414 27.114845
21.152399 69.065964 27.280466
20.761875 69.051521 27.243376
21.448685 69.086159 27.226854
20.474922 69.072754 27.167614
20.461105 69.175728 27.155798
23.453312 69.619423 27.206806
20.760176 69.083481 27.171919
22.651957 69.077408 27.351934
21.164377 69.98568 27.099602
25.145834 69.677994 27.352592
19.806541 69.324234 27.103308
20.98185 69.924164 26.978971
19.464783 69.59903 27.094212
20.131645 70.017212 27.12237
20.942574 69.960869 27.111366
20.917465 70.225555 26.961584
21.753668 69.382881 27.18454
20.717461 69.885788 26.973526
20.554893 69.921959 26.98509
20.379766 69.579704 27.063816
20.969185 69.884872 27.06539
21.659166 69.679695 27.121586
20.635223 69.677475 27.049959
21.593267 69.799141 27.10589
20.677618 69.820663 27.024387
24.056807 69.333878 27.442739
21.258148 69.783691 27.07262
20.362158 69.523254 27.027056
20.739693 69.772797 27.043577
21.850439 69.781548 27.115976
20.949549 69.671883 27.075455
20.882442 69.798935 27.043976
21.042282 69.78289 27.072784
20.662867 69.519394 27.058016
20.4681 69.261826 27.148685
20.446596 69.569832 27.09067
20.478636 69.276909 27.114292
20.964228 69.475517 27.109444
20.410721 69.782005 27.009104
21.123055 69.789482 27.106339
21.147034 69.264908 27.194952
20.224144 69.669312 27.000034
20.509842 69.749886 27.011951
21.411819 69.867882 27.177738
21.446718 69.776894 27.096962
21.357222 69.90004 27.027082
20.941166 69.786079 27.065226
20.461807 69.678764 27.034143
21.15456 69.756287 27.186821
21.75197 69.780342 27.122223
24.237679 69.336205 27.444805
21.342293 69.758919 27.101423
21.665205 69.778572 27.118526
20.767063 69.576363 27.101919
20.748095 69.673782 27.057739
21.944242 69.881599 27.22308
21.944672 69.675163 27.139528
21.052971 69.681091 27.085825
21.070162 69.573677 27.126049
22.564615 69.703545 27.154579
21.646994 69.608604 27.116409
20.358257 69.165474 27.143906
21.257502 70.005112 27.019472
20.558685 69.155617 27.163143
20.441053 69.484375 27.082115
20.959232 69.590332 27.065722
21.15003 69.886398 27.067478
21.471304 69.599754 27.096222
20.668482 69.208656 27.1038
21.171154 69.490929 27.084135
20.262058 69.192772 27.080175
20.266941 70.02356 27.160814
21.092453 69.918106 26.982283
22.156261 69.388931 27.208523
20.633488 69.560844 27.09783
21.432138 69.914772 27.033829
21.456533 69.675125 27.105516
20.572403 69.480042 27.091118
20.549591 69.558685 27.088037
20.547318 69.592155 27.041134
21.155653 69.999756 27.005701
21.247889 69.593719 27.087601
21.252151 69.378471 27.147388
21.159197 69.083527 27.20442
21.032827 69.666069 27.121122
21.9541 69.783966 27.13657
23.966232 69.335861 27.42458
21.037821 69.594276 27.073065
21.065157 69.999657 26.999334
21.149662 69.670929 27.079687
21.149715 69.373047 27.146173
21.046881 69.072083 27.280945
21.864933 69.884682 27.219984
21.060396 69.351807 27.19442
21.059685 69.469513 27.127417
21.048523 69.250687 27.190178
21.557289 69.092644 27.233053
21.454334 69.368034 27.163158
21.560453 69.15844 27.232822
21.548477 69.261543 27.22089
21.256842 69.668747 27.0933
22.153212 69.481354 27.204731
20.770756 70.069138 26.997133
20.85615 69.569305 27.097176
20.849329 69.650032 27.074879
20.851032 69.383728 27.126265
20.943041 69.081406 27.202013
20.864506 69.267647 27.172985
20.554409 70.0261 26.953089
20.529222 70.101021 26.931992
20.639786 69.59082 27.036131
20.553377 69.66423 27.017584
20.671637 69.081284 27.166822
20.866842 69.080849 27.184639
21.548067 69.909538 27.031929
21.555983 69.45018 27.230471
22.25069 69.384026 27.215876
22.249319 69.164856 27.279604
21.357403 69.477257 27.146994
21.36273 69.375687 27.159348
20.958197 70.089272 27.010834
20.97279 69.567604 27.123203
20.963177 69.076698 27.279301
20.463268 69.374268 27.097092
21.15461 69.563904 27.128433
21.561935 69.141563 27.29241
21.553167 69.67025 27.165167
24.657324 69.55423 27.396132
20.345734 69.376854 27.095486
23.470106 69.277023 27.267694
23.454456 69.084335 27.338839
22.64715 69.392494 27.234909
24.161049 69.387512 27.31214
23.651358 69.082466 27.396849
24.74612 69.346138 27.47937
22.552265 69.475204 27.237675
22.059053 69.68541 27.141233
21.359735 69.087555 27.216093
21.455294 69.56971 27.153978
21.954695 69.474251 27.193754
21.553177 69.47702 27.162012
20.975996 69.382019 27.130301
20.950365 69.265564 27.174953
21.257185 69.072884 27.276995
21.355486 69.166214 27.214912
25.442625 69.778549 27.486401
22.159864 69.165138 27.275263
22.161242 69.076614 27.333105
21.554838 69.078804 27.296415
23.050999 69.083496 27.374405
22.572805 68.941032 27.329531
23.452133 69.381233 27.282597
21.844784 69.98056 27.06086
21.440353 69.232742 27.305895
21.34586 69.076981 27.290037
21.957674 69.167412 27.26819
22.048695 69.47876 27.201904
21.650131 69.162865 27.241171
25.651054 69.776978 27.3997
21.556379 69.676079 27.11212
20.25136 69.720482 27.097309
20.21035 69.751846 26.987379
19.312565 69.568657 27.038065
24.453066 69.091507 27.389786
26.148796 69.651703 27.532909
24.851841 69.557846 27.412693
26.067005 69.508202 27.315582
25.389553 69.494255 27.434551
23.765165 69.320648 27.412451
26.11931 69.55909 27.374956
23.4487 69.320679 27.393637
24.343748 69.555397 27.373922
20.006092 69.433807 27.03067
26.304596 69.560204 27.382074
24.954849 69.465622 27.416622
23.651289 69.331192 27.416128
24.248713 69.242393 27.442104
24.55644 69.672073 27.333982
25.15481 69.474915 27.345741
21.556538 69.57589 27.154467
24.150299 69.458092 27.369261
22.846291 69.554466 27.297016
22.852785 69.677765 27.241791
20.170227 69.695488 27.028828
20.486393 70.022087 26.991137
24.552935 69.581223 27.329353
20.153286 69.124512 27.147495
23.556263 69.238441 27.396736
21.76045 69.978821 27.120346
20.859833 70.081268 26.996243
23.449661 69.140564 27.400389
23.051388 69.458641 27.307081
23.259108 69.366928 27.323343
23.25234 69.67514 27.25918
21.558275 69.898804 27.102974
22.155453 69.455444 27.265272
21.45171 69.904663 27.100498
21.960077 69.36647 27.256832
25.256947 69.478577 27.343155
24.461185 69.482765 27.328672
21.162884 69.358582 27.202175
20.154106 69.940521 27.208622
21.779375 69.820419 27.056835
22.150995 69.555496 27.266102
21.948017 69.554588 27.253593
22.852009 69.671227 27.337072
22.654785 69.135468 27.357464
20.531754 69.686295 27.086264
19.459908 69.754295 27.054729
23.550604 69.13726 27.402384
23.35722 69.694038 27.363705
22.246298 69.575943 27.137072
22.388227 69.437576 27.36718
22.449879 69.555405 27.28359
22.757204 69.135986 27.361731
22.851337 69.139984 27.366806
23.758352 69.14267 27.417389
21.457777 69.466957 27.217367
22.738935 69.675583 27.327612
22.171396 69.364281 27.432861
25.45962 69.483665 27.340345
22.957449 69.134918 27.371666
22.150387 69.240334 27.32716
21.054478 69.375717 27.136658
21.45265 69.364037 27.214781
23.058371 69.57933 27.258284
23.953342 69.271622 27.375038
23.355577 69.383316 27.263424
23.156775 69.260147 27.329988
23.553602 69.360519 27.344309
23.9531 69.571388 27.304789
22.745396 69.555511 27.304115
23.354395 69.679146 27.264908
21.349693 69.353035 27.203955
22.052435 69.140465 27.324202
23.650484 69.70488 27.228008
22.956457 69.760979 27.249577
22.064432 69.55629 27.264763
23.655035 69.136612 27.413897
22.353945 69.567909 27.282053
24.254816 69.264168 27.39064
19.566671 69.859558 26.981249
25.636642 69.762123 27.318872
22.25569 69.558411 27.27062
23.953413 69.139771 27.424606
22.05312 69.365799 27.259605
22.741722 69.339844 27.382427
24.15019 69.140625 27.43532
20.250689 69.739082 27.103159
24.053595 69.139702 27.433109
23.352043 69.133751 27.392889
22.854002 69.082329 27.359497
22.054777 69.460503 27.261381
23.650221 69.27092 27.361498
20.402027 69.738609 27.064459
22.658859 69.564682 27.294924
22.251387 69.458855 27.264223
23.856182 69.270729 27.372725
22.954363 69.084496 27.367182
22.953283 69.262032 27.319294
21.953987 69.671005 27.193787
24.855865 69.671638 27.342533
21.554317 69.378624 27.171577
22.056795 69.674019 27.198507
21.156706 69.468903 27.21983
24.654518 69.464111 27.400143
24.856243 69.681831 27.291964
25.147943 69.756531 27.376389
22.960478 69.5569 27.312946
24.877264 69.762177 27.287807
22.563023 69.547821 27.280802
23.554672 69.456963 27.331776
23.15489 69.36351 27.317038
24.952074 69.676849 27.293667
23.847727 69.174614 27.252258
21.559498 69.765327 27.20191
21.257914 69.258781 27.200663
20.57279 69.836121 26.99596
23.349169 69.082581 27.385731
20.308895 69.125076 27.232538
22.360104 69.456146 27.274574
22.958342 69.675049 27.24571
24.553596 69.362015 27.390362
23.751286 69.556725 27.355394
23.256746 69.138824 27.388819
19.295366 69.667175 27.081104
25.758558 69.769447 27.422642
24.056293 69.366714 27.370621
23.852381 69.487312 27.307657
25.850851 69.69603 27.392014
24.353224 69.365852 27.393717
23.052914 69.551071 27.313047
24.457649 69.366669 27.386082
25.155144 69.352028 27.401281
21.853415 69.357109 27.24629
20.676617 69.173058 27.300413
22.976896 69.461693 27.395584
25.547392 69.678932 27.357018
22.753273 69.455215 27.290743
20.76963 69.993752 26.969618
22.058798 69.262222 27.265701
23.4538 69.24427 27.39637
22.851269 69.574142 27.247204
24.264523 69.54097 27.377069
20.620419 69.941116 26.97332
23.353081 69.171577 27.346193
21.75864 69.261848 27.238665
23.154034 69.238815 27.378338
23.849619 69.547531 27.352699
24.351309 69.512039 27.222307
23.847399 69.386246 27.28607
22.655561 69.265114 27.302736
24.942196 69.600815 27.275093
23.454638 69.577042 27.281746
22.152714 69.358879 27.262011
22.555964 69.362465 27.288504
24.328934 69.604576 27.244287
20.577921 69.407478 27.098101
24.658602 69.680618 27.278894
25.953445 69.766663 27.43631
21.077579 69.299118 27.140368
22.655613 69.363663 27.291838
20.754976 69.600281 27.063728
19.756496 69.304184 27.077921
24.549273 69.773407 27.269855
26.269535 69.655914 27.427509
23.253963 69.333694 27.398386
21.946646 69.958626 27.134796
20.568844 69.492447 27.046453
21.258236 69.355156 27.19593
23.252577 69.574684 27.271053
20.457619 69.587959 27.042673
23.154596 69.676308 27.258215
25.835468 69.770363 27.421041
20.512728 69.135468 27.266344
21.751442 69.671989 27.180046
24.5445 69.396454 27.338364
25.453213 69.591896 27.303375
23.547157 69.550636 27.341864
22.653118 69.670723 27.235575
21.241287 68.995811 27.255257
21.858171 69.138771 27.31131
23.354691 69.461693 27.320126
23.15542 69.571556 27.263844
21.755993 69.893074 27.112709
23.336172 69.325623 27.38682
22.763386 69.454315 27.375492
25.761127 69.680733 27.321377
21.145388 69.296509 27.144957
21.751286 69.240242 27.317169
21.071096 69.134727 27.271481
20.848011 69.473053 27.122332
22.451195 69.36322 27.282984
21.454996 69.145668 27.297741
23.651495 69.57756 27.290031
22.55242 69.67907 27.314606
23.350098 69.552643 27.32225
22.554182 69.574532 27.231188
24.466898 69.607193 27.260386
21.655376 69.234169 27.307995
24.147104 69.553474 27.370094
23.953531 69.551674 27.352175
24.161804 69.75042 27.321108
22.655537 69.242218 27.349632
21.553497 69.236984 27.304819
25.256241 69.572334 27.34548
24.054129 69.266624 27.38623
21.652353 69.879906 27.112474
22.558678 69.67424 27.229614
24.162954 69.342262 27.450493
21.45306 70.015808 27.019106
24.555592 69.142517 27.459782
25.246859 69.678307 27.305988
21.952263 69.75827 27.21987
20.066511 69.331078 26.959265
24.154119 69.676292 27.314154
23.162249 69.458694 27.310966
24.951702 69.758392 27.309185
21.822123 70.07476 26.923471
21.459932 69.476791 27.156281
24.450897 69.675461 27.328665
24.653839 69.566658 27.233093
21.858212 69.897629 27.118616
22.066824 69.316277 27.333672
22.055719 69.16909 27.266258
23.753723 69.751236 27.310255
20.432863 70.090561 27.001602
25.147625 69.466003 27.406305
22.651958 69.478531 27.242643
24.656496 69.670639 27.338974
20.653904 69.905121 27.053743
22.451271 69.173004 27.292566
25.049175 69.752045 27.377747
25.060635 69.581879 27.344843
21.356886 69.757347 27.172796
21.86017 69.075806 27.314205
23.956745 69.691513 27.245184
24.055412 69.242355 27.427366
20.328857 69.276894 27.089201
21.75667 69.987007 27.050867
23.854071 69.138428 27.421583
25.054722 69.669441 27.359943
21.751011 69.757568 27.213282
23.352516 69.365456 27.331007
21.356642 69.2668 27.206087
21.659319 69.476501 27.165823
21.974405 69.2425 27.328112
20.653397 69.293777 27.10272
24.957563 69.674889 27.355274
22.355091 69.17128 27.28911
25.16267 69.460457 27.244892
23.252907 69.269051 27.339718
21.857069 69.752357 27.212679
21.661587 69.743706 27.196945
24.266287 69.67511 27.153837
24.856947 69.362938 27.398779
23.95418 69.676819 27.300098
24.25705 69.75631 27.32251
23.553011 69.270294 27.356869
23.056547 69.266289 27.3256
24.056461 69.5784 27.308661
20.843683 70.17511 26.985117
22.250078 69.2425 27.339975
23.256426 69.239326 27.380915
22.155432 69.570587 27.205402
24.148409 69.240578 27.431601
25.157246 69.577225 27.342085
25.06221 69.608894 27.292812
23.853451 69.676178 27.29834
21.05319 69.890816 27.063803
22.061127 69.604553 27.116081
23.350832 69.576271 27.274433
22.349558 69.674393 27.215734
25.27335 69.768585 27.304911
21.654018 69.261101 27.228886
25.271086 69.492096 27.426592
24.650936 69.777412 27.262508
23.758938 69.364235 27.355576
25.154474 69.679703 27.301807
23.954964 69.758606 27.318298
23.023212 69.348564 27.376183
21.554745 70.009254 27.028833
21.343311 69.888809 27.101048
20.650452 69.373734 27.097691
26.145063 69.67688 27.322887
21.245895 69.290382 27.151604
25.334724 69.612122 27.298845
22.553564 69.390816 27.231466
21.756697 69.679047 27.119448
22.95487 69.579437 27.250719
23.359055 69.265205 27.346983
22.356302 69.356926 27.2764
24.452768 69.576965 27.325968
25.348417 69.571953 27.354771
20.376499 69.893318 26.969391
23.751724 69.485062 27.300425
22.252348 69.365051 27.269609
24.154945 69.577507 27.31748
21.561058 69.355324 27.227474
24.053165 69.553322 27.363447
25.656919 69.691704 27.380423
22.939451 69.352829 27.383749
20.449486 70.093819 26.914268
24.554224 69.265465 27.394045
21.858198 69.476814 27.187027
23.852091 69.577225 27.301022
24.347572 69.460266 27.38048
21.859007 69.680557 27.184393
25.85898 69.599129 27.3137
20.236506 69.579239 26.99127
26.115887 69.509048 27.341627
21.955341 69.380424 27.197737
24.851585 69.6819 27.439556
24.153339 69.361084 27.375317
22.649424 69.664291 27.329227
22.754395 69.666473 27.236229
23.259037 69.749329 27.285889
20.198893 69.608116 26.979227
19.736404 69.593399 26.999094
23.464437 69.557228 27.32646
21.766388 69.330589 27.307371
23.162153 69.552795 27.316444
23.554369 69.489433 27.286518
22.180908 69.59481 27.139334
23.658108 69.562027 27.342024
23.055668 69.164879 27.3251
25.262383 69.761124 27.3815
25.650665 69.580894 27.311396
20.734373 69.871399 27.054798
23.154011 69.135498 27.381973
20.46496 69.143799 27.250092
21.654797 69.671425 27.176577
26.052464 69.673866 27.319584
23.951101 69.243637 27.418385
21.695297 69.321335 27.308786
24.055706 69.689735 27.39719
20.85692 69.282585 27.131643
23.448748 69.900444 27.257338
23.15617 69.482903 27.269459
24.245827 69.684181 27.259939
19.748611 69.470764 27.068632
24.874428 69.592964 27.253254
20.186928 69.287415 27.090401
20.647373 69.46759 27.098238
24.352266 69.391838 27.317497
21.357275 69.671356 27.100006
25.741901 69.597023 27.317026
23.654728 69.455109 27.336845
23.354803 69.748131 27.294741
23.651623 69.486176 27.292843
22.85743 69.760918 27.256901
25.051392 69.353119 27.409609
21.66045 69.45842 27.242006
22.153826 69.671921 27.199482
23.047865 69.75547 27.19125
24.466688 69.383621 27.324125
23.137537 69.759789 27.195633
21.355354 70.01532 27.00843
20.240633 69.486641 27.019957
23.215307 69.896889 27.235834
23.157812 69.329315 27.375597
23.359667 69.238441 27.387054
23.949303 69.48378 27.313765
21.954248 69.140373 27.319368
22.653393 69.456665 27.286345
22.950296 69.45916 27.297779
24.254105 69.576889 27.316998
25.557354 69.486984 27.345894
22.255871 69.476387 27.218134
22.855013 69.267807 27.314825
24.55069 69.474411 27.333096
23.657234 69.67952 27.28381
22.254202 69.140259 27.338026
22.446268 69.477013 27.227257
24.246241 69.459068 27.369024
22.959742 68.969666 27.31246
24.757521 69.578011 27.33873
19.679241 69.48967 27.062748
25.951494 69.589584 27.366014
23.05031 69.688004 27.340515
22.751915 69.864899 27.192921
23.252792 69.547997 27.321136
22.550188 69.178093 27.300919
22.350218 69.479202 27.22426
23.251043 69.678856 27.356464
24.458788 69.561569 27.385027
23.054487 69.135513 27.377693
24.353136 69.142654 27.451843
23.45676 69.267471 27.351299
24.352127 69.247665 27.442957
24.754715 69.669273 27.341825
22.154423 69.267212 27.267023
23.255182 69.453873 27.31307
24.44986 69.140694 27.45764
24.058887 69.08149 27.366306
21.554544 69.29554 27.16498
24.546516 69.463974 27.389553
24.851839 69.471672 27.34333
22.754446 69.574989 27.241627
24.35869 69.577744 27.319469
21.752703 69.160492 27.251217
19.829794 69.397575 27.078527
23.854332 69.088478 27.407553
25.055895 69.477707 27.343737
21.857924 69.266968 27.244617
23.251633 69.486198 27.274576
20.578856 69.85125 27.007566
21.257368 69.08271 27.216797
25.345081 69.670425 27.35791
26.136806 69.690636 27.467991
23.758282 69.689026 27.393839
22.450367 69.331474 27.347477
22.252556 69.341217 27.346239
23.055399 69.749901 27.257154
22.07271 69.239441 27.331982
24.656267 69.361938 27.401443
21.755625 69.574059 27.17705
22.182161 69.334785 27.330097
22.447866 69.243958 27.344425
22.366119 69.241844 27.339762
24.832029 69.477776 27.24946
23.554531 69.685181 27.373976
25.164259 69.758186 27.303146
23.753059 69.581322 27.298456
24.745186 69.805428 27.270237
21.354504 69.671677 27.148033
25.460733 69.569656 27.352142
22.755493 69.080811 27.355728
25.664429 69.568123 27.352583
22.653704 69.576012 27.23596
25.254847 69.678505 27.35545
25.664177 69.482185 27.280123
19.146465 69.572556 26.942354
23.551983 69.572014 27.288767
22.255545 69.579659 27.21298
24.548084 69.85495 27.270849
24.819891 69.890404 27.229101
22.357094 69.262184 27.284687
22.757856 69.77597 27.165747
23.956938 69.459793 27.355947
22.759043 69.360443 27.295546
24.761475 69.357246 27.399395
25.747173 69.571953 27.360491
23.454782 69.363213 27.336645
22.954559 69.23632 27.367929
20.758774 69.285011 27.120197
23.759079 69.243233 27.404079
22.758295 69.237953 27.359571
23.954557 69.085754 27.408646
24.657232 69.575775 27.332354
22.556673 69.239639 27.348122
23.054478 69.362915 27.313375
21.954058 69.464279 27.258181
22.057734 69.571877 27.200794
20.321953 69.09613 27.095228
23.854 69.751373 27.316401
25.052399 69.686089 27.293497
25.647339 69.476685 27.358023
22.657316 69.330002 27.361584
25.447731 69.680397 27.364349
20.037403 69.258598 27.081734
22.958376 69.362495 27.308485
24.853739 69.583405 27.335949
24.757492 69.261139 27.400858
24.553049 69.24382 27.455927
20.117556 69.880875 27.085993
22.854689 69.36116 27.302597
23.553104 69.083748 27.392578
20.168663 69.395271 27.06292
23.853081 69.459076 27.34931
26.036049 69.774445 27.408823
24.657234 69.268745 27.399065
22.75518 69.765862 27.255098
22.457508 69.759605 27.245905
22.357265 69.771889 27.231464
24.252729 69.16539 27.388229
24.653915 69.238823 27.459431
25.453005 69.676811 27.313597
21.154152 69.47271 27.138868
20.774305 69.475418 27.099434
20.247303 69.142334 27.136421
25.463478 69.74324 27.291578
23.552349 69.67672 27.278622
22.856928 69.762344 27.167921
20.735046 69.971031 27.06708
22.556055 69.325661 27.356487
25.04213 69.469093 27.410706
22.355785 69.317642 27.353626
23.65238 69.362434 27.347628
24.9485 69.580101 27.339413
23.750925 69.676964 27.290859
22.456062 69.572235 27.226297
22.453045 69.674416 27.225048
23.657536 69.75531 27.309692
23.576431 69.867493 27.260201
24.757685 69.471504 27.336378
23.449011 69.489433 27.283175
24.750771 69.678123 27.28521
26.243532 69.624306 27.303524
22.557543 69.263046 27.29554
24.354412 69.263184 27.393118
24.459808 69.269073 27.397575
21.956718 69.265762 27.258287
24.758823 69.243484 27.46553
23.455528 69.457413 27.32642
25.947922 69.599419 27.328321
22.354792 69.138489 27.341751
24.465584 69.464813 27.386208
24.750887 69.465454 27.403839
26.046644 69.55719 27.366898
25.958668 69.695312 27.319523
21.762043 69.454819 27.249109
23.360579 69.482048 27.282093
25.74996 69.475197 27.356274
25.833839 69.672226 27.31391
24.759172 69.561127 27.404869
24.35261 69.484886 27.319952
19.287663 69.458534 27.032652
25.561289 69.572289 27.349558
24.257362 69.139877 27.445618
23.359879 69.856705 27.2647
24.950932 69.477974 27.351208
23.756927 69.45932 27.342442
23.854391 69.361488 27.359276
23.755522 69.693001 27.23568
23.753464 69.088882 27.406363
25.652445 69.67144 27.312893
19.384531 69.746506 26.947504
23.454123 69.678673 27.271393
25.942659 69.491867 27.360161
23.8549 69.239525 27.417528
26.065491 69.597458 27.33086
25.745071 69.674026 27.374956
23.451277 69.689262 27.365906
20.652479 70.00956 27.042877
24.460142 69.246216 27.446903
23.958975 69.688293 27.395544
23.552422 69.347054 27.429541
25.863169 69.563995 27.372414
20.498001 69.953392 27.0653
23.055122 69.239655 27.372757
20.270626 69.27079 27.08976
24.252512 69.688103 27.406874
22.847992 69.482231 27.253016
23.056423 69.480431 27.261553
20.546925 69.280304 27.089212
22.953678 69.478485 27.260359
23.855225 69.682343 27.392385
22.558434 69.453728 27.282082
22.361105 69.080406 27.341116
24.15012 69.264389 27.38625
23.051023 69.676697 27.246294
20.283308 70.00666 27.040108
24.05447 69.456924 27.363003
22.058281 69.080215 27.327747
22.846069 69.23452 27.362831
24.556347 69.162247 27.399004
22.855167 69.456833 27.29455
22.454195 69.134872 27.342793
24.642736 69.478867 27.33531
23.551081 69.748924 27.302265
23.460264 69.761276 27.29291
23.85326 69.752785 27.239475
23.151541 69.753418 27.268097
21.44854 69.677536 27.154408
25.354988 69.689384 27.31295
22.757833 69.165245 27.311686
25.930872 69.674477 27.37035
24.149746 69.477272 27.317169
21.954233 69.581177 27.18742
24.446692 69.15889 27.393551
22.250549 69.269157 27.27861
21.651594 69.360207 27.234377
23.158274 69.083023 27.375774
24.358173 69.159309 27.39068
24.055525 69.482224 27.309832
22.853615 69.175415 27.317535
23.452137 69.085907 27.392956
21.757181 69.361137 27.238619
23.454142 69.178352 27.344393
21.85553 69.580162 27.183779
21.955181 69.910461 27.118326
24.550978 69.665977 27.27388
21.856571 69.088882 27.256182
22.954763 69.171951 27.323433
21.849417 69.165543 27.254997
20.659334 69.251701 27.149319
20.97529 70.005714 26.99563
21.25189 69.475441 27.140099
21.362215 69.57737 27.15526
22.353977 69.576385 27.22213
20.333525 69.258011 27.165602
21.745388 69.472946 27.18252
21.653494 69.074898 27.302858
23.956861 69.36734 27.364788
24.651842 69.758934 27.34972
22.448858 69.260391 27.290905
24.77508 69.602325 27.274895
22.847044 69.706314 27.176764
22.958941 69.389122 27.250134
24.547651 69.755547 27.336973
22.73284 69.624634 27.169691
24.155224 69.581779 27.227377
24.047791 69.750069 27.317169
21.446207 69.764069 27.188276
21.853992 69.452477 27.254103
23.567675 69.164711 27.354877
23.664101 69.743797 27.23003
23.95392 69.16468 27.374201
21.45244 69.163376 27.229824
24.056194 69.162086 27.375998
22.555099 69.081589 27.352243
21.651161 69.137642 27.299694
22.156843 69.13932 27.331573
22.457624 69.458168 27.279335
22.754972 69.485336 27.247421
21.450262 69.260468 27.216665
20.725195 69.228935 27.249689
23.752272 69.161224 27.363115
21.514997 69.378555 27.326109
22.849854 69.886192 27.197838
25.059465 69.759468 27.466511
25.254337 69.550819 27.432447
21.413975 69.323433 27.303165
23.655214 69.16967 27.359749
24.254286 69.480911 27.319014
21.85051 69.67923 27.127722
24.051294 69.75132 27.247345
25.051014 69.766693 27.303404
24.363422 69.752052 27.335649
24.443136 69.771927 27.263786
26.268373 69.730171 27.315001
25.249012 69.767632 27.492855
19.488148 69.56926 26.99264
25.759733 69.482224 27.292845
24.043671 69.394028 27.303276
21.361727 69.241379 27.283243
22.951401 69.684715 27.337301
23.174156 69.678902 27.356182
22.656683 69.767548 27.252914
21.95775 69.344002 27.319023
25.747118 69.751923 27.341082
25.448059 69.854744 27.513454
24.145733 69.164703 27.38208
22.058538 69.755646 27.227465
23.650135 69.23764 27.40202
24.74032 69.753387 27.347586
20.269844 69.387154 27.059673
24.863281 69.749825 27.368731
25.349939 69.860359 27.521502
25.353975 69.746315 27.326216
22.75811 69.265282 27.308493
22.560194 69.77018 27.24773
19.18795 69.709282 27.031847
25.465187 69.762962 27.385799
25.349712 69.752991 27.378204
25.559376 69.769836 27.485281
22.258938 69.672325 27.208508
25.560259 69.676064 27.309393
21.876881 69.327522 27.322205
21.859348 69.244843 27.318291
22.041496 69.445473 27.344715
21.648344 69.575897 27.171268
24.260174 69.365028 27.380686
24.454067 69.75148 27.338547
21.75009 69.142876 27.309361
22.954035 69.709122 27.182312
24.95825 69.569801 27.409472
25.355293 69.480492 27.347088
21.169203 69.590179 27.07847
19.490711 69.414948 27.043989
25.258179 69.820808 27.404657
25.547535 69.767242 27.404013
21.260956 69.669106 27.14139
21.260399 69.571266 27.135336
21.275463 69.458672 27.205074
24.961115 69.755638 27.37274
24.865448 69.843613 27.359156
23.857309 69.338158 27.41614
24.552307 69.554375 27.392578
24.554708 69.670448 27.423084
24.668667 69.338928 27.457613
24.434162 69.346535 27.455482
23.221411 69.58342 27.421457
24.32876 69.338036 27.44487
24.564215 69.314896 27.449348
22.56464 69.292816 27.218401
23.196634 69.520149 27.164282
22.753563 69.52417 27.166174
22.270828 69.525558 27.147476
22.845871 69.596764 27.172947
24.556341 69.788795 27.154879
24.257318 69.38665 27.319191
21.836708 69.553932 27.256496
22.645546 69.612923 27.16363
20.864973 69.140869 27.304483
22.626247 69.367821 27.147429
22.42293 69.493027 27.14345
23.221645 69.500473 27.171375
22.465267 69.585777 27.151953
22.939062 69.611557 27.174057
21.652933 69.996414 27.040117
21.366451 69.451927 27.217154
21.663599 69.935684 27.039024
20.959127 69.445801 27.187082
21.759706 69.883354 27.204538
24.158546 69.675354 27.25341
21.951574 69.91581 27.0567
23.35854 69.764275 27.210573
24.644207 69.38134 27.328997
22.95179 69.755051 27.177906
23.861019 69.694153 27.232872
24.349724 69.757782 27.263426
25.347301 69.480927 27.26417
25.568575 69.588165 27.309713
22.841825 69.345375 27.357996
25.848892 69.48101 27.280607
25.566811 69.739441 27.319336
25.657459 69.766899 27.479557
25.470961 69.863678 27.430567
24.163034 69.761467 27.25363
23.958057 69.752625 27.245329
24.246096 69.764267 27.258932
24.9809 69.830406 27.368181
23.268806 69.408043 27.277891
24.457851 69.683121 27.420357
23.680902 69.082069 27.337019
22.861691 69.391632 27.246752
23.757818 69.080978 27.358021
25.155762 69.864227 27.514397
21.329412 69.10202 27.135948
24.656092 69.684273 27.429455
24.149704 69.684998 27.40395
22.76819 68.990364 27.344677
24.567251 69.094185 27.395964
24.285295 69.296471 27.307568
24.631451 69.314445 27.32839
23.957634 69.082413 27.367804
25.254972 69.856529 27.516256
25.541496 69.702026 27.475443
25.124258 69.301834 27.363445
19.02384 69.547981 27.065453
25.151899 69.765656 27.486282
24.84614 69.469391 27.411432
22.351376 69.092499 27.289867
21.163019 69.920044 26.987978
21.449152 69.733177 27.005264
21.758078 69.092361 27.24555
21.718447 68.949028 27.221392
21.69632 69.20433 27.15925
21.954918 69.090195 27.263491
22.562792 69.093315 27.297007
22.867174 69.003357 27.300974
21.649609 69.288063 27.171963
22.222076 69.297615 27.196392
22.843901 69.088066 27.315203
22.745947 69.386826 27.232979
25.045004 69.677399 27.458607
21.668154 69.714737 27.021423
21.649897 69.085114 27.238811
24.356586 69.681274 27.410975
21.536509 69.827301 27.04278
21.919086 69.008148 27.253782
22.749144 69.09082 27.308207
21.855507 69.385338 27.183119
22.157717 69.086395 27.271111
21.068556 69.082451 27.200792
21.560259 69.596672 27.103912
24.748995 69.687065 27.44486
21.058451 69.502777 27.069986
21.116714 69.216751 27.140923
21.365967 69.601562 27.10058
21.156116 69.003624 27.187572
22.059492 69.093666 27.261909
20.756281 69.217461 27.120646
22.059675 69.385559 27.201336
21.893782 69.358627 27.105968
20.962122 69.286331 27.134844
21.349697 69.84539 27.011276
21.45546 69.300056 27.16243
21.674652 69.823303 27.05023
20.978891 69.953133 26.92709
20.941544 69.531845 27.061005
21.782307 69.297607 27.172039
21.835752 69.602684 27.122688
20.685516 70.079582 26.952774
22.348461 69.391685 27.218672
20.655542 70.010406 26.919594
20.888058 70.013977 26.923611
20.822639 70.080017 26.936764
24.701746 69.416374 27.461721
25.331163 69.560379 27.428791
24.950186 69.677452 27.447304
21.859966 69.920769 27.047991
25.283506 69.677284 27.45302
25.831198 69.78334 27.482454
25.663546 69.860001 27.43947
23.462149 69.756844 27.207857
25.161167 69.675247 27.447767
25.566792 69.885117 27.434668
25.978437 69.751732 27.343575
24.150799 69.071495 27.36414
23.144381 69.410873 27.259087
23.25425 69.07386 27.319269
23.055349 69.309662 27.260647
23.743553 69.381424 27.288471
23.432661 69.006279 27.32646
23.858908 69.092857 27.353447
25.866327 69.789757 27.345097
23.553122 69.078957 27.346836
25.247536 69.460388 27.252024
25.708307 69.566017 27.457041
25.173767 69.566071 27.421179
25.437538 69.573433 27.437155
25.417751 69.660652 27.457886
25.538864 69.498055 27.442894
25.516293 69.582611 27.442488
23.066681 69.102394 27.319714
25.154366 69.389183 27.228176
22.632692 69.083809 27.30514
23.155029 69.092926 27.314507
21.962971 69.579689 27.118788
21.939777 69.278038 27.178249
21.765141 69.598839 27.115326
21.365452 69.509453 27.072048
21.256598 70.081917 26.943521
21.528627 69.518951 27.099247
21.279821 69.481499 27.052402
21.833948 69.28363 27.170414
21.454676 69.496582 27.103241
21.354359 70.035904 26.946014
21.179689 70.034218 26.909204
21.06838 70.053627 26.948648
20.498407 69.486404 27.0091
21.173529 70.074142 26.919094
21.078018 70.020294 26.922655
21.238268 69.683968 26.998436
21.212879 69.09996 27.107365
21.563446 70.027367 26.969521
22.133686 69.276901 27.186378
21.366167 69.198967 27.144539
21.956394 69.167519 27.184338
21.756821 69.495354 27.108273
22.367649 69.287811 27.218569
21.551397 69.16861 27.157864
22.748035 69.297935 27.23365
22.936857 69.279213 27.252373
23.940197 69.612686 27.237293
21.975376 69.418488 27.117205
21.729784 69.201942 27.16881
20.555019 69.126343 27.035618
22.633755 69.226883 27.178051
20.849026 69.115669 27.090948
21.164211 69.089119 27.127644
23.52499 69.250542 27.268671
21.642637 69.977417 26.952414
21.253279 69.609085 26.984926
19.433027 69.376671 26.896755
21.87895 69.506927 27.074898
23.703176 69.59269 27.226315
22.697144 69.493385 27.154671
21.480164 69.423462 27.076647
22.116028 69.185966 27.18038
19.614573 69.648689 27.029463
21.490894 69.198898 27.146227
19.524534 69.741219 26.93935
24.882299 69.427002 27.540047
19.416826 69.718147 26.98173
20.102644 69.562057 27.063875
20.469587 69.324745 27.135763
23.264009 69.614281 27.197374
21.36132 69.717224 27.026651
22.081535 69.165161 27.189846
24.043737 69.594627 27.220667
20.957958 69.734558 27.115164
23.155491 69.606926 27.191284
21.06794 69.212746 27.132856
24.284054 69.619537 27.260662
21.417091 69.096336 27.147171
22.915079 69.74321 27.082926
23.724604 69.588654 27.185963
19.986101 69.125374 27.16766
20.833473 69.218178 27.102354
21.711163 70.026337 26.958776
22.956537 69.087685 27.304983
23.874374 69.388252 27.197952
22.893087 69.597687 27.069136
23.874746 69.6026 27.210762
24.258684 69.08416 27.375357
23.346087 69.09333 27.30776
24.271244 69.218903 27.298914
24.113667 69.146355 27.289911
24.500675 69.530724 27.263338
20.880434 69.983055 27.102346
21.099068 69.21125 27.285114
23.768408 69.006157 27.308498
24.52799 69.039085 27.298239
23.119461 69.420227 27.397738
24.348454 69.51757 27.456631
23.852423 69.526367 27.450394
23.463621 69.475296 27.423809
23.302944 69.465462 27.420368
23.937582 69.416595 27.482307
22.963518 69.556961 27.427223
24.416309 69.445755 27.498075
23.71899 69.522408 27.20624
24.578461 69.45993 27.497227
24.524563 69.458748 27.244802
23.257219 69.320862 27.25869
23.869505 69.31794 27.274504
23.729824 69.306686 27.284426
24.029705 69.516144 27.229549
24.568462 69.298706 27.329002
23.740173 69.741577 27.233477
23.24774 69.762665 27.211134
