# .PCD v0.7 - Point Cloud Data file format
VERSION 0.7
FIELDS x y z
SIZE 4 4 4
TYPE F F F
COUNT 1 1 1
WIDTH 1560
HEIGHT 1
VIEWPOINT 0 0 0 1 0 0 0
POINTS 1560
DATA ascii
45.544056 104.46832 -27.550501
48.683865 100.82947 -27.452175
45.837837 100.87467 -27.482681
45.132263 102.65501 -27.513466
45.072163 102.71277 -27.49156
46.147362 104.65841 -27.534899
47.73587 101.19366 -27.467731
47.334557 104.83028 -27.633013
45.938568 103.00089 -27.519005
47.537777 104.47382 -27.596766
45.623905 104.04394 -27.510223
46.341351 102.89743 -27.528038
48.532658 100.87066 -27.51041
47.035812 102.27021 -27.513254
47.984661 104.97635 -27.512022
46.429134 103.56351 -27.623409
48.037369 104.71214 -27.615932
46.642906 101.22571 -27.600992
46.244263 102.88677 -27.531816
46.338226 102.45652 -27.498747
47.534847 104.51324 -27.618477
48.243866 101.20675 -27.488527
45.532192 102.97914 -27.511799
47.83276 102.25996 -27.520864
45.651505 103.60943 -27.437405
45.131004 103.34216 -27.423174
46.339329 102.23675 -27.481541
45.467655 102.87056 -27.510073
47.530407 104.85142 -27.75449
48.125412 104.68652 -27.612404
45.831367 102.90223 -27.535845
47.036976 104.16534 -27.580513
45.933498 102.89749 -27.531614
46.464184 101.68096 -27.35334
46.141705 101.18404 -27.459108
45.828941 103.30786 -27.52363
48.234528 100.91167 -27.583647
46.542522 103.65632 -27.577444
47.333893 101.18373 -27.46336
46.644264 102.22976 -27.48464
46.341431 103.52937 -27.55209
48.222286 102.45356 -27.509417
45.847385 103.85055 -27.613037
47.041386 103.08001 -27.524174
46.841713 101.50427 -27.471001
47.895561 102.47701 -27.429029
47.421398 101.55582 -27.398163
45.212601 101.0683 -27.401815
46.129292 102.76808 -27.498482
46.146141 102.94044 -27.688137
46.088089 103.95418 -27.690208
45.70459 104.02221 -27.686172
47.736118 102.46476 -27.522047
45.645851 104.50962 -27.618519
45.443176 104.51971 -27.595232
45.339256 103.21812 -27.516863
46.831276 103.21445 -27.543806
45.380947 103.8334 -27.598604
45.748608 104.28391 -27.590286
47.120087 103.23317 -27.627262
47.576633 104.63913 -27.72822
45.846664 100.95773 -27.716129
46.966591 104.61739 -27.412893
47.340511 102.23611 -27.492002
46.135117 102.23667 -27.471476
47.926693 104.63436 -27.738407
46.034492 103.11173 -27.545397
47.239346 102.77646 -27.516846
45.14064 102.44787 -27.428623
45.946671 102.77451 -27.495518
48.429268 101.19712 -27.488348
45.526482 103.20345 -27.53384
47.841763 104.9183 -27.633244
46.136944 104.50243 -27.609627
45.854912 104.673 -27.713242
48.394878 101.43007 -27.421583
44.934029 103.3011 -27.495789
46.835453 102.22939 -27.492489
49.033253 104.84014 -27.759817
46.938808 101.06254 -27.451529
45.340534 103.1731 -27.472607
47.040569 101.05623 -27.455059
47.6422 100.87113 -27.49431
45.951809 101.14661 -27.41585
45.340565 101.17903 -27.400845
45.17342 100.8758 -27.448826
48.834568 104.85479 -27.753313
46.721447 102.34232 -27.457659
46.035271 104.88365 -27.811234
47.627724 103.62531 -27.562384
48.738457 100.86441 -27.519934
48.113907 101.30743 -27.482954
45.542229 103.16438 -27.483297
46.734337 101.18493 -27.461142
47.133801 103.1189 -27.552794
47.834667 103.63028 -27.569754
45.662945 103.15817 -27.475607
47.439636 102.99767 -27.538725
45.539387 104.02974 -27.506859
47.346424 101.3043 -27.361147
46.239109 102.22794 -27.476654
46.121346 103.13754 -27.638466
45.535778 104.07752 -27.568665
47.450775 101.46854 -27.439909
45.838737 103.12539 -27.555202
48.340836 101.44324 -27.458618
46.540997 103.58016 -27.601597
47.239368 102.25979 -27.51614
45.499966 101.553 -27.536467
47.047531 102.41686 -27.441427
48.458035 100.8464 -27.443014
46.081406 101.78399 -27.553232
45.118153 102.98483 -27.475767
47.538925 102.99738 -27.539795
45.332478 103.91049 -27.689856
45.238594 102.12323 -27.439245
46.441357 102.45625 -27.502129
48.533134 100.90862 -27.592558
48.273804 102.96532 -27.616831
45.7631 102.9974 -27.576279
45.351166 101.11469 -27.453138
45.73241 104.12479 -27.532936
48.043148 100.9325 -27.653151
47.041916 102.7719 -27.519007
47.450401 101.99861 -27.475924
47.937881 103.08126 -27.537893
46.439476 101.29079 -27.456259
45.543926 103.41215 -27.488321
47.633289 103.03977 -27.574032
47.72628 104.68208 -27.612564
45.166859 101.5388 -27.435425
45.209679 103.00219 -27.546194
46.142986 102.88773 -27.534027
46.147758 104.1523 -27.566755
46.838181 102.26457 -27.514067
48.252567 104.65371 -27.721903
47.535614 103.08094 -27.534401
47.63781 102.99497 -27.543003
47.730892 104.4701 -27.605112
47.84877 100.92833 -27.646162
45.750576 103.20939 -27.529362
48.344723 102.2608 -27.523386
46.538956 102.26592 -27.508488
47.336632 103.08411 -27.531507
47.631172 104.28393 -27.605259
47.043556 103.12222 -27.551697
47.740566 100.86635 -27.490463
45.742455 104.86068 -27.737303
46.224125 103.86851 -27.617874
46.540356 104.59592 -27.603329
45.158421 102.33981 -27.415407
48.055794 101.18782 -27.467207
47.63689 103.08691 -27.536911
47.018337 103.15648 -27.627947
47.340725 104.51063 -27.62241
46.036072 103.74754 -27.566019
45.159096 101.56699 -27.400702
46.540436 104.42991 -27.646498
45.828201 101.08701 -27.487209
48.063358 103.21086 -27.617197
48.207603 104.50294 -27.597692
45.669861 104.52631 -27.70471
45.554955 100.8622 -27.480778
48.159901 102.25886 -27.521824
47.726917 102.77365 -27.525591
47.089222 103.37054 -27.660089
45.456406 102.98125 -27.513197
46.938396 103.11018 -27.552181
48.794682 104.29346 -27.610907
47.344139 101.50132 -27.471519
46.542526 101.02525 -27.625372
45.342068 102.86308 -27.56208
46.04068 103.30757 -27.530119
46.443947 102.23501 -27.483419
47.138767 102.77706 -27.517298
46.548595 101.46765 -27.426611
45.247662 102.45412 -27.448992
46.405457 103.34798 -27.661283
45.468014 103.09529 -27.484579
47.990589 101.55526 -27.399897
44.927734 102.97304 -27.487885
47.395313 102.38462 -27.413084
45.554333 103.60849 -27.514139
48.389149 103.60939 -27.65102
45.951675 103.79102 -27.484331
45.934341 104.4783 -27.571198
47.721184 101.45406 -27.44894
46.632885 103.11956 -27.549276
47.736805 101.5005 -27.484846
47.640667 101.49947 -27.47991
46.8396 103.30468 -27.540939
46.131268 103.10992 -27.553753
48.00769 104.64459 -27.699152
47.733894 103.07056 -27.541355
46.439075 104.88692 -27.821356
46.318348 101.84832 -27.377613
47.43914 101.18376 -27.465601
48.250546 104.49865 -27.643444
47.300152 102.39805 -27.443182
45.322334 102.11907 -27.452196
47.539909 103.62335 -27.560619
48.086868 103.90801 -27.722162
47.627914 104.66164 -27.702051
45.536564 101.91143 -27.454226
47.135708 104.4753 -27.59354
45.338711 102.99007 -27.4932
47.340023 103.11738 -27.553324
45.181271 102.1353 -27.46525
46.430153 103.62161 -27.542839
45.64632 101.8167 -27.462908
46.13768 103.61951 -27.536201
45.090309 104.54858 -27.587091
48.151806 101.61452 -27.491831
46.450073 102.35653 -27.505829
46.310963 101.56413 -27.394157
47.230888 102.31674 -27.467854
45.629532 102.35564 -27.630066
47.529331 101.50184 -27.477135
46.042843 103.65633 -27.574732
46.445808 102.81152 -27.53792
47.539249 100.8746 -27.496338
45.336819 103.08342 -27.471605
48.144688 104.63459 -27.705275
45.614594 103.00217 -27.5187
46.081844 104.02057 -27.782518
48.073189 103.0748 -27.5383
47.235802 103.12501 -27.653652
46.727463 104.65577 -27.535086
47.825073 101.50182 -27.481537
45.981514 102.80066 -27.4009
48.139732 101.20374 -27.488121
48.133148 104.91117 -27.643375
46.354393 102.62389 -27.452391
46.737419 102.26894 -27.51195
47.839634 100.91592 -27.589115
46.026005 102.79832 -27.541534
47.937576 103.21535 -27.55151
45.634552 101.05608 -27.41783
45.096817 101.93325 -27.416508
46.439137 104.17005 -27.574909
47.533142 104.24274 -27.572458
46.635601 103.21215 -27.541969
47.935883 102.26694 -27.533089
48.342346 104.89445 -27.585964
47.232063 101.18176 -27.464916
48.940403 100.87045 -27.527382
46.129505 101.0193 -27.762369
46.939037 104.5135 -27.617113
47.938732 104.81039 -27.59918
47.539978 102.5816 -27.526091
46.740582 103.62032 -27.551167
48.206654 100.81297 -27.45763
46.338902 104.16383 -27.572247
45.444717 102.41515 -27.421669
46.550556 101.07306 -27.707212
45.94228 102.32772 -27.452108
46.734913 104.51022 -27.612453
45.519089 104.53114 -27.600075
47.440552 103.62283 -27.560284
45.946285 104.15163 -27.556189
45.536491 101.09232 -27.476585
46.400658 104.68836 -27.533712
47.439808 101.82066 -27.487963
47.138237 101.99657 -27.469896
47.1399 103.62377 -27.555071
47.139801 103.43414 -27.563509
48.635284 100.86514 -27.511099
46.247303 103.20998 -27.545486
47.786213 104.95398 -27.554026
47.931145 104.82224 -27.65444
46.535065 103.62167 -27.547453
46.135612 103.22019 -27.539036
45.935257 103.62045 -27.532301
45.937893 101.17521 -27.456812
47.8437 104.07427 -27.592524
46.536709 102.86237 -27.488209
46.638779 100.87794 -27.483097
46.5359 100.8775 -27.479759
48.300823 100.97294 -27.726702
46.152306 103.17245 -27.492256
46.432224 100.87921 -27.479521
48.227528 102.77443 -27.525024
47.872223 104.30054 -27.545385
46.436642 103.21094 -27.54134
48.0616 104.49181 -27.632141
48.101509 103.51833 -27.562481
45.853214 104.96818 -27.796913
48.107738 104.06534 -27.46225
47.439583 104.50531 -27.621235
48.494911 104.40405 -27.596199
47.839401 102.22198 -27.507582
45.483788 104.60209 -27.752033
46.540401 104.51141 -27.614769
48.194378 104.40067 -27.61278
45.732018 104.04686 -27.513779
48.245487 101.58965 -27.477335
45.947723 103.22002 -27.54001
45.152378 103.18982 -27.427481
48.116161 104.51673 -27.633579
46.836418 102.99781 -27.531471
46.733677 100.86739 -27.480701
46.638439 103.62073 -27.549747
46.741299 103.07668 -27.518778
46.738605 102.22454 -27.488726
47.73951 100.91767 -27.59226
47.245094 104.2466 -27.569582
46.23365 102.26407 -27.511637
45.033016 103.60721 -27.453247
47.939758 104.49713 -27.643677
46.038181 103.2073 -27.540203
45.826202 104.75096 -27.773998
47.236752 102.67924 -27.518749
47.631355 104.50536 -27.624832
46.642067 104.28662 -27.593672
46.636292 104.51064 -27.613874
47.336185 104.24016 -27.575731
46.841541 104.24779 -27.562601
47.740231 104.49896 -27.629015
46.839264 102.0009 -27.462076
46.740685 103.21548 -27.547129
47.848557 100.8684 -27.494911
47.633476 104.06536 -27.591585
45.226845 101.16135 -27.392775
47.437935 101.50365 -27.474504
47.927479 101.51028 -27.488665
47.039391 102.99467 -27.531977
47.299923 102.82116 -27.648743
45.932446 104.78769 -27.837433
47.626236 102.26759 -27.518499
47.7341 102.22787 -27.492304
48.667953 100.9556 -27.741335
47.237545 104.38237 -27.59943
46.342258 103.20876 -27.537779
45.206337 101.05666 -27.493622
46.231472 103.62815 -27.540974
45.945618 103.92501 -27.680691
47.134945 102.49774 -27.54385
45.046505 103.88276 -27.472158
45.31992 104.04914 -27.50985
47.531509 103.21297 -27.552629
46.64637 104.88948 -27.819365
47.03931 103.2079 -27.545206
46.33894 102.26167 -27.514576
45.647476 103.25771 -27.459173
46.148422 104.65943 -27.709286
45.544167 102.23301 -27.463034
47.132751 100.91685 -27.587233
45.533203 101.05873 -27.415491
47.533554 102.22817 -27.4979
48.030704 103.54671 -27.632914
48.24596 104.31467 -27.789963
46.335712 101.01735 -27.633265
46.035736 102.8959 -27.536642
47.02412 104.2485 -27.567543
47.136913 102.26753 -27.518312
46.345547 104.11425 -27.487741
45.972729 101.54195 -27.394495
47.538647 101.4495 -27.444054
46.936096 103.20908 -27.544369
47.346889 101.58508 -27.394382
46.638123 104.59926 -27.60713
48.539856 104.82478 -27.6558
47.527275 102.22668 -27.628304
47.726971 102.89722 -27.544146
47.724815 104.63548 -27.682905
48.633648 100.9081 -27.585848
47.634636 100.91872 -27.586973
45.842468 104.1915 -27.613899
48.337189 104.6068 -27.762691
46.643715 100.9109 -27.569233
47.335518 100.85959 -27.485945
45.529701 103.07422 -27.494955
46.031109 104.10469 -27.638483
45.744926 104.7206 -27.678501
47.240955 100.86563 -27.484119
47.336922 100.92085 -27.586258
48.339336 100.87281 -27.506836
47.124249 104.37471 -27.780949
46.537231 103.2121 -27.544607
47.139542 104.38552 -27.598463
46.517956 104.10956 -27.626005
47.633873 101.18111 -27.467169
46.735859 100.91417 -27.566351
47.436138 103.08275 -27.530121
46.427746 100.74622 -27.729778
45.638626 104.2048 -27.629419
47.788738 104.69817 -27.525282
48.139019 100.86433 -27.500547
46.337914 103.55789 -27.604519
45.94149 103.11381 -27.548891
46.041904 104.05097 -27.509983
45.814423 103.62009 -27.515633
45.522968 104.74768 -27.768013
46.837757 104.69119 -27.60231
45.016869 103.09569 -27.480326
48.036034 104.38308 -27.600105
47.043339 104.60564 -27.610006
48.33326 100.91182 -27.591278
47.340954 104.6853 -27.608644
46.735939 104.47877 -27.590158
45.733833 101.87841 -27.367197
46.522232 103.73823 -27.696936
47.532116 104.68724 -27.610605
46.539223 104.73563 -27.680681
46.540089 102.80683 -27.536896
45.0797 104.0439 -27.532969
45.838299 103.42914 -27.563324
46.038723 104.73512 -27.679827
45.94873 104.71938 -27.6695
47.829102 104.67871 -27.617165
46.532349 104.02806 -27.524326
47.432953 103.0452 -27.567459
47.340412 104.60267 -27.613201
47.44532 104.60658 -27.617369
46.137825 103.75667 -27.572876
47.535862 104.60596 -27.61414
47.833359 104.6075 -27.620634
47.239647 104.68894 -27.607052
46.238552 104.87083 -27.75947
45.049225 102.32729 -27.422424
46.624607 104.71346 -27.659567
44.810131 102.01536 -27.394537
47.345207 104.19257 -27.611774
48.95676 104.3753 -27.641251
46.441586 103.11707 -27.547884
46.739773 104.69294 -27.60117
46.238354 103.75415 -27.566322
46.437603 104.73311 -27.665049
47.432434 104.72375 -27.663408
47.229584 104.19749 -27.612341
47.841434 104.82115 -27.650606
47.140457 104.19855 -27.611525
45.949368 101.50827 -27.470383
47.029125 104.10963 -27.439034
44.945126 102.01289 -27.404112
46.933891 104.73156 -27.68433
47.03484 104.2071 -27.615612
47.145817 102.54461 -27.500202
46.445293 104.82865 -27.637447
45.334721 102.31975 -27.442524
46.241516 104.38934 -27.585438
47.406658 101.88857 -27.545609
46.032448 104.38472 -27.58881
46.73307 104.21172 -27.605562
46.232948 104.10211 -27.396608
46.839554 104.20105 -27.614798
46.740501 101.60577 -27.474079
46.206219 101.62622 -27.376106
45.432858 102.13171 -27.454288
46.043293 103.03604 -27.569862
46.94294 104.19133 -27.608961
45.193367 103.54885 -27.621675
46.220013 104.72485 -27.670568
46.450237 102.50029 -27.53207
48.114361 104.17295 -27.660839
47.241062 104.51983 -27.620525
48.042778 101.49294 -27.473391
45.264885 103.52671 -27.512852
45.047005 103.49783 -27.495316
47.040573 104.68809 -27.608002
46.642406 104.19405 -27.613708
46.139076 103.53135 -27.552708
46.042435 101.50773 -27.466909
48.047287 104.05961 -27.593771
47.036736 104.41584 -27.667912
46.83363 102.0985 -27.430559
46.338737 104.3875 -27.590425
46.961563 104.01815 -27.530127
47.53289 101.18629 -27.466496
48.740131 100.90213 -27.591639
46.937374 103.31383 -27.543859
47.24115 100.91541 -27.581814
45.34914 103.769 -27.569494
45.416775 103.26456 -27.430254
45.835762 102.41578 -27.404318
45.539574 104.67589 -27.725695
46.229568 104.51157 -27.61488
47.837929 103.10647 -27.5058
48.439053 100.90968 -27.595116
46.244083 103.1116 -27.549397
45.339783 104.66266 -27.696745
46.447201 104.51171 -27.618347
46.56871 101.56792 -27.374435
47.948395 103.33062 -27.593327
47.140621 104.68879 -27.603336
46.846542 104.73136 -27.667955
46.44138 104.06624 -27.579369
47.226757 103.16502 -27.498453
46.635059 104.38653 -27.592751
48.244854 100.86839 -27.508043
47.235481 104.60901 -27.613813
47.939209 100.91683 -27.595383
45.94437 101.60603 -27.455078
46.640347 100.9948 -27.540712
47.037014 100.91579 -27.577574
46.539547 103.43226 -27.558424
47.948643 104.062 -27.600576
45.457466 104.22488 -27.601534
47.735809 103.65131 -27.592192
45.747982 103.65654 -27.584425
46.640068 101.92078 -27.482019
47.84642 103.30534 -27.560345
45.173328 101.18954 -27.495926
45.552807 100.94855 -27.657089
45.85215 104.02418 -27.498583
47.538155 103.66367 -27.579817
47.521889 104.41701 -27.647087
47.839195 102.36098 -27.515303
46.534599 100.82244 -27.422546
46.43404 104.86683 -27.756538
45.727318 105.03549 -27.756273
48.393959 104.09881 -27.645592
45.747696 104.05752 -27.56724
45.647743 102.96507 -27.45726
45.840893 103.80994 -27.470924
47.534309 100.91721 -27.591272
46.640308 102.64363 -27.450573
46.546631 102.6278 -27.47261
47.432705 102.53829 -27.497116
46.343388 102.57446 -27.515692
46.84177 100.91161 -27.566595
47.334202 102.45773 -27.508448
45.164417 104.03534 -27.487755
45.655247 104.07011 -27.56249
46.043537 102.6513 -27.450964
46.735733 102.67219 -27.518431
47.238613 104.83505 -27.63324
46.335934 104.76834 -27.7806
46.637047 102.57655 -27.52099
48.135513 100.91067 -27.59424
47.331383 102.54507 -27.500124
45.846195 104.73108 -27.651783
46.771614 102.62796 -27.449369
47.69997 103.27998 -27.621727
47.909904 102.79218 -27.559282
45.264194 103.65792 -27.579264
46.671249 103.68204 -27.661146
46.036667 102.58527 -27.522684
46.136204 102.68346 -27.513878
47.431843 102.67464 -27.524643
47.23539 102.58186 -27.520901
45.639454 103.6474 -27.50392
47.92712 101.915 -27.492554
48.243065 103.32555 -27.552795
46.336323 103.66003 -27.577305
46.938457 100.87233 -27.47839
45.836132 104.85664 -27.75046
47.043976 104.78567 -27.792816
45.647469 104.75146 -27.654116
46.241238 102.68156 -27.516529
46.436268 103.97232 -27.58433
46.247841 104.48404 -27.573357
47.933262 101.94465 -27.537285
47.3438 101.60357 -27.472664
46.434952 104.47579 -27.58758
47.543034 100.99372 -27.543184
45.241867 104.47029 -27.517725
46.538086 102.57711 -27.517673
47.843147 103.66427 -27.583662
47.086479 103.58807 -27.588326
45.150574 104.06705 -27.550898
45.837273 103.01849 -27.568493
45.94389 103.04305 -27.567829
47.271008 104.03356 -27.531672
48.332912 100.93263 -27.652922
45.236488 104.30402 -27.579609
47.142799 102.80448 -27.544594
47.419659 104.67337 -27.809841
45.637524 101.91958 -27.453648
46.142929 104.48357 -27.565731
47.943901 102.01953 -27.422106
47.337662 102.6741 -27.52256
46.439098 102.67331 -27.517172
47.036819 102.57861 -27.520756
45.156494 104.25714 -27.517416
45.734467 103.88354 -27.626316
45.833908 104.28293 -27.589039
47.63789 103.30873 -27.55191
47.04343 101.18314 -27.462954
46.03054 101.95367 -27.506124
46.341923 103.84791 -27.560543
47.142361 102.67488 -27.520658
48.031628 101.4099 -27.502224
46.149723 104.73875 -27.671827
45.447392 104.09077 -27.568869
45.744675 103.61916 -27.51787
46.840347 103.6199 -27.55374
46.032009 103.62816 -27.535975
47.254845 103.45247 -27.6675
47.724087 103.31139 -27.559553
45.648441 103.4335 -27.554626
45.93948 103.43629 -27.554438
45.338169 104.06865 -27.532887
47.432217 103.39313 -27.538536
47.099892 103.47009 -27.518618
47.034592 104.73239 -27.66136
47.335758 102.57942 -27.525152
45.971172 102.20641 -27.618647
45.773472 103.5592 -27.451698
46.832691 101.45653 -27.437098
45.22398 103.07119 -27.482357
47.931896 104.61517 -27.627008
48.132259 102.35561 -27.534601
47.933575 102.34975 -27.514807
48.928791 104.84888 -27.761578
47.235931 102.53932 -27.49918
48.336987 104.82869 -27.659269
47.638088 101.00444 -27.544495
47.434879 101.92157 -27.489849
45.846645 104.37634 -27.568291
46.430111 103.95531 -27.457184
46.12429 101.49728 -27.424702
45.443626 104.2878 -27.579359
45.837452 104.07779 -27.568073
45.573399 103.88861 -27.612404
46.752865 101.99487 -27.466751
45.273777 101.9802 -27.513399
46.538128 104.06158 -27.580578
45.541599 104.89374 -27.810907
48.026531 102.27437 -27.521778
48.406475 102.31413 -27.413065
48.084682 102.1963 -27.553337
46.122334 104.83138 -27.638628
48.739529 104.8487 -27.751369
46.397152 103.6394 -27.437876
45.445473 103.67263 -27.579885
46.238377 104.0673 -27.577894
46.512295 101.5199 -27.533684
44.899677 103.72336 -27.555983
45.737331 101.92558 -27.458862
47.550049 104.03581 -27.544487
46.141891 104.06689 -27.579597
46.04298 103.70526 -27.424273
45.327427 103.61209 -27.494717
45.657562 101.09626 -27.465635
45.832664 103.75652 -27.56279
47.92382 102.46846 -27.524323
46.743179 103.35295 -27.570171
45.847382 102.13161 -27.481434
46.144238 104.60609 -27.594391
45.541977 104.59172 -27.587694
46.344147 104.85132 -27.757788
45.275188 104.60676 -27.605078
45.855305 104.60699 -27.59437
45.837215 102.64411 -27.423746
47.531128 104.0624 -27.585157
48.598789 104.04967 -27.594507
45.942833 104.60267 -27.594616
46.670151 103.56222 -27.475594
47.110851 103.62978 -27.410032
45.328274 104.29829 -27.58794
46.250725 104.28022 -27.59664
45.629353 104.60826 -27.600246
47.824905 102.44397 -27.518829
45.500256 103.79549 -27.613789
48.138966 104.40627 -27.688126
46.032166 103.42591 -27.558147
47.141975 104.61042 -27.613138
47.846428 102.96188 -27.448111
47.679874 102.96046 -27.473082
45.141529 104.14956 -27.488649
45.932495 104.06322 -27.572958
45.367165 104.37164 -27.520161
47.629173 104.68456 -27.611866
47.038208 102.67311 -27.522448
46.640854 101.06413 -27.444715
46.412853 103.25936 -27.617441
46.217907 103.79475 -27.645615
46.834118 102.7675 -27.515553
45.647152 103.85029 -27.545959
48.083874 104.23283 -27.472082
45.837383 102.22818 -27.456871
45.949322 103.84499 -27.553738
46.429733 102.95077 -27.426922
45.841347 101.60139 -27.455265
45.452702 103.20372 -27.528173
45.935783 101.02477 -27.642221
46.740574 100.99126 -27.538273
47.943798 102.7673 -27.531094
48.739647 100.9666 -27.551235
47.935905 100.99123 -27.550598
46.043274 102.25552 -27.514612
46.737541 103.76516 -27.46776
46.238934 103.08347 -27.516886
46.199089 104.5405 -27.728603
46.037159 103.08508 -27.501789
46.098869 103.57722 -27.457987
47.333126 102.0009 -27.466125
45.331306 102.22423 -27.447495
45.311153 102.85672 -27.456232
45.753567 102.90137 -27.523268
46.447258 101.02927 -27.629215
45.738453 103.31071 -27.519577
46.456226 102.64264 -27.431854
45.841518 102.98093 -27.425291
46.449989 102.57774 -27.518648
45.531849 101.15956 -27.40498
45.137566 101.8658 -27.375408
46.536957 101.49772 -27.469116
46.131268 102.54705 -27.479155
47.945004 101.82586 -27.565521
46.640614 102.45638 -27.505165
46.93895 102.80717 -27.54302
46.048859 103.19312 -27.469995
48.232109 104.91331 -27.645544
46.433609 101.9523 -27.499489
45.146767 101.83013 -27.457544
46.541542 101.95991 -27.506111
47.440659 101.28685 -27.464008
46.340027 103.88313 -27.612005
46.435234 103.65956 -27.577002
45.94574 102.23886 -27.470894
46.149715 103.88903 -27.593584
47.635601 103.75195 -27.578711
48.048351 103.62764 -27.57
46.536423 102.45884 -27.504234
46.538303 104.89347 -27.822329
46.535961 102.18627 -27.538183
46.041241 102.55376 -27.473551
47.626064 101.72513 -27.489334
47.436138 100.96714 -27.467516
46.736191 102.57753 -27.519972
47.536133 101.72531 -27.489185
47.073658 103.71304 -27.6731
46.744999 102.53929 -27.492685
45.870953 102.159 -27.655718
45.626495 103.5246 -27.532497
47.038841 100.87395 -27.48488
46.938683 101.99721 -27.463469
47.7314 103.62648 -27.562687
46.73587 102.76953 -27.514755
47.357361 101.46494 -27.432058
45.370445 103.145 -27.550375
47.040337 102.01071 -27.444735
45.633335 103.11396 -27.561005
46.816174 103.83278 -27.474226
45.127014 103.13132 -27.523134
48.236343 104.82262 -27.652256
45.733402 104.88374 -27.824638
47.336391 100.96725 -27.464603
46.233345 104.88898 -27.823671
46.343945 102.67377 -27.515591
47.043625 102.89163 -27.533754
47.641884 104.82922 -27.637037
47.339321 102.89468 -27.535511
46.637024 102.89281 -27.531994
45.937767 102.44955 -27.491383
45.835255 101.94724 -27.509882
48.039101 104.82188 -27.650452
48.940792 104.82889 -27.676994
47.628971 104.47652 -27.599257
46.835587 102.89487 -27.530252
48.62785 104.16147 -27.589964
47.537312 102.89037 -27.537279
46.936905 102.89436 -27.533894
46.553391 104.83467 -27.639347
46.52692 103.17152 -27.490957
46.604984 103.18422 -27.496063
46.245449 102.5474 -27.485407
48.126579 104.82496 -27.652868
46.83617 103.74817 -27.571207
45.549572 103.13314 -27.543682
46.94162 102.26716 -27.518023
48.835953 104.82759 -27.673515
46.637218 101.6021 -27.469631
47.04044 102.23249 -27.489676
45.746452 104.60957 -27.606813
46.937965 102.45635 -27.508318
46.735554 104.38657 -27.59606
47.914478 103.00782 -27.586424
46.443974 101.72719 -27.482418
47.740234 104.38763 -27.611876
46.836708 104.16147 -27.581703
46.44223 102.03374 -27.491356
47.804733 102.07838 -27.571035
47.142975 104.83053 -27.643854
47.633099 102.89786 -27.542023
46.834534 104.38847 -27.597401
45.647255 103.07858 -27.487778
47.136257 102.89243 -27.532106
47.241207 102.89114 -27.534992
47.275372 102.12096 -27.623697
45.575306 103.92587 -27.452805
47.334961 102.27039 -27.514736
46.738983 102.89806 -27.529478
47.159805 102.09001 -27.577391
47.142838 102.99506 -27.533318
48.249264 102.87142 -27.535145
46.241859 102.98849 -27.530464
47.644299 101.5754 -27.558931
46.541466 101.18481 -27.456623
47.433807 102.16256 -27.553427
48.419479 104.14236 -27.590282
46.031601 102.48817 -27.533939
46.538261 100.97308 -27.465532
46.24342 100.97683 -27.454178
46.138973 100.98946 -27.537443
45.729187 103.66608 -27.659571
48.361122 101.92384 -27.547447
48.477787 104.48421 -27.601105
44.922153 102.88102 -27.443781
46.930031 100.96021 -27.635536
44.855358 102.81245 -27.426462
46.32724 103.17988 -27.493044
47.915562 103.32258 -27.551846
46.249901 103.19131 -27.477898
46.278744 100.99136 -27.711689
46.536266 101.06325 -27.447001
46.719864 103.17825 -27.492714
46.82645 103.18503 -27.474466
48.743195 100.80673 -27.534294
45.677261 103.70151 -27.655201
48.459862 101.01391 -27.713699
47.237217 101.06552 -27.451002
47.246552 100.95204 -27.722553
47.911736 102.32063 -27.424625
46.294426 101.88934 -27.535206
47.241108 102.81532 -27.542173
46.320919 102.94614 -27.442966
49.033092 104.82092 -27.678114
45.399517 103.87576 -27.591028
47.736374 102.57783 -27.531391
46.197479 102.94752 -27.433338
46.342251 102.48913 -27.533476
46.632473 103.74936 -27.569935
46.957123 102.4326 -27.405645
48.268444 101.1076 -27.515663
48.42231 101.03813 -27.431782
47.875027 101.56062 -27.53503
48.342121 100.94573 -27.496801
47.235538 102.35567 -27.507809
45.838566 102.3175 -27.426367
46.936222 104.38355 -27.594749
47.621914 102.50053 -27.547646
46.543694 104.3858 -27.59507
48.038773 101.81382 -27.509502
48.2635 102.28269 -27.502079
47.234413 102.23199 -27.491898
47.241123 100.79382 -27.456213
45.939831 104.38059 -27.579601
45.545719 102.1368 -27.464476
46.942253 102.13934 -27.498144
47.331604 102.99689 -27.537178
46.00264 102.06606 -27.588192
45.633549 102.13211 -27.469954
48.194954 102.05206 -27.509691
45.431759 102.05936 -27.481073
47.039314 100.96877 -27.4694
45.74313 102.03346 -27.490019
45.634907 102.45319 -27.474447
45.530907 101.79218 -27.406233
46.392891 104.4698 -27.716547
47.532936 103.53371 -27.56105
47.63578 102.04195 -27.503193
48.130806 102.2183 -27.508377
45.274525 102.41211 -27.429571
47.440067 104.38461 -27.599989
46.54245 102.04149 -27.492008
47.031483 101.60744 -27.47403
47.441246 101.60779 -27.475382
46.389668 101.24245 -27.390406
46.034283 101.72506 -27.483923
47.340061 101.81834 -27.483992
47.729279 101.82689 -27.492323
46.136478 101.72443 -27.486073
47.144917 102.23067 -27.492472
47.533245 101.81972 -27.488413
46.934235 102.58545 -27.523973
47.03722 101.72204 -27.487268
44.941376 102.1507 -27.430119
46.937996 101.60832 -27.472427
45.636696 101.51402 -27.464056
46.537357 101.60448 -27.469681
47.828297 101.73048 -27.499176
47.236301 103.21249 -27.548103
47.240105 103.12065 -27.552696
45.534473 101.60473 -27.457079
45.067703 101.59044 -27.402309
45.332169 102.45869 -27.415224
45.443031 101.6003 -27.434597
46.716213 101.46581 -27.432884
45.838432 101.21798 -27.567242
47.334011 103.2056 -27.547394
46.435032 100.97774 -27.460329
45.643188 100.98965 -27.544044
46.739429 100.97323 -27.464714
45.640804 101.59276 -27.439314
45.334953 101.5798 -27.429907
45.737385 100.89805 -27.552034
45.442204 103.18896 -27.475155
47.347553 103.25005 -27.598442
46.736469 103.11394 -27.55171
46.951225 101.44653 -27.443354
46.842537 100.99411 -27.54464
45.832832 100.89565 -27.549519
46.632824 103.31756 -27.542711
45.115089 101.16608 -27.383684
46.336246 100.99205 -27.73835
46.010513 102.27849 -27.607876
46.038857 100.89819 -27.553436
47.036884 101.02684 -27.63154
47.038353 101.00233 -27.544374
46.941544 100.96615 -27.464457
45.16671 103.88673 -27.462101
47.443542 100.91713 -27.589188
47.962391 101.56895 -27.526827
47.538311 101.88078 -27.541611
46.238388 101.81773 -27.479977
48.165115 103.08608 -27.581238
47.097099 101.2147 -27.341036
45.261395 101.86764 -27.473188
48.159267 100.76158 -27.465857
47.433849 102.23064 -27.49563
45.257011 101.24879 -27.376951
46.216305 102.33141 -27.443544
46.939419 100.91344 -27.576653
47.137749 103.21022 -27.544989
47.24453 100.95342 -27.638901
47.53709 102.46146 -27.512285
47.154716 100.97079 -27.752577
46.940327 102.99483 -27.536295
47.741673 100.94012 -27.641939
47.137146 100.94741 -27.638817
46.8316 103.11973 -27.54949
45.444977 101.53847 -27.366013
47.836117 102.89884 -27.548199
47.337143 100.95453 -27.636461
46.239784 100.89682 -27.554585
46.284443 103.78326 -27.513117
45.246483 101.49255 -27.455585
46.338669 100.90564 -27.562405
47.033772 100.96298 -27.64732
47.825237 101.29423 -27.472614
47.633656 100.94962 -27.641823
47.933792 101.61108 -27.486372
48.160652 104.30491 -27.621639
45.627129 102.66941 -27.491936
47.137993 103.03972 -27.584236
47.432026 102.76996 -27.52165
46.036789 100.72739 -27.537636
45.833668 103.42987 -27.499949
46.448101 100.98367 -27.715668
47.929798 102.89233 -27.552692
48.436367 100.80435 -27.524673
45.203125 102.15228 -27.570616
45.341789 103.53046 -27.532597
48.150261 101.14397 -27.450054
46.04908 103.28314 -27.419397
45.233078 101.27637 -27.410845
45.207256 100.93929 -27.446098
45.693283 102.69343 -27.560766
45.72406 102.62711 -27.669388
47.124706 100.87666 -27.706305
47.236778 100.96615 -27.46715
46.043083 102.05079 -27.496475
48.098507 104.16298 -27.581932
47.345688 101.68491 -27.463636
46.132866 101.19838 -27.546356
47.43367 100.95745 -27.640812
48.678005 104.48824 -27.609949
46.740799 102.99463 -27.531332
47.828709 102.04432 -27.51296
47.130199 101.72317 -27.489376
45.548832 103.5208 -27.51996
46.430103 100.90361 -27.561804
45.142902 104.56801 -27.532747
46.847809 103.03347 -27.575586
46.533401 101.08116 -27.482475
46.738811 100.96156 -27.641975
45.542583 100.98537 -27.525364
46.719845 101.86191 -27.535156
45.543892 101.94227 -27.502922
45.547367 102.181 -27.530966
46.835312 103.89085 -27.609728
45.509933 103.95138 -27.591372
46.52607 102.48874 -27.53747
45.327747 102.59031 -27.520672
45.843708 103.34653 -27.570415
45.927704 103.40775 -27.509245
46.237831 104.19476 -27.606304
46.041904 100.98129 -27.530722
46.043713 101.06374 -27.432453
45.060776 100.97655 -27.518436
46.241028 101.01569 -27.62604
46.241867 102.04411 -27.48827
47.11845 102.40752 -27.570509
48.271996 100.87192 -27.762213
47.240231 102.04292 -27.498104
46.790642 102.33986 -27.581335
46.042923 103.4059 -27.498484
44.926636 102.79236 -27.474644
46.534481 100.99461 -27.536451
46.634007 101.40817 -27.477608
45.438305 101.51445 -27.447182
45.536713 101.299 -27.453249
46.534176 100.91083 -27.56776
47.006432 103.76659 -27.447617
48.930374 100.772 -27.726816
44.88015 102.78316 -27.465885
47.043766 101.08041 -27.488787
48.53632 100.80539 -27.526741
47.630592 104.15652 -27.589569
47.535305 101.28343 -27.466227
45.424622 103.38762 -27.49826
45.641693 101.68575 -27.434786
47.043369 103.23434 -27.449694
46.342587 104.57498 -27.556402
46.336575 102.45369 -27.411072
48.332092 104.58709 -27.620892
46.736813 104.60601 -27.605911
46.975822 104.52638 -27.731178
46.143028 104.38441 -27.582277
45.555115 102.44021 -27.486721
46.919956 104.34653 -27.68808
48.54565 100.92555 -27.651356
46.169701 103.48244 -27.491217
46.570503 102.28598 -27.655424
46.039593 101.0809 -27.502041
45.947674 102.00645 -27.643448
46.621788 102.41206 -27.601675
48.696915 104.45023 -27.62277
47.36256 102.93489 -27.676546
46.399475 103.46059 -27.655689
46.735538 101.72125 -27.485365
45.447289 101.74518 -27.509663
46.744129 101.95696 -27.50839
46.963249 104.60822 -27.845196
47.075424 104.52439 -27.716505
46.437836 101.68935 -27.456068
46.53664 102.6796 -27.515051
45.256248 104.58456 -27.520987
46.235531 101.28673 -27.455353
46.938423 101.50726 -27.475029
47.446369 101.4157 -27.482441
46.572109 104.4619 -27.743423
45.635338 100.96383 -27.654945
45.736671 100.99371 -27.534452
46.939522 100.9977 -27.541897
46.340782 101.08764 -27.4856
48.449142 102.32821 -27.518608
47.140587 102.35679 -27.508274
46.439625 103.84553 -27.564026
45.532711 100.98583 -27.447971
47.134808 103.52859 -27.559258
45.463333 100.98183 -27.524794
45.448864 100.97649 -27.453119
46.842648 101.64742 -27.507587
47.132336 101.00051 -27.538574
47.245895 101.01791 -27.629589
47.23901 100.99196 -27.548798
47.339031 101.41198 -27.479774
48.441036 100.93188 -27.65373
46.128063 100.95329 -27.640106
47.438732 101.30303 -27.530535
47.138729 101.03309 -27.630737
48.371788 102.02428 -27.502068
48.320862 104.48565 -27.617603
45.155968 101.69664 -27.388882
46.535797 103.79257 -27.462151
46.438992 103.8203 -27.475891
46.042397 104.60168 -27.597176
44.927307 101.68693 -27.402914
46.236721 104.43823 -27.645611
46.663425 103.47443 -27.506453
47.234032 101.41657 -27.47662
45.847736 102.3495 -27.501703
47.141319 101.08643 -27.486042
46.347797 102.8615 -27.486013
45.641994 100.72315 -27.54199
48.538475 104.63938 -27.601694
45.740017 102.44506 -27.49069
45.936913 104.97276 -27.791405
45.619144 104.58336 -27.543411
48.051178 104.56187 -27.699877
46.936775 103.96787 -27.588224
45.427147 104.0031 -27.595852
47.236034 102.13845 -27.497488
44.847412 102.99073 -27.511904
46.346611 103.43365 -27.55644
48.040562 104.91994 -27.641657
48.336678 104.75107 -27.618111
46.938068 102.3507 -27.508667
46.93626 102.67889 -27.524149
45.539433 102.68445 -27.502615
47.047752 103.8765 -27.617264
47.431816 102.0351 -27.497997
48.726402 104.53146 -27.618227
45.632095 103.74902 -27.673668
48.85947 104.44532 -27.629578
47.240273 102.4544 -27.506409
46.532093 102.7214 -27.556126
45.840515 102.99082 -27.517828
45.347382 101.50303 -27.398199
46.441631 101.82214 -27.480291
46.249279 101.92042 -27.475002
46.230801 102.13448 -27.537527
46.23938 102.35757 -27.504942
47.729355 102.67412 -27.531269
46.339039 102.80183 -27.536697
47.631199 101.69894 -27.468946
46.23983 101.72839 -27.483753
47.24041 101.37666 -27.461296
45.841469 101.49796 -27.467896
47.239491 101.6067 -27.473301
47.425159 102.66458 -27.444506
47.348614 103.70281 -27.540449
45.224846 103.40023 -27.471495
46.640903 100.94642 -27.622793
47.829853 103.74157 -27.58462
46.029049 103.81485 -27.49468
46.238182 100.99639 -27.54269
47.541336 101.02882 -27.636101
46.245544 101.4138 -27.472065
47.835823 100.99304 -27.548943
47.834301 101.0884 -27.502523
46.453358 104.32086 -27.700174
48.638077 104.75146 -27.692818
45.123085 101.24928 -27.394119
46.242256 104.15971 -27.56114
48.122223 101.40726 -27.491257
46.736362 101.50386 -27.470078
46.738255 101.08019 -27.493214
46.782036 101.32832 -27.502743
48.139175 100.98026 -27.540701
48.131199 101.0057 -27.632496
48.018394 104.2915 -27.605705
47.437943 104.28639 -27.603094
46.028957 104.28676 -27.592299
47.733265 101.6086 -27.486296
46.342361 101.59763 -27.46476
47.041134 102.35564 -27.508322
47.931068 104.29075 -27.636286
47.235928 101.72736 -27.490101
46.536499 101.62859 -27.510647
45.448528 102.57722 -27.511335
47.118706 104.33051 -27.673157
47.728539 101.72202 -27.495985
47.129189 101.63966 -27.510197
44.816917 102.92736 -27.406757
46.034988 102.23719 -27.460569
48.212418 102.15172 -27.582623
45.186943 103.86883 -27.586735
46.638981 103.97094 -27.585009
47.988438 103.8638 -27.642332
48.013737 103.66085 -27.600965
45.763992 101.08662 -27.616478
46.429119 102.917 -27.60943
46.252338 104.57178 -27.56123
46.240082 103.93992 -27.541517
47.632202 103.84879 -27.579973
46.335831 101.29195 -27.454796
47.66674 101.14214 -27.439371
46.341373 101.18428 -27.455692
47.632236 101.07945 -27.491869
46.447357 101.8642 -27.524414
46.343098 103.3119 -27.539158
47.446815 104.56359 -27.562927
47.529713 104.16474 -27.586294
47.536762 103.93215 -27.568142
47.523277 103.70803 -27.540428
46.238113 101.47237 -27.425425
47.532127 101.60059 -27.477076
46.282784 101.32687 -27.37369
46.331509 101.15203 -27.419838
47.53727 101.05583 -27.456829
46.342873 101.12779 -27.621494
47.436855 100.99049 -27.545839
48.234726 104.5946 -27.615038
46.33744 100.98321 -27.459284
45.679691 101.07716 -27.292721
47.543015 102.83666 -27.517225
45.741852 102.81106 -27.559446
47.6381 104.61086 -27.616051
46.820442 103.27306 -27.435225
47.139961 101.21547 -27.616255
46.726425 103.31534 -27.457775
46.838253 100.87476 -27.484177
46.440903 102.53844 -27.48682
47.815918 103.29809 -27.4622
46.847027 102.26115 -27.652128
45.942028 102.87744 -27.473177
47.551723 103.87811 -27.605267
47.444313 103.87417 -27.618811
46.041298 102.8687 -27.45636
46.441998 100.99825 -27.534756
47.037655 103.53001 -27.556511
46.13739 102.86404 -27.488438
45.948467 103.70348 -27.513937
47.137699 103.08992 -27.52639
47.833839 103.52528 -27.570953
46.541534 103.52733 -27.5546
46.335957 103.08824 -27.51298
45.121117 103.50463 -27.454256
46.537529 103.93652 -27.55098
46.239346 102.86388 -27.491714
48.238167 102.55754 -27.507481
46.144058 103.3995 -27.512877
45.844238 101.06022 -27.433147
46.738026 103.393 -27.529287
45.471573 103.49159 -27.466408
45.417561 103.70684 -27.497763
46.735165 103.71155 -27.534235
45.152973 103.04981 -27.48502
46.436932 103.0862 -27.519947
45.251392 103.71635 -27.482674
45.125374 103.00266 -27.410337
46.337532 103.40498 -27.524046
45.152733 103.70612 -27.462105
45.20129 103.69759 -27.424652
45.247807 103.61366 -27.519655
45.33297 102.68021 -27.479065
46.54092 102.9979 -27.52903
45.343437 103.40015 -27.491991
46.631851 103.43018 -27.556719
46.040428 103.52226 -27.54265
46.535336 103.0808 -27.521553
45.421146 103.61728 -27.505573
46.637367 103.53506 -27.557503
47.437698 101.09228 -27.487219
45.513981 102.64845 -27.439156
46.834854 103.09157 -27.524435
46.841133 103.39301 -27.534231
46.542919 102.95052 -27.466887
45.288227 102.63992 -27.426401
45.348484 103.49402 -27.480852
47.228432 102.63324 -27.611164
46.430538 102.85535 -27.48295
44.863338 102.67262 -27.405594
46.130867 103.08421 -27.503334
44.931366 103.36138 -27.410088
47.956745 101.21786 -27.5937
45.91539 102.38873 -27.405708
45.941643 102.55087 -27.462992
44.741009 102.90383 -27.393353
45.943214 103.08961 -27.506271
45.192421 101.23905 -27.506289
45.731972 102.54395 -27.459505
46.739674 101.82522 -27.483213
46.633205 101.82288 -27.481684
45.442062 101.9097 -27.446611
45.442474 102.02114 -27.436909
45.54401 102.36156 -27.497061
45.532013 102.55486 -27.456299
45.538059 101.82731 -27.475691
46.842453 101.81979 -27.484724
45.732391 101.82124 -27.469242
46.937096 101.91947 -27.481667
45.724945 102.02198 -27.447945
45.737324 102.35413 -27.502159
45.740677 102.68198 -27.509941
46.933666 102.7683 -27.519186
47.253334 102.94192 -27.603407
46.841328 101.69261 -27.456442
46.934643 101.82221 -27.486351
45.846428 103.09386 -27.500513
46.837326 102.04313 -27.494585
46.841877 102.35771 -27.508417
46.133797 102.0365 -27.49295
44.946007 102.46764 -27.43837
44.955223 102.63386 -27.4461
45.733593 103.53486 -27.538858
45.93327 101.46589 -27.409456
45.952438 101.79597 -27.415005
45.951874 101.9985 -27.44404
44.819469 102.1701 -27.398115
44.847866 102.53858 -27.436823
46.03849 102.45866 -27.495707
45.771889 103.41892 -27.503201
45.356346 101.77225 -27.422018
46.540932 101.72275 -27.47987
45.944748 101.92006 -27.462477
45.363705 102.08515 -27.430578
46.537334 102.35493 -27.5037
46.735905 102.86622 -27.491316
46.738987 101.28685 -27.456734
45.121567 101.45353 -27.372818
46.237789 101.37545 -27.444441
46.242901 101.61389 -27.464243
46.334164 101.81674 -27.475424
45.143433 102.00508 -27.419828
45.167473 102.175 -27.40288
46.3414 101.91366 -27.471745
46.34428 102.13818 -27.491064
45.242844 102.63486 -27.428314
46.140366 100.97135 -27.455635
45.320732 101.23903 -27.386417
45.327885 101.36817 -27.403444
46.440037 101.49878 -27.468479
45.334839 101.69651 -27.424688
45.333153 102.00624 -27.419365
46.538822 101.91864 -27.480045
46.638546 102.49295 -27.537601
45.040005 101.18958 -27.389038
45.051571 101.33988 -27.393803
46.149891 101.14668 -27.416218
46.043076 101.69132 -27.441374
46.034286 101.82072 -27.477985
45.255745 101.68766 -27.409212
46.334362 101.37985 -27.443886
45.734856 101.68323 -27.443357
46.837318 101.6019 -27.473213
45.919899 102.18546 -27.520632
45.11792 103.80014 -27.559641
47.539806 103.34765 -27.589394
49.112877 104.2782 -27.59716
45.636234 101.47067 -27.413837
48.740086 100.8447 -27.692463
45.629421 101.16058 -27.395926
48.475365 100.70551 -27.574005
47.432785 101.19746 -27.630987
46.934914 104.61034 -27.608673
45.741203 104.37838 -27.572062
45.529602 104.96935 -27.782768
45.621147 104.4274 -27.621233
45.74651 103.76661 -27.56609
47.013176 102.39379 -27.631737
46.45116 104.42066 -27.632984
46.542988 103.74714 -27.566582
45.264271 104.07548 -27.596081
45.847191 103.97067 -27.585238
46.23737 100.87637 -27.481283
46.352276 103.25108 -27.421539
46.341488 104.2886 -27.593092
46.937832 104.06531 -27.582449
48.977261 103.3754 -27.577496
46.535885 104.19564 -27.606173
46.53421 103.97375 -27.585262
47.841991 101.60356 -27.482952
46.541588 100.79492 -27.5037
46.937145 104.28675 -27.599571
45.824406 104.16145 -27.556049
46.43734 103.94364 -27.555801
46.635502 104.34624 -27.523813
46.039444 104.15643 -27.566124
47.23756 104.06263 -27.585119
47.23727 103.93416 -27.562502
47.536613 104.2853 -27.601158
46.436543 104.19621 -27.604576
47.034035 104.38417 -27.595165
48.157398 101.88032 -27.479172
45.843506 103.5274 -27.551268
45.325321 100.87508 -27.491636
47.437344 101.72355 -27.489965
45.533741 101.40517 -27.481291
48.737762 100.91413 -27.664061
46.940781 101.02584 -27.625687
45.83704 101.46413 -27.414579
46.245686 101.79507 -27.416111
46.324451 101.46425 -27.428108
47.438725 101.01566 -27.633196
46.636463 102.00217 -27.460287
46.7332 101.3795 -27.449928
46.043457 103.35187 -27.582167
46.444546 102.01814 -27.456367
46.445599 101.91712 -27.477499
45.466572 101.68712 -27.419405
47.535999 101.38172 -27.463593
46.539276 101.28146 -27.457455
46.535095 103.39061 -27.518969
47.139572 102.45957 -27.507452
47.15485 102.31042 -27.472235
46.237213 102.00304 -27.459806
47.240387 101.92186 -27.483612
47.240585 101.82737 -27.488199
47.340225 101.37416 -27.456623
45.935032 102.67702 -27.508686
47.041798 102.45612 -27.508718
46.136894 101.90921 -27.467064
47.137615 101.82414 -27.488592
46.146519 101.69386 -27.442009
47.239033 101.28362 -27.463318
47.340374 100.98309 -27.546583
47.343548 102.7739 -27.522051
45.325893 102.44456 -27.446812
47.434834 102.35901 -27.509666
45.357834 102.35091 -27.492086
47.535931 102.13398 -27.499414
47.740856 100.81039 -27.603001
46.239902 102.57803 -27.518944
47.33445 102.35519 -27.508251
47.336491 102.13866 -27.4958
46.335007 101.95844 -27.505493
47.339741 101.92093 -27.484594
45.643345 100.75409 -27.432436
47.631279 102.67704 -27.530508
45.557796 102.58951 -27.517984
47.13784 102.5799 -27.524416
46.638557 102.35104 -27.506117
46.641495 102.03671 -27.494066
47.737282 101.91412 -27.493704
45.738106 101.59875 -27.447737
46.731693 101.41394 -27.47674
47.812164 101.3652 -27.463991
46.840801 101.28913 -27.463823
47.814465 101.18239 -27.596504
46.130672 101.81849 -27.481462
47.246098 101.69662 -27.461782
47.234596 103.08046 -27.528334
47.338852 102.8531 -27.503706
46.345768 102.03127 -27.495541
46.845833 100.8548 -27.743532
46.03421 102.99429 -27.526224
46.138859 100.87835 -27.480268
47.534561 102.35406 -27.509073
47.636246 101.95231 -27.50935
46.636215 101.7234 -27.482935
47.735977 101.40487 -27.488951
46.840256 100.95444 -27.639597
47.738361 101.28622 -27.473686
46.800621 103.51258 -27.438843
46.637558 102.6724 -27.517653
46.134155 102.44937 -27.496834
45.149647 103.83736 -27.472836
46.930798 103.08375 -27.525543
45.756805 103.48499 -27.500803
46.936413 102.84693 -27.488777
45.945347 102.64226 -27.455576
47.036575 102.54687 -27.494459
46.04089 102.35667 -27.502899
47.045952 102.14062 -27.496912
46.048046 104.9841 -27.796581
45.955124 103.47839 -27.494873
47.042618 103.38976 -27.534298
46.141174 103.30897 -27.527872
47.440491 101.68902 -27.471552
46.439548 101.60667 -27.46875
46.434967 101.47231 -27.423708
46.740948 103.42871 -27.56135
45.742249 103.00246 -27.509657
46.832485 102.85306 -27.498928
46.83868 102.67941 -27.518873
45.846687 102.5846 -27.524174
47.370953 103.59402 -27.662025
45.255699 103.45584 -27.577103
47.394268 103.44091 -27.653038
46.31992 103.34811 -27.576267
46.368298 103.24461 -27.619297
46.466167 102.70427 -27.598932
46.480389 102.63134 -27.593853
46.54166 102.39374 -27.567787
47.828426 100.83854 -27.717682
48.840473 100.86071 -27.68442
46.639622 103.85075 -27.567278
47.731617 103.74233 -27.580492
46.743813 103.53065 -27.556356
47.236702 103.42905 -27.56366
47.839394 102.6759 -27.535866
47.915913 102.48965 -27.546856
48.020668 101.92136 -27.494648
47.028599 101.82083 -27.485527
47.039772 101.4123 -27.481703
48.04089 101.36637 -27.471106
47.548893 101.77645 -27.565027
47.33807 103.74957 -27.573675
47.338463 103.62132 -27.555231
47.736916 101.0022 -27.541033
47.128998 100.7906 -27.448774
46.92223 101.22661 -27.414045
46.14706 103.96153 -27.586218
46.24184 103.65572 -27.575653
47.238129 103.52944 -27.559834
48.032936 102.00717 -27.531292
47.232803 104.1021 -27.641888
47.239391 103.97237 -27.58952
48.349174 103.89968 -27.648092
47.334919 103.86888 -27.617815
47.343853 103.65387 -27.581268
48.741474 100.81128 -27.628492
47.21339 103.04601 -27.392744
47.137314 104.16325 -27.584578
46.633991 104.07066 -27.580889
47.138489 101.59831 -27.474586
47.630405 101.37553 -27.462614
48.206093 101.26799 -27.45838
48.230976 101.07649 -27.458462
45.750706 101.47596 -27.424469
47.340782 104.38706 -27.60146
45.724957 104.36867 -27.503727
45.749165 103.95807 -27.532228
47.441025 103.93542 -27.567825
47.433903 103.5285 -27.56019
47.939514 103.51903 -27.570662
47.729031 103.97184 -27.596533
46.741192 103.96965 -27.588404
47.740639 103.83836 -27.582439
47.237259 103.65865 -27.582876
47.334507 103.5284 -27.561129
45.733112 103.41985 -27.557915
47.342373 103.35268 -27.577139
47.842396 103.21504 -27.562416
47.637962 103.97239 -27.592794
47.532398 103.9743 -27.588888
47.043465 103.75026 -27.570082
47.637547 103.43268 -27.565975
45.541683 103.42217 -27.557241
46.638329 103.35593 -27.571741
47.637856 103.34813 -27.57292
46.738285 102.48801 -27.531725
47.730282 102.35509 -27.519211
45.544849 103.94009 -27.532099
47.144993 103.97432 -27.588333
46.141777 101.05988 -27.432032
47.141979 100.97047 -27.470549
45.934666 104.21175 -27.608875
45.973637 104.08344 -27.647879
47.060871 104.04201 -27.65472
46.029293 103.97379 -27.587231
48.223564 104.32238 -27.683897
46.633873 101.18828 -27.463112
46.634254 101.08761 -27.476486
47.636681 101.04731 -27.454897
46.740307 103.66235 -27.578545
47.140064 101.50569 -27.472404
46.13118 101.41164 -27.478231
48.221031 101.01796 -27.638695
46.938583 104.15981 -27.579451
47.660542 103.89004 -27.623629
46.137325 101.0872 -27.490955
48.030678 100.98795 -27.552603
47.630379 104.74254 -27.68511
48.210133 101.05998 -27.703911
48.140381 101.10328 -27.484964
48.137646 100.96213 -27.49448
46.234978 104.01506 -27.704979
47.136456 101.40544 -27.480602
47.635685 100.97395 -27.477093
48.222519 103.98494 -27.616468
45.633095 103.48991 -27.459763
45.817547 104.41865 -27.621614
46.335331 101.40985 -27.476255
46.435867 101.18488 -27.45916
46.943954 101.08656 -27.483641
46.216644 103.3992 -27.507122
49.035664 104.76265 -27.778868
46.833782 103.52953 -27.558296
46.436871 101.08975 -27.482315
46.438686 101.37453 -27.453445
47.440762 101.37415 -27.45924
46.548214 101.13503 -27.420082
47.442745 101.06133 -27.455145
47.543571 101.08874 -27.486933
47.431999 102.85091 -27.507994
47.434391 102.5787 -27.524586
47.434116 102.46247 -27.510765
46.540257 102.01237 -27.454168
46.538891 101.824 -27.482189
47.391884 100.73227 -27.569096
46.440529 100.93706 -27.631441
45.474514 100.80646 -27.591232
46.576519 104.54587 -27.7733
47.160076 104.02641 -27.756771
47.229107 103.37527 -27.731508
46.749344 103.23975 -27.64756
47.295818 102.72823 -27.691294
46.86491 102.11833 -27.654118
46.388592 101.97112 -27.630676
47.92696 102.02737 -27.514507
46.937683 101.95834 -27.511875
47.929909 101.4215 -27.493988
47.052116 101.32896 -27.501669
