# .PCD v0.7 - Point Cloud Data file format
VERSION 0.7
FIELDS x y z
SIZE 4 4 4
TYPE F F F
COUNT 1 1 1
WIDTH 1611
HEIGHT 1
VIEWPOINT 0 0 0 1 0 0 0
POINTS 1611
DATA ascii
43.339417 76.366318 58.988083
40.245129 73.803505 58.679184
45.131245 75.397781 58.717552
43.632706 77.04081 58.931488
45.515121 73.11068 58.753605
41.745728 78.155502 58.811771
40.936352 78.539497 58.690418
40.494144 75.01194 58.685738
46.996555 75.115227 58.742615
43.906868 77.850708 58.930668
44.835648 73.393967 58.850666
46.22979 80.100121 58.703758
44.031429 78.916359 58.855801
41.732254 76.53215 58.815392
44.425301 79.220284 58.866772
41.532726 77.652786 58.771358
44.038986 79.806923 58.955212
40.923481 73.798332 58.686123
44.314907 75.391045 59.110489
44.829872 79.00016 58.864037
45.812943 76.745117 58.899517
43.628143 78.171593 59.02808
41.437408 74.899376 58.802685
46.425678 78.595085 58.801643
43.729404 77.512428 58.830967
42.132774 72.984962 58.786701
44.129749 73.024704 58.741886
40.350754 79.064545 58.710182
43.727318 77.034836 58.905399
43.227417 76.892906 58.796165
43.928795 77.607582 58.847095
45.436592 75.965309 58.765465
42.429398 79.042076 58.80304
41.238125 76.484589 58.735035
44.330666 74.467613 58.832737
44.425282 77.322853 59.014641
42.029446 76.832916 58.829388
45.238243 77.019104 58.744865
44.968285 77.964706 58.932152
44.129513 73.120232 58.943607
41.829639 78.140793 58.823563
41.736629 74.63166 58.727955
45.062466 79.503052 58.947186
46.815044 78.968384 58.786263
40.309319 78.876373 58.735432
45.936081 74.845451 58.770748
43.331936 74.064827 58.786804
41.434788 75.26963 58.742352
43.928555 72.888489 58.763016
42.329453 73.078323 58.811008
41.833309 77.379524 58.82935
46.106899 79.008461 58.847729
43.293232 75.549034 58.696442
42.726868 72.667809 58.75396
45.123272 78.938225 58.784389
43.22871 75.872231 58.850628
46.777016 79.000519 58.839123
41.832943 73.117775 58.735832
43.629532 76.767685 58.992615
46.816013 77.756248 58.798962
44.2047 79.592705 58.978104
41.225033 76.750008 58.784515
47.512043 76.60997 58.789982
46.001328 76.926849 58.887768
45.531757 79.322716 58.866337
46.335415 81.112968 58.779945
45.027424 73.840332 58.797787
43.529568 77.831032 58.839176
42.637035 78.235298 58.856003
43.935493 78.874138 58.886696
45.538578 74.627335 58.974255
43.730652 78.910553 58.855354
44.212921 76.137825 58.984856
45.241432 78.012024 58.870438
44.328167 77.60598 58.847862
43.839298 78.148041 59.1451
47.317791 74.239754 58.691063
43.630531 74.821304 58.796165
43.030273 79.536316 58.878136
44.224934 78.586578 58.818378
46.52174 79.001976 58.857101
45.162254 73.228333 58.579018
40.112404 78.974777 58.730206
40.839218 78.598557 58.763
47.111576 78.700165 58.817886
43.1301 79.455811 58.860451
45.330528 76.089653 58.845268
43.93055 73.076836 58.807076
45.422955 77.199883 58.792614
42.733639 78.14859 58.844639
43.229023 78.162338 59.017723
42.926563 73.468788 58.715481
43.832573 75.053024 58.778347
46.029255 78.491852 58.769028
44.326595 77.070465 58.837955
43.429829 75.999168 58.823635
41.629368 77.826736 58.804871
42.729816 76.043488 58.76833
45.222191 74.16925 58.827106
43.433315 74.819221 58.797504
46.334076 74.857674 58.70435
44.72604 77.522888 58.822113
42.974606 80.164589 58.844471
43.631664 77.561378 58.901062
45.63327 78.692047 58.83147
44.734241 78.553055 58.874985
43.026585 78.461967 58.846348
41.329784 76.482117 58.736328
47.038803 77.0037 58.749607
44.530273 76.851166 58.838665
43.448631 79.945198 58.910713
43.431351 73.965401 58.776081
43.706238 73.462585 58.707909
45.925373 75.045341 58.758018
45.723007 76.954391 58.880932
45.933113 74.953224 58.743492
43.230045 77.605904 58.847549
45.734386 75.952095 58.742153
47.032604 79.047035 58.846794
40.479755 73.91481 58.771423
46.992748 73.913589 58.714043
44.529819 78.587074 58.819847
45.928776 78.589661 58.807148
44.229328 74.724983 58.779434
42.33746 74.817986 58.781033
43.725998 77.247063 58.86647
45.536373 77.067841 58.894382
46.024014 76.98262 58.795425
45.32177 77.734406 58.800079
47.340702 73.235451 58.680618
42.832325 79.44371 58.856934
44.213688 75.907677 58.992069
42.73341 78.589203 58.811817
43.432411 75.549774 58.83054
41.635159 74.23671 58.659645
44.823898 73.477837 58.859047
45.547394 72.934402 58.893314
44.129147 79.766022 58.873451
44.834164 73.704117 58.853512
41.256538 75.673714 58.759609
44.224663 78.912125 58.857483
42.031269 76.566902 58.768719
47.41256 73.304764 58.636223
43.426228 75.90152 58.80851
43.627308 75.898491 58.809101
42.928741 75.678467 58.809856
43.630714 77.197052 58.807049
43.227348 74.779411 58.838127
42.523682 74.505478 58.772987
46.214378 77.589218 58.820312
45.830711 76.838547 58.827843
44.320717 76.583061 58.995869
41.330795 76.115875 58.758003
42.230778 73.334885 58.724434
46.013382 77.610161 58.824146
41.831913 74.734932 58.74839
45.224323 79.451263 58.845341
44.11636 75.318375 58.839581
45.740025 78.810181 58.812672
45.925827 73.874733 58.735584
44.641846 72.948006 58.895958
46.327187 78.279045 58.790241
45.029602 76.751968 58.81897
45.125595 72.726357 58.9133
43.629944 76.434631 58.818977
46.236992 75.294258 58.694733
44.295834 77.62793 59.015949
45.12891 79.447281 58.851254
44.530285 77.612549 58.845692
46.520584 78.455269 58.825512
46.547977 78.507462 58.775097
41.012318 73.564621 58.686584
47.316826 73.6259 58.744202
45.239056 76.030472 58.761196
43.929016 75.769463 58.826099
46.120564 79.225952 58.840881
45.488636 76.183678 58.885841
43.826279 73.823212 58.891949
44.632446 75.27092 58.772385
41.940372 79.848541 58.870522
47.013153 78.709381 58.779572
41.323502 79.214203 58.813393
45.129414 78.243095 58.859859
46.756649 78.155792 58.814705
40.430115 78.017563 58.756943
46.331127 77.510536 58.789249
47.380787 73.255371 58.790676
41.119324 73.091965 58.683029
42.926319 73.523819 58.781132
44.933342 76.982201 58.817417
44.929638 76.532768 58.82782
44.413223 78.419334 58.747478
42.225071 74.088043 58.723305
43.417366 78.964645 58.917038
45.734283 79.533356 58.8671
41.734924 77.111206 58.765293
46.122772 76.347214 58.762806
45.039131 76.533463 58.824593
46.264919 76.643494 58.832951
45.021297 78.054733 58.830524
44.727715 77.832214 58.836094
46.511581 78.552467 58.870998
43.527508 74.822517 58.797554
44.825558 73.747795 58.783417
45.328884 73.973648 58.767426
44.604565 73.736496 58.971672
46.633472 77.813469 58.793625
42.114971 79.401527 58.890274
44.799309 76.054459 58.992119
42.214996 77.791893 58.879501
43.325203 77.256363 58.874271
45.324272 75.677406 58.801113
44.126286 73.433327 58.771095
42.526176 72.666817 58.758068
43.35173 79.365852 58.823036
40.417065 78.94313 58.736946
40.648079 76.647552 58.765617
43.131344 79.411331 58.888153
43.332855 74.923676 58.806255
45.76186 75.83979 58.831238
45.846519 73.950172 58.683929
42.983212 78.18618 59.119556
45.53664 72.70977 58.919682
47.452702 74.034187 58.698292
40.937538 73.941368 58.664528
44.32914 73.841949 58.798782
44.924519 77.609085 58.837029
42.245186 79.408997 58.890976
45.723267 79.850655 58.860298
41.522327 73.334572 58.699268
46.128906 74.944199 58.734169
44.628742 79.408417 58.908985
45.026886 79.319664 58.877247
46.227997 75.986984 58.797009
42.430058 77.608887 58.835564
42.924576 77.607788 58.841648
41.322983 78.983543 58.84203
45.92955 79.402863 58.723793
44.133366 76.084969 58.84016
41.317028 77.887779 58.765774
41.625771 78.452133 58.827374
42.230511 74.916321 58.810551
45.21933 75.139091 58.796177
44.518604 72.940376 58.703789
45.826519 77.604362 58.818192
40.507702 77.775085 58.675812
42.937237 78.561554 58.862045
46.231258 78.278572 58.788158
40.084419 75.806824 58.761421
44.646942 73.719925 58.850319
42.700329 75.227676 58.661964
42.234402 78.496925 58.774876
43.327946 76.040291 58.785
42.828102 79.282501 58.933784
40.743622 78.585007 58.812847
47.211277 78.637711 58.851532
44.23782 78.506584 58.792625
41.230553 78.987595 58.833992
42.530529 72.981636 58.78809
42.032665 79.642998 58.874161
41.523914 79.274094 58.754425
46.324741 77.729546 58.77776
40.807091 73.896141 58.658653
47.133816 73.991898 58.721634
41.517582 74.928062 58.811428
42.742176 75.173599 58.732525
42.330299 73.387283 58.821655
45.333164 77.607635 58.828342
45.43187 77.610321 58.824448
41.641319 79.104034 58.863274
44.845875 80.281456 59.155426
45.231766 76.794785 58.75901
45.034836 76.891403 58.781353
43.431408 74.546638 58.699142
43.43158 73.303238 58.789562
41.941189 76.270538 58.757423
42.215164 78.817825 58.806431
44.536182 76.749969 58.822441
40.325676 77.091293 58.726658
47.118378 77.945221 58.702335
44.031239 76.398796 58.855934
46.610069 74.94001 58.738014
44.929306 74.918373 58.812817
45.017017 79.967369 58.889763
40.435875 73.0728 58.641769
45.527611 77.740738 58.800171
46.351761 75.468033 58.798313
42.731609 76.717033 58.872524
46.12756 74.578262 58.782997
43.53183 75.164673 58.734356
43.529873 75.234856 58.816196
44.121025 78.100357 58.891735
41.128422 76.675255 58.759125
45.126984 73.293991 58.798157
40.947117 76.892578 58.748276
47.393948 76.978615 58.788925
45.627792 76.850533 58.831432
46.226192 79.016319 58.838177
44.723576 73.680405 58.842514
45.229507 79.093971 58.883984
42.724312 78.334999 58.883331
41.837215 77.789833 58.862694
43.031693 75.352333 58.781162
43.291676 77.596832 59.005455
45.72858 79.222717 58.839912
43.431072 72.937088 58.859802
44.232952 79.180099 58.900326
43.927883 73.112885 58.759174
45.328323 76.977676 58.801708
46.422024 75.98761 58.820957
41.729851 76.887016 58.781357
43.228409 74.503799 58.786301
44.033897 77.979889 59.01059
41.236355 76.8843 58.759556
45.827328 73.474136 58.715023
46.225719 77.744034 58.786533
44.933765 78.585373 58.813496
40.2439 75.986946 58.699219
46.967934 75.801598 58.696903
41.323715 75.351265 58.73085
43.632568 77.484154 58.86343
43.632267 77.829948 58.842949
46.017864 78.78466 58.859905
45.030933 78.9991 58.853409
46.617924 77.369568 58.843727
42.829269 78.020653 58.864365
42.236473 78.463997 58.836704
46.136147 79.841705 58.853451
41.510406 77.013855 58.729046
42.249374 77.404343 58.950027
42.532246 76.213669 58.811752
44.829498 79.506889 58.935009
41.062649 75.78846 58.815796
44.568264 75.332649 59.096336
44.420761 78.631317 58.739517
43.730225 74.730019 58.784389
45.129116 75.686424 58.804657
46.120483 78.489639 58.771778
47.032864 77.198242 58.778057
40.919292 77.301125 58.77293
42.327633 79.007057 58.855488
44.648258 77.888458 58.916611
44.42012 73.873932 58.758617
43.85833 75.968056 58.757938
40.951767 78.94548 58.746727
46.522785 77.443108 58.775799
43.626213 75.058113 58.775146
41.961445 73.100777 58.795536
41.943203 74.907982 58.790405
43.214001 79.588768 58.963753
43.825146 76.934944 58.859077
45.0494 77.867271 58.908821
45.022606 79.048531 58.939507
43.828835 77.55455 59.008202
44.92588 77.478256 58.864559
45.734837 73.018578 58.733692
46.032352 75.408966 58.708279
46.025043 74.513542 58.759304
46.188187 76.923866 58.848099
44.240379 73.275681 58.910988
42.845428 75.644432 58.862442
44.830254 76.945526 58.860844
44.529373 77.704369 58.860649
42.628014 75.775063 58.828102
42.027225 73.082779 58.80571
42.925972 75.487335 58.772274
42.737011 75.490707 58.762791
41.728161 78.400963 58.735874
45.13776 76.852165 58.840908
44.71933 78.237991 58.857586
43.230255 77.516365 58.82914
43.229424 78.341125 58.891045
46.743999 77.422211 58.776161
40.630371 77.327515 58.724937
40.723404 77.278214 58.811508
47.226494 77.200462 58.80957
46.424225 76.032433 58.756683
46.135059 75.224586 58.676815
47.408005 75.418793 58.700005
44.627785 78.637733 58.729195
42.529705 77.874657 58.922955
45.531849 75.141182 58.791183
44.123661 73.397102 58.825832
41.280224 79.111435 58.859367
47.671185 78.979218 58.831268
43.021099 76.72818 58.870544
42.831486 77.5121 58.824963
47.052574 78.191216 58.884201
45.812477 77.68869 58.842499
43.031925 78.364586 58.825256
44.228222 78.179161 59.032055
41.540092 79.23233 58.819077
42.129246 76.219582 58.808235
42.021408 77.422836 58.792774
43.230892 79.097046 58.882599
42.93021 75.550568 58.836678
44.305012 74.431343 58.684685
42.13409 76.935463 58.860039
42.336544 77.288109 58.819199
43.110119 79.932899 58.914322
42.92709 79.446922 58.858711
44.733444 75.303329 58.694695
42.423073 74.729294 58.764072
45.124477 75.366318 58.786743
45.741249 74.37574 58.802994
41.033173 79.223419 58.812756
41.348843 75.288376 58.718075
41.343189 79.070198 58.672771
45.421894 77.925316 58.837917
43.326485 76.172523 58.869232
40.813828 80.099968 58.77248
42.928493 79.00251 58.867115
42.368492 75.038643 58.591492
42.231144 78.04911 58.822979
40.930328 77.482635 58.785496
44.329659 79.762215 58.873943
41.130646 79.349144 58.787731
45.716682 75.384323 59.043564
45.533279 74.822021 58.778954
45.836472 75.924568 58.895477
46.524174 77.823708 58.823833
44.832466 77.610428 58.833458
45.511337 79.104233 58.882057
44.334385 72.830956 58.677719
43.833588 75.767899 58.826996
46.013954 79.237724 58.841473
44.340252 79.793175 59.070236
45.130951 73.39698 58.830383
45.540165 79.031715 58.810505
42.620522 79.294266 58.94215
43.630966 74.285027 58.790707
45.526592 77.612823 58.821533
42.826759 79.413719 58.891247
44.732433 77.163116 58.859074
43.526211 79.105179 58.883305
40.730621 78.993156 58.820774
41.935448 78.448364 58.831085
43.859219 74.550774 58.725368
41.12619 76.880943 58.761036
43.530903 76.084457 58.841053
42.833694 77.610794 58.843628
42.428818 72.763626 58.796021
41.138 78.588234 58.732693
44.029926 73.839058 58.799858
42.736443 78.470085 58.844398
43.92902 73.529373 58.782898
45.028614 73.524017 58.784622
40.13974 78.411682 58.702652
46.434853 78.493797 58.770527
45.135818 80.039604 58.950039
41.835236 79.851311 58.866302
42.629162 77.791336 58.880329
46.607643 78.975723 58.868988
46.425114 75.407654 58.717091
45.538773 80.422997 58.861256
45.812443 78.842384 58.747593
41.723286 77.299324 58.79961
41.526352 76.878822 58.760868
45.035736 76.694077 59.008244
45.220116 78.100204 58.91946
44.629696 77.705605 58.85836
41.83337 76.34903 58.773651
43.031818 77.514107 58.98811
41.83667 78.999046 58.830593
45.721294 76.464607 58.902054
45.634174 75.68692 58.790802
46.228493 78.950096 58.756298
45.828205 76.534027 58.805351
46.421791 75.893311 58.787277
44.132023 79.003914 58.871788
44.693401 79.370125 58.995819
45.796623 76.638397 58.671631
41.549503 76.561089 58.754208
42.029018 73.1138 58.726883
42.132778 78.277702 58.78381
44.528858 78.992989 58.868813
43.0247 79.452957 58.862671
46.124844 75.450485 58.806808
47.746418 75.426201 58.728905
45.705921 76.079033 58.850082
43.227753 72.586731 58.742344
43.732571 77.894676 58.943336
41.832146 78.194954 58.763172
44.873455 77.865303 58.893002
44.428322 72.988159 58.779144
41.425453 73.340965 58.697144
44.029381 75.237076 58.818371
44.62508 72.841614 58.851315
44.234962 78.6231 58.732258
43.531261 79.508644 58.918037
45.513577 76.926224 58.849194
44.631805 76.353386 58.994694
44.521809 77.833191 58.840687
43.727478 79.490005 58.914192
46.117023 75.578682 58.768631
41.635624 75.59539 58.755711
41.247959 76.188972 58.712017
45.72757 73.239662 58.71637
46.844826 78.457619 58.844879
45.62886 77.928017 58.82901
44.472794 78.472374 58.653606
44.223278 78.99733 58.868217
43.633572 77.605469 58.848705
41.837337 77.932785 58.833183
41.818756 77.40995 58.784508
44.538414 79.190727 58.913258
41.826061 75.096214 58.703949
42.129257 74.387283 58.808334
41.145248 76.99926 58.873833
47.530285 75.383179 58.650116
45.032021 73.644623 58.761032
41.527451 75.258568 58.740982
41.835876 73.876137 58.721905
42.107998 73.399048 58.632534
44.330002 73.076065 58.805016
41.821968 78.509254 58.770294
42.441593 79.191017 58.90958
42.992302 72.926186 58.863983
42.028522 79.834579 58.885029
41.135544 77.096664 58.756775
40.813545 79.579826 58.772144
46.150661 76.327599 58.823902
43.834225 72.933891 58.717972
45.101429 78.63166 58.915257
46.267849 79.839943 58.900558
42.87933 73.463326 58.898277
45.103676 75.938263 58.734055
45.924805 77.86454 58.752537
43.635998 75.861305 58.852928
42.828587 77.79306 58.876377
46.826202 77.077415 58.816593
45.884468 79.30481 58.936588
42.828678 77.384872 58.843212
44.63393 78.181412 58.751003
43.027344 77.389999 58.846912
46.851604 73.699417 58.785042
43.115005 77.875656 58.934219
44.130795 77.829506 58.846615
45.931454 74.923248 58.810852
43.629745 79.772652 59.057297
43.617321 79.442848 58.862404
45.23399 75.937874 58.735527
41.642891 76.133057 58.762196
46.532745 79.421967 58.827175
43.032101 78.01899 58.868294
41.607742 76.868744 58.771397
46.315105 80.758987 58.953655
43.419987 74.874382 58.907139
43.744678 74.144905 58.619347
42.63839 75.275223 58.760292
40.285603 77.261055 58.803799
46.872623 77.226898 58.811882
40.435268 79.678543 58.775284
45.526062 75.392754 58.716858
44.325775 78.467743 58.848656
42.127808 76.885521 58.790199
45.124668 77.606857 58.834156
44.896172 78.767197 58.943089
46.008499 76.095291 58.857674
43.008995 78.483345 58.687042
41.746635 76.751968 58.798111
41.927032 74.421593 58.741386
43.224056 74.378731 58.801411
45.229229 78.150002 58.836124
45.527729 78.592522 58.805759
43.130009 77.828491 58.843933
45.433208 78.400734 58.757877
44.8367 78.023331 58.872841
44.632381 73.256172 58.721451
44.629871 76.970619 58.822216
45.129406 76.951645 58.868408
42.535225 77.434746 58.799953
44.028481 78.060905 58.83427
44.429661 74.557808 58.714058
46.112556 75.907303 58.782139
40.91531 76.661873 58.739727
41.237049 74.222336 58.675343
44.422848 74.694038 58.819485
43.126007 77.798004 58.879608
42.926785 77.793549 58.88364
40.335735 77.646675 58.720646
46.405838 77.933449 58.85675
45.133511 74.417099 58.765083
46.414948 73.542519 58.787712
43.703312 79.261955 58.965214
47.370293 73.823868 58.757004
46.807854 79.050194 58.839298
41.740791 79.010521 58.834072
41.629429 76.657669 58.776463
45.627758 76.532677 58.81377
41.774361 77.23349 58.950077
43.923561 73.025864 58.744133
42.034866 74.737358 58.749271
43.135033 77.841934 58.996384
46.437458 75.246788 58.810917
43.628128 76.089226 58.835091
44.915073 79.58918 58.797035
42.433094 77.80246 58.887947
45.729156 78.597626 58.810158
46.418137 79.450928 58.825748
43.022846 77.889648 58.920612
41.229935 79.041641 58.785732
43.431061 73.564476 58.747177
43.829433 73.842407 58.796478
41.331104 76.669167 58.76593
44.130161 79.723122 58.905792
44.528011 73.028069 58.738113
44.216656 77.352898 58.950413
45.432758 77.473434 58.865486
44.326763 74.691986 58.819206
44.336224 76.360291 58.99147
43.123596 78.326454 58.877041
45.115742 77.476021 58.866039
43.424732 78.319221 58.871922
43.125893 74.286392 58.788517
42.840847 79.366074 59.014641
40.644855 75.604149 58.692699
44.833172 74.066269 58.797878
46.128124 77.226357 58.729424
41.835747 76.873817 58.779373
40.357597 78.7174 58.752045
46.850632 78.590363 58.71064
47.325977 73.070511 58.678394
45.841114 74.213463 58.693409
43.727283 77.070847 58.835087
46.282715 77.395607 58.934601
44.632427 79.723732 58.90131
41.431072 76.662636 58.759007
43.54718 74.557091 58.694614
41.425316 76.882019 58.766396
45.329838 78.685402 58.837662
41.433414 78.285141 58.887539
44.235855 73.356323 58.659515
45.436146 74.822571 58.783001
45.333397 74.069855 58.595303
45.025997 77.622795 59.033051
44.03281 75.680779 58.812836
45.120411 75.562813 58.843361
45.432201 75.096954 58.713539
42.531704 76.536255 58.828793
43.722294 74.007828 58.694988
43.430771 74.193077 58.773163
45.838139 73.100868 58.824398
44.219616 78.832565 59.030846
44.434334 77.830498 58.842667
42.42886 75.275391 58.758961
40.491722 77.324638 58.74987
46.838352 77.48127 58.758343
43.035717 77.795303 58.877281
46.395912 75.684837 58.80743
45.326469 76.672409 59.028778
41.440197 76.315887 58.834507
44.433556 76.315376 58.839882
43.800068 73.070656 58.625278
45.532448 74.738998 58.761017
46.225864 75.083572 58.699524
41.52343 76.907234 58.835991
41.585163 74.80999 58.84803
41.630508 74.409111 58.729679
41.535046 75.752968 58.828114
43.428188 78.997078 58.868378
43.529243 79.730347 58.908813
45.030663 75.678688 58.810711
41.228664 76.579483 58.740936
40.759987 74.218422 58.719147
44.341366 75.743233 58.967953
42.229622 75.309898 58.836433
45.164707 81.215591 59.006207
41.83736 76.958694 58.877178
44.82671 72.986115 58.781803
44.929394 75.043655 58.772713
43.842171 73.389206 58.818218
41.92329 74.725632 58.746513
40.646168 79.181587 58.749157
45.516544 73.238754 58.720657
44.076385 75.57653 58.676193
43.52597 73.880028 58.764053
43.228081 73.430504 58.765347
40.819881 75.183731 58.700893
42.137138 77.485527 58.85907
43.230743 73.967506 58.777416
46.416496 77.281288 58.820271
40.750259 76.887741 58.73267
47.183079 76.951591 58.781181
42.73064 72.79966 58.738308
44.706131 78.405296 58.919861
44.034039 74.530167 58.709774
43.83614 78.338722 58.883816
43.840763 77.631592 59.018303
46.442825 79.216423 58.832722
40.244724 74.343033 58.678772
46.922462 74.62249 58.785019
43.829975 73.073624 58.800705
40.750393 78.209328 58.730122
42.634079 76.177803 58.87204
43.224052 74.252968 58.838188
43.631599 75.997665 58.996803
46.933872 75.701683 58.735661
45.728634 76.658356 58.789906
45.332504 73.834038 58.806614
42.213234 75.292923 58.678997
42.430496 79.223801 58.85149
44.215733 78.430687 58.924664
43.928085 74.190086 58.773579
42.833488 78.471336 58.844837
42.324158 75.263863 58.765705
45.933201 78.79258 58.856075
41.431194 74.419342 58.724541
46.163807 76.944801 58.847984
40.506851 78.551079 58.650616
46.790051 78.467514 58.70256
43.672192 73.221542 58.891754
44.831112 74.823189 58.797058
40.257542 77.609184 58.710861
46.513512 77.922394 58.826962
43.927608 79.777733 59.061024
41.932365 79.319176 58.856159
40.469364 80.070518 58.758022
42.836098 75.214394 58.648689
42.927094 72.789497 58.744179
46.248295 79.171501 58.882305
40.571499 75.987694 58.780762
46.638264 75.700119 58.754707
44.32737 74.503792 58.783779
44.632442 76.753433 58.823078
45.916801 76.441544 58.789055
45.829739 74.521408 58.757225
45.223804 78.248207 58.868549
46.236015 74.093582 58.732128
45.128117 74.462196 58.82246
46.327789 79.086861 58.887714
44.13456 73.180168 58.859928
43.03429 74.919968 58.804234
42.425167 78.474014 58.847061
45.238213 76.643967 58.854374
45.428341 75.6819 58.801605
41.936268 73.203186 58.770645
44.430294 75.68367 58.813519
43.331287 77.607903 58.846355
40.550819 79.504845 58.880798
47.037727 79.423943 58.811966
42.928776 77.475914 58.858051
44.435211 76.819191 58.770081
40.152096 77.370255 58.728893
46.421547 77.433029 58.781876
41.827328 78.325516 58.699322
45.939629 81.103882 58.784882
41.920853 77.471954 58.858414
46.583778 77.168213 58.83786
42.034611 73.339577 58.724468
45.722961 78.496773 58.77467
40.729359 77.576241 58.742195
46.416306 76.450043 58.790028
45.63475 77.829849 58.815395
45.727833 76.302269 58.828472
40.727619 79.093491 58.721584
44.616005 79.280846 58.942883
40.834137 73.788948 58.678108
46.787357 75.885368 58.762833
44.327332 74.38092 58.803631
44.331116 79.182938 58.911186
44.829845 78.052452 58.828487
40.52755 77.158218 58.744659
46.821899 77.1222 58.761627
44.04134 73.701012 58.837521
42.929264 75.364845 58.780319
42.233185 78.892204 58.889187
44.5298 79.219963 58.868336
40.24398 73.681602 58.653713
41.621181 75.408264 58.716061
40.804676 73.168434 58.71804
43.532742 73.564461 58.750004
46.826836 76.876266 58.79155
45.524609 76.659019 58.79763
40.835655 79.257072 58.751972
44.327942 79.097862 58.883415
45.622421 74.068909 58.776344
40.739944 80.114899 58.759869
44.036106 75.773514 58.82288
44.724407 75.072617 58.873814
42.031544 78.906921 58.824646
45.919296 74.092903 58.733395
40.905296 79.780952 58.917488
43.931347 74.506798 58.78846
44.927914 75.936752 58.746986
41.438152 75.904953 58.762238
44.429523 76.940628 58.864716
40.480423 79.154137 58.729416
44.631283 78.510971 58.793415
41.313313 78.688065 58.815784
43.02668 74.376694 58.803276
41.514133 78.246399 58.666416
41.940071 76.882065 58.777405
42.331181 73.298378 58.800747
41.733875 77.156151 58.843567
43.723701 79.688881 58.842945
43.034149 73.022781 58.740723
43.227409 75.943123 58.867958
44.028744 72.946228 58.71574
45.435986 78.995461 58.852272
41.826794 77.483955 58.861164
44.031181 74.995644 58.833256
45.728317 76.438187 58.788086
45.914352 76.939735 58.859062
47.36557 77.425995 58.75082
40.843803 77.331322 58.737492
45.339748 75.942444 58.758636
41.33773 76.220276 58.785328
43.33836 79.285889 58.987865
47.101582 75.03492 58.753803
45.038902 79.405693 58.895927
44.827526 78.658623 58.912235
43.528198 78.904564 58.857559
45.933628 74.002434 58.70787
44.427631 79.955292 58.941105
47.038525 78.894287 58.82505
40.680626 78.628571 58.720825
45.125526 77.105476 58.781933
45.333389 73.952187 58.826714
43.225513 78.912399 58.855518
44.416679 78.450203 58.928162
42.320248 74.726074 58.763741
45.616646 78.240562 58.84079
46.622761 75.058495 58.740517
41.424828 75.121506 58.808193
40.806656 75.329102 58.741703
43.431911 76.533585 58.830173
43.725185 78.177032 59.028191
44.127846 78.902206 58.857246
42.54055 73.791428 58.729229
40.842533 79.44873 58.74704
46.632805 79.571838 58.783901
40.566986 72.910088 58.656712
46.807266 73.009254 58.692787
45.028717 77.607697 58.83831
45.62775 73.239174 58.719055
40.64016 77.866753 58.739662
47.114033 77.965561 58.791229
45.927856 75.304527 58.70351
47.541809 74.218201 58.663677
45.520123 75.901863 58.797825
45.027508 73.247383 58.731129
42.424793 78.274315 58.782478
44.230591 77.927101 58.856819
40.354992 79.128082 58.719025
40.664356 77.26593 58.749584
47.023346 77.975075 58.766079
40.711136 77.858711 58.736519
44.931034 72.853218 58.860023
45.432491 74.413803 58.757465
40.616631 74.433975 58.711586
46.633678 78.932709 58.829353
42.553684 78.712502 58.760902
43.033047 74.285065 58.785336
40.918983 79.685532 58.807667
41.430252 75.814789 58.74577
43.215992 74.882339 58.912846
44.330395 76.219414 58.818829
43.538391 75.964127 58.915947
44.337082 75.331383 58.85099
45.91563 73.223312 58.770954
44.927635 76.666771 58.80069
41.824459 75.370079 58.776276
43.725941 77.60601 58.845535
43.718437 76.26918 58.998001
47.217377 75.409851 58.695858
45.957226 76.953697 58.727551
42.614677 78.300659 58.706112
42.73349 77.802277 58.889935
44.722618 78.022682 58.871361
42.827534 72.670319 58.756081
45.418991 78.815964 58.817581
44.54155 79.266411 58.923512
42.421513 74.605919 58.792469
42.33812 78.463364 58.840061
46.423183 78.807297 58.863049
42.93092 77.248276 58.876034
40.929722 76.358414 58.733547
47.420425 76.418327 58.79229
40.235859 79.593063 58.768047
46.751751 79.689827 58.799366
42.233875 79.318176 58.873253
41.144806 78.187546 58.740673
41.521244 75.359222 58.761486
47.810997 75.624184 58.737846
43.333702 74.84935 58.707905
42.836273 78.998978 58.865311
46.327911 78.145554 58.828663
46.32745 77.965515 58.769199
46.433968 75.598991 58.765324
45.624859 79.102592 58.877464
42.041317 78.011581 58.874798
47.329689 79.235207 58.839447
46.519112 76.779655 58.803185
47.118031 72.750816 58.66082
44.349937 78.408966 58.918354
46.010418 76.63105 58.855705
43.126804 78.870949 58.886433
44.329773 78.819839 58.813232
43.133595 78.910233 58.852062
45.728992 76.610756 58.846256
41.247124 76.666313 58.76305
41.928131 79.097244 58.872108
41.721268 75.914909 58.778793
43.323914 77.204353 58.817783
44.934734 78.285851 58.80035
42.424744 77.520782 58.814716
45.962582 73.832916 58.987297
45.114902 77.319199 58.929253
43.720928 78.714684 58.769173
43.009842 78.149536 59.13335
41.015717 74.002182 58.6959
47.146538 74.124458 58.702156
42.825634 72.988365 58.779793
44.713448 75.635384 58.879822
44.718143 76.938408 58.872013
43.723526 74.536163 58.886879
46.142769 77.450348 58.877151
45.824482 79.442436 58.838535
43.321827 78.813957 58.818863
41.246803 79.127464 58.879719
41.741776 74.733238 58.742691
45.031467 77.479286 58.875011
42.528118 78.50901 58.785038
42.426083 76.527847 58.821228
41.83411 75.270119 58.741604
47.206718 74.47802 58.659737
45.992203 80.940033 58.974106
43.022743 75.961945 58.884613
43.726631 74.893654 58.63673
44.61927 76.169113 58.884644
43.109879 72.920837 58.832088
45.727589 72.843651 58.86964
45.961784 76.089966 58.840649
44.724392 75.319473 58.861588
41.533215 75.389626 58.72184
46.73167 74.54007 58.695621
43.127972 79.31604 58.87965
42.329041 76.218689 58.810032
46.33432 79.463135 58.834118
43.538666 73.381973 58.822857
41.541073 74.28997 58.78199
45.28381 75.49379 58.624439
46.329895 78.497749 58.773796
46.130531 77.936707 58.829269
43.518131 77.576088 58.903931
42.05814 79.181404 58.89262
45.335373 78.787804 58.861889
42.729488 79.318413 58.878361
40.51783 73.993195 58.681007
46.823284 74.094246 58.738319
42.034122 79.319443 58.850597
43.24168 77.542557 58.989025
41.430668 72.837868 58.663616
43.830036 77.603531 58.844719
47.25193 79.61396 58.853397
46.837097 75.489204 58.729362
45.421379 78.776649 58.854767
46.767811 79.225723 58.805981
42.630444 79.228867 58.856388
44.926746 79.221352 58.859882
46.541321 73.141663 58.727806
44.330124 78.110107 58.89323
45.1278 79.003616 58.859497
42.124577 79.499985 58.904362
44.226685 74.505188 58.785522
41.039917 76.133415 58.742222
42.626949 72.929466 58.703529
44.23444 76.345993 58.995518
44.435051 74.284218 58.790863
45.933758 73.779915 58.723629
45.832474 79.104797 58.869225
40.313145 77.282784 58.734665
47.01688 77.393288 58.786613
42.929436 79.60144 58.959641
44.430294 76.216339 58.818531
45.929466 75.616814 58.716747
41.301876 79.918289 58.719936
44.206493 74.544106 58.715504
44.527599 74.189705 58.771584
45.925449 76.170715 58.891113
44.922287 77.386475 58.845802
44.228878 76.219093 58.820637
45.736755 75.324097 58.678192
40.43882 79.102974 58.766399
39.888443 75.110199 58.676689
46.224895 75.171082 58.722687
41.831501 77.833664 58.812355
44.625908 74.916145 58.811234
41.43354 73.559563 58.697876
43.529442 76.438881 58.818306
45.431908 77.296135 58.814445
41.113087 77.028519 58.733063
43.532154 79.188393 58.901611
45.118465 73.753807 58.987782
45.117115 78.551773 58.880596
45.511612 78.88324 58.894993
41.430958 78.020821 58.680698
42.228878 79.223763 58.844677
41.766533 76.030136 58.90543
43.227421 75.358948 58.778374
45.729465 76.39534 58.849354
45.238785 76.712593 58.728058
42.428547 78.913536 58.840576
43.028214 79.127357 58.841766
44.62495 75.362617 58.77739
44.130939 74.497749 58.788174
44.135551 77.26178 58.880608
41.940731 73.305252 58.800018
44.328472 76.945335 58.861393
45.928654 77.689636 58.837463
42.026997 77.468582 58.848694
43.622089 79.180458 58.901089
43.930149 79.538277 58.876572
44.327652 77.389198 58.845413
46.185333 74.462212 58.813244
42.33181 78.052605 58.816288
41.130573 78.993187 58.814331
45.432266 77.168564 58.851543
46.025932 73.93602 58.814957
40.253376 73.457581 58.69257
41.440067 78.739037 58.681156
43.928734 79.182426 58.898468
44.01392 79.596451 59.01815
44.032249 74.916489 58.807148
41.214512 78.375496 58.782181
44.832005 78.201759 58.9426
46.241375 75.775551 58.681561
42.42561 77.822121 58.832752
42.142258 77.259521 58.875591
44.430241 78.714722 58.771908
43.332504 78.467155 58.844444
45.944126 74.17968 58.608486
40.506081 78.762672 58.746284
47.024815 78.647781 58.765633
43.227081 75.274582 58.767902
42.928989 77.512085 58.830452
43.020943 76.08799 58.839989
45.336555 75.125458 58.795666
44.018044 76.359917 58.987469
43.034107 76.896584 58.797192
45.324203 79.087891 58.878273
44.222969 75.223083 58.817966
45.127514 75.270752 58.766907
40.561596 77.865211 58.743092
46.86763 77.962151 58.772903
41.43578 74.960403 58.718651
44.733959 79.227943 58.864399
43.627151 74.916687 58.808739
42.740589 77.039391 58.743542
40.198414 79.507362 58.772835
47.218479 79.591934 58.801689
43.131943 74.956573 58.9203
45.823971 79.542168 58.853798
40.082874 77.00872 58.719608
47.190945 78.156845 58.806107
40.719696 78.080498 58.769852
43.03067 75.583221 58.796104
41.645782 73.373428 58.669415
46.01881 74.684196 58.823013
43.809673 75.727814 58.61145
43.635948 74.24942 58.851196
43.730385 78.01741 58.86932
44.960308 78.954742 58.922718
45.5191 77.502495 58.862015
46.912354 72.800049 58.698856
43.731377 74.916962 58.810219
42.906387 77.606384 59.025784
45.755222 76.495049 59.034065
44.321846 77.262299 58.878304
40.001347 75.588661 58.715683
46.318218 75.484467 58.745071
41.735794 74.197029 58.735817
42.335266 79.229286 58.857456
44.136356 74.476555 58.831802
46.601341 76.680557 58.746117
44.706573 75.957672 58.74865
41.025822 77.348969 58.747116
47.132248 77.437386 58.768204
41.148548 77.151665 58.819084
41.924461 76.478798 58.894043
40.94252 75.02359 58.732899
47.402779 74.911232 58.773529
43.639687 73.079102 58.801785
42.729782 73.162941 58.518024
41.676872 73.720177 58.544037
44.026791 75.718857 58.62653
43.712933 78.961578 58.916718
42.225925 76.660248 58.793392
40.516014 76.67009 58.738316
45.236874 78.650642 58.898705
43.525635 75.86998 58.848911
43.033134 76.214081 58.81805
46.02512 73.878838 58.736992
44.440781 76.134117 58.989178
45.03146 75.135368 58.79591
45.128834 74.020271 58.877174
44.63076 77.26368 58.885117
46.615452 75.919533 58.785683
42.436184 77.159256 58.859844
43.728283 78.144043 58.852047
42.321129 77.25589 58.882084
42.357281 75.738403 58.897541
46.228107 75.709312 58.718601
46.246952 73.306305 58.639561
43.621391 76.401093 58.72435
43.428207 78.582504 58.818623
44.633095 78.910477 58.853642
43.999668 77.871033 58.930504
44.936577 78.107819 58.902843
45.725517 77.70755 58.856602
44.032227 79.412437 58.899544
44.628006 77.63575 59.020088
46.811749 78.275887 58.807938
46.834717 79.226028 58.830727
43.033813 75.771385 58.825111
42.729271 75.140854 58.793468
41.643425 77.074417 58.794632
44.031822 75.901062 58.813591
45.623325 75.490135 58.751099
44.626957 79.220367 58.866844
44.735958 73.838158 58.806057
43.638123 79.958305 58.901924
44.229168 72.990685 58.777164
44.507122 73.245979 58.604557
42.125137 77.392921 58.844334
42.537338 77.39151 58.841255
42.732758 79.220703 58.863731
44.520435 79.732147 58.909206
42.625854 76.404678 58.859272
43.841396 76.217789 58.993034
43.72364 75.463509 58.812115
44.929478 79.83606 58.884739
42.938404 76.347435 58.790817
43.328522 73.022614 58.738209
46.742481 78.709503 58.780994
45.218639 75.7798 58.831181
46.603134 76.890373 58.758289
41.830292 75.585861 58.762928
41.429871 78.269714 58.762012
40.982002 77.423279 58.816944
41.323975 72.826859 58.659595
44.230804 75.674744 58.812721
45.126427 77.800705 58.884056
45.934429 79.092377 58.877216
45.824894 78.601601 58.807663
43.942802 73.302605 58.787937
43.629642 73.303329 58.79092
41.133492 77.415825 58.826725
46.126183 75.408997 58.702759
43.427052 75.582306 58.798725
42.022488 78.238922 58.844555
44.993889 79.571648 58.936077
41.411194 79.029823 58.787281
41.623322 76.445557 58.773159
42.729851 77.572433 58.907597
43.724659 75.897255 58.810272
43.630772 79.000343 58.872028
42.025867 75.052315 58.765354
43.031223 78.728722 58.951134
46.036007 75.076042 58.69735
44.615879 76.150665 58.995819
46.985863 77.38829 58.81358
41.919415 78.160339 58.823189
45.635628 76.800331 58.757717
42.633892 79.318893 58.883263
46.828445 78.249229 58.838375
45.22961 78.56353 58.876419
42.330971 75.898445 58.797176
47.013279 75.382057 58.724621
42.13171 74.694214 58.818119
42.31963 77.640907 58.90686
40.838425 76.570709 58.724148
43.028278 78.91481 58.856171
43.327301 77.930748 58.854897
44.131695 79.541901 58.880363
41.92498 76.996994 58.74173
44.731998 78.591484 58.811295
45.628819 77.289505 58.814415
45.392788 75.034821 58.67046
46.050591 73.207237 58.78056
44.031925 74.189835 58.77829
44.426876 73.081123 58.809849
44.422119 73.779961 58.726707
46.528587 78.152122 58.818672
41.22628 74.212364 58.713406
45.323551 77.47805 58.875946
42.33049 76.530228 58.827148
43.72261 74.45594 58.954346
45.018467 78.241623 58.865005
44.932053 74.823715 58.793961
44.431526 79.83358 58.890202
40.478828 74.158577 58.689503
46.698536 74.217407 58.73222
40.35997 75.71637 58.714272
46.637878 75.812988 58.756241
43.033386 75.900665 58.807819
41.630333 74.198372 58.733925
46.336952 78.605179 58.806618
44.429928 72.77475 58.816486
42.326641 73.110931 58.745724
46.120243 75.494225 58.737549
45.833633 75.397972 59.085079
44.126373 75.053841 58.777515
46.132126 73.885139 58.738819
46.032509 73.035431 58.723671
42.826107 78.281059 58.797291
44.328613 79.722252 58.904842
40.934353 74.088287 58.706581
47.436604 74.197891 58.744698
45.928612 73.333923 58.724365
44.956867 79.921867 58.892311
42.930481 76.217407 58.817474
44.429943 73.298508 58.794865
41.631535 78.950363 58.731537
41.624836 73.575699 58.697983
44.229507 72.811768 58.746044
40.839638 75.603226 58.750778
47.147686 75.527176 58.733566
46.329575 79.219307 58.833866
43.529556 79.280693 58.951649
45.441628 81.686874 58.93832
44.524334 78.161186 59.072319
43.127197 79.095352 58.881504
43.03215 72.771576 58.789291
43.123867 72.987854 58.779671
43.023468 79.276253 58.940723
44.126282 78.875214 58.890461
40.917549 77.856491 58.742981
41.836475 73.552834 58.714798
44.253872 76.26252 58.762405
41.324753 76.791901 58.747658
44.729568 72.86985 58.675285
42.633163 79.724136 58.907661
46.013054 77.900398 58.689362
43.227428 77.165085 58.849674
41.807072 75.506325 58.678089
43.327541 75.888832 58.809101
45.827515 79.229591 58.837608
45.234673 72.996582 58.78545
43.632164 76.847099 58.840473
45.322193 77.160255 58.83744
44.426758 77.707474 58.859436
41.431225 77.884178 58.740448
44.431427 79.096024 58.88327
45.112282 76.169342 58.879436
41.833672 76.661118 58.784679
41.516464 73.458099 58.674835
44.396278 72.800674 58.667747
41.834492 75.672112 58.784523
46.324673 80.091667 58.783161
46.638023 75.562927 58.757622
41.759052 79.82048 58.799854
44.029785 79.101707 58.881901
44.92815 77.698944 58.858566
43.532093 75.900902 58.811996
43.330605 74.188576 58.772285
40.825672 75.27063 58.713814
47.123245 75.330536 58.81274
44.04224 78.448547 58.932682
47.178482 74.405861 58.671959
45.936184 75.405029 58.712883
47.584648 74.665474 58.791195
45.82848 76.978271 58.801258
45.724632 78.253845 58.85881
42.730068 73.11689 58.752254
43.32851 79.099854 58.880074
42.334953 78.595261 58.814003
43.836815 79.607697 58.953186
45.489483 78.367722 58.887928
42.529934 72.706635 58.710789
43.230301 79.792969 58.949863
44.924324 78.021606 58.866508
40.496326 75.562759 58.709137
47.046913 75.527092 58.712654
45.432796 73.113663 58.750118
42.433285 72.584709 58.739326
45.226646 79.231354 58.853077
41.44038 79.533974 58.832745
43.029091 73.115311 58.752178
44.432068 72.935669 58.894051
46.907932 73.860001 58.750969
45.527813 78.910713 58.835793
46.5182 77.45784 58.719299
43.110016 73.090157 58.814003
43.451584 76.041351 58.952202
43.0298 77.517075 58.829681
43.027973 76.399132 58.855923
45.534866 79.751869 58.853806
44.053631 78.323807 59.077312
46.242615 77.693283 58.835999
42.929081 79.182953 58.90403
46.236332 78.900566 58.814926
43.660332 76.993256 58.740311
45.32201 73.278191 58.937702
46.030796 74.906731 58.810371
43.233215 78.55233 58.866146
43.33028 73.071266 58.799541
43.227051 75.894539 58.809196
40.112892 78.62542 58.695236
46.811798 78.898094 58.818794
45.328709 76.434875 58.798737
44.826977 73.969643 58.777969
40.828037 76.674431 58.753014
41.523605 79.532112 58.830254
41.926563 75.128265 58.791714
43.136528 78.369034 58.825962
43.535625 78.999992 58.872555
45.124943 79.095848 58.88121
42.731289 75.278488 58.767162
45.035881 77.168045 58.858482
43.931992 72.936691 58.714939
45.538876 75.45591 58.80909
44.129738 79.812981 58.96014
42.931934 72.743851 58.645817
45.421932 74.593079 58.799412
46.120186 73.541679 58.790104
46.031868 81.478157 58.867355
42.022896 79.671455 58.828323
41.535873 77.374031 58.81641
42.638916 78.029167 58.870281
47.256306 75.63073 58.760113
40.56065 75.330154 58.662613
46.897579 74.2341 58.757477
45.22995 75.274071 58.761753
45.019875 75.857246 58.849537
46.03199 77.30117 58.801083
40.231049 74.454353 58.673981
41.732834 79.550545 58.836006
45.423668 78.242126 58.852139
45.530952 77.702515 58.846371
42.02602 73.55307 58.718182
46.525097 79.234116 58.82719
42.2295 79.093407 58.875683
46.434566 78.369545 58.822292
41.328651 78.943726 58.756397
45.227352 79.317024 58.871696
44.028404 74.787003 58.852859
42.831547 72.890648 58.761803
40.739555 79.456329 58.823677
47.148037 79.400887 58.801826
41.329521 76.379501 58.674446
39.983414 74.785339 58.668926
42.334064 78.902191 58.832722
46.02784 77.199326 58.78096
43.423569 73.076118 58.804222
44.215199 74.015564 58.86895
43.158886 73.173149 58.849072
44.625389 72.991348 58.780922
47.072113 77.668541 58.700539
40.529243 77.951279 58.754185
44.93475 76.809708 58.771816
44.717815 76.813843 58.771305
44.031509 78.075378 59.019241
45.619125 76.65435 58.792976
47.296715 79.562096 58.791466
40.139214 79.511383 58.734127
42.051418 79.932213 58.911167
43.733528 74.24398 58.834663
41.833195 73.025124 58.707199
45.924828 73.561699 58.721027
46.731216 73.147072 58.735836
40.425957 73.023254 58.65844
44.834469 72.88681 58.766476
42.953175 78.090218 58.733105
43.135059 79.793022 58.961277
44.53046 72.771767 58.825191
43.427986 75.278511 58.767288
42.621994 75.141785 58.795567
45.73016 78.904617 58.826138
41.516064 79.347137 58.809059
45.042873 78.112785 58.913113
40.601513 75.560463 58.745384
46.915436 75.505661 58.75613
44.621155 79.953056 58.924572
45.230724 76.758774 58.812065
44.635357 79.002548 58.867386
41.93198 78.912544 58.830517
41.718399 72.837631 58.666721
46.504578 77.622177 58.910091
46.116825 81.103165 58.770447
44.834999 73.83699 58.815529
41.725052 74.41571 58.729061
46.73735 76.880951 58.781124
42.432056 75.140152 58.794292
43.329464 79.187225 58.905247
42.968048 78.120659 59.136272
43.329269 75.358772 58.77961
41.732391 77.3815 58.817066
39.807941 75.709991 58.669647
46.326519 75.810905 58.755878
40.362301 78.922173 58.743851
41.821999 79.088333 58.862282
44.331604 72.891479 58.764206
42.024742 76.887276 58.780666
43.931019 73.384056 58.824848
40.443275 77.347176 58.7253
46.914303 77.417618 58.785618
43.288097 73.67186 58.656631
42.925915 78.463219 58.843376
45.733456 79.094711 58.879189
44.831665 76.624489 58.846001
44.807411 77.04792 58.892075
46.706905 78.532578 58.845516
40.301842 73.690018 58.693184
43.226334 73.075294 58.803089
41.124794 79.361259 58.884132
45.832844 75.385506 58.718826
42.732727 78.89978 58.847866
44.430038 75.589172 58.794544
40.835266 76.860497 58.811024
44.422913 74.9599 58.76112
45.029766 75.937935 58.737759
42.938133 75.866447 58.855209
44.749126 76.228058 58.998486
42.027756 78.052002 58.811119
41.82756 79.542877 58.846458
42.123795 79.537643 58.853554
45.539124 79.865433 58.874172
44.811176 72.983353 58.9716
46.410946 75.457848 58.806488
45.328007 78.912102 58.841854
45.728088 73.779808 58.726143
46.025837 75.798019 58.769768
44.730141 72.81395 58.94405
43.325939 78.901817 58.854443
40.670898 72.797745 58.664307
46.68581 75.933067 58.78738
40.654163 73.842308 58.752144
47.102951 73.767075 58.719223
41.626377 79.542183 58.833828
46.12067 74.508659 58.761253
46.903168 74.490807 58.768105
40.715626 74.39399 58.731071
47.038036 74.3284 58.684605
47.663319 74.45446 58.740456
41.928997 74.093742 58.723148
43.728416 79.417931 58.89362
43.536438 73.076523 58.810951
46.520634 78.725166 58.751442
46.039795 77.677711 58.83913
43.030308 76.849068 58.837059
47.382999 74.440598 58.689968
42.828678 76.083321 58.840523
47.134556 75.903641 58.816372
42.624966 74.186218 58.760433
44.917797 76.253174 58.758316
44.235867 78.826042 58.787552
43.424747 78.905327 58.85078
40.44537 78.595093 58.721348
46.520237 78.909714 58.820763
41.523842 73.656769 58.728336
40.855118 74.960747 58.717209
46.932026 74.836205 58.700306
44.922131 78.046539 58.82745
43.627754 77.391762 58.852165
42.828747 74.284798 58.785522
43.330414 73.110527 58.756145
43.223503 78.077385 58.99873
43.525211 74.193756 58.773582
43.637657 76.219772 58.988655
43.429531 78.363358 58.830883
42.929386 75.584419 58.797508
46.594627 76.061386 58.818951
45.329536 78.148666 58.828842
41.948643 74.689613 58.822971
42.824718 79.792007 58.959686
42.924988 79.800194 58.954796
43.330788 78.367714 58.829174
45.926884 79.442795 58.83952
42.730301 78.558487 58.873314
42.546143 79.946899 58.902405
43.430092 74.923737 58.807571
44.922691 74.290413 58.783234
43.834427 78.654335 58.896259
46.893745 78.562943 58.801991
44.636887 72.896172 58.965809
42.731796 78.235992 58.850368
42.730194 72.892593 58.757282
45.73222 73.334328 58.73402
45.824947 78.913414 58.83004
46.122246 77.300041 58.809002
40.730206 75.182724 58.677177
44.625637 77.610939 58.842155
44.714577 74.246742 58.86076
43.624214 73.46891 58.688141
42.32946 76.349716 58.698467
47.067993 78.192429 58.807285
40.753307 78.26812 58.759514
44.934643 79.716797 58.904751
44.228218 74.690628 58.815861
43.72813 73.079895 58.7981
45.93264 76.849915 58.8218
42.538776 78.556343 58.867348
45.528137 73.086624 58.818626
41.236073 75.510635 58.818771
44.123013 73.71125 58.840515
47.215515 78.361603 58.784466
46.615894 78.26268 58.787575
46.728165 78.252403 58.786594
43.729145 73.299072 58.789478
45.825954 78.694359 58.831306
45.328011 78.813019 58.813171
42.140965 78.646896 58.899582
42.834328 75.273148 58.758461
45.226528 75.867363 58.863426
41.034874 74.079605 58.723091
42.026756 74.192688 58.744892
46.021824 75.901253 58.789654
42.415226 77.436409 58.798721
43.026417 75.863487 58.849369
42.431545 76.942062 58.877625
44.728489 78.312637 58.907234
46.428291 79.085632 58.888195
43.13089 78.556015 58.866329
41.027466 75.39856 58.711185
47.326843 75.252129 58.696552
42.021954 75.172958 58.720428
45.817364 74.993721 58.836773
43.429256 78.46862 58.846741
43.230114 74.599449 58.797802
41.716835 78.23513 58.836445
42.225025 72.703094 58.695694
43.831661 73.339111 58.756802
43.019241 73.30658 58.790802
46.748291 75.607437 58.749378
41.142399 77.196976 58.765041
40.714214 77.110573 58.726494
44.520477 78.340614 59.09227
44.932354 76.128479 58.791977
42.641903 75.503036 58.76342
45.326153 78.59433 58.809895
45.92149 76.617706 58.842419
44.226776 77.834526 58.843372
46.771507 75.672798 58.778622
42.630836 75.997299 58.819523
43.823441 79.184135 58.901382
43.02924 79.323212 58.87677
44.428905 78.563896 58.869034
40.498775 80.000862 58.763996
42.037464 79.229652 58.841747
42.43108 77.201363 58.808174
42.321777 74.599655 58.790092
46.02285 73.569855 58.721478
42.027008 76.942406 58.853741
45.125885 74.962692 58.762085
40.713203 76.361511 58.729614
46.815033 76.428543 58.778847
44.017437 77.311272 59.010624
41.727543 73.033989 58.695732
46.3382 78.99382 58.835236
43.532356 75.764114 58.962517
44.620861 73.076881 58.817974
45.622536 78.816765 58.813129
41.213326 77.093857 58.804649
44.827354 79.947403 58.925308
46.116489 78.150604 58.817936
41.822601 76.53653 58.815811
46.227459 75.906754 58.794075
45.032986 77.514435 58.817799
42.119556 79.6651 58.829121
46.424473 77.33493 58.74337
40.580654 75.722878 58.785465
44.525734 75.236732 58.823483
44.831806 77.123871 58.788902
42.727406 79.909798 58.904327
46.702927 75.4058 58.723846
40.79076 77.091431 58.805878
45.609116 76.24128 59.012329
43.836163 75.857498 58.854218
43.128834 79.184166 58.901413
42.829437 72.801651 58.739403
40.660526 74.354172 58.683216
42.732105 74.600594 58.795387
46.026234 78.59053 58.800045
46.306709 76.837769 58.828556
46.034824 78.150475 58.823986
44.229404 75.49485 58.767582
45.624241 77.420212 58.781509
40.895191 78.014549 58.716217
46.633244 78.509277 58.766857
44.536766 76.011375 59.02853
46.426086 77.995758 58.866901
42.524216 72.894791 58.755016
43.433723 77.755058 59.002274
41.509586 74.096298 58.771206
42.731136 76.2136 58.815029
44.627518 75.994499 58.820312
45.420368 81.56797 58.919155
45.830551 78.152328 58.827255
43.729683 73.843239 58.792267
44.190346 73.467628 58.861645
42.324581 78.864883 58.900719
42.230637 77.610268 58.832455
45.52993 76.852982 58.831318
46.132038 77.73777 58.78791
44.733257 78.411064 58.745728
43.929108 73.219025 58.924847
40.619511 74.519455 58.676792
47.090221 74.605927 58.753407
43.227169 78.999146 58.870628
45.825199 76.919754 58.879318
43.134792 77.253357 58.870586
44.752628 73.77095 58.9799
43.926449 79.732986 58.906765
43.140427 73.481079 58.712589
46.715652 77.213776 58.776276
45.519924 78.72448 58.786095
44.324692 79.83651 58.896439
46.619122 79.237915 58.836929
44.740189 72.928619 58.903347
