# .PCD v0.7 - Point Cloud Data file format
VERSION 0.7
FIELDS x y z
SIZE 4 4 4
TYPE F F F
COUNT 1 1 1
WIDTH 1560
HEIGHT 1
VIEWPOINT 0 0 0 1 0 0 0
POINTS 1560
DATA ascii
14.721179 89.938286 -35.594742
14.039482 90.018089 -35.613781
16.306845 92.010544 -35.575375
15.503356 92.244682 -35.621643
14.810796 92.417694 -35.590565
15.092902 98.17569 -35.504684
15.606482 98.57885 -35.448505
16.516321 62.033619 -35.577366
14.218837 100.70232 -35.46949
15.215678 100.72933 -35.483513
16.508299 89.755905 -35.430786
15.29899 101.16965 -35.527824
17.824554 97.405266 -35.344757
14.013579 88.464462 -35.609535
13.623793 106.86647 -35.370289
15.293839 99.026283 -35.491302
15.657557 90.45726 -35.643036
14.640199 90.235443 -35.690403
16.890648 96.220444 -35.378738
14.400537 64.249283 -35.604443
16.515091 106.17048 -35.374901
16.203203 106.16864 -35.395241
14.934177 102.22608 -35.541786
15.593533 77.045135 -35.684055
14.593254 73.316757 -35.483604
14.10824 74.167488 -35.550426
14.779688 77.249252 -35.510696
14.719778 77.478607 -35.52169
14.54664 77.468643 -35.521107
15.429534 85.607346 -35.462261
14.420679 80.003548 -35.530739
14.808622 80.567909 -35.495514
14.398559 84.667458 -35.53035
15.005238 85.835625 -35.501911
16.073475 76.466461 -35.763672
14.511663 86.58017 -35.5354
15.080497 86.679153 -35.512562
14.015145 87.773209 -35.540562
15.813809 88.017693 -35.538612
14.702621 89.386368 -35.534309
14.026758 89.402817 -35.555016
14.046948 90.009995 -35.52647
14.71123 89.924484 -35.53027
14.708508 90.143272 -35.544159
14.019088 90.121902 -35.562618
16.308117 91.880524 -35.539413
15.506338 91.974922 -35.545815
16.309168 92.29026 -35.504395
16.406872 100.69057 -35.394218
15.413421 101.89759 -35.464565
14.319402 101.96049 -35.411938
15.415603 102.43904 -35.450314
16.10527 51.02277 -35.627731
17.537535 106.17688 -35.344887
14.408723 107.10611 -35.346882
14.111772 75.266342 -35.555614
14.088991 75.37011 -35.555096
14.123855 74.298103 -35.577522
15.564097 94.203102 -35.655056
15.200408 100.02321 -35.381954
17.205599 85.835106 -35.381962
15.314604 64.639442 -35.502872
14.905905 64.654442 -35.532333
15.027279 67.820862 -35.48283
15.282623 75.806892 -35.7439
14.420809 71.524956 -35.5625
14.746334 73.610054 -35.520683
14.539547 74.267113 -35.601463
14.43951 74.285896 -35.592766
14.22526 82.362289 -35.622139
14.59756 77.153831 -35.538029
14.70065 77.15065 -35.544178
16.009983 85.601967 -35.446198
15.600412 105.19034 -35.372314
14.321718 83.411133 -35.563892
14.715935 83.491646 -35.534855
14.915486 85.828629 -35.502491
14.41715 86.496964 -35.57653
14.420064 86.584961 -35.561371
14.217482 87.663452 -35.56496
15.109527 87.667404 -35.536854
16.211697 87.709541 -35.541981
13.881616 88.640396 -35.613155
14.200816 88.824783 -35.552917
14.602235 90.450058 -35.56242
13.932533 98.815224 -35.523911
16.509729 49.062336 -35.559212
15.911566 55.249195 -35.712776
18.420713 51.249088 -35.539474
15.58524 69.340118 -35.747166
17.476225 70.82605 -35.398083
15.268807 90.852089 -35.495029
16.840239 95.35276 -35.544334
17.446653 81.729454 -35.382599
14.892911 65.262245 -35.499653
14.891446 65.574257 -35.493263
14.801482 74.272171 -35.574402
14.13943 74.874054 -35.632187
14.827132 77.790543 -35.51128
16.512684 80.334038 -35.566456
15.002995 83.534317 -35.584957
16.824102 83.581818 -35.571011
15.504556 83.668251 -35.613674
16.928387 83.968536 -35.543728
17.507389 88.756569 -35.370628
17.300821 88.883224 -35.45517
14.212741 84.392776 -35.608322
14.207145 85.867447 -35.581337
14.807991 87.667465 -35.547512
14.211967 87.890373 -35.576176
14.242655 88.014168 -35.560356
14.327035 88.532043 -35.549423
14.913068 88.529297 -35.527405
14.911636 88.753708 -35.548977
14.909347 89.504326 -35.562935
15.613887 89.732887 -35.539833
16.109138 91.567719 -35.547318
15.714705 91.790024 -35.580879
16.515684 91.790039 -35.543427
15.808283 92.09819 -35.566296
15.816213 96.779587 -35.482128
16.209581 97.31826 -35.476173
16.31144 98.043091 -35.441998
15.602859 101.88774 -35.449806
16.634689 101.88871 -35.41272
15.604715 102.45394 -35.45443
13.866432 58.507908 -35.693993
17.181253 93.614914 -35.319771
17.201286 88.920677 -35.368954
15.854487 58.811649 -35.733574
15.139332 94.884613 -35.583874
17.600796 95.186562 -35.375023
15.600478 105.37406 -35.339481
16.013191 75.584846 -35.542664
14.913642 83.178688 -35.539204
14.916223 83.273743 -35.518265
14.508494 83.262375 -35.51923
14.912348 83.501465 -35.533894
17.29525 89.326736 -35.472313
17.312799 89.258766 -35.359673
16.612961 84.166595 -35.505863
15.011108 87.989029 -35.526836
14.816434 89.820564 -35.559944
16.213154 90.995483 -35.480991
14.809827 91.763481 -35.572826
14.126869 91.875351 -35.587212
15.226827 103.38643 -35.432835
15.112474 98.358177 -35.46386
16.022966 98.374489 -35.432774
14.222425 99.623222 -35.457066
14.104607 87.646324 -35.564041
17.758919 51.540951 -35.571785
16.692677 70.659325 -35.482368
13.941057 63.296856 -35.687145
15.710904 99.654213 -35.459679
15.029026 89.781464 -35.498749
17.913757 74.993332 -35.449886
17.986378 59.214657 -35.533165
14.920796 83.368065 -35.48769
14.721859 83.957047 -35.570049
14.031553 84.257179 -35.572029
14.816316 92.889992 -35.466942
16.919283 87.476479 -35.493004
14.713306 87.981407 -35.531975
15.411723 90.140091 -35.53212
15.909891 91.65509 -35.540684
16.211784 91.836975 -35.491966
14.813341 91.847 -35.535408
16.311842 91.980202 -35.520863
15.001849 97.692757 -35.431065
14.998887 97.993599 -35.438301
15.109752 98.761894 -35.44125
14.094223 98.871826 -35.432175
15.222479 101.54903 -35.41935
14.118006 101.55414 -35.46228
16.216627 101.85728 -35.368996
16.800362 53.292812 -35.666439
17.720352 52.384182 -35.486061
17.201237 90.64502 -35.364986
14.714468 90.179497 -35.606903
16.322756 48.967121 -35.459572
17.191835 49.044903 -35.42305
15.433829 60.346626 -35.528297
15.548221 66.367416 -35.476585
15.676883 66.639923 -35.475121
15.655124 66.895103 -35.483715
15.503036 67.223122 -35.441296
15.62897 67.237221 -35.467617
17.918055 79.756981 -35.419098
15.46979 68.365715 -35.474957
14.555253 50.144421 -35.59306
15.007281 83.28241 -35.51313
14.331115 83.369553 -35.505943
16.512577 83.660782 -35.572193
16.094109 83.779518 -35.632683
14.511983 88.01577 -35.611549
15.30845 91.659454 -35.564873
14.613372 91.657814 -35.591061
14.407328 78.942726 -35.643269
17.012478 104.95872 -35.315022
15.446301 75.132347 -35.679176
15.829165 75.89032 -35.680119
16.03017 87.227028 -35.596458
15.004625 77.83342 -35.716251
15.622318 78.140717 -35.727661
15.57584 78.3741 -35.707966
14.801756 78.461617 -35.723763
15.09 78.469933 -35.721905
15.216676 78.672234 -35.73851
14.875828 78.711838 -35.74482
14.975193 78.767326 -35.741665
14.896101 78.755524 -35.698376
15.01926 78.923195 -35.782772
15.251011 78.959389 -35.790173
14.893399 78.96022 -35.748856
15.035085 79.021996 -35.724567
14.543125 79.167831 -35.788616
14.732028 79.306274 -35.743317
16.812397 80.303162 -35.503021
17.109552 80.619751 -35.466129
15.311444 90.265381 -35.56525
15.815075 91.47506 -35.581482
14.117271 96.028351 -35.533928
15.016697 96.240204 -35.520184
15.013768 98.364746 -35.471527
15.109809 99.534447 -35.449074
15.122207 99.937263 -35.416187
16.10935 100.29252 -35.439377
17.508469 97.416412 -35.355976
14.304499 79.116333 -35.519207
14.410212 77.895317 -35.737671
14.45649 78.221947 -35.769489
14.80128 105.30798 -35.447693
14.464508 75.681396 -35.706238
14.502002 76.1437 -35.779976
14.512806 76.312576 -35.7048
16.011797 85.527443 -35.458401
15.734116 69.371933 -35.748775
15.912478 75.583038 -35.718246
14.890584 89.815269 -35.73111
16.111116 100.14993 -35.393269
16.614113 100.1869 -35.429161
16.627392 100.14474 -35.512508
16.011803 96.738411 -35.41769
18.220209 49.613766 -35.526321
17.485785 51.565426 -35.662476
17.720221 52.540901 -35.667759
17.642523 53.008087 -35.669987
16.864325 53.27898 -35.663181
16.756048 54.089382 -35.680984
14.712006 79.958389 -35.52845
15.908313 75.592819 -35.54586
17.4394 88.886391 -35.451885
14.312562 86.737442 -35.583462
15.507729 88.556816 -35.559624
15.010155 88.661575 -35.567524
13.759588 89.62458 -35.513088
15.806056 90.808701 -35.538296
14.42284 90.901161 -35.583035
13.72096 91.223816 -35.596684
15.111826 91.221275 -35.542316
13.744663 91.441719 -35.589382
13.729437 91.895294 -35.604866
14.419199 91.97686 -35.599453
14.620001 95.923378 -35.531914
14.617761 96.237068 -35.521519
13.727118 97.662201 -35.542442
14.658363 97.877342 -35.516739
14.720083 101.14208 -35.478748
15.507139 92.104805 -35.581146
15.91778 91.439651 -35.517872
16.926666 90.870277 -35.403427
15.71872 59.431793 -35.559303
14.238669 96.918152 -35.530041
16.903343 89.053535 -35.61433
16.003225 95.667191 -35.416531
13.524601 99.868858 -35.291962
15.815662 99.344208 -35.464611
13.726411 99.998283 -35.300446
18.122355 42.101685 -35.129059
16.706053 99.743721 -35.407692
15.815354 89.853966 -35.572506
17.259743 53.826984 -35.688648
17.513996 81.665398 -35.387096
14.701204 75.213371 -35.681572
17.337685 85.406403 -35.350937
14.718447 82.645073 -35.542686
14.314503 82.642014 -35.545097
16.321527 103.24543 -35.369663
14.053467 90.656944 -35.588112
14.716125 90.678978 -35.562691
14.001248 90.77182 -35.555893
14.736493 90.895203 -35.501408
17.508659 101.64129 -35.274643
14.102612 91.210052 -35.586544
15.11084 97.753754 -35.534832
15.098225 98.067429 -35.531101
16.160255 53.299118 -35.711136
14.23981 77.72599 -35.715717
14.32948 75.690285 -35.598335
16.83021 53.235207 -35.678593
17.214792 55.421688 -35.688465
14.616708 85.896492 -35.635906
17.490023 86.022141 -35.308456
15.10605 76.324074 -35.524315
14.317099 79.553337 -35.587685
15.302891 52.095005 -35.661167
15.507312 52.11422 -35.652443
15.215058 82.647148 -35.524158
15.010234 82.735695 -35.514484
14.414923 83.72068 -35.574097
16.607891 83.75238 -35.546417
17.326601 88.708168 -35.333176
17.428434 88.732338 -35.383373
17.104685 93.108818 -35.385311
17.596161 48.610638 -35.433044
15.016632 96.358437 -35.567894
15.115336 97.955009 -35.493038
15.201102 98.380661 -35.513016
15.208912 99.878883 -35.484501
14.312423 99.957863 -35.509209
15.305723 101.26388 -35.485195
16.413582 101.26894 -35.443787
14.994308 59.206501 -35.723396
16.810816 60.140862 -35.605087
18.004574 57.39917 -35.48127
16.198952 105.91105 -35.328697
16.197142 76.300606 -35.486576
15.5076 98.893555 -35.448227
16.108759 100.19209 -35.444592
15.111793 99.250984 -35.506374
14.04673 95.522888 -35.414078
17.43055 47.176128 -35.381447
16.11451 99.752449 -35.434959
17.026104 52.439075 -35.715771
16.803509 54.00396 -35.714619
16.592266 55.44025 -35.751324
15.513198 63.913349 -35.715843
14.606603 72.654953 -35.711876
16.604418 85.0597 -35.568665
16.429476 106.76178 -35.287197
16.225698 80.251183 -35.608067
16.099714 80.469368 -35.627361
14.811357 82.550133 -35.565594
14.411188 82.540222 -35.57288
14.917753 82.867378 -35.546288
14.709957 83.187607 -35.554596
14.719113 83.709648 -35.546989
15.016173 83.716988 -35.538212
14.719279 86.094322 -35.600967
16.717365 92.708931 -35.44598
14.710663 101.36884 -35.484386
13.6379 101.36816 -35.545101
16.300426 104.77705 -35.402081
17.316063 91.44471 -35.433033
16.319328 49.732227 -35.596169
14.834304 105.99334 -35.339371
16.538214 95.293175 -35.588768
14.420301 75.843567 -35.66748
13.911808 99.969063 -35.330833
13.964883 100.00419 -35.332314
17.882242 97.940201 -35.36235
16.861525 52.077587 -35.707577
16.826002 52.338669 -35.703716
16.586134 54.071091 -35.704315
15.317336 73.095192 -35.458672
14.606865 82.598656 -35.632492
16.713913 82.462273 -35.518177
16.311386 82.67395 -35.546597
16.809612 82.689606 -35.509869
16.818039 82.767876 -35.493206
16.613995 82.86055 -35.489429
14.913512 82.95417 -35.531082
16.607824 83.087791 -35.494442
16.708763 86.642059 -35.505287
16.120514 86.759903 -35.573059
14.216427 87.800789 -35.614098
16.009445 89.851852 -35.569267
16.313299 102.54333 -35.423882
15.112603 96.556831 -35.499866
16.044174 101.12653 -35.353367
17.416584 88.311501 -35.34436
16.493929 78.384789 -35.672699
17.595018 80.888878 -35.369499
15.817632 106.76731 -35.318092
17.211216 88.028084 -35.479015
16.417021 47.848984 -35.65797
16.223457 105.38577 -35.312813
14.09967 77.755112 -35.628307
17.39782 74.463631 -35.573273
14.400928 105.34261 -35.40382
14.234308 82.659447 -35.576862
14.621508 82.640762 -35.546715
14.615209 82.721092 -35.520138
14.226212 82.772095 -35.59177
14.437302 82.967903 -35.547691
14.305476 83.713272 -35.556469
14.723092 83.68483 -35.474216
17.1385 89.233604 -35.369423
17.679239 52.028225 -35.448399
14.007071 87.66423 -35.564743
14.620157 89.18811 -35.591526
15.417236 89.957314 -35.564331
16.907068 107.13185 -35.334103
15.406106 98.829086 -35.289658
17.825542 42.016766 -35.214546
17.572647 50.454369 -35.585842
17.091324 53.55888 -35.666782
14.596597 75.233887 -35.678577
15.608803 47.693096 -35.593975
17.734318 88.709053 -35.372055
17.230728 92.975365 -35.342346
15.220405 88.467865 -35.59116
14.814168 91.119621 -35.573189
15.534461 91.492912 -35.595272
16.007175 96.146423 -35.498066
15.200556 97.234077 -35.539536
15.219331 97.533684 -35.513889
16.300062 50.944351 -35.647221
15.018763 60.131802 -35.696556
14.995441 81.32785 -35.667549
15.611939 53.238644 -35.569363
15.423182 100.76155 -35.559643
14.614257 82.407974 -35.531815
14.917759 82.640999 -35.536613
14.427172 86.083801 -35.597778
14.903887 88.876205 -35.581768
15.012909 89.815178 -35.557095
15.314136 89.951187 -35.568718
15.316897 90.490532 -35.571461
16.007845 97.227226 -35.504562
15.017522 97.308853 -35.520145
16.009903 97.499664 -35.456242
16.113415 99.023766 -35.463482
15.12528 99.023323 -35.501507
14.19243 99.040848 -35.520966
15.208139 99.785355 -35.516018
14.208344 100.92104 -35.490112
15.311629 101.36289 -35.454582
14.05284 89.721603 -35.535316
17.424454 107.01141 -35.343685
14.126563 52.94886 -35.698746
14.239697 89.249214 -35.520042
14.814319 79.953323 -35.53009
14.512587 82.416222 -35.536709
15.11648 82.424217 -35.515316
15.711432 91.439377 -35.526146
14.914274 88.119293 -35.565742
15.016993 89.096863 -35.593109
15.409832 90.991791 -35.515884
14.82028 91.394447 -35.505119
15.911201 96.113762 -35.439331
16.003609 96.566864 -35.465317
15.116719 96.520546 -35.439205
15.207081 97.593277 -35.471394
14.249775 97.680458 -35.486816
14.204927 97.92379 -35.481369
15.207707 98.261703 -35.474529
15.307194 99.435509 -35.46307
15.314712 99.784523 -35.517502
16.693472 92.317749 -35.546883
16.612812 95.073463 -35.478672
16.20397 50.845665 -35.537842
14.307155 86.327217 -35.621941
14.007282 68.677017 -35.684555
14.417933 71.954887 -35.59499
15.012501 82.419296 -35.515083
16.70957 82.431656 -35.441017
14.816151 82.421112 -35.521706
15.021235 82.517265 -35.490559
15.315975 83.055336 -35.491974
14.821559 83.179985 -35.543674
15.511782 105.41882 -35.390556
15.508223 89.72834 -35.551437
14.817876 89.73156 -35.582458
15.509361 89.860336 -35.584625
16.311676 91.114708 -35.513882
14.218288 91.222717 -35.578915
16.411028 91.249237 -35.545673
16.409149 91.347595 -35.518867
14.407201 94.58593 -35.46627
15.310909 95.893829 -35.46035
15.308367 96.114357 -35.460236
14.525811 97.52829 -35.508919
16.401936 97.511162 -35.434158
15.412881 97.725166 -35.470116
14.6082 99.077187 -35.442104
15.609636 92.339653 -35.59362
16.831659 60.607685 -35.494995
17.22533 94.091652 -35.405224
15.101528 92.57148 -35.645138
15.948192 74.491714 -35.794689
17.491335 50.542454 -35.488743
17.272585 56.65778 -35.620228
14.243345 76.913116 -35.686909
14.520547 82.219582 -35.517357
17.536612 81.442596 -35.373379
15.90608 77.068932 -35.517033
15.912924 82.458549 -35.540218
16.615402 82.464218 -35.524902
15.907021 82.554726 -35.520927
16.615383 82.552505 -35.491108
14.713558 82.557243 -35.564556
16.410555 82.586426 -35.559048
14.915116 82.740402 -35.511932
15.109506 82.739044 -35.50909
16.414555 82.86454 -35.493229
16.908752 82.869888 -35.46376
16.313055 82.861877 -35.503845
16.910749 82.98954 -35.494839
16.91168 83.087379 -35.4716
14.913722 83.051765 -35.50219
14.727234 83.058113 -35.501942
16.508106 83.175919 -35.479042
15.311275 83.718201 -35.523239
17.002232 93.127525 -35.385071
16.213377 97.102394 -35.476154
15.307284 97.096825 -35.49506
16.599863 97.930603 -35.59623
18.166332 42.099022 -35.093369
17.702932 55.355762 -35.574398
15.613451 73.225128 -35.5126
16.096714 106.92204 -35.271244
15.014318 82.231331 -35.569187
14.611772 82.455658 -35.589752
15.218949 82.424973 -35.513462
15.40729 82.551437 -35.52853
15.314783 82.957397 -35.508858
14.613765 83.088448 -35.579128
16.496092 83.623619 -35.509716
16.011555 83.717354 -35.509457
16.507494 83.725815 -35.475708
15.900097 86.140038 -35.597408
16.703749 49.463379 -35.628899
16.006134 100.69009 -35.407707
15.008084 100.73269 -35.49015
16.111546 75.727501 -35.425419
13.609365 100.00931 -35.312939
15.70054 94.575066 -35.572971
15.913306 89.858078 -35.568085
15.803795 97.956085 -35.468193
14.924834 95.202736 -35.430851
17.73307 82.785179 -35.399807
14.963402 78.853958 -35.531059
14.51679 59.165565 -35.668865
15.1121 82.141563 -35.577904
14.716887 82.425583 -35.519501
15.813825 82.456734 -35.543167
15.824603 82.810448 -35.610142
15.412174 82.865295 -35.520805
16.30913 82.899216 -35.552429
14.123631 83.714386 -35.583004
14.623008 83.714928 -35.554092
14.711647 85.112556 -35.55748
14.211745 86.32753 -35.622551
13.863551 55.098263 -35.599903
15.212567 58.613663 -35.642483
14.815445 97.416183 -35.509174
15.720269 97.72963 -35.451088
15.913899 99.33976 -35.459389
15.011024 101.0426 -35.484135
14.690001 74.728554 -35.774117
15.904055 105.18684 -35.371571
16.023323 78.912323 -35.67728
14.129883 84.396278 -35.61483
16.700266 93.653374 -35.415428
14.336616 79.192474 -35.51141
17.414951 80.936234 -35.415573
15.008287 94.992043 -35.549595
14.80681 98.969162 -35.681824
15.902234 87.996353 -35.675381
17.821018 53.737572 -35.570614
16.024227 106.18511 -35.384552
16.121084 106.16976 -35.388161
15.610535 73.533592 -35.496956
14.516424 81.969231 -35.511005
15.813766 82.14093 -35.552162
16.307217 82.325874 -35.486599
15.920289 82.495964 -35.618874
15.809816 82.548645 -35.522038
16.410641 75.632057 -35.586178
16.008432 75.626114 -35.601521
16.40943 82.673454 -35.536526
16.61389 82.644417 -35.454422
16.818794 82.864235 -35.468067
16.616495 82.98819 -35.518269
15.014782 83.04892 -35.498966
14.221486 83.468399 -35.498051
14.716983 83.595322 -35.517853
14.913571 85.520218 -35.506191
16.078823 49.58213 -35.817635
14.918309 88.564117 -35.588909
17.221632 102.81354 -35.286198
15.4244 85.290512 -35.653202
15.299539 100.34187 -35.357262
15.315134 100.50729 -35.46051
17.009689 88.960594 -35.445988
15.012916 78.789093 -35.53933
15.901519 105.5997 -35.345055
14.89651 79.431404 -35.523277
16.504234 80.399384 -35.473869
14.823831 81.971176 -35.499233
14.818851 82.111038 -35.537319
15.100294 82.505409 -35.493031
14.431101 82.516266 -35.527699
14.908642 82.518669 -35.486935
15.309901 82.518188 -35.483738
15.313612 82.733154 -35.500534
14.42584 82.750824 -35.518978
15.11108 82.839012 -35.474438
15.362411 82.905464 -35.443581
15.810241 83.054359 -35.468407
15.395872 83.163109 -35.452618
14.941312 83.140396 -35.478001
15.019934 83.470894 -35.459366
15.41054 83.587784 -35.490147
14.50816 83.707191 -35.475742
15.008168 83.69355 -35.46994
15.211547 83.949005 -35.537189
15.901376 85.385986 -35.402992
14.725639 85.713371 -35.450714
15.241126 85.708275 -35.438461
15.286454 77.264389 -35.470009
15.223481 85.830307 -35.483368
14.725994 85.844452 -35.503635
14.733146 85.94268 -35.470573
15.278571 86.072952 -35.506775
14.706248 86.127052 -35.466354
16.703938 87.391129 -35.518887
14.813169 88.43737 -35.548775
15.112637 88.780983 -35.587528
14.812438 89.005974 -35.622845
14.129968 63.488533 -35.761257
14.104995 85.525536 -35.542023
14.395321 78.504456 -35.625313
18.560297 42.124565 -35.114769
18.173456 49.867069 -35.530701
17.993912 79.743912 -35.322418
14.909704 105.15292 -35.489037
14.723767 82.526871 -35.510731
14.81646 82.640083 -35.542435
14.814477 82.743843 -35.514305
14.319988 82.733833 -35.53215
14.791692 82.825371 -35.502632
14.623573 83.057693 -35.507675
14.611179 83.371063 -35.500919
14.42023 83.509041 -35.542088
14.116632 85.604568 -35.522049
14.116867 85.877449 -35.585461
17.013775 103.26485 -35.31863
14.289607 88.625587 -35.508018
14.318762 88.795921 -35.635849
16.403662 49.061665 -35.556885
13.715325 90.545692 -35.565277
14.024815 84.574471 -35.582222
16.718941 93.504395 -35.526814
17.416641 81.112732 -35.397984
14.369013 89.8284 -35.724648
16.702045 90.303093 -35.554813
17.680914 49.607399 -35.639095
17.518805 50.611706 -35.640469
17.477789 50.8801 -35.630623
17.613712 81.09034 -35.419735
14.972828 79.714798 -35.496136
15.813654 82.234207 -35.537472
16.311209 82.191422 -35.448956
16.316856 82.507118 -35.421524
14.634997 82.837769 -35.480648
14.212332 82.856422 -35.586906
15.101019 82.9077 -35.44458
14.655157 82.941971 -35.459366
14.664495 82.993378 -35.445084
14.209661 83.141876 -35.508232
14.72458 83.471024 -35.455376
16.110489 83.715996 -35.504105
14.300131 84.114113 -35.426414
15.503816 85.522804 -35.488106
16.408819 86.228294 -35.384983
16.121792 86.37442 -35.448826
14.538092 86.910278 -35.441734
14.591618 87.242935 -35.501507
14.576666 87.355942 -35.433598
14.896815 87.855515 -35.45689
14.024841 87.850883 -35.5065
14.314311 74.10244 -35.635025
13.204591 107.8572 -35.204819
14.516119 107.93909 -35.194164
13.980334 87.541893 -35.510612
17.93947 42.040916 -35.150917
17.79772 96.19648 -35.299423
14.010378 68.604362 -35.60424
14.202112 60.239586 -35.693665
15.310827 82.424278 -35.502903
16.805342 83.052246 -35.415794
15.019019 83.36956 -35.4827
15.898773 83.503723 -35.493206
15.017438 83.593681 -35.502308
15.00874 85.523056 -35.506325
16.979904 89.346855 -35.514023
17.510359 89.301025 -35.408432
17.000717 89.280884 -35.431625
17.223261 81.885437 -35.403973
16.315636 94.407623 -35.45557
16.411913 94.716011 -35.441639
17.305979 102.27738 -35.266724
15.211595 74.731407 -35.767799
14.223644 85.423378 -35.563023
16.930552 90.620193 -35.388382
15.996607 83.703728 -35.414177
14.830835 89.774719 -35.750065
16.987783 53.858963 -35.498009
17.396828 55.036602 -35.452099
16.606541 102.2104 -35.402283
17.613342 89.110924 -35.299694
17.810791 89.652435 -35.277775
15.131526 81.956444 -35.483109
15.815013 75.628441 -35.604038
16.104221 82.45887 -35.534771
14.620367 82.525101 -35.502148
15.51386 82.6465 -35.515839
15.516821 82.775475 -35.539501
14.814672 83.055374 -35.508255
16.117142 84.664734 -35.465736
15.417476 85.524704 -35.48568
14.909831 86.070808 -35.520542
14.423909 86.881905 -35.539932
16.816582 93.141579 -35.467243
16.152617 97.773308 -35.34528
15.228177 97.846451 -35.363529
15.269254 98.410645 -35.348309
14.514196 54.644691 -35.68964
15.619575 74.696091 -35.732697
14.042779 93.75869 -35.461391
14.532498 74.72464 -35.764137
14.398933 82.20826 -35.516899
17.416187 89.157501 -35.347816
17.950788 89.107521 -35.315498
17.900537 89.10778 -35.272636
17.622709 89.315666 -35.370804
15.212275 81.891541 -35.513519
15.004745 82.109268 -35.534237
15.416741 82.422089 -35.505722
15.908527 82.645348 -35.506786
15.118941 84.665672 -35.515247
14.987909 85.908241 -35.477982
15.617738 91.439087 -35.53035
15.303122 97.589722 -35.462391
14.387551 97.647919 -35.386604
14.450662 99.108078 -35.361019
15.505795 100.46918 -35.404503
15.510621 100.38928 -35.437927
15.812114 51.037674 -35.637562
17.807903 82.003952 -35.45121
15.711904 71.394081 -35.725544
15.210885 84.296715 -35.454159
15.542493 73.088402 -35.76329
15.464527 73.236305 -35.418137
15.399778 81.88752 -35.507793
15.813215 81.919098 -35.539547
15.01635 82.014389 -35.55426
17.014891 82.969017 -35.432335
17.009272 83.045898 -35.41655
15.703605 83.497375 -35.499233
15.209805 83.499969 -35.519085
15.416083 84.978363 -35.489212
16.602436 99.215256 -35.407536
17.549408 92.122162 -35.33062
17.300722 105.95259 -35.301971
14.504066 78.65789 -35.512455
15.410358 82.458725 -35.54594
16.114447 82.674263 -35.549595
16.015644 84.288399 -35.561256
15.813874 85.905006 -35.583813
16.512991 86.755997 -35.557396
14.810434 86.762939 -35.632862
15.21188 87.291008 -35.61552
14.911143 87.833534 -35.629425
15.909486 88.021858 -35.542706
15.60781 88.374817 -35.604618
16.003813 92.319817 -35.572903
16.500452 92.316872 -35.557518
16.511 93.683372 -35.491219
14.41142 88.658409 -35.585121
14.391545 89.137367 -35.693508
16.53194 107.25603 -35.350822
14.49728 84.533203 -35.639538
14.617227 79.171303 -35.678059
15.56251 41.973572 -35.464153
16.712997 82.326485 -35.470425
17.020161 82.4151 -35.438164
16.805277 82.463425 -35.5131
15.012666 82.549164 -35.547005
15.111099 83.27401 -35.50779
15.008883 88.310974 -35.504345
14.808676 89.507637 -35.556004
14.50344 89.685844 -35.532372
14.911037 89.951759 -35.590012
14.610082 90.360275 -35.572159
17.33083 75.243797 -35.385162
17.495298 81.135605 -35.39003
16.811687 94.563622 -35.525486
16.705444 83.498978 -35.46067
14.825111 83.494324 -35.535263
14.421015 84.397003 -35.61084
14.81558 85.873146 -35.565025
13.999903 86.072693 -35.61776
14.031012 86.72551 -35.621124
14.723913 87.144142 -35.541225
14.715853 87.682266 -35.544884
14.21383 88.744019 -35.598743
14.190965 88.97097 -35.593658
14.913506 89.059319 -35.539555
14.295784 89.269424 -35.583103
17.481174 101.81795 -35.24403
15.008904 90.133423 -35.542534
15.114403 90.676521 -35.542297
14.306344 94.219566 -35.576077
16.211523 104.86998 -35.377083
17.52346 52.696579 -35.493801
16.008167 94.438004 -35.517597
13.992643 97.896996 -35.513813
16.207876 81.782478 -35.499702
14.720061 81.890488 -35.527885
14.412477 83.406006 -35.578022
14.419954 83.598999 -35.518635
14.519874 86.094086 -35.611725
15.514254 87.449028 -35.500664
14.410372 88.373848 -35.521511
15.010618 88.438286 -35.550236
15.116562 88.524155 -35.524006
14.413471 88.604202 -35.530663
14.507529 89.162338 -35.535332
15.815193 89.508026 -35.52636
15.196381 89.469078 -35.493641
16.540071 89.552757 -35.403687
15.08192 92.90696 -35.458878
14.613633 90.530342 -35.530571
16.414717 93.240913 -35.465816
15.611962 93.364105 -35.528072
15.711798 93.558975 -35.47707
15.71673 93.684113 -35.512516
15.016406 95.349236 -35.47282
16.012653 96.111969 -35.448627
14.241571 96.73996 -35.487984
16.108643 96.783478 -35.478035
16.837982 102.82236 -35.314835
15.913354 71.406662 -35.702862
16.732615 76.736237 -35.655979
15.396225 92.537048 -35.633854
14.346666 79.388824 -35.540634
16.411116 82.55394 -35.505016
16.017046 82.685753 -35.556099
16.907532 82.674377 -35.502213
16.713095 82.687355 -35.523712
16.712387 82.772072 -35.50967
16.301458 84.298828 -35.55695
16.911522 86.894745 -35.436794
14.618255 88.306076 -35.521225
15.910164 88.465637 -35.575993
14.714344 88.657257 -35.575802
15.310474 88.751335 -35.532986
14.706842 89.157074 -35.525974
15.812757 90.044746 -35.524868
14.529197 90.553764 -35.536625
16.01132 102.39362 -35.392857
14.319351 93.237732 -35.544659
14.318933 93.434776 -35.505535
14.413858 93.958275 -35.501106
15.311821 95.356285 -35.462242
15.414915 96.645729 -35.450386
14.512071 96.644241 -35.490269
14.617635 97.611748 -35.480385
15.615068 98.456421 -35.429955
14.701891 98.450363 -35.45491
15.603565 98.714218 -35.48262
14.71559 98.677757 -35.47554
17.206856 105.94952 -35.338501
13.813465 77.335106 -35.681599
13.924603 62.872635 -35.665749
15.318422 52.919865 -35.605946
15.811127 99.658783 -35.451534
16.301811 53.180408 -35.487831
15.023225 81.884521 -35.520447
15.914479 82.239586 -35.531651
15.707908 82.645706 -35.509388
16.009668 82.644173 -35.503578
16.115681 82.77153 -35.522243
16.516602 82.770088 -35.520363
15.606819 82.959236 -35.504662
14.915899 84.990593 -35.510067
14.701318 88.966835 -35.572571
14.712149 89.064316 -35.554756
15.39396 89.161674 -35.486702
15.809358 90.140289 -35.505806
15.209652 93.643555 -35.477093
14.413993 93.865227 -35.526001
15.512641 97.067123 -35.452332
14.579913 97.155098 -35.447445
14.608509 98.45089 -35.47279
15.619164 98.666 -35.420338
16.501772 104.76723 -35.383526
15.354517 74.698547 -35.738033
14.180237 90.233063 -35.534294
17.119223 88.981491 -35.418209
13.60899 90.835945 -35.613125
17.17664 42.029987 -35.459518
17.232853 42.045334 -35.230534
17.263309 42.011276 -35.127548
18.350834 42.093063 -35.378826
16.72793 95.294106 -35.483486
14.895241 84.42852 -35.665977
16.00699 107.50445 -35.243729
15.108389 82.105675 -35.530621
15.718297 82.775932 -35.531464
14.81349 83.273216 -35.527
15.409285 83.625832 -35.534313
14.927229 83.673691 -35.487686
17.928555 53.130005 -35.516075
15.612556 85.42395 -35.500271
14.211262 88.653564 -35.592976
15.019111 89.373779 -35.527302
14.412509 90.455841 -35.554775
15.118887 90.534134 -35.518822
15.412798 93.460678 -35.50449
16.209078 93.457939 -35.474625
15.506763 93.871727 -35.477619
16.313913 94.092621 -35.459614
15.51081 94.313354 -35.493126
13.924899 95.353081 -35.51078
13.947819 95.763344 -35.491447
13.921935 96.006401 -35.488594
14.815368 95.990585 -35.450367
13.995663 96.606293 -35.476055
14.028688 97.209045 -35.513073
14.918716 97.278 -35.481899
14.036896 97.463409 -35.473385
14.430045 52.595665 -35.8442
14.309052 82.670784 -35.607346
16.915804 93.464714 -35.44891
14.409662 79.417656 -35.545094
14.579519 48.12936 -35.705299
15.740318 89.782585 -35.456566
14.826225 84.299805 -35.620922
18.111824 52.098885 -35.455173
16.810608 91.533623 -35.451591
14.805183 82.455727 -35.584023
15.715184 82.55249 -35.522064
15.814769 82.905045 -35.571617
14.410583 83.262207 -35.520973
16.913565 83.49424 -35.450565
16.405491 83.629715 -35.5163
17.315863 53.138531 -35.535614
17.710348 53.151527 -35.514977
15.216013 86.00193 -35.586548
15.413105 87.04187 -35.537121
15.611403 88.652267 -35.536518
15.015907 89.601021 -35.538494
15.814197 90.177299 -35.56208
14.410165 90.372444 -35.592159
15.413515 93.148224 -35.520634
15.40825 93.33007 -35.484501
14.616553 93.334633 -35.505268
16.206738 93.366325 -35.507748
16.31473 93.996178 -35.486401
14.897384 96.618629 -35.427433
14.91274 96.966919 -35.486511
15.918168 52.727604 -35.540661
14.2181 87.337532 -35.569252
15.616115 42.006092 -35.221523
17.884182 42.046757 -35.383167
17.905727 42.103687 -35.253986
14.321502 81.929512 -35.605381
14.421974 82.46032 -35.60614
15.813188 82.677238 -35.561432
15.310332 82.684044 -35.567326
15.412344 82.96553 -35.507111
17.61327 88.704041 -35.311829
17.346035 88.746178 -35.407261
16.795765 88.300812 -35.428753
14.912247 88.960869 -35.560394
15.611465 88.968262 -35.534939
14.032082 50.66386 -35.561909
15.609319 89.508041 -35.540089
16.104494 93.242638 -35.475842
15.311065 93.240799 -35.505112
16.107431 93.367119 -35.509163
14.914125 93.45842 -35.535591
16.112673 93.55368 -35.462166
14.912422 93.64624 -35.491184
15.31027 93.777176 -35.500854
14.52247 93.872513 -35.520485
15.603209 107.08181 -35.294903
16.810541 96.645805 -35.419075
16.030294 71.731728 -35.708141
16.015459 41.997845 -35.488235
17.899933 95.151169 -35.295307
14.993111 62.08757 -35.408215
15.908481 84.324112 -35.659302
15.408448 82.645584 -35.515751
14.716474 82.77092 -35.578907
15.008831 82.959892 -35.521297
14.708649 85.510056 -35.504364
15.014706 86.218735 -35.614979
17.555922 88.759483 -35.467407
17.127783 88.717194 -35.365032
14.9018 87.674034 -35.544052
15.114775 90.041039 -35.562771
14.615446 93.555634 -35.522297
15.414184 93.560799 -35.486946
15.416667 93.651253 -35.469006
16.490364 95.758224 -35.373669
15.612406 95.89151 -35.445118
15.05743 94.660461 -35.440823
15.609076 101.23961 -35.414585
13.586518 80.729218 -35.62587
14.719097 100.06659 -35.47002
18.078846 42.070171 -35.089161
14.217123 68.646179 -35.602772
16.71133 81.561806 -35.463043
14.809573 85.835426 -35.506252
14.917474 86.5942 -35.530426
14.414934 88.341568 -35.598824
15.115343 88.430046 -35.550983
14.412497 88.566216 -35.604141
14.526133 88.886139 -35.609791
16.241117 89.790291 -35.42429
14.818285 93.230125 -35.527908
15.607681 93.23613 -35.491379
14.003284 93.402588 -35.52853
14.811963 93.549805 -35.511444
14.002854 93.681129 -35.565422
14.806215 93.736595 -35.470531
16.517162 93.996727 -35.476177
15.71833 94.221413 -35.510925
16.513653 94.211578 -35.493294
13.66979 94.851906 -35.579979
17.982143 52.754894 -35.491909
15.709276 94.40168 -35.473339
15.007322 95.670929 -35.459248
14.111175 95.986595 -35.471466
15.027019 96.650948 -35.481327
15.915541 96.653664 -35.439518
14.992459 84.850548 -35.470596
17.199442 102.09602 -35.307339
14.003805 94.294182 -35.670181
14.091123 94.907616 -35.483528
17.399616 78.799446 -35.395027
17.923286 87.311867 -35.326302
17.97298 53.149918 -35.492641
17.704874 88.703758 -35.310108
15.713392 88.337463 -35.544956
14.403375 88.702225 -35.637875
15.80845 88.876556 -35.537926
14.509073 90.268257 -35.598194
14.526132 102.5267 -35.479992
15.819343 102.52569 -35.437469
16.410398 93.142929 -35.487465
14.818417 93.459709 -35.536179
15.614119 93.558464 -35.482887
15.608614 93.778648 -35.490322
16.498886 93.879852 -35.437702
15.615192 93.899376 -35.531418
14.911651 94.321404 -35.521885
15.811644 95.16758 -35.479069
16.710512 95.173393 -35.453064
16.72241 95.347343 -35.392433
16.10397 98.043976 -35.430305
15.222416 98.134544 -35.463421
15.810505 92.008476 -35.597832
14.717484 84.293564 -35.613415
17.028923 100.55964 -35.30143
14.528018 82.668152 -35.614464
16.413673 53.492844 -35.627098
15.503394 73.519325 -35.498192
14.52475 85.147781 -35.619789
15.414534 88.339394 -35.553867
13.672149 52.658352 -35.696342
15.414304 88.653282 -35.547855
15.614498 90.080284 -35.601215
17.325537 103.38872 -35.336483
14.410203 93.273422 -35.589359
14.418581 93.45504 -35.542847
15.315091 94.309639 -35.504791
14.806286 102.53373 -35.462662
16.61857 102.53806 -35.398174
14.519129 94.74733 -35.556602
16.206516 95.075195 -35.495804
16.205523 95.293274 -35.505543
14.506067 95.617165 -35.545441
15.408941 95.919922 -35.502838
15.815319 57.861488 -35.606243
14.608282 96.428177 -35.478306
14.717178 98.907448 -35.493324
13.928933 96.244499 -35.543419
17.424242 91.847473 -35.391846
14.115317 60.968571 -35.815475
14.4235 84.30777 -35.629768
15.807263 81.730797 -35.595989
17.115374 89.159927 -35.384258
17.32616 89.283264 -35.407452
14.710122 88.78299 -35.603157
15.011156 89.007408 -35.611637
15.508965 90.174561 -35.571609
14.201976 92.740387 -35.603619
15.009661 92.733284 -35.576199
15.01424 93.368362 -35.555355
14.225575 93.37912 -35.564613
15.009768 93.551239 -35.509109
14.203158 93.574432 -35.600941
14.199195 93.775955 -35.560665
15.006261 93.902359 -35.5504
14.232805 93.9907 -35.554943
15.106634 94.13147 -35.561497
14.220634 94.297676 -35.553463
15.112817 94.844902 -35.515652
16.01281 95.076492 -35.498245
15.214046 95.924316 -35.512585
15.309004 96.560951 -35.483543
15.992644 57.499142 -35.446274
17.831125 58.276863 -35.480988
15.314476 97.316147 -35.502892
15.819411 103.7072 -35.420033
14.710337 103.72789 -35.471832
14.039659 63.449883 -35.722153
15.325794 97.37635 -35.436329
16.128517 105.92296 -35.322712
15.812799 99.751335 -35.435566
13.904711 106.15958 -35.461555
16.197744 105.58796 -35.322884
14.307125 82.450851 -35.606647
16.209858 82.588531 -35.560532
14.614051 82.77137 -35.593624
14.411207 83.187126 -35.552193
15.898235 52.984375 -35.729996
14.819987 85.522575 -35.510242
17.610136 89.033264 -35.300236
15.422317 52.898609 -35.523438
15.409906 88.554489 -35.558628
14.812912 88.843521 -35.522442
15.911814 93.138069 -35.505318
15.116352 93.239258 -35.514645
15.910533 93.235695 -35.483936
15.510485 93.46006 -35.503212
15.513041 93.679054 -35.51297
14.336153 93.548111 -35.528179
14.310775 93.765488 -35.548523
15.214741 93.78186 -35.510891
15.214386 93.995453 -35.51685
15.612311 94.218712 -35.515827
16.221746 102.55855 -35.461563
14.71442 99.619476 -35.445332
13.657261 99.724129 -35.489132
15.710146 99.971588 -35.441154
16.009415 103.69746 -35.402889
14.892027 103.79488 -35.426941
15.475132 72.815186 -35.70948
16.598282 52.104141 -35.605114
16.117432 105.73196 -35.377518
16.609636 96.779243 -35.463345
17.216209 42.165577 -35.349861
17.811295 51.281193 -35.545044
16.394711 79.928879 -35.609722
15.21935 82.599693 -35.611958
14.417694 81.821037 -35.621742
16.309128 82.267448 -35.585285
16.829233 82.650635 -35.457748
15.415847 82.769791 -35.538151
15.009896 83.186874 -35.534943
17.504545 53.145721 -35.515442
16.971605 51.303707 -35.665047
14.302047 89.954567 -35.627239
14.414406 92.521111 -35.580151
15.612476 93.144958 -35.513905
14.414161 93.24041 -35.542179
15.610909 93.463005 -35.503296
14.512041 93.779076 -35.534054
15.199294 52.802338 -35.471867
15.712673 94.082458 -35.472908
14.515697 93.987511 -35.542774
15.311363 94.220093 -35.52063
15.316952 94.630493 -35.487801
15.412177 94.852394 -35.499428
15.219753 98.580696 -35.471771
15.206012 98.884659 -35.456417
14.819965 99.653862 -35.499138
17.601229 52.299145 -35.496368
17.206968 89.849373 -35.49189
14.762096 78.996635 -35.462265
14.121924 87.374908 -35.652946
16.015476 93.647102 -35.446663
17.931759 46.841785 -35.518036
16.615908 81.791145 -35.472263
16.416338 82.994064 -35.527443
15.409623 83.274391 -35.500282
14.519307 85.0242 -35.585907
17.694958 89.032265 -35.292625
15.126255 52.880123 -35.550724
17.515833 89.018356 -35.303516
14.142387 52.889542 -35.568821
17.489277 89.159073 -35.34182
14.815224 89.640892 -35.600697
17.105391 91.028221 -35.495232
17.115294 90.992134 -35.404377
17.621122 90.978172 -35.383408
14.82148 89.912704 -35.541176
14.816432 90.046486 -35.571663
14.603288 92.707916 -35.535587
15.015052 93.147102 -35.53611
14.22283 93.146805 -35.565399
15.019427 93.335777 -35.494995
14.211079 93.558449 -35.533039
14.227453 93.907852 -35.593678
14.317045 94.85041 -35.54277
14.713661 95.033195 -35.489029
15.212155 96.52787 -35.444874
16.112711 96.648651 -35.438442
14.313785 96.65303 -35.498653
14.303811 96.977028 -35.495029
16.209103 96.964027 -35.435787
14.818774 61.937572 -35.669949
14.332364 97.19191 -35.517735
15.310658 97.508675 -35.478348
15.316039 97.946671 -35.474937
15.987288 107.79708 -35.211269
18.019936 53.402401 -35.439438
17.404701 82.870392 -35.412148
15.920972 81.643539 -35.618786
16.008453 82.546227 -35.521976
14.620014 83.207458 -35.606445
15.421244 86.585342 -35.519001
17.622984 89.661011 -35.307362
15.609034 88.844772 -35.496292
15.008638 89.048012 -35.525085
15.809995 90.224861 -35.492397
15.21447 92.475098 -35.497967
14.51184 92.510315 -35.579693
14.922062 103.37094 -35.446018
14.521214 93.435493 -35.487041
14.911269 93.87104 -35.504005
14.525789 93.968796 -35.499496
15.804324 93.96273 -35.445522
15.413688 94.62709 -35.486465
15.508128 95.126328 -35.433006
16.317667 95.3479 -35.414047
14.618092 95.353981 -35.485905
14.619446 95.576775 -35.500072
15.613711 97.070816 -35.437901
14.705891 97.074905 -35.472588
14.709888 97.278412 -35.480381
14.798914 98.006378 -35.425591
15.709845 98.040329 -35.448223
16.803141 102.52314 -35.37463
16.211239 103.79302 -35.375092
15.100822 103.8876 -35.398308
15.721498 104.52837 -35.336575
14.007086 107.79138 -35.217339
16.605722 58.521725 -35.618511
16.907125 95.525597 -35.491482
17.200138 60.363758 -35.605278
14.072355 63.034443 -35.811474
17.022835 89.963631 -35.488724
18.276175 42.117554 -35.204399
17.100214 42.162506 -35.168816
16.2066 95.263245 -35.447971
17.508007 89.219391 -35.414871
16.903698 54.942421 -35.51722
15.221975 61.234119 -35.528542
17.534388 83.000389 -35.469715
15.608592 82.646194 -35.515392
14.208468 86.238998 -35.643196
14.335131 88.160149 -35.659962
14.42505 89.094475 -35.609989
14.807829 89.28775 -35.556854
14.517269 89.820473 -35.578117
15.217422 90.175812 -35.585571
15.411199 92.512901 -35.547127
15.41297 92.736305 -35.559364
15.513973 93.145309 -35.509758
15.51001 93.370659 -35.527107
15.613386 94.087746 -35.47459
16.418545 94.089722 -35.455837
13.912082 94.63102 -35.53471
14.816132 94.723824 -35.49437
13.920822 94.800606 -35.525742
14.04745 61.771667 -35.721882
15.913773 96.74131 -35.410114
15.012838 97.052666 -35.457829
14.604622 98.664322 -35.474972
14.601555 107.88354 -35.215736
13.92711 92.807777 -35.502529
18.16803 42.117512 -35.433582
14.612365 81.792 -35.570518
14.814002 81.826149 -35.609997
14.502236 87.70607 -35.623314
14.814174 88.342422 -35.575958
14.811594 92.512596 -35.565529
14.92024 93.957611 -35.483898
14.613416 94.949867 -35.509476
14.125227 95.153061 -35.531132
15.908399 95.259827 -35.454594
14.152406 95.33947 -35.508816
14.614039 95.70108 -35.527645
15.421033 102.53261 -35.435516
15.111812 97.089462 -35.513821
14.212045 97.107864 -35.550751
15.209961 97.283966 -35.473984
15.209624 97.511169 -35.489288
15.300305 98.504486 -35.488396
14.30989 98.906189 -35.503384
15.309994 98.995087 -35.433338
16.617411 92.110123 -35.530537
15.53266 82.945511 -35.674541
14.820314 107.88685 -35.20187
13.504639 107.8757 -35.214024
16.793684 105.23169 -35.377743
17.10458 90.024002 -35.390549
14.501083 79.202454 -35.456505
18.129671 42.099098 -35.216091
16.10865 81.733841 -35.584255
15.209252 81.825432 -35.58057
15.114705 83.586143 -35.50338
14.514501 87.178001 -35.615376
14.610456 89.067764 -35.553917
14.120291 93.166496 -35.581905
15.00974 93.459122 -35.529835
14.121156 93.46019 -35.559322
14.199053 93.661293 -35.511841
15.017707 93.965874 -35.468872
15.016732 94.512863 -35.476627
15.115956 94.629677 -35.500717
15.515005 95.075844 -35.512211
14.211371 95.040276 -35.519539
15.220758 95.900665 -35.468063
15.218448 96.560455 -35.487457
15.625511 102.5171 -35.430016
16.511713 102.53199 -35.403736
15.315542 97.403175 -35.483345
15.311141 98.147614 -35.453037
15.409466 98.361298 -35.448853
16.415264 98.463852 -35.391781
15.399663 98.682556 -35.438202
14.706946 92.098618 -35.610149
13.612339 107.82536 -35.38068
13.598186 107.87006 -35.274815
15.707688 87.893425 -35.521805
14.916422 106.88601 -35.369434
15.508147 97.914818 -35.440052
16.647917 99.298218 -35.296261
14.521499 78.557579 -35.678642
15.710024 82.011261 -35.530998
14.722309 85.559677 -35.573116
15.308947 88.120422 -35.556046
14.122964 90.007294 -35.535511
15.013479 93.235428 -35.512722
14.231633 93.235657 -35.550636
14.613762 93.456665 -35.541843
15.112303 93.553024 -35.504684
14.715149 93.774734 -35.530136
14.314363 94.628593 -35.531166
15.612852 94.630272 -35.479042
16.011475 94.845764 -35.487103
15.212236 94.84552 -35.507225
16.103657 95.032005 -35.434837
15.212358 95.037918 -35.47467
16.11145 95.170029 -35.473686
16.100941 95.352303 -35.432774
17.309248 58.841866 -35.552696
16.217075 96.524513 -35.398487
15.218787 58.264633 -35.592678
14.40882 97.18824 -35.512856
15.215764 92.10746 -35.582748
14.774619 103.54456 -35.456593
14.830841 104.32864 -35.437889
16.01577 104.2936 -35.325809
14.795714 104.64675 -35.425705
16.622505 50.396706 -35.607613
17.375626 87.704231 -35.583054
14.893274 106.47005 -35.404278
14.115897 63.158672 -35.748039
15.61221 94.562195 -35.567387
15.920259 92.323318 -35.572037
15.589558 71.803696 -35.671715
14.622902 59.472076 -35.665234
17.901066 51.589848 -35.508423
15.388765 89.775955 -35.460392
15.008385 81.510933 -35.608898
16.21818 88.784271 -35.551243
15.601577 89.320114 -35.572998
15.612341 89.948578 -35.55011
15.211296 93.144951 -35.5294
15.712142 93.464172 -35.499889
16.208063 93.996132 -35.489929
15.309413 93.99601 -35.509701
15.408847 94.725258 -35.474365
15.619661 97.012749 -35.492432
14.720356 96.965019 -35.487545
14.716567 97.191032 -35.507267
15.709289 97.293266 -35.443764
16.912434 102.53046 -35.362835
15.995749 102.55183 -35.444996
14.825109 98.802452 -35.435856
15.130844 103.30688 -35.467457
15.414997 53.011795 -35.550743
14.52214 94.510704 -35.49218
13.432043 86.497246 -35.631218
16.912151 98.26403 -35.401375
15.40724 78.777466 -35.522358
15.315069 82.105209 -35.51833
15.304738 83.361565 -35.486446
14.422783 86.219589 -35.639584
14.208339 69.048386 -35.733074
15.01226 89.320496 -35.605522
15.906346 93.272087 -35.541069
16.713514 93.239044 -35.443279
16.708706 93.467247 -35.461941
15.917199 93.588539 -35.533642
14.314132 93.907433 -35.582325
14.306125 94.551971 -35.563274
15.208205 94.62587 -35.496658
14.316389 94.712616 -35.519596
15.214576 94.813255 -35.452892
15.414849 96.826881 -35.434753
15.415251 97.092758 -35.492893
14.510653 97.823586 -35.499958
15.514502 98.035942 -35.457233
15.705806 92.328384 -35.580837
14.911004 103.0787 -35.466316
14.908272 93.776764 -35.526192
14.001257 107.93635 -35.134426
15.418895 107.94064 -35.067329
17.19739 93.868927 -35.396893
14.812748 59.470791 -35.659672
15.50865 82.10759 -35.516445
14.811563 88.470421 -35.629047
15.809468 88.467224 -35.565655
14.817421 88.78672 -35.608292
17.567598 51.287647 -35.644421
15.206284 89.012733 -35.599552
14.526132 89.856117 -35.628944
18.426113 51.876419 -35.515026
13.994778 92.279747 -35.54501
14.815838 92.296135 -35.568172
15.709916 93.278748 -35.548122
16.510571 93.36245 -35.491333
14.088255 93.853493 -35.603325
14.099354 93.986748 -35.566742
14.121447 94.19664 -35.565823
15.018324 94.844444 -35.514717
15.907853 94.847115 -35.483063
15.911522 94.980049 -35.520668
15.016108 94.941055 -35.499126
15.10694 95.602654 -35.529953
16.006426 95.700432 -35.477428
14.22337 96.652061 -35.500134
15.202524 96.781799 -35.505962
15.207738 97.089203 -35.501511
15.311739 97.760429 -35.542225
14.318648 97.72567 -35.520214
14.409512 98.733086 -35.521023
14.289828 93.731987 -35.479931
15.110665 105.40947 -35.403786
16.011358 75.267982 -35.559422
14.983303 107.87856 -35.293327
15.016231 107.93151 -35.084518
16.001249 93.72393 -35.564049
16.897675 78.988396 -35.611309
14.163107 94.917313 -35.487537
16.30431 100.19578 -35.445415
14.916312 59.469933 -35.658741
17.415813 98.594765 -35.354897
14.314888 83.479362 -35.486355
14.316361 83.622795 -35.596825
14.605638 87.712456 -35.610661
15.012136 88.029793 -35.580894
14.816849 89.94725 -35.590755
14.612696 92.194611 -35.590775
15.015796 92.290627 -35.563911
14.213751 92.299728 -35.575512
15.915632 92.951286 -35.550877
15.112728 93.365776 -35.540245
16.010414 93.550407 -35.469334
14.713677 93.560387 -35.514378
16.11581 94.760277 -35.50906
14.394161 95.358383 -35.498215
16.314627 96.206207 -35.406139
15.014289 97.097885 -35.521465
15.508093 97.321724 -35.493645
14.920492 103.16148 -35.437077
14.927531 103.44833 -35.447487
16.610727 93.646294 -35.416283
16.704655 97.914551 -35.372383
14.032735 89.704414 -35.73209
14.07136 90.092117 -35.65012
15.836719 104.62312 -35.313213
16.847445 42.544582 -35.59108
14.687915 74.332306 -35.804729
18.41806 42.133778 -35.209099
18.456165 42.172565 -35.038944
16.510406 100.09774 -35.45562
14.514833 88.649879 -35.583607
15.013852 75.2342 -35.653599
14.512691 69.194435 -35.740749
14.310605 88.554131 -35.604126
15.014647 88.784561 -35.598045
17.219585 90.991135 -35.415874
15.415959 92.291817 -35.544384
13.868946 93.814186 -35.480831
13.918647 96.115707 -35.527657
15.812909 96.556343 -35.471073
14.015524 96.644386 -35.496937
15.90847 96.96936 -35.453331
14.923496 97.072716 -35.466702
15.022807 97.937599 -35.498661
16.014097 98.061134 -35.45517
15.015485 98.140572 -35.46743
14.042356 98.21302 -35.478931
16.102743 98.757378 -35.393261
15.108111 98.901924 -35.473389
15.114499 99.97126 -35.475666
16.113899 92.324272 -35.573528
16.411438 102.52956 -35.41013
17.316303 102.52556 -35.336441
15.807362 107.88559 -35.282349
14.274803 60.987442 -35.757843
17.305407 89.906105 -35.413521
17.109234 93.775101 -35.421902
18.248974 42.125652 -35.203888
14.527714 81.742912 -35.629807
14.514938 81.823837 -35.617168
14.520137 82.049751 -35.633205
15.810549 84.199738 -35.613651
14.919457 86.6726 -35.659073
15.005998 87.074135 -35.60482
15.619264 87.206482 -35.622986
15.825735 88.293068 -35.651478
14.81732 88.357529 -35.659023
14.445099 88.572922 -35.677746
14.416837 88.790276 -35.625626
15.201276 88.920753 -35.624535
14.510212 88.916412 -35.679676
14.835602 89.164711 -35.667202
14.818808 89.231415 -35.639072
14.514599 90.082611 -35.665745
15.285999 90.001122 -35.643459
15.200629 52.889545 -35.537945
17.412933 89.032715 -35.316238
16.723482 51.303104 -35.530014
15.507718 92.330536 -35.591694
15.601468 93.297951 -35.638641
16.426449 93.311386 -35.605633
16.416311 93.402405 -35.571678
15.624847 93.463249 -35.663876
16.522243 93.62471 -35.575703
15.636782 93.643448 -35.651855
16.103422 93.971039 -35.610764
15.050079 96.733047 -35.624382
15.991425 96.810738 -35.625336
16.096252 97.664413 -35.556393
16.136126 97.904984 -35.593384
15.134796 97.959991 -35.669441
