# .PCD v0.7 - Point Cloud Data file format
VERSION 0.7
FIELDS x y z
SIZE 4 4 4
TYPE F F F
COUNT 1 1 1
WIDTH 1148
HEIGHT 1
VIEWPOINT 0 0 0 1 0 0 0
POINTS 1148
DATA ascii
7.0064282 59.931797 2.7150314
5.0518837 59.793579 2.1661036
9.0286245 60.196518 3.0279067
6.3719811 60.044525 2.5379915
4.3667626 60.331627 2.0850599
4.4391689 60.356586 2.1958137
4.5405493 60.312542 2.0830019
4.9612217 60.353275 2.3393106
5.5752058 60.324478 2.4086754
5.4097304 60.330547 2.3436542
8.3382835 60.212254 2.9458253
6.1346316 60.225796 2.2107074
7.1499324 60.309174 2.6119635
6.3218064 60.015652 2.5295441
6.8480511 60.196724 2.8174851
7.4893684 60.201019 2.7720466
5.9042845 60.30827 2.3682587
6.3735137 60.346088 2.4286613
7.3737984 60.441154 2.87852
6.5337462 60.309715 2.4766617
5.168869 60.360699 2.1540945
5.5635791 60.330563 2.3032427
6.1214943 60.303406 2.2753615
5.4158306 60.333538 2.2724838
5.388485 60.21801 2.1609886
5.8632927 60.356323 2.439707
6.2793632 60.487087 2.6398191
5.9428883 60.568577 2.5311124
7.6919975 60.447758 2.9474752
5.6531091 60.462761 2.4652128
6.9124088 60.502964 2.710969
7.7585649 60.208405 2.8324158
6.3014946 60.198174 2.6324956
5.9692602 60.318974 2.3912241
6.8089614 60.30587 2.5464244
5.6864409 60.412708 2.3954883
5.8906002 60.459343 2.514343
4.4909391 60.456154 2.3223805
7.5961771 60.480976 2.9214864
7.1159549 60.519787 2.7946637
4.5682507 60.531281 2.3224268
6.5308671 60.473671 2.6223617
6.3978248 60.47364 2.6217575
6.6537752 60.446892 2.6758044
7.0157504 59.672703 2.6171072
7.8905973 59.935406 2.6368721
7.5258784 60.008423 2.4810755
6.3622742 59.922707 2.3224072
6.7346497 59.766788 2.4749196
6.1716614 59.745258 2.3918118
7.0995789 59.650654 2.6116049
6.47542 59.605042 2.6038828
6.7657256 59.927296 2.4071352
6.8144436 60.07452 2.4073462
7.5715694 60.063129 2.5669911
4.418478 60.394939 2.2414265
8.2857752 60.310719 2.7612987
8.2427387 60.218632 2.9918263
4.7665892 60.454693 2.4077117
6.7654977 60.202095 2.3731034
4.8781681 60.467922 2.4786856
4.5735998 60.194347 2.1410372
6.1670699 60.217224 2.5229158
4.8796754 60.180759 2.2199783
5.8616395 60.514595 2.7528403
4.960969 60.553444 2.5074239
5.6844106 60.216461 2.4808896
4.8255472 60.557323 2.329957
6.1623087 60.540432 2.8143787
5.4588919 60.220718 2.4225347
4.8832421 60.484081 2.3481226
6.126893 60.493874 2.5917728
5.0554562 60.23196 2.4290962
5.1513991 60.226154 2.4590814
4.6809478 60.470787 2.4400442
7.1179504 59.831547 2.514343
4.483448 60.174503 2.058027
8.3939323 60.047436 2.9939713
7.6045833 59.968861 2.8284175
7.2338424 59.848885 2.7833314
6.9635143 59.839886 2.7540796
7.7161493 60.030666 2.8446357
6.2214489 59.89817 2.5370238
6.4866633 59.888634 2.6270854
5.4359884 59.992287 2.1328881
6.3675423 59.608093 2.5769835
7.0818405 60.070705 2.4692116
4.8859448 60.334591 2.2472332
4.5908566 59.867481 2.081871
8.6871099 60.233566 2.8023698
7.3751793 60.209301 2.5009437
4.9153991 60.426262 2.2265608
8.8683395 60.333031 2.8823266
8.3975277 60.212574 2.7210283
5.9613729 60.545532 2.5835993
5.9747128 60.219898 2.2109182
8.4484253 60.216492 2.7399192
5.6738095 59.798733 2.3060732
5.3285394 59.793045 2.2352796
4.7378411 59.981464 1.9708784
5.6063547 59.781414 2.293395
8.4688244 60.285225 2.7419834
4.6791887 59.869347 2.0479245
4.5874443 59.855892 2.0323672
4.8639674 59.785004 2.1286871
5.1533318 59.79475 2.1919732
4.7731266 60.172836 2.1281946
8.0619202 60.203804 2.9246707
4.8797693 60.147346 2.1324804
4.6633692 60.263153 2.1778917
4.8829298 60.313869 2.4101143
7.5525928 60.208767 2.7809715
8.440732 60.197163 3.0075729
6.9826698 60.197895 2.7654023
6.9873052 60.448261 2.7819545
6.0626574 60.326691 2.3949144
8.1620512 60.342163 2.8563259
6.2652721 60.30386 2.3944011
6.963829 60.462154 2.8652222
5.5394201 60.439816 2.484946
7.2741623 60.333981 2.6818316
5.2967443 60.311672 2.2153049
5.6917915 60.488312 2.5569065
5.8637447 60.19886 2.1752002
5.7835116 60.470066 2.6062722
6.1739917 60.467445 2.6852674
6.9888043 60.335384 2.6858721
6.2583151 60.335258 2.5280957
7.7736902 59.858299 2.8738518
5.7704272 60.213871 2.2312539
5.1573176 60.497894 2.44347
5.2866478 60.478138 2.4796698
6.1583076 60.331707 2.5098538
6.1771374 60.228031 2.2884605
7.5577803 59.859871 2.8402433
5.9759402 60.214741 2.2724884
8.3754902 60.349457 2.8836091
5.462863 60.457653 2.5513773
7.4682875 60.210217 2.6026936
5.9923806 60.467892 2.7017138
5.3654079 60.468857 2.514343
5.0614014 60.464081 2.4514759
6.7707639 60.346104 2.6305277
6.2821674 60.356216 2.6168711
7.1008434 60.343311 2.6878667
5.8748269 60.480934 2.6977224
7.1472802 60.324711 2.7008343
6.4702368 60.343395 2.5940306
7.08534 60.234211 2.5211451
6.8656006 60.339123 2.6481791
6.4860353 60.350979 2.6741943
6.5723476 60.349503 2.6020002
5.7984715 60.335602 2.4426291
5.264668 59.80233 2.2184317
7.0942087 60.03677 2.5906255
7.6786408 59.851986 2.8508515
7.8602734 59.865772 2.8842192
5.4600587 59.813156 2.261317
4.7649083 60.396904 2.3710515
4.958127 59.79834 2.1410916
5.2720613 60.348331 2.402153
8.4767332 60.354366 2.918997
5.6683722 59.679893 2.4055073
5.6706643 59.883251 2.2847877
8.476512 60.160381 2.9224064
7.6734657 60.051498 2.7260478
8.077157 60.16634 2.8170018
7.8645921 60.051117 2.7767906
6.0646596 59.579475 2.5121589
8.6526527 60.170513 2.9405475
7.5747852 60.334698 2.8345051
5.8676448 59.597557 2.4631205
5.783812 59.611568 2.4527318
8.5682049 60.354435 2.9849343
8.2710714 60.346039 2.9537711
7.2825813 60.214714 2.5509973
8.0702763 60.049175 2.824964
7.9802794 60.349926 2.8939404
8.7633686 60.344479 3.0491061
8.3746376 60.050419 2.8967505
5.9752603 59.606705 2.4940844
6.2312036 59.813564 2.4273117
5.569159 60.062729 2.1401758
8.5726185 60.070396 2.9263341
8.6634407 60.356754 2.9342186
8.4705868 60.357292 2.968262
8.6947784 60.06974 2.9528866
8.9903822 60.058243 3.0029793
5.4789743 60.231995 2.2698433
8.7676067 60.355701 2.971905
6.3898144 60.478878 2.7377076
6.7820764 60.483307 2.8201134
7.6629949 60.34882 2.8293638
6.9730139 60.316399 2.5879617
7.3773494 59.889099 2.8092265
7.0788488 59.833424 2.7314124
7.0899029 59.794456 2.6148894
6.1613865 59.602474 2.527427
7.1235547 59.520329 2.737741
5.7724681 59.497627 2.4156978
5.9046359 60.214577 2.615602
6.5630832 60.212376 2.6999991
7.2546282 60.198994 2.8425052
7.870204 60.200237 2.8585131
7.678719 60.200169 2.8149929
6.9590793 60.0294 2.4269223
6.6695256 60.028378 2.3819129
6.0730929 59.938553 2.2502184
6.9231906 59.719135 2.5804753
6.250278 59.676556 2.434562
5.7982516 59.635265 2.3577158
6.672616 59.511185 2.6344244
6.2222176 59.502403 2.5312994
5.900722 60.209328 2.5083723
7.3743849 60.322891 2.9510472
7.8714871 60.171577 2.7767732
7.6717825 60.294609 2.9188554
9.2074604 60.054249 2.9621708
5.4739275 60.377296 2.5419707
5.4682598 60.072102 2.1125796
5.6579709 59.611958 2.4116392
8.5582886 60.35854 2.9322615
6.6705022 60.186764 2.6125307
9.1112118 60.219704 2.9898534
8.7824287 60.231262 2.8869526
7.5721073 59.607071 2.833251
4.9780269 60.182617 2.2577538
8.9568338 60.269176 3.0103581
5.0836353 60.215805 2.3765514
6.2629843 60.207146 2.5081899
7.2721663 60.187096 2.6419601
6.9717617 60.331375 2.8539758
8.1668291 60.167603 2.8328004
6.4694982 60.326691 2.7440488
5.7735815 60.398975 2.768913
8.1675053 60.268269 2.9357367
7.0771694 60.326206 2.8747289
6.4566584 60.210911 2.5724127
5.7638974 60.199463 2.4045799
8.3769722 60.173832 2.8915203
7.26966 60.327415 2.9240098
7.1830926 60.20956 2.7153556
6.5632467 60.18824 2.5788798
6.2689004 60.326115 2.7042477
9.070569 60.183128 2.9183869
5.9684701 60.218468 2.5344155
6.8702497 60.207455 2.6378717
7.5712748 60.181873 2.7043257
7.1840611 60.457989 2.9271851
6.7625995 60.32634 2.8073132
8.171526 60.296951 3.0271127
7.0788465 59.758812 2.7334273
9.3513689 59.94558 3.0138497
6.0858269 60.493721 2.8031523
9.3266745 60.237541 3.0194378
9.2609119 59.992577 2.9891355
6.732451 60.214081 2.591387
7.3740368 60.184715 2.6608551
8.1658077 60.22699 3.0611405
7.4738021 60.180492 2.6883383
7.4778752 60.323727 2.9679816
6.7900834 60.207882 2.7167211
9.3703442 60.134632 2.9367867
6.0680332 60.204433 2.4643872
5.3787446 60.222893 2.4539981
7.8756452 60.318596 3.0501614
9.2631006 60.220329 3.0011215
8.579608 60.169991 2.9240584
6.4729514 59.870106 2.4518259
8.8693123 60.061741 2.8547237
8.9790173 60.051483 2.9150259
6.2749863 59.962734 2.3955786
5.4770164 59.863007 2.3699789
8.3699894 60.146053 2.7855828
7.5796013 59.775356 2.8472252
6.5580435 59.769009 2.6267662
6.5728402 59.77457 2.5755017
4.7824841 59.781639 2.1057465
6.9623222 59.885345 2.573051
6.8755503 59.95734 2.5680568
4.9684019 60.276295 2.3310947
6.2756853 60.303509 2.6188855
6.4754295 60.303421 2.6567507
6.3716888 60.30397 2.6349695
7.5657339 60.353416 2.9069014
6.6677485 59.763237 2.6486032
7.4598088 59.858803 2.8171978
7.7819972 60.054966 2.7492812
6.6706791 60.184795 2.5134857
7.7706499 59.964382 2.78146
8.7675705 60.059235 2.9705529
5.7714767 60.170685 2.3204894
5.8729839 59.889698 2.3332751
6.8555098 59.941456 2.6652005
7.9743414 60.055332 2.7988183
6.7706041 59.947411 2.5447073
7.6832542 59.760799 2.7342262
7.3386307 59.972668 2.7885861
5.7663722 60.126102 2.1736135
7.2703362 59.958275 2.6610129
5.367712 59.774208 2.2895348
6.1754603 60.305927 2.5933232
8.6714287 60.152119 2.8576336
7.3784246 59.683971 2.7822962
7.0751042 60.144588 2.5046921
7.4763346 59.775684 2.7673934
7.7788286 59.775627 2.8973403
5.5666437 59.772408 2.3442256
5.5629358 59.878281 2.2600675
5.4755731 59.681538 2.3608522
8.4688931 60.064987 2.769675
5.3698525 59.681572 2.3350983
5.0811992 60.157471 2.1790152
7.3718491 59.868279 2.7161977
5.6866484 60.076435 2.1665666
6.0713 60.181858 2.384383
7.6730299 59.873512 2.7845051
7.8524961 60.048668 2.6434817
6.3756757 60.050335 2.2972469
5.76722 59.883125 2.3106842
8.0903997 60.046764 2.6886458
6.1718693 59.692448 2.5163264
5.8167171 59.764896 2.3071802
6.5875626 59.947483 2.3840117
7.3654189 60.057297 2.5312726
7.2708216 60.066719 2.5026572
6.5725965 59.85223 2.6162317
7.5609632 59.880444 2.6948531
6.0617952 60.076641 2.245398
7.2835617 59.869476 2.6325889
6.9159822 59.79591 2.5755086
6.1652637 59.88007 2.3976023
7.0661035 59.872478 2.5904577
5.2729402 59.679016 2.3142748
6.0714293 59.692066 2.4972517
7.6033497 59.797512 2.71064
6.8599381 59.869633 2.5389493
5.3658748 59.879299 2.2189977
6.0741329 59.890236 2.3738806
7.6527548 60.028042 2.60583
6.5739331 59.875565 2.476217
9.0688066 60.047459 2.8956282
6.6693206 60.230732 2.5275102
8.7554417 60.059608 2.8268266
7.9802198 60.054096 2.6636229
6.5709481 60.329781 2.755126
6.1680207 59.86327 2.4431326
9.1662989 59.920582 2.9807813
6.378118 59.881733 2.4455984
8.6791611 60.050774 2.812253
7.0898275 60.481388 2.8911347
7.2737465 59.767891 2.7758281
8.361372 60.065231 2.7364278
8.1767731 60.065067 2.7042537
6.3716063 59.776104 2.5302997
5.868022 59.687233 2.4516976
6.2744122 60.054813 2.303443
7.4687791 60.143528 2.5446961
7.9710264 60.170414 2.8012967
5.9819746 59.901917 2.3540163
5.2758074 59.956314 2.1654389
5.7910123 60.065331 2.1850266
7.4757266 59.681244 2.8007646
7.5708008 59.785011 2.7913208
6.783062 59.894489 2.5336981
5.6775727 60.126564 2.1532435
6.376421 59.692268 2.5653317
7.1817298 60.048969 2.4780209
5.7777529 59.684853 2.4300332
5.2723689 59.772186 2.2705061
6.0751538 60.139366 2.285217
5.9323363 60.412243 2.470628
4.8685837 60.243557 2.1325142
6.6690726 59.778904 2.5969188
6.4747567 60.050663 2.3407493
6.466805 60.137287 2.3268092
8.684721 60.120399 2.7933729
7.3717561 60.143684 2.5158253
7.6665134 60.264545 2.838979
7.670754 59.682987 2.8415062
6.5641017 60.053364 2.3590012
6.8589354 60.02972 2.4277444
5.768806 59.774994 2.3960116
7.6628022 60.137363 2.5841527
6.4691749 60.051994 2.401696
8.6726799 59.952709 2.8875916
6.2712436 59.776112 2.508708
7.873991 60.134697 2.629256
6.5767517 59.695129 2.6060302
7.7672033 59.881855 2.7337172
5.0724187 59.866287 2.1526818
6.6780548 59.945076 2.526314
5.4664388 59.775452 2.3178113
6.6667728 59.964535 2.4862385
7.6697264 59.775417 2.8064988
7.9677186 59.959694 2.7527509
6.27633 59.863384 2.4688904
6.7736897 59.863731 2.5764296
8.4839525 60.260986 2.9030781
4.9659519 59.871597 2.1226215
7.374301 59.959057 2.6357224
6.9724994 60.14328 2.4834435
8.1071367 60.137688 2.589432
6.0761905 59.947956 2.3982894
6.9670877 59.970181 2.5491571
5.8715749 59.86409 2.3801327
7.4733381 59.963242 2.6519079
6.7712808 60.228661 2.5482337
6.5715127 60.144772 2.3940592
7.2686648 59.780415 2.7269783
4.8849587 59.867138 1.9858795
6.5711594 59.870594 2.528214
4.9796925 59.853275 2.1749768
7.5916266 60.207729 2.5411561
8.0699387 59.959137 2.7720025
7.0751867 59.86655 2.6465662
7.1706529 59.777939 2.7105315
5.1697865 60.262714 2.282995
8.0752726 60.142513 2.733088
7.2734442 60.144474 2.5539539
6.2746391 59.689243 2.5428512
5.9738021 59.954277 2.3806088
8.1764431 60.133957 2.695996
6.8735228 59.867977 2.5980976
6.4845891 60.213314 2.3898964
5.7743816 60.47525 2.6608782
7.2708201 59.96241 2.6104283
7.2651792 59.618919 2.8165536
6.8699422 59.781464 2.6392756
5.6543627 59.960617 2.3065596
4.9766016 60.055897 2.0589666
7.1755228 60.142235 2.4810982
5.8581491 60.06493 2.2007017
6.2625346 59.888111 2.418618
7.0759482 59.690819 2.7119627
6.4021511 59.795536 2.4582667
6.6699395 59.700275 2.6254871
6.2730155 59.949661 2.4372549
6.5714002 60.05542 2.4242656
6.5708952 60.229721 2.502244
6.3644238 59.76749 2.5866175
7.9675941 59.863987 2.8526058
5.671793 59.866802 2.3386014
7.373117 59.778172 2.7480209
8.5622492 60.045292 2.8334243
8.6644945 60.195568 3.0409961
7.6760507 60.141045 2.6451333
5.4748325 59.953903 2.2818711
7.1707449 59.620968 2.7990742
6.6726208 59.865524 2.5527492
5.7795191 59.966476 2.3384776
8.7591782 60.21661 3.0871158
6.2637177 60.20892 2.3201969
7.1657896 59.952526 2.6356866
7.0747752 59.775898 2.6850262
5.3779774 59.867523 2.2678239
6.2715216 59.767109 2.5608017
6.1710281 60.13604 2.3017881
6.9752216 59.955067 2.5918202
6.0693221 59.668991 2.5516703
5.7721171 60.052917 2.2414534
6.1751599 59.945961 2.4180732
6.9750495 59.866997 2.6237714
6.1754904 59.770714 2.4884305
6.1718483 59.619225 2.5789642
6.2669249 60.048851 2.4354427
6.2727127 60.137997 2.3256402
7.4635215 59.883308 2.6743739
7.176259 59.966042 2.5905223
5.3736534 59.962387 2.250505
8.1664362 60.049603 2.7629445
8.0716572 60.057625 2.7466848
4.9593563 60.334801 2.251667
5.5731282 59.8601 2.3104126
7.2686038 59.869457 2.6914513
6.4741983 59.774769 2.5528827
5.9711123 59.694054 2.4740193
7.7758188 60.136982 2.6088741
6.1705461 60.132832 2.2622325
7.5744691 59.861683 2.7665355
6.793345 59.91217 2.6552594
7.0701523 60.143547 2.4597747
6.2736354 60.134335 2.2850847
7.9739695 59.964912 2.8224738
6.6564288 59.988194 2.6117783
5.5695086 59.959927 2.2375736
7.5658073 59.960884 2.6732934
6.0733876 60.131584 2.2386107
6.9771423 60.14156 2.4336176
4.9774933 60.14854 2.1652534
7.1748948 60.18927 2.6220036
7.3697729 59.770939 2.8078499
5.373754 59.952484 2.1904631
5.4706802 59.961002 2.2105258
6.5731125 60.134987 2.3472011
5.8772745 59.961613 2.3067412
8.2813101 60.123421 2.7185204
6.8696508 60.18774 2.5471649
5.789412 60.046741 2.3136871
6.4778862 60.044586 2.4769967
5.1159387 60.330441 2.2908597
7.9727755 60.054653 2.7275136
7.8687434 59.777153 2.8427134
7.7739644 59.776726 2.828789
5.6633325 59.763283 2.4340708
6.7549496 60.041706 2.5545704
5.6734848 59.959484 2.2609339
5.9700537 59.666294 2.531981
5.4764919 60.178139 2.2558324
7.7749829 60.244839 2.758852
6.0755 59.866814 2.4211519
7.0734043 59.621609 2.7768333
5.976583 59.96373 2.3283269
6.4733253 60.139172 2.3714759
8.074501 60.300457 3.0151272
7.3705835 59.673973 2.8325725
5.4725485 60.054623 2.1701589
5.8686843 59.978794 2.4738064
6.3657708 60.047722 2.4577208
6.3709841 60.327988 2.7264228
5.2712703 59.869759 2.2001963
7.4751678 59.869968 2.7393298
7.1861281 59.849834 2.7524111
7.1637044 59.865498 2.6667867
5.8831668 59.765781 2.4826796
5.6726522 59.66655 2.4686441
7.0674639 59.953362 2.6124129
4.7713943 59.955402 2.0336506
5.9724684 59.863422 2.4006305
4.9777555 60.393921 2.439544
6.466043 59.770901 2.4781084
6.2735939 59.664753 2.5963147
6.772656 60.053181 2.4720831
6.9727154 60.053734 2.5824554
8.4754982 60.231533 2.8184011
6.9751248 59.761742 2.7142947
5.8726368 59.665722 2.5060599
5.8688507 60.130398 2.1944671
7.2635894 60.043064 2.6472297
5.6843204 59.833607 2.4246953
7.1522322 59.771305 2.6197472
7.170404 60.230412 2.6368454
5.5749965 60.293129 2.4646943
5.8762298 60.056488 2.266371
5.479372 60.19738 2.3561211
5.6712265 59.775795 2.3703477
7.1735125 60.036137 2.6154656
6.974648 60.235462 2.5927823
6.6681733 59.669502 2.6777132
6.0605879 59.879539 2.5075977
7.9659185 60.126282 2.6494722
5.2481418 59.770245 2.3329468
4.5677376 60.278027 2.0550234
5.6759057 60.353119 2.4900372
7.189496 59.87888 2.6165748
8.7768898 59.953693 2.9107881
5.9740815 60.230392 2.374269
6.87011 59.669174 2.7207799
5.3754587 60.053833 2.1496506
6.7717209 59.776569 2.6188705
5.6710567 60.236111 2.3065531
5.9713793 59.774296 2.4437671
5.9692826 60.042927 2.3651416
7.8681011 60.055042 2.707525
7.1663909 59.683048 2.732964
7.9745169 60.298256 2.9909883
8.9960203 60.332298 2.9344227
7.341403 60.036961 2.770951
5.7704463 59.668957 2.4844956
5.7750711 60.237923 2.3292215
6.5574722 59.755531 2.4872537
6.2726364 60.054127 2.3579617
8.4706841 60.2798 2.9875112
6.9758878 59.693508 2.6894565
6.0725679 59.775635 2.4647825
6.9726982 59.780243 2.6640418
8.0655308 59.966785 2.8442585
8.8792553 60.121712 2.8423154
6.1710682 59.667027 2.5730665
6.3682141 59.621185 2.6234722
4.6812153 60.16394 2.0882812
5.1711583 60.471813 2.5546124
6.7680979 59.766663 2.6738355
5.5795565 59.952522 2.2968111
7.1773491 60.357235 2.8274293
5.0698605 59.959629 2.1091728
6.1624002 59.773167 2.5364728
5.9914598 59.8633 2.5170426
7.3757696 60.050735 2.6682162
7.0801206 60.350647 2.8053925
5.871829 60.059441 2.3393223
5.5622358 60.229576 2.2955692
6.0270295 60.017536 2.4608991
7.1661897 60.261799 2.7190108
6.7708511 59.673107 2.7039309
8.4466867 60.136177 2.662477
7.0725975 60.054649 2.5343356
7.376626 60.353691 2.8559904
5.472064 60.347225 2.4509213
6.4761896 59.689373 2.5821373
7.5705938 60.060207 2.6426919
7.8688407 59.870941 2.8332925
8.0971756 60.206394 2.6592565
5.0648956 60.175472 2.2735765
6.8719563 60.23061 2.571038
6.9726372 60.26791 2.6792595
6.6753139 60.05574 2.4473393
4.970686 60.274319 2.2400906
5.7721844 59.768757 2.4486372
5.5291395 59.842594 2.3816886
5.7791467 60.353832 2.5098848
7.8708119 59.956921 2.7337105
5.2696877 60.057278 2.1245797
8.1718292 59.960815 2.8666909
7.8745756 59.958614 2.8093953
7.1717572 60.05452 2.5584264
6.8540478 60.048576 2.5455825
6.3735976 59.668964 2.6131287
7.4724607 60.231224 2.6952415
5.2714696 60.237862 2.2196317
5.5773292 59.769573 2.4113879
5.6707616 60.199047 2.3960946
7.5730562 60.268791 2.8092556
6.0764427 59.766415 2.5236006
7.7721272 59.867367 2.807096
5.1776767 60.389278 2.4753532
6.4743643 59.669441 2.637687
5.7749562 59.618748 2.4964564
6.8719535 60.052109 2.4931245
6.9847946 60.215477 2.6844327
8.2754889 60.250481 2.8634889
6.8702612 60.327282 2.82546
4.7797022 59.86076 2.0769277
7.6691899 59.962513 2.759521
7.07339 59.674847 2.7649152
6.573916 59.61734 2.665458
7.2698989 60.05257 2.585489
5.8724937 59.772026 2.4211588
5.9608278 59.772263 2.5007231
7.471612 60.299126 2.8759677
7.6744623 59.961185 2.697063
4.7806339 60.240341 2.1100039
7.4738512 59.768658 2.8251727
8.178896 60.201736 2.9449885
6.6688666 59.62212 2.6829636
5.4737883 59.854321 2.2920814
8.5158997 60.314869 2.797097
5.3169956 59.829128 2.3382401
5.9708571 60.195614 2.446763
5.5817118 60.351898 2.4749515
5.2783322 59.850506 2.2401037
6.8707576 60.305687 2.7371383
5.0748677 60.274315 2.272907
6.0719466 60.298046 2.5722656
5.1778917 60.18314 2.3014016
7.6716719 60.058136 2.6661487
6.373425 60.1409 2.3497543
5.5731053 60.0509 2.1991017
6.4721446 59.866928 2.5082099
5.7791967 59.857868 2.3637784
6.5714369 59.964653 2.4625754
7.4770889 60.046249 2.6910517
7.7714372 60.144997 2.6667955
5.5726881 59.665821 2.4447646
5.2749577 59.953705 2.2281249
6.1709886 60.349487 2.6142077
7.7741537 59.955986 2.7173755
8.7511292 60.122231 2.8048182
5.6702003 60.054955 2.2177408
8.0728283 60.132347 2.6727922
5.874157 59.951466 2.3618789
8.3714581 60.13438 2.7329371
6.2786274 59.621861 2.6040194
5.4784684 59.776031 2.3956976
7.2767072 60.385895 2.9301991
5.8594971 60.138947 1.6504469
6.8795543 59.754055 2.6950881
6.5726819 60.307564 2.678642
6.8720446 59.620384 2.7293613
5.4734917 60.297359 2.4457753
6.3676624 60.139576 2.3046398
8.5730667 60.324657 2.8373897
5.1698623 60.355881 2.3820195
6.8814135 59.588394 2.6732261
5.8704453 59.851845 2.4647436
5.9772978 60.176517 2.3673816
6.1703625 59.964142 2.373538
5.9657764 60.131962 2.2161024
8.7639675 60.26437 3.052115
8.5690966 60.129498 2.7768836
4.7938356 60.328785 2.2011819
5.3764024 60.357605 2.4336143
5.6710072 60.171337 2.2940648
5.6726556 60.037575 2.2972674
5.2756982 60.389965 2.5041687
6.3741322 60.233025 2.458128
7.9747624 60.145611 2.7126334
6.769495 60.308079 2.7202659
5.0738888 60.351982 2.3472469
6.7727156 59.621292 2.7087088
6.1756263 60.187443 2.4121177
6.3746409 59.969196 2.4176748
7.5724244 59.682499 2.8226333
6.0755825 59.961082 2.3525479
8.6750278 60.039757 2.8540921
7.7746439 60.046326 2.6884248
7.2744927 59.686604 2.7555809
7.5832601 59.952423 2.5956187
8.8604259 60.036724 2.8953886
6.8725815 59.964588 2.525646
8.6741734 60.312763 2.8476238
6.8680487 60.26527 2.6530955
6.3714061 59.865505 2.4870667
8.267993 60.051407 2.7914028
6.1720819 60.234348 2.4206476
5.9748039 60.059502 2.2865498
6.5679302 60.463139 2.7805648
6.770021 59.967087 2.5087562
6.4659386 59.967636 2.4413502
7.5758238 60.141842 2.5611331
7.5699134 59.958057 2.7327826
5.7708359 59.96122 2.2798903
6.6733541 60.13488 2.3715515
6.0754104 60.359978 2.5836105
8.5717182 60.206799 2.7750707
5.0710983 59.770332 2.2195015
8.2645617 60.054714 2.855998
5.175642 59.852398 2.2187088
6.5732889 59.66983 2.6588833
7.170423 60.142124 2.5251827
6.1697674 60.052925 2.4050515
6.4716263 59.620369 2.6435442
6.9699864 59.673054 2.746557
8.2639942 60.289215 3.057122
7.5696487 60.144833 2.6206994
5.9828091 60.380116 2.6531603
5.9693708 60.348576 2.5606885
5.9783301 60.060619 2.2246261
9.2378273 60.03273 2.9473453
7.4685445 59.95491 2.7065685
5.3707218 60.371521 2.5121117
6.5725579 59.945881 2.5002289
8.3733101 60.059357 2.8038359
7.4749036 60.142517 2.5972576
6.370019 60.056248 2.3790374
6.1687341 60.053951 2.3362517
4.8707728 60.05069 2.0339324
8.5670233 60.274193 3.0057237
6.9709482 60.056602 2.5135198
7.375495 59.953423 2.6845472
5.185348 59.953388 2.1411047
6.671432 60.143009 2.4179065
8.4715948 60.147434 2.8119631
7.2681608 59.66898 2.8126242
8.4659786 60.123699 2.7618353
6.4675584 59.75526 2.6019881
7.0713573 59.964108 2.5708914
8.2720528 60.141296 2.7686722
8.1750336 59.958466 2.7986515
6.4665761 59.943409 2.4791689
7.3704481 60.146389 2.5733452
7.2690444 60.144707 2.4985518
6.1588445 60.051125 2.2706587
8.1657944 60.140682 2.7551301
5.0698032 59.844929 2.1894171
6.3752427 59.949562 2.4629953
5.077034 60.045612 2.0796452
7.1709509 59.672874 2.7915156
8.9793339 59.952396 2.9464009
4.7845564 60.287266 2.2936959
5.0740614 60.240944 2.1762197
6.6662116 60.051167 2.5184467
8.9771671 60.07032 2.8778644
6.0666409 60.046444 2.3866251
9.0744629 60.03035 2.937717
9.0583839 60.106201 2.8807065
7.8477068 60.479813 3.0372663
7.4725542 60.482029 2.9651845
6.6605444 59.889114 2.5058246
4.3967156 60.191036 1.9720947
5.7644897 60.213875 2.1591735
7.7724504 60.164478 2.7545099
9.0590429 59.951107 2.9673984
8.2805729 60.056301 2.730432
6.5646453 60.033741 2.4903717
5.5032244 60.391216 2.3519862
7.0656772 60.305367 2.7831175
7.1663179 59.758659 2.7599525
8.5733242 60.055676 2.7982967
7.3710475 60.056538 2.6011422
6.7768316 59.689682 2.6528869
6.8733397 59.68988 2.6728981
5.3855686 59.858158 2.3439178
7.972568 60.247868 2.7978551
6.976408 59.620945 2.754005
5.1865988 60.330036 2.2932551
8.1721916 60.058846 2.8392639
7.5682769 60.390564 2.9949975
7.474194 60.046509 2.5601938
7.7859597 60.054375 2.6270638
7.4883237 60.212601 2.5302815
7.1791677 60.204296 2.4552002
8.1440258 60.188217 2.5847681
6.8948531 60.220802 2.3188879
6.294445 59.8895 2.5419161
6.9794912 60.208374 2.4238541
5.6728749 59.617348 2.4734969
8.1651011 60.223934 2.6740494
7.38097 59.884094 2.6661875
6.854712 60.208733 2.3998878
7.7773566 60.220028 2.5906713
6.4701338 60.22868 2.4821358
7.6696072 59.888309 2.7207031
9.1743889 60.016521 2.8995681
6.7728992 60.376171 2.8220725
8.7701406 60.048969 2.8735936
7.8717752 60.144836 2.690182
6.347126 59.864338 2.5486488
6.0697584 60.057919 2.3065364
9.3258343 60.017117 2.9617918
7.4699607 60.057293 2.6246295
9.2499084 60.126686 2.9158356
8.9423771 60.131081 2.8455386
6.9672813 60.188393 2.5732555
7.6822257 60.199997 2.5807462
9.1817627 60.123253 2.899461
6.4646406 59.761074 2.6869509
8.5838375 60.239941 2.8518841
8.4680595 60.048271 2.8201871
5.1741371 59.773296 2.2426927
4.9713392 59.951916 2.0854137
5.4767923 59.876709 2.2452731
8.5505562 60.151791 2.835
6.062922 60.325073 2.6537268
4.7798529 59.839729 2.1207464
5.1660161 59.863972 2.1759529
5.568893 59.688374 2.3788424
4.8710737 59.867626 2.1019292
4.8704939 59.954811 2.0605798
6.7594142 60.222961 2.4430752
4.6753778 59.950581 2.0088599
7.6667404 60.388554 3.0172408
8.3747902 60.224758 2.7965906
8.3974609 60.312153 2.7699552
4.6959333 59.86216 2.1066861
7.6698909 60.176846 2.7280903
4.8665252 59.84177 2.143393
6.7743616 60.188549 2.5299628
4.7794065 60.276535 2.2000751
8.8676014 60.265099 2.9938703
6.5608139 60.218288 2.407934
7.672709 60.241669 2.7421389
7.176784 59.619194 2.7522395
5.973896 60.261284 2.4606478
6.8641987 60.359741 2.7604651
5.489336 60.206978 2.1834915
5.5578337 60.049522 2.2757337
6.8734536 60.374611 2.8403535
6.0697589 60.232891 2.3983943
6.5735373 60.379112 2.7824612
7.0672836 60.264763 2.6979623
7.9699807 60.274849 2.8969486
7.8704557 60.24543 2.7824061
5.1764436 60.286713 2.3745341
6.5696659 60.265591 2.5876045
7.4755497 60.352386 2.8842368
7.2697945 59.61731 2.7685409
7.8769116 60.270294 2.8763227
7.4827619 59.601746 2.8158829
5.8718271 60.262463 2.4441578
6.27389 60.229107 2.4444039
7.1745491 60.307362 2.8130934
7.0734835 59.602348 2.7264895
5.6668687 60.378361 2.5837162
5.2727613 60.264721 2.3086691
6.175878 60.263958 2.5081043
6.6735849 60.377796 2.8019114
6.9672122 59.603096 2.7086296
8.0644941 60.273758 2.9099255
6.2751708 60.374149 2.7152085
7.1724544 60.377468 2.9133675
7.6758404 60.356651 2.9273436
7.0722899 60.37685 2.8865466
8.3732452 60.280094 2.9697073
5.5718622 60.377815 2.5719309
6.971458 60.38327 2.8647468
7.4755454 60.385551 2.9782822
7.3734779 59.613007 2.7882769
7.9768033 60.366737 2.9866483
5.6735859 60.254509 2.397682
6.3726859 60.263897 2.5474312
8.076231 60.358315 3.0093646
9.1413717 60.171562 2.9627323
5.573586 60.315418 2.5598812
6.0767107 60.264629 2.4835827
5.1691728 60.173477 2.196126
6.4749756 60.263317 2.5687966
6.474103 60.376427 2.7510092
6.9720998 60.305744 2.7650597
7.8737187 60.383953 3.0564301
6.5672908 60.348972 2.6990347
7.4755044 60.261848 2.7895291
8.3714085 60.270248 2.8915625
6.0701709 60.37989 2.6739075
6.17101 60.375011 2.6915691
7.270503 60.305157 2.8359451
7.0618677 60.187443 2.5881793
5.7740798 60.378471 2.6069379
7.8655839 60.298607 2.9675698
5.5726013 60.25922 2.3700895
8.7735739 60.147751 2.8842161
5.0838404 60.286182 2.3628957
6.9799614 60.355385 2.7872946
8.7737341 60.256836 2.9669995
8.2654772 60.2332 2.7698586
8.0729656 60.226543 2.7308638
5.4705081 60.322098 2.5355899
7.3682022 60.377934 2.9520307
6.0692196 60.208893 2.2911053
7.3819714 60.348408 2.746356
6.9765887 60.215149 2.4942095
6.0495615 60.335449 2.5021975
7.1807547 60.217117 2.5347369
7.875277 60.342171 2.8832204
7.3728247 60.26553 2.7605929
6.691855 60.221024 2.4408712
5.5766258 60.465858 2.6222966
6.0667858 60.470726 2.7287815
7.8662386 60.360348 2.9607353
7.8673429 60.213333 2.6727543
6.0779719 60.465019 2.6885421
5.9709382 60.318035 2.639936
6.6699281 60.271717 2.6163828
7.3727207 60.235313 2.6754181
5.8678646 60.180565 2.3434956
5.8696928 60.37513 2.6298213
5.9726982 60.403458 2.8091569
5.0793285 60.389614 2.4638515
6.2728324 60.182964 2.4209168
7.3766117 60.298878 2.8548241
6.3778019 60.185368 2.4465468
5.4690232 60.25985 2.3582509
5.8718534 60.232723 2.3559718
6.6712689 60.212433 2.3583298
6.3780355 60.342007 2.5532451
8.7504692 60.160988 2.962625
7.273983 60.235023 2.6504192
7.3775339 60.216938 2.5760276
8.7665529 60.325268 2.8766265
9.2395439 60.145519 2.9941905
9.0257225 60.315674 2.9313469
7.7733183 60.321239 3.0233741
6.8690786 60.498478 2.8426149
5.86587 60.314819 2.616564
7.5717006 60.316093 2.9989729
5.8734083 60.291046 2.5256798
7.7639222 60.289242 2.9344254
6.3541989 60.19453 2.5488119
7.2628212 60.19886 2.7331367
8.2630749 60.172604 2.8618894
5.8644366 60.21806 2.2589786
6.3651824 60.207603 2.3450017
7.7691383 60.22414 2.6631906
5.4647913 60.48151 2.6065931
5.9584785 60.476295 2.6388879
5.7488456 59.944302 2.4247549
7.7734957 60.358768 2.9493527
6.3699956 60.378277 2.7316375
5.6709971 60.297192 2.4866714
8.0728207 60.251495 2.8216259
9.2717438 60.215977 3.0465937
6.167048 60.317043 2.68419
6.6673737 60.307705 2.7013483
5.2635984 60.308369 2.4908464
5.2786398 60.166893 2.2193799
8.9552889 60.105843 2.8918364
6.6768274 60.327667 2.7852232
7.6803732 60.324017 3.0163276
5.6649704 60.317249 2.5781503
7.2764692 60.352928 2.8456063
6.7724156 60.268101 2.6333573
5.3685508 60.26786 2.3277609
7.7714195 60.270283 2.8552322
5.3708057 60.227455 2.2405133
5.6747146 60.470394 2.6437562
7.6933622 60.47337 3.028034
5.296392 60.336193 2.3145287
7.2697754 60.263016 2.7434037
7.9695654 60.21862 2.7105432
8.6693859 60.237362 2.8638637
7.7760921 60.386784 3.0401602
8.9658184 60.250275 2.9375916
5.5731945 60.175461 2.2786241
6.4687276 60.19112 2.4621823
8.8616381 60.154392 2.8871264
8.872633 60.247509 2.9144902
5.3835444 60.173225 2.2425554
5.7689381 60.259216 2.4218953
5.9744549 60.299721 2.5510983
7.072403 60.229942 2.614388
6.2770104 60.264137 2.5300663
5.777792 60.287708 2.5099349
5.2785153 60.287548 2.4099476
6.6765304 60.349731 2.7044899
6.5678358 60.191055 2.4840615
5.3747292 60.290379 2.4286585
6.5800676 59.595757 2.6227598
5.1837287 60.312744 2.4828069
5.060008 60.297714 2.4528213
4.868608 60.401329 2.413254
6.3690128 60.357189 2.6457388
6.8675303 60.20768 2.4707978
5.37749 60.191349 2.3325515
5.5694947 60.19696 2.3746376
5.3705163 60.302097 2.5206819
5.7660742 60.324043 2.602139
5.2632675 60.186131 2.3067214
7.5716777 60.213619 2.6239986
8.2755833 60.27467 2.9518986
7.5712891 60.303165 2.8959851
4.9622178 60.304207 2.4338133
7.6709909 59.774563 2.8728178
9.1476154 60.250015 3.0232201
9.185544 60.218903 2.9714062
7.7863498 60.342312 2.8563673
8.1705961 60.258286 2.831126
8.1691093 60.220894 2.7482603
8.1648006 60.365685 3.0220065
7.5699143 60.240879 2.7159648
7.6774864 60.227318 2.6560874
8.166811 60.336693 2.9252136
6.782053 60.352001 2.7434602
8.4724712 60.054081 2.9098871
6.7884026 59.601295 2.6681707
7.5676847 60.03286 2.7086985
8.8845463 60.166393 2.9775033
4.9710779 60.247517 2.1593478
5.8761921 60.201488 2.4399552
5.766943 60.502869 2.751446
7.9788842 59.981766 2.6780188
7.361352 59.77618 2.6733689
4.6669207 60.449738 2.3864052
4.7984047 60.510937 2.3071237
5.5084376 60.42931 2.4145534
6.2228923 60.580143 2.5947695
7.9810944 60.204044 2.6405957
4.5047379 60.322918 2.2340183
4.5980992 60.249462 2.2446501
7.0563669 60.198997 2.4543593
5.7901902 60.311852 2.2835073
4.4715433 60.284069 2.1079912
4.8699684 60.281818 2.2177572
6.085814 60.294632 2.2190726
4.6855345 60.340782 2.2030523
6.7732844 60.291698 2.3812282
4.5929689 60.255581 2.1416278
6.6787934 59.617325 2.6370931
5.233336 60.226063 2.4700375
5.592227 60.475761 2.5809021
5.2762275 60.203197 2.397475
4.6619892 60.301292 2.353878
4.8868804 60.278576 2.3162427
4.5685592 60.169868 2.0688241
5.8723779 60.355152 2.543206
4.6760759 60.281685 2.2724445
4.6933136 60.187782 2.192086
4.6745081 60.220921 2.276875
4.7895355 60.176769 2.2165568
4.5620623 60.282986 2.320133
4.6014032 60.204563 2.229362
4.7854476 60.287563 2.3828881
4.7776279 60.209042 2.2954562
4.9676948 60.212349 2.3353388
4.8904991 60.217194 2.3494637
4.6355042 60.223568 2.3257494
5.5830011 60.231804 2.4826438
7.5008392 60.335171 2.8080921
7.8591723 60.209274 2.600502
8.2844505 60.215164 2.7035208
5.1560311 60.198761 2.3769968
6.5580554 60.210812 2.3088233
7.1720548 60.327328 2.890177
5.6641855 60.21096 2.201658
4.6901059 60.406101 2.362083
4.9624987 60.463799 2.5093496
4.5866446 60.384949 2.2770538
5.1827211 60.235714 2.1910355
7.9540491 60.202095 2.8806367
4.7602215 60.354332 2.2737274
4.8672915 60.35857 2.3187287
7.2849798 60.450504 2.9307892
8.1771297 60.315136 2.7384164
7.5947237 60.473595 2.998311
7.7385721 60.332874 2.7526257
6.6696734 60.332489 2.5961828
7.9573364 60.433342 2.9950016
7.776206 60.47617 3.0271897
8.0608873 60.300377 2.7044683
8.0698566 60.32185 2.8016925
7.367435 60.457329 2.9214239
7.9660115 60.344639 2.7746601
7.2598243 60.340839 2.7389138
5.0349798 60.350285 2.1822183
6.2908697 59.611858 2.5479627
7.513905 59.52499 2.8010554
5.6942368 60.546463 2.7117872
7.8961563 60.230316 2.9824109
7.8258915 60.423271 2.9059763
6.5052357 60.550732 2.7689266
5.6358266 60.547161 2.6008406
5.638876 60.553669 2.5909202
6.297071 60.475136 2.7137463
6.679327 60.461395 2.8174567
7.0300231 60.431187 2.7047675
5.8421826 60.481133 2.6321027
6.4538236 60.457558 2.7549114
4.6881285 60.365662 2.2719162
4.2833433 60.341209 2.2191672
4.0437517 60.244701 1.9899365
4.3825331 60.222107 2.0367131
4.4661388 60.231873 2.0611794
4.10217 60.25095 2.0389364
4.1591864 60.268108 2.0626848
4.5765901 60.393162 2.3315556
4.2757449 60.376324 2.2678885
4.1439643 60.189255 1.9926444
5.5636177 60.217438 2.1884875
4.2760262 60.320763 2.1915369
4.3828993 60.202633 2.0439119
4.1228867 60.184467 2.0252068
6.8378754 60.155323 2.3019941
4.3068461 60.199535 1.9744098
4.4707532 60.182178 2.1292276
4.2583342 60.159687 2.0768111
7.361958 60.328465 2.5875568
4.4799814 60.314999 2.2842901
7.0950556 60.293465 2.4517713
7.8193927 60.359993 2.6365376
7.4506793 60.348656 2.6622574
7.8247542 60.316513 2.7360215
7.8322124 60.314564 2.6946368
7.3520203 60.327503 2.7007697
7.4058986 60.204071 2.7429748
7.0818777 59.531445 2.7243624
6.6612945 60.563503 2.8763156
7.1131773 60.559258 2.9528983
6.5113978 60.59259 2.8311312
5.87782 60.617195 2.720032
