# .PCD v0.7 - Point Cloud Data file format
VERSION 0.7
FIELDS x y z
SIZE 4 4 4
TYPE F F F
COUNT 1 1 1
WIDTH 1028
HEIGHT 1
VIEWPOINT 0 0 0 1 0 0 0
POINTS 1028
DATA ascii
36.151699 -19.109169 12.392397
36.115433 -19.248915 12.409804
39.519379 -17.174734 12.497515
40.008797 -17.220539 12.403205
36.532299 -17.946928 12.148962
38.023682 -17.478546 12.168713
37.43758 -17.482401 12.142708
36.416775 -18.194763 12.129434
36.505711 -17.356596 12.134379
36.537052 -18.112209 12.226436
36.280426 -18.099016 12.197624
38.607094 -17.326551 12.587687
36.452721 -18.879374 12.268653
36.312286 -15.421446 12.316845
36.755032 -16.251532 12.388625
36.607334 -19.474512 12.369768
36.716354 -19.234961 12.412152
38.71032 -17.232132 12.3016
36.741619 -19.512352 12.177659
39.43586 -17.418747 12.517035
36.898296 -18.467964 12.412472
36.929199 -18.316231 12.270391
36.906261 -19.090261 12.323963
36.864235 -18.330948 12.400575
36.875244 -17.519335 12.216921
36.863712 -19.167648 12.31043
36.56525 -19.500532 12.209981
36.907169 -17.947641 12.219462
36.901306 -19.205626 12.19292
36.602573 -19.256542 12.420761
36.471722 -18.984564 12.129834
37.119217 -18.036812 12.200121
40.87104 -17.48167 12.557856
36.746964 -19.262083 12.129562
36.995152 -19.114933 12.203524
36.996052 -19.207975 12.150174
36.905563 -19.293461 12.131287
36.777348 -18.086115 12.212234
37.011612 -17.533564 12.231441
39.808628 -17.167633 12.485826
36.8181 -18.156466 12.388021
37.05233 -19.141693 12.068829
36.766651 -17.883245 12.150353
36.452801 -18.110336 12.068763
37.878338 -17.596992 12.179331
36.684532 -18.971518 12.170895
36.507248 -19.332546 12.248074
39.23262 -17.154749 12.464443
36.714333 -19.023228 12.170962
38.793507 -17.167284 12.402961
38.794476 -17.226446 12.332677
36.414505 -18.915604 12.397634
36.199776 -17.906927 12.298066
39.164322 -17.291609 12.311344
36.883064 -17.431337 12.095934
36.822689 -18.047689 12.165862
40.893135 -17.278635 12.581957
36.94072 -19.143198 12.194678
36.61853 -19.219805 12.059961
36.444107 -19.56197 12.161323
36.381466 -19.020359 12.38221
36.559017 -19.327496 12.296643
36.704182 -19.218363 12.370547
36.465565 -18.95363 12.380139
36.294228 -15.365134 12.357888
36.346512 -16.159279 12.451486
36.499268 -18.517269 12.319891
36.565247 -18.790609 12.332513
36.660049 -19.12335 12.127547
36.373394 -18.169315 12.353458
36.493126 -19.079603 12.357726
36.258923 -18.320137 12.334058
36.601776 -19.217014 12.34683
36.564766 -19.104624 12.345378
36.62146 -18.572969 12.361101
36.404945 -18.748169 12.336384
36.598972 -19.302521 12.181907
36.496929 -17.995729 12.352075
36.510448 -18.245518 12.353866
36.19981 -18.203417 12.345343
36.496586 -18.778765 12.360378
36.505665 -18.876493 12.348125
36.298233 -18.474161 12.352178
36.404552 -18.775555 12.350099
36.323212 -18.888035 12.338164
36.400974 -19.333155 12.154835
36.226032 -18.015774 12.347894
36.317471 -18.151178 12.369879
36.390701 -18.453835 12.3605
36.500294 -18.468067 12.367613
36.295166 -18.996555 12.365423
36.325062 -19.095356 12.362212
36.625778 -19.088318 12.119786
36.342983 -18.235664 12.318415
36.310844 -19.038904 12.300386
36.521717 -19.052319 12.327957
36.498405 -19.283073 12.122597
36.299839 -18.022932 12.349404
36.593933 -18.328667 12.349199
36.53392 -18.230148 12.173706
39.187111 -17.225483 12.335565
36.498367 -16.628704 12.16057
39.762154 -17.24325 12.388094
37.761917 -17.447853 12.413651
39.495541 -17.18297 12.359741
37.691242 -17.480362 12.149555
36.985394 -15.402014 12.242974
38.838276 -17.360392 12.274825
37.598488 -17.318024 12.277958
38.297009 -17.425106 12.35793
36.423988 -16.480827 12.172292
36.860378 -17.682192 12.229335
36.614559 -15.367655 12.401112
36.823059 -17.695257 12.398564
40.779087 -17.304861 12.477198
36.606766 -16.309755 12.350355
36.405544 -18.971773 12.156271
36.703194 -18.02597 12.354592
36.437874 -18.9753 12.141376
36.503315 -19.314604 12.173108
36.495979 -18.169773 12.307703
36.404991 -19.146036 12.184347
36.809124 -17.40353 12.221462
39.500595 -17.321159 12.396794
37.502342 -17.399414 12.263522
36.794991 -17.946386 12.399638
39.19511 -17.317968 12.376512
36.410854 -16.416208 12.319327
38.696571 -17.420414 12.386856
36.472866 -17.88554 12.336711
39.399487 -17.247883 12.357637
39.773941 -17.179367 12.549747
37.69722 -17.401134 12.271911
36.495186 -17.682579 12.322962
36.308849 -15.48975 12.138438
39.39679 -17.271429 12.498986
36.300255 -17.980259 12.284011
38.599049 -17.425238 12.383
36.327583 -15.786446 12.365796
36.767967 -15.516203 12.174916
38.486305 -17.369001 12.233603
38.497005 -17.314285 12.327477
40.00856 -17.376041 12.583698
39.608078 -17.423828 12.461231
37.30024 -17.317329 12.255549
38.301971 -17.271551 12.420406
38.894279 -17.229685 12.295096
36.325047 -18.089859 12.349311
36.503941 -17.906717 12.357186
39.510151 -17.447338 12.519994
36.42646 -17.663126 12.302246
36.828068 -15.936533 12.396881
36.493587 -15.364675 12.377753
36.40332 -16.634125 12.332011
36.613346 -18.628412 12.3446
36.707764 -15.371139 12.218205
36.509048 -15.333954 12.351657
36.301556 -17.001101 12.201573
36.482193 -18.125319 12.342254
36.408264 -19.339302 12.348238
36.305462 -19.273642 12.309192
36.178509 -19.294205 12.292528
36.294983 -15.624783 12.182086
39.692825 -17.379591 12.571877
38.975452 -17.440393 12.497888
36.314648 -18.559217 12.345173
39.00423 -17.417606 12.413695
39.305801 -17.516821 12.496728
36.932911 -15.704744 12.403065
37.399639 -17.40242 12.249893
36.404369 -17.900377 12.331689
39.244347 -17.317112 12.545293
36.469784 -16.322056 12.357817
36.392445 -15.847575 12.459177
38.216881 -17.189009 12.453099
40.192642 -17.265707 12.560592
36.866638 -18.936304 12.196291
36.85144 -17.860058 12.411628
36.141109 -15.322428 12.233579
41.085052 -17.266565 12.564068
36.487118 -18.729525 12.34912
41.242538 -17.230621 12.557703
40.406071 -17.450619 12.59844
37.004833 -17.291685 12.181889
36.600689 -19.156837 12.25198
36.60733 -19.225359 12.172155
41.027237 -17.398544 12.546768
36.85651 -18.998409 12.386545
36.698189 -19.21929 12.170876
39.298573 -17.346817 12.47818
39.000423 -17.349905 12.467374
40.10112 -17.266281 12.556517
39.906384 -17.375105 12.589385
36.889004 -17.077387 12.248566
36.089027 -15.24016 12.149955
40.097717 -17.421938 12.48413
39.101089 -17.396833 12.360491
36.403008 -16.657747 12.148618
40.401604 -17.364037 12.624762
36.702728 -16.918798 12.355537
39.701733 -17.260281 12.530033
38.864811 -17.466518 12.319563
38.497299 -17.397293 12.32587
36.392952 -19.280298 12.324451
36.499142 -18.542366 12.352811
36.102173 -15.562656 12.099376
39.898628 -17.265949 12.547082
36.687801 -17.50292 12.213938
36.204319 -15.27406 12.185676
40.690086 -17.378489 12.648026
36.408413 -16.718719 12.312007
39.596004 -17.268509 12.511634
36.802921 -17.421028 12.269233
37.100262 -17.421598 12.287757
38.000359 -17.348507 12.401549
39.975128 -17.286619 12.608682
39.319012 -17.312883 12.550889
40.488693 -17.37928 12.615311
40.794571 -17.415449 12.463635
36.79921 -16.739235 12.338669
36.896534 -15.754074 12.320342
36.114147 -15.486922 12.284864
38.010403 -17.295927 12.246491
36.152512 -15.518492 12.366435
36.230328 -18.191555 12.333236
36.19791 -19.341988 12.269711
36.720314 -16.498833 12.373332
36.497234 -18.43589 12.340639
36.787342 -18.113049 12.351022
36.597599 -16.650806 12.358869
36.410824 -19.240496 12.2189
40.388119 -17.470747 12.434319
36.519028 -16.961784 12.335707
36.404575 -16.532591 12.140254
36.327835 -19.317476 12.163172
36.865971 -18.27351 12.439124
36.67123 -16.59482 12.153605
36.601357 -15.518009 12.187219
36.526722 -16.658573 12.361324
40.094425 -17.275532 12.631296
37.599442 -17.423666 12.311933
37.298473 -17.27664 12.354215
40.310043 -17.491058 12.361781
39.722519 -17.430431 12.559218
36.293766 -18.257732 12.351589
36.417133 -18.11141 12.335762
36.596764 -19.299282 12.385743
36.811111 -15.366478 12.122212
36.705124 -15.321527 12.241676
36.734447 -17.573948 12.14681
36.067917 -19.280249 12.381985
37.039658 -17.239614 12.205935
38.396935 -17.377716 12.484059
36.558964 -16.554163 12.182119
36.191238 -15.454992 12.343643
36.485035 -19.431995 12.080137
37.747395 -17.48698 12.22777
37.033409 -18.194834 12.218784
40.291046 -17.24692 12.482498
36.387562 -16.19989 12.302997
36.871365 -16.628712 12.353174
40.385925 -17.290604 12.390354
38.89312 -17.271519 12.46398
39.104366 -17.419043 12.412502
40.594643 -17.439436 12.610604
39.797752 -17.323423 12.41834
36.605385 -17.744925 12.175587
37.994267 -17.428976 12.340848
38.202988 -17.425325 12.351647
37.620159 -17.374521 12.188138
36.817978 -16.525522 12.399581
38.495625 -17.29833 12.269375
40.58799 -17.335085 12.56073
37.415226 -17.282881 12.203603
40.085571 -17.486961 12.36908
38.508133 -17.151672 12.294076
41.007332 -17.42252 12.625472
39.465157 -17.193672 12.510873
38.099178 -17.42543 12.350363
36.779781 -15.356866 12.337884
40.984375 -17.285601 12.58108
36.849133 -16.558689 12.287838
36.688381 -17.881508 12.349643
36.599743 -16.735113 12.344118
36.906898 -15.311166 12.254083
40.316452 -17.294857 12.383888
40.984818 -17.272673 12.500972
39.604431 -17.314684 12.404488
37.564392 -17.480131 12.246959
36.8722 -18.178831 12.235603
36.429478 -16.812693 12.323273
36.590027 -19.241787 12.213358
37.097225 -17.250534 12.288877
36.774818 -18.133863 12.245036
38.315018 -17.300192 12.260053
36.667465 -16.600315 12.302019
37.001194 -17.351423 12.337817
36.699619 -18.179585 12.233565
36.293285 -19.30234 12.357728
36.397251 -18.03195 12.338131
36.492359 -19.182293 12.337228
36.816044 -16.247572 12.326707
39.095909 -17.322868 12.373738
38.990456 -17.213503 12.315176
37.309025 -17.245735 12.230013
36.65778 -17.590124 12.327604
38.36694 -17.232534 12.258857
36.797455 -16.608473 12.359993
36.188343 -15.720201 12.346405
38.696369 -17.293804 12.285262
36.709103 -15.406142 12.140246
40.606434 -17.236477 12.517768
36.218719 -19.187407 12.343423
40.504715 -17.234951 12.50881
37.29652 -17.288666 12.193346
36.556686 -18.260773 12.342427
37.798367 -17.300941 12.227455
36.322826 -16.316061 12.309944
38.89082 -17.30002 12.299098
38.809464 -17.377459 12.508305
37.394047 -17.494181 12.197373
40.494381 -17.387342 12.45243
36.578613 -18.947388 12.342223
36.441753 -16.555908 12.343994
38.390232 -17.297813 12.269487
37.597782 -17.281332 12.22384
38.399227 -17.255335 12.373489
36.394489 -18.136042 12.203823
38.514584 -17.479164 12.29755
36.294277 -17.682535 12.339181
37.258736 -17.407242 12.162476
36.596634 -17.26552 12.319594
37.898197 -17.421928 12.337211
36.453831 -16.743282 12.310418
37.27615 -17.481236 12.209223
36.402351 -19.19451 12.154285
37.689514 -17.283882 12.224333
38.186562 -17.457256 12.253345
39.203045 -17.432814 12.512712
40.213692 -17.292238 12.391288
36.58765 -15.246245 12.365734
38.103344 -17.489479 12.318721
40.105003 -17.223166 12.396206
36.15876 -15.492222 12.203785
39.694347 -17.397301 12.396149
37.501045 -17.31531 12.270442
39.898891 -17.458763 12.571991
37.796715 -17.281624 12.484667
36.773922 -16.982416 12.350856
36.370033 -16.504599 12.133537
36.374874 -15.504421 12.259869
39.001534 -17.314543 12.366177
39.750557 -17.470158 12.398372
36.507736 -16.65527 12.195735
38.898609 -17.317938 12.360357
36.398926 -18.422031 12.343862
36.781895 -18.902456 12.3562
39.502888 -17.414265 12.441626
40.89426 -17.280445 12.510394
36.897423 -17.855993 12.225588
38.402058 -17.348806 12.429118
36.791748 -18.37961 12.332165
36.466705 -15.491156 12.30136
36.545319 -16.586058 12.136879
36.8172 -15.270912 12.381709
36.536289 -18.16604 12.176438
36.558105 -18.230177 12.339567
36.52919 -15.557324 12.35468
38.703812 -17.317467 12.345848
39.009869 -17.287981 12.295728
36.841282 -18.238098 12.380981
36.834118 -18.031237 12.365198
36.45871 -16.859644 12.301012
36.568901 -17.565403 12.206783
36.299999 -16.68256 12.220068
36.696316 -19.228153 12.225538
36.42289 -17.506458 12.243148
39.89196 -17.301842 12.344199
36.951305 -17.769831 12.229811
39.70512 -17.365019 12.29452
39.141178 -17.358707 12.304198
39.504395 -17.377493 12.298845
36.820175 -19.212831 12.414549
39.227898 -17.372707 12.29351
36.834442 -16.661356 12.253936
40.703648 -17.304796 12.502063
39.78923 -17.345718 12.329548
38.199509 -17.35317 12.413977
38.601753 -17.307766 12.27655
38.701618 -17.375315 12.501773
39.343647 -17.365162 12.313453
36.79142 -19.231613 12.216885
36.193443 -15.746652 12.359908
36.909317 -18.208023 12.351061
38.593842 -17.349575 12.441257
38.500256 -17.349594 12.434977
40.102451 -17.248667 12.47085
36.509148 -17.245064 12.260102
39.291302 -17.251728 12.432222
36.551987 -17.860088 12.377389
39.705276 -17.318607 12.415576
36.421745 -18.81035 12.307403
39.595108 -17.350346 12.335646
40.393559 -17.244955 12.49887
36.213825 -16.339155 12.358659
36.248428 -16.688145 12.290174
36.292198 -16.400599 12.314096
36.3256 -16.364092 12.260756
36.61623 -18.77614 12.383616
36.317062 -18.782606 12.354556
37.206154 -17.486217 12.229525
36.319244 -19.193602 12.33727
39.996193 -17.247442 12.455812
36.573502 -19.465527 12.169467
37.605129 -17.273802 12.376904
37.195259 -17.423748 12.291327
36.755821 -16.423618 12.378422
36.324924 -16.705978 12.324543
38.836994 -17.599726 12.105784
39.599819 -17.34985 12.501853
40.672283 -17.411165 12.461102
36.308979 -16.708151 12.138281
39.898075 -17.2369 12.473299
39.429298 -17.473589 12.32079
37.470913 -17.283371 12.101757
36.811646 -19.223936 12.179149
36.934631 -17.777384 12.207257
36.215294 -15.232061 12.344831
40.007469 -17.306978 12.35138
36.391018 -18.207367 12.308964
40.58577 -17.445066 12.692058
39.298149 -17.371315 12.546783
40.296402 -17.265381 12.562721
39.499996 -17.352697 12.493757
38.594398 -17.381224 12.494989
36.314095 -17.989149 12.139696
39.398365 -17.369684 12.277329
39.202839 -17.372332 12.537062
36.476578 -16.748026 12.380157
36.2397 -16.602795 12.095346
36.703209 -18.561733 12.359913
39.691013 -17.298405 12.584217
37.690277 -17.273676 12.378409
38.111877 -17.394255 12.455579
37.912601 -17.291536 12.227215
37.512283 -17.28153 12.203098
36.506756 -19.27593 12.328474
36.848492 -18.601755 12.424443
36.387299 -16.675076 12.212384
37.600735 -17.351709 12.372465
40.454239 -17.248426 12.715765
39.49213 -17.381084 12.552258
37.890224 -17.255468 12.339871
36.589798 -19.286257 12.122293
38.911098 -17.371315 12.516126
37.9991 -17.383024 12.452931
36.406227 -18.549822 12.353156
36.499191 -18.927563 12.273167
39.603043 -17.39851 12.39876
39.200439 -17.397158 12.37212
39.391514 -17.393953 12.378397
36.26012 -16.607384 12.172269
36.994236 -17.426836 12.283993
39.301609 -17.39823 12.380325
38.297585 -17.349749 12.422106
36.30323 -18.431486 12.337228
39.206715 -17.41703 12.422017
38.100529 -17.351738 12.408043
37.9044 -17.353956 12.395294
36.879272 -15.334892 12.346567
38.795872 -17.29084 12.284365
39.899212 -17.425348 12.476341
38.0965 -17.253134 12.359716
37.800171 -17.353449 12.385267
37.708584 -17.392776 12.427694
39.999989 -17.425062 12.480623
36.850704 -17.69208 12.389292
36.7076 -17.932335 12.179001
36.529579 -17.977772 12.325953
38.802578 -17.319233 12.348311
36.405151 -15.392821 12.30825
37.10294 -17.31259 12.244637
36.602055 -19.116934 12.163218
36.580894 -17.950117 12.176543
36.737991 -18.137302 12.342264
36.311111 -18.961769 12.313953
37.701202 -17.323875 12.278875
36.608463 -16.932148 12.348459
36.947796 -17.91194 12.140126
36.795849 -17.944492 12.219221
36.686859 -19.299032 12.189417
36.372662 -17.950457 12.311932
36.850269 -16.105602 12.409533
36.750633 -18.918835 12.324127
37.102421 -17.407867 12.238944
37.923416 -17.355913 12.193337
36.695518 -19.260794 12.360102
38.494022 -17.384312 12.481086
37.007751 -17.405941 12.227963
38.107231 -17.312342 12.303897
36.610775 -18.431376 12.351495
37.621281 -17.513573 12.303892
40.197903 -17.423018 12.501344
36.598667 -19.259253 12.32941
36.417095 -17.128197 12.284358
39.676037 -17.182993 12.49581
36.856266 -16.267342 12.295153
36.900349 -17.432722 12.269532
36.654865 -18.481476 12.345658
36.694244 -17.826176 12.172952
36.936676 -18.174391 12.167171
37.399109 -17.320202 12.265692
40.103294 -17.285473 12.382263
39.206329 -17.242378 12.424468
40.687588 -17.367975 12.596391
37.464634 -17.344513 12.186678
40.597198 -17.413881 12.514366
40.829441 -17.25544 12.513892
36.626553 -15.872685 12.348232
36.373463 -15.898308 12.381162
36.915745 -15.970106 12.377749
36.407116 -18.867617 12.341536
36.487492 -15.887432 12.347578
36.504032 -15.417602 12.320292
39.902637 -17.287645 12.61285
36.84343 -16.263741 12.379627
36.579296 -15.399919 12.307371
36.326027 -16.74884 12.14727
36.783138 -18.628057 12.35099
40.809723 -17.321095 12.398177
38.487694 -17.246332 12.378758
36.604362 -17.252495 12.255047
41.147758 -17.300255 12.616413
38.298939 -17.252518 12.373832
36.812115 -17.514572 12.217477
36.573502 -15.669452 12.15283
40.007744 -17.265045 12.547525
36.570538 -17.711357 12.339323
36.700108 -17.612726 12.165716
39.707287 -17.41954 12.462456
39.196091 -17.348217 12.474295
37.993912 -17.257624 12.347657
39.397655 -17.320709 12.389222
37.237362 -17.519962 12.234381
36.670593 -18.557001 12.329635
38.413433 -17.545877 12.47297
37.591911 -17.259438 12.320757
36.99567 -16.550463 12.410271
38.896511 -17.416655 12.401248
39.689083 -17.303894 12.348719
38.29649 -17.496998 12.323106
39.500809 -17.401888 12.389868
39.098854 -17.371531 12.530244
36.460991 -16.690987 12.400516
39.394451 -17.348057 12.483603
38.295124 -17.384848 12.472178
40.300255 -17.347246 12.540463
40.392574 -17.349726 12.54343
40.717964 -17.260328 12.512218
40.109138 -17.193453 12.551899
36.599625 -18.869549 12.364598
38.194107 -17.494553 12.307078
40.489796 -17.323854 12.471901
40.854504 -17.35383 12.648914
41.218548 -17.281553 12.51344
40.918198 -17.225172 12.537728
36.392956 -19.188759 12.338511
40.77544 -17.257603 12.611143
41.566177 -17.240307 12.619851
41.003468 -17.35887 12.5867
40.909874 -17.349829 12.5718
36.626968 -17.61198 12.337389
37.658623 -17.508577 12.32629
40.502682 -17.268042 12.579163
38.801571 -17.451166 12.194062
40.970512 -17.20965 12.572423
36.516159 -17.59091 12.343929
38.301659 -17.396078 12.311371
40.300983 -17.311974 12.460712
39.992668 -17.322569 12.432588
40.002293 -17.356268 12.513252
36.293209 -15.356575 12.111629
40.194901 -17.348063 12.530128
36.833187 -16.763586 12.224805
36.596001 -17.486206 12.185598
39.300457 -17.323509 12.38518
36.668667 -16.676575 12.221602
39.39706 -17.418926 12.436616
39.906467 -17.34934 12.513733
39.474155 -17.302893 12.338202
38.205997 -17.252941 12.371607
36.769226 -16.836027 12.356208
40.774273 -17.375973 12.637422
36.046902 -16.762064 12.21402
37.906269 -17.317558 12.289802
36.616215 -17.62166 12.169723
36.700745 -16.74267 12.358277
38.223064 -17.294918 12.247945
36.690479 -17.681389 12.368066
39.797028 -17.427654 12.469363
36.661968 -17.769629 12.176707
38.104122 -17.29888 12.244686
36.411087 -15.294666 12.228096
38.800426 -17.348568 12.455128
36.287243 -15.286667 12.203172
37.196228 -17.351913 12.346301
37.197655 -17.315659 12.254618
37.908066 -17.274086 12.391507
38.602261 -17.399776 12.332067
36.998463 -17.315254 12.246069
37.69548 -17.348175 12.381532
38.411728 -17.427782 12.454719
38.614109 -17.467781 12.316343
39.29631 -17.418087 12.425208
38.000378 -17.273996 12.402535
38.699203 -17.400986 12.34059
38.49926 -17.420822 12.371547
39.902748 -17.315844 12.426444
36.898888 -17.321665 12.239685
38.601471 -17.319626 12.337228
36.500214 -17.312735 12.208866
38.200527 -17.314041 12.306372
36.695827 -17.321997 12.225941
38.004013 -17.393005 12.293242
37.898624 -17.3986 12.284202
36.903244 -17.255051 12.264689
38.404293 -17.314043 12.317664
37.699726 -17.42614 12.325912
38.396019 -17.424603 12.369842
37.799381 -17.419638 12.338559
37.797722 -17.317219 12.289412
37.79628 -17.383947 12.440323
37.502537 -17.389997 12.413497
36.802086 -17.323229 12.229149
38.198071 -17.383308 12.462315
36.605286 -17.670959 12.329355
38.399204 -17.397728 12.316005
36.38409 -18.33247 12.348159
38.801292 -17.272224 12.454426
36.511986 -16.553877 12.348393
38.899544 -17.393892 12.346482
38.204788 -17.360044 12.221527
38.890659 -17.34362 12.252941
38.302547 -17.355507 12.222455
37.097195 -17.350653 12.33706
38.698994 -17.254496 12.393314
38.002262 -17.318321 12.298056
38.894421 -17.350304 12.457728
37.304398 -17.424875 12.306285
37.298824 -17.348614 12.353575
38.29953 -17.316448 12.314357
36.501019 -16.520451 12.242572
37.59565 -17.394138 12.420087
38.800415 -17.394152 12.345204
38.289413 -17.440796 12.442159
38.801834 -17.493374 12.346629
37.7985 -17.406256 12.274539
37.498947 -17.258532 12.318367
36.318577 -17.645805 12.321184
37.292767 -17.406605 12.24362
38.996895 -17.400322 12.359376
36.496323 -18.6422 12.348285
36.603443 -15.367693 12.203227
38.099239 -17.403166 12.303892
36.851257 -17.708624 12.289763
37.100609 -17.276814 12.343586
38.20776 -17.400194 12.306505
36.482441 -15.369423 12.200706
36.395248 -15.382856 12.180472
37.376324 -17.389069 12.407994
36.54689 -17.872044 12.1778
36.49316 -15.316981 12.236152
36.297077 -15.249685 12.344449
36.405968 -15.555291 12.34078
36.294811 -15.29404 12.143219
40.100262 -17.348722 12.523803
36.378887 -17.512634 12.109581
39.099659 -17.347649 12.466455
36.242653 -15.299257 12.291547
36.686619 -16.351065 12.346072
40.152607 -17.497921 12.451914
36.59156 -16.274302 12.301803
36.579487 -16.416353 12.32139
36.708031 -17.245764 12.248711
36.657719 -18.804016 12.321354
36.213879 -15.377255 12.101427
36.497017 -17.789673 12.339873
36.385128 -15.33957 12.140961
36.40427 -17.627892 12.17866
40.248829 -17.413677 12.708732
36.584091 -17.948128 12.369458
40.095684 -17.368637 12.600913
38.694771 -17.274105 12.451242
36.290558 -15.638931 12.129772
36.509342 -17.679405 12.35396
36.503532 -18.981182 12.331644
38.809132 -17.423353 12.394917
39.791515 -17.406242 12.409235
36.300644 -17.919521 12.353782
40.266647 -17.401779 12.693769
36.410969 -17.789082 12.339348
38.197651 -17.275366 12.414864
37.794701 -17.273724 12.387423
36.589046 -19.071835 12.327447
38.033978 -17.245665 12.275398
38.060711 -17.311022 12.468239
40.103592 -17.398373 12.427971
40.199188 -17.320364 12.446429
36.39431 -17.704119 12.355356
37.505226 -17.425241 12.315133
40.633995 -17.493801 12.502509
39.0355 -17.497803 12.409491
40.591873 -17.326611 12.481873
40.19725 -17.403219 12.430563
39.698948 -17.35519 12.502828
36.538662 -16.203535 12.341358
40.092232 -17.3176 12.440577
40.401325 -17.264088 12.572226
40.394836 -17.425814 12.506026
38.991123 -17.393545 12.261947
40.22543 -17.483421 12.413983
39.901527 -17.398916 12.412654
36.442848 -16.277185 12.344127
37.201588 -17.401447 12.246481
39.611656 -17.379526 12.563143
36.613808 -17.404512 12.201242
38.399109 -17.275291 12.428648
36.627327 -15.95164 12.349625
39.496597 -17.274864 12.50325
36.90588 -17.402739 12.216783
37.397404 -17.351299 12.359264
40.20549 -17.375313 12.619922
40.202236 -17.292206 12.628205
37.313709 -17.261087 12.287858
38.596996 -17.249699 12.389784
38.103886 -17.273987 12.404805
39.791676 -17.381245 12.572506
39.796974 -17.26548 12.525357
39.094425 -17.273382 12.479318
40.531258 -17.276649 12.657231
40.477924 -17.285393 12.413205
40.304237 -17.384785 12.613764
39.597488 -17.281721 12.339157
36.335068 -15.967114 12.310263
40.294743 -17.421356 12.497042
39.999363 -17.392502 12.420238
40.295067 -17.397135 12.44523
40.598576 -17.269564 12.597914
40.653088 -17.293272 12.418091
37.90704 -17.386425 12.44443
40.686207 -17.255659 12.604473
38.601707 -17.277554 12.446778
36.397186 -18.227524 12.358009
40.668171 -17.302389 12.648571
36.468025 -16.31459 12.310223
36.847511 -17.517229 12.19269
37.691528 -17.251945 12.339149
36.501686 -17.40589 12.186758
36.475075 -19.19013 12.285928
37.398006 -17.421621 12.299309
37.721348 -17.330757 12.498286
37.395653 -17.255709 12.310032
36.501324 -16.390129 12.313807
38.804115 -17.239199 12.413916
39.300034 -17.272661 12.493821
36.683872 -15.35075 12.398914
36.500992 -16.088207 12.348093
36.504463 -15.784749 12.370577
36.603588 -15.34219 12.360373
36.417492 -19.044783 12.322093
40.396927 -17.391973 12.447391
36.684189 -15.54591 12.355198
36.706593 -17.034624 12.365602
36.475529 -15.272446 12.3728
36.617157 -16.074041 12.353124
36.678761 -16.485209 12.34516
36.689137 -15.440329 12.36855
36.662281 -16.929276 12.296401
36.603821 -15.442675 12.359642
36.597038 -18.521933 12.316326
36.414642 -15.3306 12.348206
36.589733 -15.560999 12.355312
36.638 -16.876104 12.285267
36.648777 -18.3013 12.290374
36.601357 -15.595893 12.166025
36.621403 -15.638915 12.348536
36.580914 -17.049747 12.352954
36.37299 -15.266038 12.352818
36.489925 -15.972043 12.308928
38.589466 -17.355774 12.256634
36.604382 -15.316599 12.230022
36.522163 -16.871284 12.264377
36.516705 -19.236481 12.206645
36.86356 -15.431034 12.398867
36.687477 -16.116028 12.368502
36.695011 -18.973881 12.335984
36.724865 -15.400293 12.323124
37.676743 -17.437174 12.407724
37.036377 -15.507659 12.294137
36.602585 -17.744507 12.31252
36.767178 -15.358567 12.398736
36.832108 -17.883047 12.374108
37.33334 -17.444496 12.391953
36.772583 -16.49267 12.343262
36.797939 -17.730356 12.295657
36.788406 -19.160284 12.261342
40.761574 -17.363348 12.556569
36.788891 -18.506006 12.317959
39.101677 -17.257311 12.420236
39.796021 -17.245274 12.455499
36.792194 -15.383021 12.276961
36.716351 -15.635633 12.376122
36.720139 -16.820866 12.371918
39.604588 -17.242521 12.455545
36.7034 -15.330353 12.354774
36.693207 -17.792519 12.336198
37.178764 -17.438332 12.371405
36.656242 -16.335291 12.349761
36.695343 -19.096806 12.358583
36.502869 -19.208342 12.147128
36.589653 -18.093601 12.336044
38.000202 -17.43009 12.4318
36.78867 -19.266794 12.331371
39.507896 -17.249435 12.463986
36.736046 -15.8458 12.355132
36.72546 -15.582398 12.247047
36.398251 -15.554392 12.173555
36.736588 -16.775055 12.341152
36.316818 -15.662354 12.368876
37.40424 -17.44739 12.399676
36.821022 -17.747738 12.350536
36.794788 -19.207703 12.379385
36.737488 -16.206778 12.332222
38.993549 -17.246931 12.412934
37.97752 -17.22694 12.488201
36.520184 -16.86017 12.340046
36.481567 -18.339363 12.346632
39.390133 -17.254559 12.432752
36.725914 -18.313469 12.365991
37.503742 -17.472902 12.236697
36.791809 -19.095879 12.404943
36.493813 -15.989879 12.355014
40.197433 -17.244514 12.482702
36.360504 -16.136745 12.350188
36.393749 -15.869741 12.32161
39.682556 -17.243259 12.45806
36.394642 -16.002922 12.361293
40.830593 -17.28422 12.720383
36.310791 -15.394909 12.164149
36.421204 -15.672855 12.17413
39.893761 -17.359999 12.318424
36.564568 -16.141644 12.301211
36.788208 -16.171404 12.367528
36.791351 -15.388225 12.236074
36.716969 -15.919102 12.338657
36.758053 -15.712934 12.372334
36.538757 -17.792784 12.079564
36.500805 -15.606682 12.20096
37.000584 -17.452265 12.165977
36.633568 -15.410333 12.110613
36.925209 -15.623406 12.228189
36.861942 -16.15662 12.393426
40.198158 -17.233971 12.411076
36.580093 -17.797846 12.337657
36.627319 -17.793907 12.137517
36.737709 -19.085625 12.333869
36.360249 -17.779497 12.279649
36.294289 -17.770947 12.346314
39.807541 -17.306826 12.348825
38.076302 -17.427225 12.441878
37.897762 -17.433422 12.424227
36.231022 -17.878382 12.351473
36.65984 -15.227163 12.368369
36.617191 -15.154216 12.165555
36.799526 -15.54813 12.376067
36.895264 -16.406389 12.297331
37.041763 -15.467522 12.240937
39.082058 -17.454233 12.508248
36.47467 -15.38139 12.093176
36.795418 -15.665244 12.335169
38.897133 -17.416298 12.481279
36.595802 -15.023125 12.186745
36.806992 -15.726694 12.37887
36.803871 -15.546855 12.211614
36.844498 -15.425754 12.391709
36.794041 -16.423916 12.213103
36.799778 -19.144743 12.198453
38.596943 -17.460165 12.453242
36.854977 -16.466825 12.3894
36.981659 -15.396243 12.278234
36.986713 -15.471317 12.390231
36.352371 -17.95244 12.360309
36.904629 -15.5628 12.379375
36.39336 -15.604858 12.194153
38.481392 -17.451622 12.453277
38.330685 -17.482079 12.31298
38.21426 -17.432575 12.435286
38.355591 -17.470812 12.295057
36.351933 -15.697451 12.364305
36.743145 -15.899846 12.392551
36.608284 -15.312032 12.171961
37.190479 -17.380524 12.40232
39.373829 -17.288107 12.324846
39.294521 -17.289558 12.32718
36.908348 -16.496069 12.271042
36.585728 -15.32231 12.160483
38.90855 -17.251307 12.414336
36.515297 -15.556978 12.103569
36.333984 -17.743849 12.170122
39.802742 -17.353182 12.504629
36.190636 -15.631898 12.307833
36.37809 -19.406702 12.149726
36.339565 -17.874893 12.299679
38.499771 -17.271603 12.436508
40.797993 -17.419064 12.520643
40.652287 -17.236343 12.413739
40.709732 -17.42507 12.518831
36.649731 -18.797543 12.370244
38.007988 -17.37105 12.207863
36.186363 -16.69697 12.164055
40.299519 -17.175406 12.52245
37.503189 -17.349943 12.363499
37.794155 -17.25293 12.336975
36.999695 -17.247765 12.271047
40.089771 -17.356224 12.325953
37.558926 -17.221006 12.252942
36.308941 -18.056719 12.134616
38.107937 -17.38903 12.206674
39.085682 -17.313786 12.308537
40.194561 -17.356445 12.342731
39.512539 -17.492546 12.366923
36.483459 -19.292217 12.36541
37.895065 -17.474068 12.224736
40.360283 -17.374525 12.354977
37.108292 -17.288006 12.191668
36.687626 -17.30479 12.159922
36.98093 -17.392746 12.37993
40.26535 -17.357948 12.351261
40.246395 -17.486746 12.30068
36.327881 -16.433712 12.193602
36.387367 -16.41477 12.139049
40.022423 -17.363766 12.344033
36.37009 -16.269522 12.321157
36.442722 -15.779532 12.34388
38.669846 -17.3657 12.262179
36.27504 -16.284704 12.278099
36.596786 -16.833378 12.362771
36.318241 -16.466455 12.289371
37.19788 -17.271894 12.205291
36.116627 -15.386919 12.15962
36.62289 -15.951331 12.368436
38.697407 -17.343349 12.444945
39.538532 -17.482128 12.40837
36.211811 -15.216475 12.157673
36.301434 -15.551304 12.322652
40.500706 -17.407583 12.702604
36.375874 -15.452572 12.359675
36.180744 -15.26871 12.138649
36.304298 -15.448525 12.346165
38.815804 -17.424007 12.485861
36.516918 -15.68304 12.382087
36.30508 -15.319027 12.320772
36.309738 -16.074747 12.35873
36.425159 -15.351809 12.379716
39.710835 -17.464176 12.36308
36.384285 -15.2508 12.406806
36.594967 -16.410076 12.246433
36.202435 -15.486271 12.123972
36.287556 -15.582622 12.126046
36.324429 -17.094584 12.149967
36.379066 -16.507452 12.305375
36.493553 -16.762703 12.193946
36.385075 -15.47244 12.152314
36.235836 -15.378272 12.167589
36.388885 -18.642553 12.340656
38.417984 -17.313761 12.508143
38.0378 -17.264446 12.506669
36.686691 -19.290052 12.384409
38.246117 -17.273493 12.513791
39.886269 -17.464529 12.344962
39.576126 -17.490162 12.4067
38.689514 -17.487749 12.312222
36.338867 -15.224244 12.419846
36.581425 -15.277678 12.410499
36.810547 -15.337343 12.242992
36.386898 -15.649207 12.301369
40.897755 -17.299925 12.686708
36.389862 -18.964518 12.333807
36.696796 -19.19562 12.259915
36.696358 -18.711086 12.379391
36.600285 -18.048704 12.448042
36.572353 -18.184851 12.388717
36.580307 -17.996748 12.340407
36.862312 -18.060394 12.418121
36.576118 -18.097761 12.183045
37.969311 -17.48621 12.260109
37.788204 -17.493124 12.24431
38.102814 -17.489166 12.291098
36.962425 -17.923399 12.22147
36.891857 -17.482428 12.179453
36.293964 -15.648271 12.305055
36.926758 -17.391809 12.142314
36.680725 -17.471924 12.17832
36.130585 -15.473417 12.100544
37.16893 -17.376806 12.165769
36.30307 -15.677042 12.128742
36.406944 -15.718187 12.316721
36.333202 -17.04076 12.289223
39.626427 -17.297924 12.618158
36.334026 -16.869957 12.276615
36.439121 -16.856882 12.324862
36.337353 -16.843027 12.135959
36.449593 -15.314152 12.150946
36.536964 -15.661914 12.341931
36.403122 -17.064934 12.119932
39.773033 -17.294006 12.611362
36.281437 -17.067883 12.100322
36.46347 -15.737041 12.294544
36.408741 -17.019224 12.184497
36.442955 -17.074745 12.324846
36.393291 -18.283108 12.28089
36.402439 -19.087671 12.341314
36.433853 -15.299218 12.147056
36.514648 -15.436842 12.363937
36.897434 -17.161745 12.266458
36.578773 -15.697122 12.386139
39.553341 -17.248699 12.370758
36.910767 -18.043367 12.196102
