# .PCD v0.7 - Point Cloud Data file format
VERSION 0.7
FIELDS x y z
SIZE 4 4 4
TYPE F F F
COUNT 1 1 1
WIDTH 1095
HEIGHT 1
VIEWPOINT 0 0 0 1 0 0 0
POINTS 1095
DATA ascii
-0.75833774 -1.4735819 -0.59272522
-0.080144465 -0.26487279 -0.54415041
-1.2125707 0.16082606 -0.70096827
-0.20137066 -0.79045063 -0.5659427
-1.1710894 -0.53757417 -0.54441607
-0.38933077 -0.52905411 -0.57310498
-0.68107432 0.88111562 -0.57733607
-0.5821386 -1.2927356 -0.69880706
-0.48516908 -0.37452719 -0.59677398
0.78957582 -1.5757929 -0.63964331
-0.32498226 -0.36761099 -0.63903064
-0.94663692 1.7404963 -0.58211696
0.50230742 -1.3841786 -0.57007629
-0.6771093 -1.0025198 -0.70473504
-1.1614232 -0.14660934 -0.78067768
-0.38511667 0.36684775 -0.58218765
0.11249733 -1.3667784 -0.61039782
-0.90782219 -0.71712124 -0.57903212
-1.2889915 1.2121582 -0.59254056
0.12446719 -1.4782643 -0.6079706
-0.28725636 0.1303495 -0.57287031
-0.87035602 -1.1514747 -0.57084519
-1.175312 1.8474394 -0.53699368
-0.69487053 -1.4162643 -0.5926528
0.017523348 -0.40553272 -0.57386088
-0.56849349 0.68041927 -0.55487561
-0.98398185 -0.46093217 -0.72586268
-0.77400529 0.2337904 -0.58307725
-1.3854558 0.13803667 -0.58160186
-0.71136993 -1.2527368 -0.57316142
-0.8915382 -0.94012868 -0.5645839
-0.48202568 -1.2896081 -0.72542506
-0.59513801 -1.2676635 -0.57676697
-1.2883859 -0.2151535 -0.55894923
-1.3228297 0.14323753 -0.5767284
-0.41961724 -1.2931805 -0.71848631
0.17851377 -1.4498636 -0.62414986
0.22382712 -1.4243735 -0.59248847
-0.51191938 -1.3146468 -0.56266397
-0.48823601 -1.3886876 -0.5664053
-0.40477192 -1.2475129 -0.7010482
-1.0146104 -0.68603897 -0.55544317
-0.3037681 -0.62445086 -0.59103423
0.47536433 -1.1740456 -0.56709027
0.20928222 -0.73274809 -0.57412541
0.087500632 -1.2858642 -0.59777671
-0.12468266 -0.87003267 -0.58303255
-0.31433058 -0.5245111 -0.61618418
-0.31950295 -0.54665494 -0.57298309
0.0082812309 -1.1696646 -0.58998466
-0.89687312 -0.88461572 -0.56284654
0.27130342 -0.85405022 -0.56562579
-0.31133255 0.23378229 -0.56227827
0.21122235 -1.4815489 -0.5903942
-0.19620383 -0.7386474 -0.58535057
-0.3973695 -0.41216299 -0.59777272
-0.024791658 -0.2371348 -0.55149472
-0.50529969 0.65350348 -0.57050806
-0.36594322 -0.26401979 -0.56500429
0.19603348 -0.62736249 -0.56653416
0.22752231 -0.7783941 -0.55314541
-0.43748528 -0.78123814 -0.59114838
-0.47573286 0.54205191 -0.55545306
-0.4113569 -1.2555637 -0.59840721
0.34670091 -1.2761223 -0.65215051
-0.49607399 -1.2709959 -0.58647531
-0.2025857 0.11607132 -0.5714767
-0.38617444 -0.15146182 -0.52270222
-0.53820693 -1.2654227 -0.47723418
-0.70302761 0.379264 -0.5268907
-0.054848611 -0.76678258 -0.67031181
0.08828342 -0.42343611 -0.57450926
-0.6559301 -1.4624766 -0.58972108
-0.0070149899 -0.050590947 -0.6086061
-1.4482204 0.69871736 -0.55708224
-1.4500782 1.5402249 -0.74767965
-1.2093786 2.1023054 -0.52563643
-0.38530427 -0.87519008 -0.74730241
-1.3016644 1.3969033 -0.57722765
0.55191898 -1.4413761 -0.61331254
-0.11556023 -1.0574417 -0.69635737
0.20467734 -0.85241115 -0.57257444
-0.029600978 -0.55131352 -0.57071507
-0.69600332 -0.38719255 -0.55972201
-0.068468332 -1.4941007 -0.6711244
-0.70662117 0.30853963 -0.57203043
-0.31789839 0.34747306 -0.57848412
-0.61066699 0.89427412 -0.57792646
-0.81355792 1.3506163 -0.48819888
-0.72528636 -0.48237857 -0.61820632
0.73620248 -1.7311478 -0.64201784
0.50227332 -1.3650268 -0.59418881
-0.097743511 0.26297104 -0.58916318
0.459391 -1.2376208 -0.6362347
0.085823298 -0.5164125 -0.58598411
-0.32520163 -0.7858687 -0.56183976
0.68993771 -1.5562787 -0.64817315
0.018836856 -1.2664651 -0.60974479
-0.019940495 -0.51975858 -0.60434306
-0.20138079 -0.73451215 -0.71006179
-0.098952055 -0.20368476 -0.58633024
-0.30457792 -0.7079981 -0.59714496
-0.30226445 -0.060936864 -0.62493747
-0.28687358 0.034847692 -0.58882707
-0.21800983 -0.79706514 -0.75102973
-0.022220373 -1.1364381 -0.73262012
0.5932709 -1.4944675 -0.59574938
0.52625906 -0.524243 -0.57843816
-0.10351914 -0.8454327 -0.73795545
-0.0015393496 -0.31942105 -0.56402993
-0.3252266 -0.56065983 -0.72794259
-0.27405381 -0.49154046 -0.71334481
0.98021042 -1.5225916 -0.54641223
0.66288948 -0.88708913 -0.56522167
0.49479818 -1.2702955 -0.58008504
0.27698624 -0.94439912 -0.59271425
0.10383248 -0.63779199 -0.57965821
-0.096927106 -0.31128842 -0.57803088
-0.3903766 -0.5538677 -0.71517253
-0.18157947 -1.1351465 -0.72368914
-0.09517616 -1.3001419 -0.57038921
-0.89020193 1.3948539 -0.54814219
-0.2670489 -0.97974849 -0.64619398
-0.031445861 0.31088516 -0.54683787
-1.2929387 0.83219385 -0.49811122
-0.51123983 1.2946628 -0.53609991
-0.52210492 1.3773952 -0.53067458
-0.41313183 1.3091353 -0.55194092
-0.6214149 1.6154971 -0.53975397
-1.2310419 2.128845 -0.55755246
-0.66916305 -0.52585083 -0.76882976
-1.3733155 -0.11013072 -0.54578787
-0.71072602 1.1996827 -0.57323796
-1.3231592 1.4644705 -0.57664686
0.60511816 -1.3935205 -0.55196929
-0.41212571 -0.28726894 -0.6175915
0.28322268 -0.32450321 -0.59214479
-1.27562 0.10035599 -0.7245388
-0.53233433 1.4675946 -0.56414998
-0.12787223 -1.0526515 -0.74831575
-1.2033551 1.0789381 -0.57910877
-0.74782741 1.7895961 -0.56938553
-0.23235744 -0.1198718 -0.64591074
-1.0889868 -0.15021245 -0.73861903
-0.32178384 0.306409 -0.55563277
-0.1035006 0.049118187 -0.58324802
-0.19640082 0.040187374 -0.58303505
-1.1452855 2.0617385 -0.57689691
-1.2635497 2.1775191 -0.56630236
-0.99800372 1.6987103 -0.5429312
-0.11644453 -0.095802471 -0.56879294
-1.0802441 1.7114819 -0.53501379
-0.19208682 -0.86113238 -0.58875322
0.6744194 -1.6598501 -0.54236418
0.46544123 -1.4896938 -0.57123661
0.81455052 -1.1104845 -0.54267353
0.78990912 -1.1408365 -0.56552255
-1.3330494 1.0618123 -0.49663141
-1.5237699 0.85821909 -0.56122351
0.86461198 -1.0807546 -0.60311198
0.76869714 -1.086832 -0.56825578
0.33261728 -0.95442653 -0.63843125
0.0015938282 -0.84635597 -0.57686806
-0.19523799 0.33866498 -0.57982641
0.84591758 -1.2096721 -0.56563473
-0.14138573 -0.89737076 -0.65483791
0.2127651 -0.91733152 -0.63241893
-1.3680652 0.82117963 -0.71489704
-0.39346108 0.33435988 -0.55130225
0.44192505 -0.94013274 -0.61821252
-0.11247808 -0.9459874 -0.59492618
0.87727416 -1.1259173 -0.60735327
0.26528573 -0.83230966 -0.58881128
0.40411341 -1.1420343 -0.61611474
-0.86863583 1.4379833 -0.57634085
-0.06372124 -0.3815673 -0.64359105
-1.368131 0.1646436 -0.55648488
-0.83917457 -0.46770379 -0.58690745
-0.42072484 -0.32709223 -0.58792251
-1.3977156 0.86615908 -0.69287717
-1.3622025 1.4336784 -0.55845541
-1.2874501 0.74659204 -0.49716154
-1.0994647 1.7998937 -0.51939511
0.3826741 -1.0744776 -0.55257094
-0.62050068 1.2743604 -0.55284107
-0.47896257 -0.30926219 -0.58510381
-0.98129201 1.5095055 -0.53085893
-0.41120148 0.79703832 -0.60819662
-0.62581885 1.1959292 -0.57061303
-0.80839413 1.2946854 -0.56126291
-0.99878514 1.3919311 -0.54336524
-0.18893504 -0.34187126 -0.64536387
-1.4001579 -0.0099027939 -0.56899375
-1.1060356 0.83097702 -0.74621582
-1.6163197 0.74337894 -0.56317425
0.87069488 -1.3629185 -0.57988405
0.41996062 -1.1793889 -0.5734216
-1.0884788 1.832113 -0.56143051
0.9891448 -1.3550607 -0.60173923
-1.2768279 -0.30356929 -0.56270373
-1.076957 1.6229441 -0.55099452
-1.0070082 1.7485929 -0.57474923
-0.99125552 1.6076231 -0.5536291
1.0282438 -1.2873012 -0.59436524
-1.5132053 0.60623193 -0.56503189
0.011025429 -1.2328194 -0.68915009
0.39250004 -1.2685114 -0.59289515
0.58377111 -1.2600774 -0.57852727
-0.00051730871 -1.4703612 -0.6769641
0.6892978 -1.3627225 -0.58034015
0.60054636 -1.350383 -0.58539325
-0.22025043 -1.2902369 -0.57542658
0.10509974 -1.7783102 -0.68773419
-1.0097015 -0.14520715 -0.54037875
0.19681984 -1.2738178 -0.59887445
-0.02036798 -1.5519322 -0.71529764
-1.2936989 -0.14141592 -0.54881525
0.29305506 -0.74899477 -0.57165915
-0.98836416 0.63622576 -0.56359243
0.09270364 -1.5402235 -0.7093581
-0.18193758 0.0028510524 -0.55675668
0.49206305 -0.73380917 -0.57102281
-1.0068954 0.75403738 -0.58590466
-0.92741585 0.14907905 -0.59442186
-0.90004897 0.52678823 -0.57920581
-0.59009391 0.12580143 -0.60126668
-1.1854305 0.51184279 -0.72017056
-0.98739129 0.65766746 -0.59677643
-1.0761732 0.77625251 -0.57942033
-1.2150296 0.088345535 -0.7304756
-1.4686725 0.74185568 -0.55440712
-1.4203954 0.45313925 -0.56205595
0.13048476 -1.1095514 -0.56912601
-1.304234 0.79095536 -0.7111513
-0.70864677 1.0730621 -0.5552308
-1.1971933 1.2022187 -0.60344601
-1.2800046 1.3071221 -0.58595639
-1.3016133 1.0361586 -0.73168868
-1.2833778 0.89231503 -0.72703671
-1.4676584 1.5554923 -0.74739945
-1.2277229 1.5032998 -0.69484329
-0.99557781 0.058108956 -0.76227278
0.59170103 -1.0491216 -0.5825302
-1.1735206 1.9187664 -0.53989518
-0.64486051 0.15781593 -0.7197271
-0.57408196 -0.91156697 -0.68541241
-1.4911547 0.18336178 -0.54209244
-1.57693 0.87664419 -0.56053597
-0.42972234 0.11889687 -0.59086978
-1.0643716 -0.00061006524 -0.72954953
-0.93830663 0.79882288 -0.68758649
-0.81707954 0.7367779 -0.57531977
-1.1021404 1.2860843 -0.57075834
-1.3292692 0.73216456 -0.57110566
-0.019679844 -0.63539839 -0.58467591
-0.33325779 0.27665511 -0.59547526
-0.71826881 1.380012 -0.54153001
-0.41292122 0.53347272 -0.56288111
0.31059682 -1.4235536 -0.58329183
0.21015924 -0.82416666 -0.60035789
-0.31571105 -0.20080285 -0.59842104
-1.2087251 1.4388576 -0.71297413
-0.31060934 0.39844939 -0.52338606
-0.10619503 -0.63625222 -0.58671659
0.48811579 -0.8204397 -0.58168167
-1.2121774 -0.3244693 -0.56202662
0.65751505 -0.92895842 -0.60166061
0.79661655 -1.554075 -0.50966138
-0.13860393 -1.0812031 -0.55180275
-1.5922087 0.3979899 -0.57119137
0.028199017 -0.79118633 -0.56463242
-0.42106342 -1.1673768 -0.55794072
-0.87293041 -1.055845 -0.56127006
-0.20510006 -1.0464393 -0.54749727
0.18191731 -0.96507192 -0.60118568
-1.2488959 0.75745064 -0.75836647
-1.1791441 2.0124938 -0.53637445
-0.52245545 -1.1842586 -0.56243169
-0.38758329 0.58163625 -0.58774495
-1.1559941 1.4047964 -0.71622926
-1.3095343 1.2188135 -0.74376577
0.68011928 -1.5580997 -0.51504153
-0.12300885 -0.5335961 -0.56488961
0.28437006 -0.77198857 -0.55218208
-0.11836159 -1.252048 -0.68999743
-0.3041198 -1.3014977 -0.5813629
-1.1085919 1.3825976 -0.55666739
0.19805276 -0.41182223 -0.57013744
-0.42554468 -1.0164814 -0.61047447
-0.7024684 1.2933128 -0.55539286
-1.1171516 -0.13734409 -0.53988248
-0.96678829 1.5202069 -0.55316526
-1.1943209 0.92218637 -0.74428749
-1.2264483 1.3748009 -0.57763201
0.60947323 -1.1455731 -0.59269714
-0.63240892 0.5488283 -0.5648998
-0.86406708 1.2872947 -0.55067968
-0.5651989 -0.23575783 -0.57771391
0.013947666 -1.4515554 -0.7622748
-1.3704317 1.8523657 -0.57140195
0.092297792 -0.95171428 -0.59640425
0.19735187 -1.3302382 -0.61567551
-0.60761613 -0.17153442 -0.71408814
-1.0067143 1.7973576 -0.51923233
-0.90754658 1.8015302 -0.51189351
-0.29771796 -1.307043 -0.71364814
-0.71459913 0.52978635 -0.57373208
-0.61713564 -0.86378592 -0.5568893
-0.63075602 0.062225495 -0.73704422
-1.0816205 2.1176341 -0.46176857
-0.020756543 -0.73282683 -0.5918811
-1.0070714 2.1190078 -0.49670562
-0.68982762 -1.0737789 -0.56001997
0.79736137 -1.4024343 -0.55954266
-0.48672986 0.58501351 -0.58348161
-0.49599206 -0.19880262 -0.60175031
-1.3369174 1.8151962 -0.56552392
-0.52227634 0.2095909 -0.58706278
-0.71248293 1.5877492 -0.52694553
-0.53340632 0.30250442 -0.56202787
0.57583618 -0.86313343 -0.55629498
0.89988732 -1.6761794 -0.56398815
0.37347615 -1.3765072 -0.60337669
-0.1217466 0.42981997 -0.55604899
0.69435704 -1.4794831 -0.56895751
-1.3367985 1.4846647 -0.60346305
-1.0151777 1.19216 -0.58274364
-1.4093683 0.21247688 -0.56791705
-0.61045039 -0.06150917 -0.68554479
-0.73566401 -0.21826236 -0.62439448
-0.7330175 -0.94730908 -0.48058128
-0.1980319 -0.45804787 -0.53408217
-0.29629448 -1.039513 -0.63840103
-1.1254551 1.1306961 -0.72863775
-0.20497423 -1.3062905 -0.7204864
-0.12544781 -0.28316686 -0.61363977
-1.2146595 1.5995542 -0.56197745
-1.42256 0.29998431 -0.56800133
-0.61675489 -0.70638281 -0.71737409
-0.53320622 0.23777278 -0.62106204
-1.4152019 1.8845118 -0.76389533
0.15278184 -1.2001518 -0.63842231
-0.62207174 -0.53882283 -0.75017017
-1.0067831 2.1431873 -0.52421069
0.4012053 -1.0420427 -0.5820657
-1.6318212 0.70786375 -0.56038171
-0.56297648 -0.43752077 -0.62935501
-0.83546942 1.8066722 -0.54773736
-1.0908478 0.85388535 -0.57250804
0.1907528 -1.0534453 -0.59620762
-1.0072252 0.15292664 -0.60002536
-1.0483164 1.0003077 -0.70467335
-0.6309166 -0.62189078 -0.72229213
-1.3777393 1.7843359 -0.72753239
-1.3889796 1.9312227 -0.55284214
-0.91234118 1.4961822 -0.53185982
-0.6202119 1.3765334 -0.52214563
-0.81416875 0.21056879 -0.74112993
-0.49053654 -0.58383888 -0.69464576
-1.3251386 1.8017969 -0.53971195
-0.80712366 -0.20550944 -0.60021228
0.66332412 -1.0598462 -0.57831001
0.38459921 -0.57427913 -0.59235078
-0.30056357 0.54110974 -0.55694783
-0.67972636 0.086443894 -0.56508791
-0.92830735 0.074032761 -0.812379
-0.91546744 0.19870049 -0.7865119
-1.0017031 -0.21855502 -0.55116451
-1.0418875 2.095777 -0.42183957
-0.67500246 -0.24389973 -0.68453616
-1.091463 0.88312912 -0.63362497
-0.83555657 -0.50222552 -0.63327658
-0.11137837 -0.59693509 -0.62197018
0.3019284 -0.58098739 -0.59339875
-0.40385765 -0.5897209 -0.69782746
-0.20711851 -0.92612773 -0.67984784
-0.72577971 0.73891938 -0.55947536
0.065978467 0.10842313 -0.56373358
0.079093993 -0.72346765 -0.60074621
-0.31853262 -0.6889987 -0.70636594
-1.1055962 0.47631174 -0.60334653
-1.228637 0.86281401 -0.68233424
-1.1921692 1.5540195 -0.52703732
0.37653971 -0.51968181 -0.57614344
-0.43841833 0.20292243 -0.59441268
-0.7138257 0.648395 -0.58466142
-1.0064083 1.2679788 -0.56141287
-1.0282111 2.1840632 -0.4848434
0.29556715 -1.0417111 -0.60333562
-0.53179079 -0.15923746 -0.71926349
-0.92536855 1.063169 -0.56367624
-0.0039325356 -0.27134949 -0.59654969
-1.087859 2.2562172 -0.52448875
-0.8091144 1.7824579 -0.50117314
-0.49293095 0.61016601 -0.54338658
0.46976185 -1.1413422 -0.60119027
-1.3947819 1.0014396 -0.7293945
-0.49488831 -0.28721106 -0.64157492
-0.90851355 1.8946197 -0.48404792
0.35182154 -1.4056427 -0.58199596
-0.62341088 1.4756826 -0.52084047
0.78980994 -1.5963415 -0.57429367
-1.7430177 0.68548447 -0.5561282
-1.1413593 0.35772556 -0.52169466
0.29030132 -1.3543359 -0.60594827
-0.097372055 -1.0373385 -0.60152829
-1.5075419 0.6372447 -0.59759617
-0.42680252 -1.1428955 -0.5006904
0.69999731 -1.2734897 -0.56950146
-1.0149224 2.2103374 -0.50139898
0.18997914 -0.2847302 -0.58501512
-0.5116486 0.75281215 -0.56338316
-1.2036612 0.36826494 -0.52975947
-0.902547 1.909726 -0.51899517
-0.9361223 -0.1706589 -0.59406734
-0.58341002 -0.76287651 -0.74572194
-1.3066435 0.64201999 -0.66098279
-1.2001688 -0.1259477 -0.54663146
0.094565749 -1.1308221 -0.61926961
-1.3035772 0.6274448 -0.53815341
-1.1965649 0.82420957 -0.75325447
-0.12189275 -0.51980233 -0.60247439
0.87600505 -1.6742369 -0.59124643
-0.65545511 0.37369049 -0.55880827
-1.0308499 1.9099995 -0.54134303
0.4859004 -1.5671986 -0.65330875
-1.412274 0.84582037 -0.54189312
-0.92871898 1.1621871 -0.5456261
-0.90869498 1.6431438 -0.47513366
0.084594727 -1.4720693 -0.65964663
0.3001169 -1.4441853 -0.61344427
-0.98647428 1.8763403 -0.49664065
-1.418649 0.61892962 -0.62737864
0.7355231 -1.4309307 -0.59900266
-0.39960274 -0.49416527 -0.62456644
-0.51291907 -0.74083728 -0.62933993
-0.6220758 -0.94461209 -0.58325905
-1.392797 1.8949463 -0.71594757
-0.92444772 0.69426137 -0.71085447
-0.28926593 -1.0767654 -0.73313212
-1.0071008 0.2736353 -0.53062785
-0.13245267 -0.42958263 -0.59411144
-0.014107823 -1.1379912 -0.61765629
0.11327803 -0.2833606 -0.59137303
-0.51272929 -0.80920392 -0.68220699
-0.63085252 0.06660109 -0.57027102
-0.22139615 -0.24749285 -0.55859834
-0.8045646 0.33953673 -0.60857391
0.095204413 -1.1710591 -0.59104419
-0.7237289 -0.23073421 -0.81365907
-0.82904428 1.6640687 -0.47596499
-0.90660721 0.56790227 -0.64514804
-0.80181956 -1.1850661 -0.5621438
-0.79466194 -0.15493295 -0.79874772
-0.9101721 -0.20042104 -0.80824083
0.50865436 -0.94554728 -0.5757212
-0.33414051 0.84147686 -0.53855431
0.70358229 -1.6948951 -0.61534172
-0.92942411 -0.12964617 -0.53166741
-1.0020783 0.87473166 -0.61844301
-1.1241485 0.3050026 -0.5409885
0.68465185 -1.6034993 -0.56326729
-1.0980914 0.37830302 -0.74114591
-0.88484037 0.36025992 -0.64516234
0.80804038 -1.6665583 -0.53115416
-1.0121735 1.8164248 -0.56053376
0.0038436651 -1.0393107 -0.59599757
0.59943902 -1.0911127 -0.55258906
-0.49056387 -0.77253687 -0.74584675
-0.60817605 -0.27466124 -0.69488931
-0.40507647 -0.40375102 -0.70156354
-1.0078865 0.56142479 -0.68946314
-1.0122881 1.0614171 -0.5733977
-0.32612011 0.63430434 -0.53777653
-0.2105127 -0.82309377 -0.63656515
-1.2791536 0.56430668 -0.50586236
-1.0364549 -0.062231362 -0.53014237
-0.60816842 -0.47384578 -0.73000026
-0.7232883 0.25074574 -0.66331267
-0.41324919 -1.006941 -0.71208787
-0.91562581 0.65640152 -0.60382205
-1.2737319 1.4727013 -0.7446022
-1.1001871 -0.23345307 -0.55047309
-1.1059716 1.1785412 -0.59837639
-0.0048698187 -0.8204267 -0.60564417
-0.81847489 -0.22453365 -0.54927933
-1.2303454 0.61628258 -0.52318758
-0.025041997 0.074519351 -0.53811508
-0.21027994 0.56399608 -0.59046042
-0.24312556 0.61526048 -0.53381991
-0.72610343 -0.47886312 -0.55138075
-0.72487622 -0.78596127 -0.62920821
-0.79242903 1.1676897 -0.53959399
-0.40605274 -1.0467964 -0.5493077
-0.5282141 0.3306292 -0.60417223
0.8791995 -1.3867357 -0.54887134
-0.7281822 0.16460653 -0.71221513
-0.9118185 -0.013530515 -0.54493952
-1.0979936 1.7630585 -0.57231122
-0.80233085 0.25657311 -0.68628162
-1.1197683 1.011611 -0.71937537
-0.30515069 -0.30901247 -0.58221054
-1.018523 0.86222345 -0.57727152
-1.2042347 0.70934236 -0.73744452
-0.83129942 1.8851364 -0.48341921
0.47846365 -0.91089398 -0.61290616
0.18463111 -1.1259074 -0.61094445
-0.51508671 -0.54829806 -0.73285323
-0.80306011 -0.17488033 -0.71878648
0.39535534 -1.455815 -0.61876231
-0.60390925 -1.1901548 -0.56087065
0.80077076 -1.4861031 -0.56548804
-0.58847028 -1.291979 -0.56431711
-0.50937504 0.12037326 -0.59148413
0.15740377 -1.0972955 -0.57442915
-0.094485343 -1.2277716 -0.76225942
-1.1031857 -0.36463112 -0.54515469
-1.3260915 1.86357 -0.52463228
-0.38902709 -1.2828184 -0.54920644
0.69563746 -1.6160296 -0.52037513
0.6898694 -1.2108594 -0.60504568
-1.1042008 0.34771913 -0.66673374
-0.49633437 -0.23628007 -0.56944823
-0.79035509 -1.0686476 -0.56390488
-0.23775184 -0.28959039 -0.61170137
-1.292357 0.37432551 -0.55315042
0.78802299 -1.6160885 -0.51246661
0.10719061 -1.0378875 -0.59482974
0.880898 -1.4993861 -0.56688845
-0.48831117 0.0054264758 -0.57485491
-0.33159715 0.74384415 -0.55208814
0.28871977 -0.32450354 -0.56247538
-0.91185367 0.46494752 -0.72105992
-0.89145249 1.5766451 -0.5089553
-0.68804771 0.98204726 -0.56150436
-0.80630898 1.690763 -0.52087826
0.07803309 -1.6266274 -0.72305858
-0.72314757 -0.51411623 -0.55394071
-0.007175982 0.026658803 -0.58340371
-0.69503361 0.9568845 -0.53262711
-0.8207739 1.4386994 -0.58000493
-0.51583612 -1.0597456 -0.55230325
0.77211118 -1.1518306 -0.58850902
0.17831856 -0.23845513 -0.54750019
-0.99317282 -0.071401767 -0.53459102
-0.70610583 -0.050775811 -0.70960253
-0.22274357 0.52248156 -0.55371439
-0.90487367 0.17658982 -0.73348886
0.27528048 -1.1393471 -0.60663146
-0.23559648 0.65059346 -0.56185246
0.7840749 -1.3699232 -0.58406281
-0.19017935 0.38560608 -0.53431052
-0.43406177 0.87784898 -0.58647025
-0.91296697 1.6093688 -0.5507372
-0.91286153 -0.1085934 -0.57282841
-1.4544878 1.1716626 -0.69044268
-0.91038239 0.075083643 -0.53681827
-0.54653496 1.1911527 -0.57199985
-0.29525912 -1.309913 -0.54652125
0.49902821 -1.617957 -0.53122813
-0.70284945 -1.0045841 -0.56107521
-1.1137948 -0.33267081 -0.56217098
0.59068131 -1.6096059 -0.57339871
0.2879523 -0.51015311 -0.57896757
0.085290074 -0.099930435 -0.56803137
0.066388905 -1.6698501 -0.65267634
-0.61864138 -0.99915421 -0.55477297
-0.80929917 -0.53502744 -0.55049616
-0.80015796 0.064040318 -0.72908616
-0.42402858 0.84203917 -0.54841596
-0.98921907 0.15828714 -0.71915811
0.76771152 -1.2766068 -0.56270367
-0.80298036 0.16496371 -0.72284514
-0.71951753 -0.86982232 -0.55808222
-0.5394671 -1.1161222 -0.47881126
-0.50793803 0.43587491 -0.55722189
-0.80448925 0.62662607 -0.56069255
-0.98373032 -0.1939853 -0.8153668
-1.1053867 1.1646613 -0.56112742
0.6152631 -1.1682749 -0.56711334
-0.6676631 0.84316909 -0.54929209
-0.4969185 0.85318428 -0.54924208
0.89280975 -1.2467989 -0.56495023
0.18928087 -0.21291411 -0.57678759
-0.42659521 0.020174529 -0.60748124
-0.63927996 -0.90835273 -0.52905566
-1.0188049 0.91660833 -0.71617866
-1.1124971 -0.0064817811 -0.54374433
0.079790413 -0.86590236 -0.57479662
0.29904735 -1.6219171 -0.54083037
-0.59444672 -1.2292118 -0.54785526
-1.1950247 0.22280164 -0.56008434
0.020405769 -0.90175319 -0.61929709
-0.02216208 0.11898313 -0.56848717
-0.11405891 -1.3132323 -0.722691
-0.79920977 -0.45960504 -0.72437698
-1.1105121 0.2138958 -0.5548352
-1.2053972 -0.015133612 -0.54630381
-0.90701115 -0.22584715 -0.543957
-0.30469906 -1.2469137 -0.68946195
-0.31139824 -1.0456474 -0.54357982
0.58191657 -0.96481466 -0.56894046
-0.3999078 -0.7696631 -0.72846049
-1.0817941 1.2548096 -0.53643632
-0.57928473 -0.67727238 -0.55711812
-0.81647372 0.28899604 -0.73224092
-1.3133006 0.085739292 -0.56109434
-1.207021 1.4183942 -0.67118412
-1.2079946 0.3100087 -0.55519176
0.88717568 -1.5930414 -0.58064014
0.58646464 -1.615036 -0.52769279
-0.11023736 0.2166615 -0.56371218
-1.1802155 1.4942311 -0.54147786
0.10827738 -0.23234664 -0.54791659
-0.50469524 -1.011314 -0.54180789
0.192487 -1.606011 -0.58079123
-0.72195059 0.56720656 -0.61085808
-0.93858844 -0.31146744 -0.54467928
-0.9378131 -0.37031671 -0.53009504
0.013005674 -0.94403613 -0.59258145
-0.3098532 -0.23605371 -0.56572807
-1.0126317 -0.37675613 -0.53932661
-0.70554131 0.44181409 -0.58697373
-0.61818886 0.31656793 -0.5643478
-1.0150739 -0.3237921 -0.55021852
-0.78387082 0.92710382 -0.56521809
-1.0185342 0.8116309 -0.73662764
-0.29893094 -0.28402951 -0.61760038
-1.0060344 1.1671737 -0.55060518
-0.20828378 -1.1366392 -0.67923295
-1.1972697 1.3161373 -0.70387536
-0.20024157 -0.62349159 -0.5912444
-1.2103139 0.073341876 -0.55015999
0.18991172 -1.1633588 -0.58794731
0.29846656 -1.182902 -0.59555054
-1.0977155 0.068151228 -0.55357641
-0.8975085 0.76006103 -0.58327967
-0.11414713 0.30359879 -0.54643106
-0.79343295 -0.068227097 -0.71145201
-0.80945528 0.5687117 -0.61290365
-0.5143007 -0.47546649 -0.71878946
0.48308635 -0.85493511 -0.56407106
-1.1073247 0.068849996 -0.72941214
-0.40451401 0.75443977 -0.55705208
-1.1376114 1.2279862 -0.70815438
-1.002062 -0.44431812 -0.54927719
-0.61213112 1.1599113 -0.53664714
-1.0000577 -0.53896904 -0.56095374
-0.99847567 1.9968598 -0.44656917
-1.2886212 1.5973905 -0.75178331
-0.20603561 -1.2165514 -0.69464046
-0.29867342 -0.40465105 -0.60049266
0.49509001 -1.5970643 -0.5787673
-0.38579985 0.69425017 -0.52580297
-0.2144196 -0.32750329 -0.57801569
-0.79565012 0.54945326 -0.58144236
-0.60638362 -0.75778389 -0.55410284
-1.2653627 -0.33705366 -0.52983028
-1.103429 0.98441952 -0.60035974
0.47880912 -1.0823202 -0.54442608
-0.18444836 -0.54551721 -0.56814384
-0.91774893 -0.17894369 -0.7165513
0.59011602 -0.8375662 -0.59317929
-0.98316717 0.93975818 -0.54862255
-0.81956118 -0.63878047 -0.56364578
-0.5098961 -0.76642251 -0.54181677
-0.94064617 0.73141551 -0.77643937
-1.0172999 0.059247945 -0.54061967
-0.5011757 0.88390493 -0.58071542
-0.81772161 -0.46919283 -0.54932535
-0.73361754 0.28996918 -0.75039065
-1.4100436 0.54338157 -0.57077891
-0.10028636 0.12969317 -0.56784749
0.40208411 -0.94710392 -0.5780316
0.10450041 -0.31503722 -0.55835265
-0.6158796 0.33791178 -0.60500181
-0.52450073 -0.50178295 -0.54187429
-1.3020635 0.21473201 -0.56168365
0.37975836 -0.63760376 -0.56456107
-1.1925451 1.5040214 -0.57325977
-1.0253494 -0.17649311 -0.71839607
-0.80879092 1.5115424 -0.56044638
-1.105099 0.78606689 -0.71076512
-0.81626236 1.248342 -0.52405816
-0.51922476 1.1566567 -0.53070092
-0.40488979 -0.47617266 -0.71092844
-0.61795563 -1.0815821 -0.55370259
-0.73649788 -0.22153562 -0.55106932
-1.1791565 0.9731887 -0.59921056
-0.59888864 0.22664435 -0.58754051
-0.70260257 -0.64480412 -0.54361659
-1.0867082 0.74186212 -0.75857884
0.3659848 -1.5556552 -0.65715003
-1.1107011 0.91570252 -0.73045564
-0.68903464 0.037514042 -0.64904666
-0.19345915 0.32632968 -0.54325587
-1.1019107 0.49701795 -0.72617412
-0.70136303 1.1712818 -0.54114199
-0.61165798 0.25314552 -0.62029731
-1.1906343 1.1619377 -0.56542188
-0.49341872 -0.70501411 -0.72633594
-1.1112261 0.18364918 -0.5383752
0.39410734 -0.41553405 -0.57918882
-0.42515171 0.9816823 -0.55567008
0.28307176 -0.54690951 -0.55571848
-0.70085442 0.34646049 -0.60421133
0.28551304 -1.2738059 -0.59749687
-0.90544492 -0.75928921 -0.55902886
-0.81030208 -0.93881071 -0.57442415
-0.6081003 -0.077761702 -0.59543675
-0.50107872 -0.050495315 -0.6327334
-1.2146822 0.98194945 -0.77085161
-1.2043841 1.0210882 -0.72719133
-1.0096021 0.96890849 -0.58800048
-0.98989576 0.26314196 -0.70589727
-0.90153551 0.37805724 -0.72353882
-0.90410936 -0.54544508 -0.55029261
0.2038486 -0.49685156 -0.58689457
0.39362419 -0.72421753 -0.57103175
0.39533997 -0.78479141 -0.54762548
0.67390013 -1.1003182 -0.54912049
-0.40670824 0.66425383 -0.57186413
-1.4152874 2.0151005 -0.54115111
-0.69243973 -0.70896918 -0.72403401
-0.39583462 0.63914937 -0.53968543
-0.9139964 0.95464814 -0.58205169
-1.0200541 0.78954679 -0.70739025
-0.10321236 -0.72863495 -0.60167938
-1.0038929 0.51568699 -0.74776006
-0.25386763 -1.0579215 -0.68407345
-0.38369268 -0.82596761 -0.69230181
-1.0135827 -0.63819915 -0.56602323
0.82058001 -1.4534013 -0.60068071
-0.28812447 -1.0100347 -0.71684045
-0.70005 -0.15731552 -0.72236699
-1.2215792 0.8186239 -0.68773758
-1.3946625 0.35678086 -0.68765002
-1.0024719 -0.0012184163 -0.54627228
-0.38162437 -0.054081216 -0.62600797
-0.42830268 -0.76871067 -0.54492086
-0.79999614 -0.35872391 -0.54131645
-0.38068736 -1.3467133 -0.55594814
0.68052804 -1.1755677 -0.55896026
-0.80987066 0.65765905 -0.59066266
-0.69290859 -0.4023152 -0.72350091
-0.2807337 -1.3338965 -0.66380984
-1.2915871 1.5616455 -0.71628588
0.077937603 0.025372567 -0.58554846
-1.0318601 1.2548279 -0.5369941
0.084012628 -0.83506721 -0.60140508
-0.19191706 -0.50227046 -0.60065913
0.18431592 -0.31687978 -0.56215096
-0.33703098 -0.78389126 -0.73367071
-0.22176063 -1.2297666 -0.76306337
-0.12904215 -0.82134575 -0.60752577
-0.18329233 -0.5874896 -0.61755913
-1.2382389 0.79635054 -0.47995326
0.19337499 -0.55702215 -0.56744903
-1.3294804 0.90388465 -0.52006823
-1.0201312 0.72828841 -0.76531851
-0.69325656 -0.93629324 -0.57424819
0.39185512 -1.6212292 -0.53778732
-0.80943745 -0.8749705 -0.56503052
0.39165783 -0.85312182 -0.55935448
-1.1749072 0.17125604 -0.53180653
-0.12379384 -1.147099 -0.70095992
0.48953557 -1.0445303 -0.57977265
-0.70209855 -1.1782192 -0.56442875
-0.92549884 0.62676865 -0.56340075
-1.3981762 1.3157557 -0.73711193
-0.89149892 -0.97462946 -0.55509919
0.6689446 -0.94838291 -0.57433319
-0.81756675 -1.0048554 -0.55864704
-0.89134449 0.25514352 -0.70401824
-0.41461104 -1.0214505 -0.54522365
-1.0091226 0.2910659 -0.75911891
-0.33442566 -1.0233134 -0.53463286
-0.95998067 0.32710478 -0.69031233
-0.69397366 1.2591823 -0.52235872
-0.80491018 1.3882101 -0.54791486
-1.2913055 1.5915209 -0.56188035
-0.49777234 -1.0459096 -0.64747763
-0.62509388 -0.50311583 -0.55537868
-0.021280885 0.15834926 -0.5109995
0.25997353 -1.1133829 -0.55573171
0.15476269 -0.1486674 -0.51733387
-1.2790263 0.87862504 -0.54049873
-0.99989438 0.22486059 -0.5774706
-0.32223979 0.65018636 -0.57345635
0.27835631 -0.41545045 -0.57243282
-0.6840232 -0.56060773 -0.64725381
-0.65349227 1.4939654 -0.54661536
-0.89256597 -0.90992922 -0.54009002
-0.60082233 1.070421 -0.55259836
-0.90407437 0.29121083 -0.74256736
-0.54924488 1.2331929 -0.51639783
0.58876157 -0.74313504 -0.56984121
-1.2708604 2.1624277 -0.50921708
-0.77198404 1.0905734 -0.5522052
0.89034462 -1.4300828 -0.60512519
-1.1622097 1.9266223 -0.48927489
-0.48817572 0.024698647 -0.61205024
0.084206939 -0.013191623 -0.55264598
0.48344922 -0.6551249 -0.56927109
-0.58451056 -0.74003059 -0.62348634
-0.057579339 -1.471126 -0.76255584
-0.91977656 0.036691461 -0.67111444
-1.307251 1.4161118 -0.61608052
-1.3583277 1.4554964 -0.62003207
-1.1082333 1.8881502 -0.50086999
0.75385249 -0.89932764 -0.60748351
-1.123318 2.003202 -0.54342461
-0.13664728 -1.3697658 -0.68221182
0.29052913 -1.4850296 -0.58826953
-0.49612933 -0.9271242 -0.69060379
-1.3025676 0.31688493 -0.56652421
-0.50637317 -0.38095462 -0.70610523
-0.61111939 -1.0386211 -0.59548509
-0.22090328 -1.0181549 -0.6993342
-0.74936658 1.3371998 -0.50340581
-1.2287059 0.30523047 -0.69477201
-0.62701714 1.2520032 -0.51755273
-0.6112535 -0.48515767 -0.53156358
-0.90033257 0.50816762 -0.75056171
-0.98691934 0.082935393 -0.68115914
-0.70429027 -0.75160801 -0.6244213
-0.90454531 0.059368394 -0.75321645
-1.2042434 0.60919738 -0.76301467
-0.7927556 1.4830734 -0.52620327
0.39813328 -1.4948788 -0.59482849
-1.1213698 -0.43553075 -0.55880129
-1.075104 0.032682016 -0.70462888
-0.41581765 -1.104632 -0.69152093
-1.3173264 1.6797962 -0.7400772
0.48270214 -1.4526851 -0.62094808
-0.21394122 -0.41071028 -0.59547174
-0.80047178 -0.75740623 -0.55517429
-0.83090061 0.040365182 -0.68369204
-0.61796272 0.015769152 -0.61291999
-0.79918754 -0.21532363 -0.81294811
-0.85671347 0.37621254 -0.56449068
-1.1136788 1.3049822 -0.6975193
-1.0069035 0.37088421 -0.73240399
-0.51610339 0.9757275 -0.56253117
-1.3881757 1.5272468 -0.60400492
-0.90773833 1.5243167 -0.56563193
-1.0982441 2.2039189 -0.44020212
-0.83125573 0.91544473 -0.53982246
-0.60488379 0.84604567 -0.55070466
-0.94365919 -0.40450934 -0.5680896
-1.3465427 0.16023493 -0.54025334
-0.4120377 -0.69830859 -0.71342283
0.67709637 -1.1379178 -0.58223104
0.77175355 -1.1976782 -0.6184296
-0.82326269 0.36703652 -0.71801805
-0.62430322 -0.41492373 -0.79866791
-0.81888109 -0.68969852 -0.5450201
-0.88146573 1.2676158 -0.52539569
-0.90588933 -0.67570567 -0.54699647
-0.69548076 -0.76470232 -0.55241787
0.89915025 -1.5550396 -0.49857828
-0.83354104 0.50218487 -0.75519907
-0.72675538 1.5029848 -0.55817246
-0.92705798 1.9817271 -0.45696288
-0.31872728 0.58541304 -0.58473617
-0.91000837 -0.46197066 -0.73129272
-0.9080053 -0.39981541 -0.73095399
-0.69276792 0.13527112 -0.59867346
-1.2078986 -0.21648256 -0.56049323
-1.4117907 -0.030487871 -0.53109246
-1.517521 0.38461834 -0.56660545
-1.2120026 -0.37229559 -0.54247588
-1.4480714 0.38097331 -0.57140195
-0.96046072 -0.23370038 -0.72881162
-1.1174983 -0.14050463 -0.57518905
-0.80892521 -0.68586349 -0.60806268
-1.0300559 -0.70724016 -0.57827544
0.79218948 -1.6827208 -0.61711711
-1.1035416 -0.40483192 -0.57587492
-1.1043116 -0.53346211 -0.56158674
-1.0104581 -0.74551922 -0.56294191
-1.4697787 0.087754056 -0.56113827
-0.90411842 -0.45301032 -0.54431599
-0.5557403 -0.42839453 -0.80629009
-1.1790608 -0.43772236 -0.55513233
-1.0757465 -0.66403091 -0.5448249
-0.72166497 -0.74915421 -0.71924913
-0.68910271 -0.94059944 -0.69464386
-0.69165117 -1.2846379 -0.56376958
-0.75993401 -1.3056455 -0.58229953
-0.78856856 -0.22601596 -0.7575708
-1.1192986 0.92964506 -0.55843818
0.017008543 -1.0739341 -0.57114255
-1.1564183 -0.099191926 -0.78020942
-1.3086886 1.2801906 -0.77987701
-0.028282344 -1.5287073 -0.79045486
0.89230597 -1.2076242 -0.62045848
-0.52470207 1.056437 -0.54931074
0.75397599 -0.86981177 -0.59796953
-1.4089181 0.61467755 -0.5601036
0.68520808 -1.3943447 -0.55564708
0.29762304 -0.62623656 -0.57572985
-0.56140822 0.64858502 -0.53969884
-0.80792332 0.43759882 -0.59298658
-0.92543852 -0.23527643 -0.73682773
-0.92057437 0.87774771 -0.60675007
-1.0620404 -0.62751991 -0.55418879
-0.38102919 -0.87940663 -0.69940007
-1.2378819 0.86920387 -0.54990864
-0.30754682 -0.92582732 -0.69134808
-0.48229131 -1.0156336 -0.70810252
0.39177394 -1.5938468 -0.58862889
-1.346813 1.907631 -0.55169547
-1.3155646 1.6672106 -0.70707065
-0.99385464 0.47832939 -0.72723764
-1.1089014 1.0704372 -0.58808422
-0.584571 0.76311505 -0.5536617
-0.71534163 1.7849902 -0.52214897
0.66471624 -1.6196843 -0.66302651
-0.60409296 -0.99949193 -0.71489334
-0.5714578 -0.19023961 -0.61520189
-0.25997669 0.032438643 -0.56430709
0.29422069 -1.6072268 -0.58129174
-1.5656085 0.26729292 -0.56666934
0.40009046 -0.8256647 -0.58032131
-1.5010258 0.19051553 -0.5699178
-1.7723291 0.70480847 -0.56297493
-0.31554192 -0.8368659 -0.68039221
-1.178967 -0.41600156 -0.5742991
-1.504891 0.51550466 -0.56571251
-0.9847666 1.5592929 -0.51498461
-1.4902761 0.32069007 -0.55823618
-1.2169867 -0.097942956 -0.56403232
-0.79317075 0.30148259 -0.57241732
-1.3240117 0.57012898 -0.69770974
-1.213167 0.52985507 -0.55919993
-0.23867714 0.76057428 -0.54972464
-0.90940046 -0.62578607 -0.55650228
-0.37741423 0.37566736 -0.53706145
-1.3069768 0.55562174 -0.56113553
-1.1039181 1.9211137 -0.54575765
-1.5894933 0.65758371 -0.56051165
0.1232121 -0.91891336 -0.62456644
-0.94411719 2.1109929 -0.50086182
-1.0936803 0.7069754 -0.73804271
-1.3243001 1.7484026 -0.72168815
-0.80852574 -0.36213923 -0.52860284
-0.66969651 -0.51168883 -0.85238761
-0.33043367 -1.1291606 -0.69265676
-1.0155693 0.69137543 -0.72393984
-0.72510463 0.220651 -0.58926952
-1.4123529 0.90423912 -0.51771772
-1.5532346 0.91778332 -0.5705803
0.091427267 -1.2206013 -0.67860121
-0.61322129 0.42282519 -0.58526206
-0.8248747 1.9155437 -0.52660459
-0.62318897 -0.0028220934 -0.57537347
-1.1864095 2.0516279 -0.57081234
-0.20706826 0.079250298 -0.5434528
-1.3089318 -0.022258429 -0.56432503
0.063895583 -1.31943 -0.71319771
-0.71536613 -0.23744753 -0.74362493
-0.90882391 -0.12601595 -0.80450362
-1.4271145 1.972374 -0.73645574
-1.198632 1.1054773 -0.65439218
-0.78897768 1.201888 -0.56982964
-0.81776482 -0.72454357 -0.75594425
-0.0034900904 -0.60781413 -0.62419015
0.093546391 -0.60708445 -0.61220533
0.52435112 -0.60804766 -0.60266083
-0.3030923 -0.59716606 -0.6286639
-0.90605175 0.40234333 -0.55702823
0.19062519 -0.57572681 -0.59295332
-0.50665915 0.94266325 -0.5307824
-1.095014 0.55950123 -0.69538265
-0.62022692 -0.24711041 -0.73034364
-1.2117569 1.2948151 -0.58995342
-1.0077519 2.01967 -0.5163638
-0.91942948 0.59166956 -0.72541893
-0.93065739 1.8281604 -0.54045749
-0.51280916 -0.24884647 -0.71738464
-1.0048687 0.60206908 -0.73309749
-1.3917608 1.2671318 -0.78011322
-0.82959265 1.5732641 -0.50895584
0.0043679476 -0.079974174 -0.5693627
-1.0267696 0.69357246 -0.55098903
-0.54618794 1.0343032 -0.50679201
-0.75674015 0.34117353 -0.72317463
-1.3166955 1.1087481 -0.70004553
-0.40403789 0.44550374 -0.56270379
-0.55153012 1.1359267 -0.59992945
-0.69488847 -0.31171793 -0.79760242
0.29559541 -0.22465813 -0.59266359
-0.60176122 0.93142647 -0.53352267
-0.41765445 -0.010794999 -0.57454914
-1.149994 1.3236588 -0.74637705
-0.91665936 0.84859657 -0.56530005
-0.11541635 -4.8528284e-05 -0.55985945
-0.69117242 0.038226891 -0.56976867
-1.2741047 1.0591429 -0.76894945
-0.60317874 -0.35382169 -0.71539873
-0.97318232 -0.84767467 -0.57348859
-0.30997321 0.95691788 -0.55060577
-0.2022717 0.26807296 -0.59920937
-1.037344 0.53626108 -0.48550847
-0.71253234 1.4784197 -0.5218845
-0.12499946 0.33042514 -0.57785577
-0.92382461 1.4703271 -0.45260429
-0.50491643 -0.088569239 -0.59364349
-0.60502529 0.97877175 -0.56914634
-1.1095326 0.59518945 -0.74820065
-1.1019239 1.5911988 -0.51706576
-0.89897758 1.69077 -0.53184319
-1.6070013 0.45412078 -0.56677765
-1.2945998 1.1375612 -0.74976033
-0.71693075 1.6838657 -0.51721585
-0.21561986 0.43601051 -0.56217921
-1.5266299 0.45429552 -0.57792073
-1.1132081 1.4661877 -0.54049873
-0.35704187 0.91337621 -0.54528248
-0.40966961 0.94205683 -0.527448
-0.28942657 0.43671241 -0.56880671
-0.72176999 1.409736 -0.58389997
-0.92104822 0.937567 -0.5376364
-0.82437181 1.6004952 -0.5398345
-1.291647 1.704496 -0.55664665
-0.50916624 1.4930409 -0.52099556
-0.81339622 0.84459209 -0.56245297
-0.63534439 -0.031685092 -0.73298579
-0.71988636 -0.027469214 -0.73350632
-0.80106479 -0.0097431773 -0.75898534
-0.44402516 0.064337268 -0.55837727
-0.71983993 -0.089450888 -0.61092979
-0.0050291419 -0.19532934 -0.58047813
-1.5988566 0.52280962 -0.57031834
-1.3958712 0.094553627 -0.56470692
-0.40339226 -0.097525559 -0.58997238
-0.69332242 0.62669075 -0.55557483
0.097467184 -0.19216135 -0.57403958
-0.71089333 -0.13932322 -0.8015486
-0.16619599 -0.91833365 -0.60081667
-1.2975461 1.3235133 -0.7113868
-0.03492862 0.20814331 -0.55730003
-0.72352594 0.061485585 -0.7192865
-1.2206116 0.49720022 -0.50371194
-1.2992667 -0.099649496 -0.56809813
-0.32119364 -0.10884227 -0.58802515
-0.44434822 -0.21198206 -0.75420582
0.23827815 -0.35181841 -0.6061697
-0.82747418 0.47457013 -0.70174408
0.1064297 -0.52277946 -0.54825556
-0.23054111 -0.21878676 -0.58721405
-0.39580673 -0.18280664 -0.59968477
0.042314291 -0.47808382 -0.55172622
-0.59150505 1.1121725 -0.61124831
-1.4483633 1.6452602 -0.62242895
-1.2147696 1.3749758 -0.74308777
-0.48615471 -1.2469487 -0.7147029
0.12473124 -0.6720413 -0.63866425
-0.72297698 1.00756 -0.52217656
-0.97247094 0.55640364 -0.57941103
-0.92632687 2.0092063 -0.50922143
-0.92195272 1.0102017 -0.50975209
-0.87865263 0.44245341 -0.58676451
-0.51059091 0.084353834 -0.55166388
-0.074286699 0.089698501 -0.52752626
-1.2064387 1.2282172 -0.73645943
0.01108253 -0.68828863 -0.64082313
-0.64398569 0.55002701 -0.62807745
-1.4191988 1.1415672 -0.70298159
-0.035176277 0.31959823 -0.58747619
-1.4316366 1.1854897 -0.80654877
-1.418905 1.5970936 -0.59160805
-0.72093582 1.575037 -0.49610883
-0.20738214 0.23328325 -0.56515199
-1.1127669 1.115394 -0.65893829
0.049230278 0.20596071 -0.57800466
-1.3274894 1.3548565 -0.76241302
-0.0071101189 -0.0058365911 -0.55680817
-1.6792948 0.53887987 -0.56873459
-0.91553164 -0.0019026642 -0.71611166
0.18589908 -0.095629349 -0.58163065
-0.18458503 -0.075216658 -0.58211446
-1.4223564 1.1531841 -0.51900059
-1.2804396 1.167492 -0.56836367
-1.0898495 0.13521363 -0.70944339
-1.3988037 1.3629252 -0.76172572
-1.2214677 1.1300726 -0.74516487
0.072164774 0.067190602 -0.54513556
-0.15473819 0.51624912 -0.54735166
-0.43788597 1.0369159 -0.52683079
-1.6873268 0.6298784 -0.56658614
-1.2310337 1.6917847 -0.55386454
-1.2067094 1.0413736 -0.75895345
-1.1203871 1.0415609 -0.74970603
