# .PCD v0.7 - Point Cloud Data file format
VERSION 0.7
FIELDS x y z
SIZE 4 4 4
TYPE F F F
COUNT 1 1 1
WIDTH 601
HEIGHT 1
VIEWPOINT 0 0 0 1 0 0 0
POINTS 601
DATA ascii
19.119284 8.6589298 -25.878057
18.934278 9.3137188 -25.939093
19.893465 9.9104652 -25.446268
18.891905 8.171361 -26.159216
18.718084 7.9510102 -26.381805
18.916252 8.5759306 -26.159519
19.561264 7.8243542 -26.172472
18.811728 8.3701067 -26.220966
19.25034 9.2672329 -25.612108
19.744234 9.8518133 -25.355169
19.704836 9.0003939 -25.795504
18.891031 9.0089645 -25.872482
19.39452 9.0181627 -25.971317
19.514002 8.9719257 -25.909805
18.934948 8.4447908 -26.19689
19.634079 8.3373451 -25.968279
19.552649 9.2712936 -25.751339
18.896069 8.7017784 -26.079794
19.215292 8.8521566 -25.784716
19.470577 8.1810865 -26.157242
19.430973 8.9186268 -25.651442
19.777399 9.0888128 -25.728657
19.868792 9.2050419 -25.673004
19.487469 9.0254498 -25.912712
19.05958 9.944521 -25.849226
19.230904 9.8584375 -25.720438
20.000216 9.9317503 -25.402336
19.216824 9.694623 -25.780857
19.475643 9.6741962 -25.69269
19.343031 9.2958679 -25.866804
19.780254 8.5935907 -25.780582
19.768318 9.3561192 -25.674686
19.116724 9.5019436 -25.810404
19.125792 8.8242245 -25.984463
19.139711 8.9630194 -25.791969
19.368233 8.9816675 -25.644798
19.550701 8.9828014 -25.785971
20.154797 8.9232445 -25.373493
19.278976 8.3122272 -26.139799
19.011292 9.6865215 -25.872683
19.607821 9.946847 -25.634583
19.061199 8.848403 -25.980793
19.317472 8.8529129 -25.739716
19.176472 9.941473 -25.799269
19.193218 8.7546501 -25.971691
19.433212 8.7397318 -25.849077
19.586163 9.0446186 -25.863716
19.769588 8.1275005 -25.915754
19.534283 8.8971729 -25.811417
19.554541 8.2639465 -26.09057
19.235332 8.55931 -26.02836
19.760073 8.8873692 -25.715714
18.920639 9.0446663 -25.881344
19.691612 9.019639 -25.718184
19.107512 8.9421806 -25.790432
19.251204 8.8013296 -25.907341
18.85877 9.0797396 -25.906843
18.661041 9.0322285 -26.005409
18.93343 7.8828683 -26.276968
19.461756 8.4958038 -25.869314
18.904503 10.279884 -25.754629
19.679995 8.7759237 -25.742001
19.058945 7.8607388 -26.224468
19.076635 8.5146618 -26.0291
19.966553 10.221807 -25.473974
19.478519 9.5143538 -25.595661
19.147955 10.844611 -25.86684
19.662056 10.243454 -25.6085
19.160404 9.561533 -25.673742
19.380589 8.2385759 -26.121029
18.919973 10.203585 -25.742664
19.048449 10.681544 -25.834227
19.621428 9.3438435 -25.730347
20.335234 8.9725742 -25.355698
19.734381 9.2428436 -25.649914
19.886398 9.292634 -25.592224
19.378857 8.7846603 -26.015965
18.687197 8.3913755 -26.201942
19.409214 8.9173651 -25.993744
18.980881 8.6349277 -26.17993
19.429171 9.8794966 -25.686047
19.003712 10.265574 -25.70076
19.634308 8.9783783 -25.744892
20.20068 8.837079 -25.356268
19.202885 10.253173 -25.796021
19.043079 8.7114639 -26.048256
19.441326 8.9103317 -25.854807
20.258707 8.736762 -25.444994
19.681377 8.9307137 -25.726566
18.642586 8.5476551 -26.226749
18.629944 9.0653238 -25.976248
19.573467 8.7998505 -25.94294
19.538473 8.8967686 -25.680845
19.582024 9.0063772 -25.531151
20.236269 9.0693541 -25.36216
20.114614 8.8240395 -25.551001
20.055515 9.779994 -25.492369
19.434685 10.989936 -25.850334
20.227196 9.1538076 -25.36849
19.892323 9.0109434 -25.684889
19.774567 8.9209185 -25.766773
19.345844 9.5628195 -25.541079
19.699329 10.07445 -25.580784
20.210022 8.5042982 -25.523022
19.277695 7.9001398 -26.081032
18.870855 7.9190822 -26.279583
20.228386 8.58811 -25.431852
19.630436 9.0579538 -25.730854
18.706196 8.6367884 -26.055691
19.11883 9.0375834 -25.808563
18.844587 10.200687 -25.793709
18.719015 10.198136 -25.853611
19.159002 8.5829449 -25.898634
20.318123 8.6049042 -25.492628
19.994938 9.0231209 -25.504021
19.384642 8.3402157 -26.096001
18.974569 8.7512646 -25.892885
19.858475 10.197647 -25.529737
20.406471 8.8790846 -25.30595
19.344755 9.6207991 -25.76873
19.113562 10.583361 -25.843021
20.237688 8.2513866 -25.713116
19.536898 9.1046667 -25.863972
19.785229 8.5080957 -25.946287
19.313322 10.610887 -25.740709
18.69743 8.7287073 -26.163538
18.776049 10.731874 -25.989094
18.863798 9.2962847 -25.850292
19.645588 8.5367718 -26.012856
19.076321 9.1838102 -25.968374
19.126793 9.2237415 -25.863554
20.000935 8.5771112 -25.748659
19.43256 10.797708 -25.786688
19.6052 9.1884327 -25.673489
19.264637 9.0853043 -25.717442
19.761145 9.5452042 -25.675117
18.711977 9.0464201 -25.983206
19.502098 9.0530891 -25.78434
19.632353 9.705204 -25.609499
19.961359 9.0799322 -25.618597
19.232845 9.6016569 -25.611586
19.716761 10.332358 -25.603022
20.0345 9.1820755 -25.422976
20.11331 9.6373816 -25.397755
18.772108 8.5524206 -26.074018
19.240902 9.3336687 -25.613297
18.864347 8.9588985 -26.01614
19.219097 8.7821474 -25.960506
19.398779 9.0166378 -25.673553
18.667637 10.668688 -26.030186
20.043919 9.19767 -25.409447
19.759708 9.1599569 -25.711447
19.052435 9.2228737 -25.745699
19.959408 9.5451241 -25.549156
19.046301 9.325841 -25.736689
19.743429 8.8848534 -25.65605
18.68689 8.8402615 -26.034798
19.742851 7.9759297 -26.177326
18.852112 9.3388939 -25.975121
19.76387 8.280654 -26.025274
20.169548 8.9867296 -25.418135
18.798279 8.858283 -25.987349
19.023952 10.649463 -25.713177
19.705467 8.9560204 -25.666037
20.172976 8.7218742 -25.476339
19.20167 8.927783 -25.880423
19.733025 10.13526 -25.637369
20.211596 8.3696947 -25.562099
19.081057 9.3116245 -25.775562
19.187531 9.0117474 -25.733725
19.457989 8.3805447 -26.006237
20.212337 8.0125322 -25.742329
18.906353 8.8377943 -25.918703
19.840961 10.056253 -25.532875
19.781313 8.8202057 -25.693365
18.81201 7.861167 -26.24338
19.128607 10.708255 -25.881586
19.515881 8.2181835 -26.15106
20.164646 10.315288 -25.369198
19.380888 9.8995905 -25.703997
19.241566 8.9565964 -25.747299
18.651676 9.2262011 -25.965899
18.905867 8.5707531 -26.141216
20.398901 7.9829507 -25.64632
19.798979 9.4117117 -25.667957
19.034781 8.4479485 -26.108353
18.910139 10.778893 -25.911509
18.806705 8.5754251 -26.145056
19.126888 9.4923735 -25.859215
19.798037 8.8525362 -25.693701
19.041981 9.128212 -25.955935
19.183258 10.679934 -25.805521
19.84943 9.1489058 -25.652243
20.090525 9.0907116 -25.528845
20.075651 9.4114075 -25.368464
18.839464 10.683545 -25.962799
20.323654 8.8907013 -25.349947
19.009804 10.811832 -25.866798
19.149342 9.2969112 -25.728823
18.838894 9.2118855 -25.990726
19.55541 9.6909914 -25.650541
20.208868 8.8197441 -25.460157
19.95397 8.8931017 -25.684618
18.93442 8.3907232 -26.223732
19.997932 9.0442066 -25.43911
19.927431 8.0799751 -26.000509
20.125584 8.9968863 -25.510048
19.367685 8.1813078 -26.26005
18.990223 8.1848698 -26.292046
19.43187 8.1717186 -26.248175
19.557873 9.5509987 -25.770462
19.948507 8.8792181 -25.675356
18.911442 10.942741 -25.974579
19.04508 8.3732891 -26.184196
20.07728 9.3496876 -25.375154
18.616539 9.170516 -25.926384
19.643148 8.8651638 -25.712717
19.163712 9.9787893 -25.813965
19.214928 8.382803 -26.09943
18.918779 8.7862864 -26.07896
19.639914 8.808279 -25.779057
19.805107 9.0858212 -25.674091
19.472414 8.8590422 -25.870207
18.74185 8.3978968 -26.274233
19.44471 9.597497 -25.709982
18.726316 7.9180446 -26.352083
18.760426 9.1178179 -25.941916
19.540592 9.5442362 -25.635643
18.72397 10.686932 -26.00388
18.906837 10.679538 -25.912804
19.235563 9.4310808 -25.60988
19.617149 10.004318 -25.602669
19.710297 9.5884504 -25.584576
19.88957 10.310589 -25.517317
19.909325 10.070871 -25.484127
19.281418 8.5662613 -25.920841
19.511654 9.6303263 -25.652811
19.626059 8.7355289 -25.817713
19.338181 9.7503166 -25.641197
19.550039 8.7041264 -25.853598
19.589848 9.6135197 -25.654701
18.654041 8.4750929 -26.20042
19.129383 8.3666334 -26.134525
18.833406 9.1862307 -25.826462
20.39743 8.8213768 -25.345942
18.59153 8.3631573 -26.360048
20.241474 8.4736214 -25.6049
18.841335 8.3896151 -26.240097
19.641279 9.1150522 -25.673075
19.648014 9.1503353 -25.699657
19.346388 8.4229279 -26.032339
19.215773 10.604919 -25.752903
19.323484 9.2357168 -25.667633
19.125038 10.813845 -25.814451
18.959507 10.772183 -25.965456
20.032475 10.03276 -25.44915
19.104691 8.8059845 -25.829405
19.49971 10.064027 -25.637056
19.845337 8.4268837 -25.954178
19.930086 9.4495678 -25.583387
20.253405 8.9682913 -25.36993
20.11919 9.0806818 -25.42695
18.855185 9.2033434 -25.92255
19.559317 9.4711676 -25.737307
20.12195 8.4591455 -25.637455
19.341431 9.4061966 -25.869459
19.061489 9.0707645 -25.783562
19.746029 9.451786 -25.70286
19.095505 10.754522 -25.876703
19.380333 8.9381533 -25.850321
18.775288 9.2178364 -25.907755
18.935207 7.9467473 -26.249098
20.123991 8.5669518 -25.585165
19.229874 10.005205 -25.802502
18.928926 10.968736 -26.016047
18.836197 9.383358 -25.80575
19.619152 9.4902391 -25.642115
19.052992 9.1218147 -25.790783
19.0182 8.926487 -25.815582
18.834829 9.0208359 -25.887094
19.23004 10.129045 -25.820814
20.317127 8.4745026 -25.561419
19.153465 10.439019 -25.656433
20.106846 9.4269609 -25.363832
19.139387 10.491194 -25.716404
18.943985 8.5825205 -25.947346
20.265566 8.687274 -25.505222
18.743956 8.2066183 -26.198437
19.579712 8.5338335 -25.95006
19.089529 8.8091307 -25.798353
19.885363 9.8449049 -25.577354
19.77445 9.1629076 -25.528635
19.809553 9.0832853 -25.498957
19.029036 9.0394163 -25.823547
20.055719 8.9268389 -25.592472
19.105843 10.280094 -25.822611
19.852564 8.6007757 -25.854805
19.306055 8.7474728 -25.912798
19.857241 8.9141397 -25.637444
20.166815 9.1455393 -25.419447
18.917343 9.1091747 -25.874981
19.091227 9.1841555 -25.792936
20.052881 10.239736 -25.387407
19.525913 9.5022802 -25.673958
19.04863 10.725492 -25.878326
18.774546 8.074111 -26.244116
19.115515 9.1430845 -25.795019
19.140924 9.5977478 -25.830538
19.050922 10.359233 -25.668554
18.753511 9.0320005 -25.934597
19.751104 8.7921 -25.832886
19.931145 8.7817316 -25.741249
19.463825 8.4154243 -26.017775
18.565861 9.1539011 -26.011469
18.984037 9.1914053 -25.847815
19.952814 9.7554455 -25.543228
19.362968 9.5506554 -25.777216
18.840685 9.127286 -25.915501
18.630692 9.1255999 -26.005104
19.06048 9.2549524 -25.806429
19.560097 9.6528835 -25.777395
19.359238 9.6155863 -25.86974
19.759499 9.6263447 -25.658367
19.456608 9.6165524 -25.824463
19.409845 8.2136774 -26.270929
19.974205 8.6607828 -25.748457
19.821423 9.6081457 -25.635794
19.847843 9.6691265 -25.621418
19.913614 9.9357147 -25.534872
19.797468 8.655653 -25.87557
19.659588 8.5974722 -25.996481
18.930948 10.290439 -25.774927
19.952599 9.6378174 -25.559286
19.103252 8.5212002 -26.104151
20.015474 9.9753561 -25.456823
20.253176 8.2336111 -25.675301
19.098629 8.229825 -26.251753
19.405867 9.2287626 -25.902443
18.737129 8.1466312 -26.33353
19.946487 9.3231611 -25.56101
20.407139 7.9817352 -25.700832
18.913286 9.7326469 -25.820312
20.230293 7.9602876 -25.800812
20.16765 8.1901131 -25.711578
20.139715 10.132906 -25.319397
18.953659 8.1364508 -26.317095
18.907272 10.147572 -25.707808
18.919443 7.9595108 -26.298166
19.025251 8.111805 -26.102425
18.811987 8.6393919 -26.009907
18.875265 8.9471922 -25.900686
19.831148 7.9615731 -26.037859
19.631516 8.6990767 -25.971581
18.90731 8.9281368 -25.867289
19.755123 9.695097 -25.66016
19.00499 8.5807991 -25.934862
19.100376 8.7105379 -25.997513
19.107937 7.9395614 -26.216454
20.350758 8.2153015 -25.643465
19.302198 8.733099 -25.79847
18.847235 8.4690409 -26.180981
18.853048 10.769699 -25.991751
19.733158 9.1528101 -25.744268
19.0072 8.1981459 -26.106148
19.711828 7.9928308 -26.079401
20.117466 7.9960093 -25.86565
19.347242 9.7873259 -25.717192
20.045044 9.1765881 -25.543341
19.213661 8.0919104 -26.022043
18.743374 8.3712931 -26.247847
20.413843 7.9175525 -25.722143
19.613817 9.7397165 -25.593676
20.173582 7.8616762 -25.86195
18.643139 9.0999651 -25.958351
19.642307 10.035316 -25.698261
19.521458 10.075236 -25.750662
19.543148 8.1772213 -26.195774
19.634996 9.8099194 -25.7304
19.74279 8.1698799 -26.06702
19.679869 9.2002811 -25.777309
20.065727 7.8237438 -26.000484
19.944679 8.4417238 -25.879908
20.107321 8.4235544 -25.630043
19.897423 8.1414738 -25.962305
20.08563 8.1232796 -25.83136
20.069271 8.08218 -25.83836
19.999863 8.3606052 -25.829405
20.077694 8.1231241 -25.78019
20.145811 8.2394247 -25.753326
18.626751 10.615895 -26.071802
19.04562 8.2212229 -26.057945
18.833179 8.1642857 -26.155216
18.6329 8.466876 -26.271072
19.722412 8.4711695 -25.866177
19.065041 8.2089157 -26.252729
20.281919 8.2920952 -25.674517
19.216574 8.6484957 -25.946812
20.049206 8.4180737 -25.790899
18.774597 10.582034 -25.995617
19.587982 8.650301 -25.855844
19.62392 8.5332785 -25.89624
19.228226 8.4434061 -26.070322
19.694921 8.1259203 -26.004644
18.992531 8.4791126 -26.170856
19.541649 8.0446768 -26.094707
18.720615 9.5931082 -25.908947
19.699503 9.9378099 -25.579731
19.63818 8.1790791 -26.029062
19.090689 8.1547108 -26.018084
19.71102 8.8763981 -25.81213
18.678219 9.6285782 -25.945078
18.736038 9.5426903 -25.972628
18.5802 8.4887505 -26.307117
19.587276 8.166523 -26.172312
18.642206 8.3716459 -26.287413
19.817366 9.0875235 -25.535397
19.574137 9.7731886 -25.638113
19.076942 10.870815 -25.913712
19.956532 8.505518 -25.817122
19.101597 8.5708857 -26.04892
18.842127 8.7519817 -26.001984
18.771299 8.2422323 -26.174896
19.556831 10.103243 -25.608408
20.234665 10.223933 -25.290207
18.820576 8.9558105 -25.958292
18.69371 8.7771168 -26.128946
18.781677 8.811224 -25.980356
19.630486 10.205402 -25.574156
19.300228 9.6248627 -25.608101
19.128202 9.6980667 -25.778292
19.985207 9.8781385 -25.503384
19.792128 9.8628387 -25.630838
19.629763 9.9564877 -25.725134
20.230312 7.8093691 -25.830093
18.742519 7.9781847 -26.247234
19.569153 8.6732779 -26.025385
18.894873 8.0038538 -26.288776
19.277504 10.907876 -25.801563
19.838886 8.3627815 -25.965721
20.035845 8.2344561 -25.83198
18.679127 10.985084 -26.091137
18.832863 10.924389 -26.031551
19.273659 10.905386 -25.843225
18.926571 10.862129 -25.991364
18.713326 10.76253 -26.059879
18.913544 10.898154 -25.896231
19.157677 10.909773 -25.889782
19.39473 10.949774 -25.804831
19.037958 10.74436 -25.89357
19.279648 10.781524 -25.822062
19.400131 10.742173 -25.743954
19.151491 10.739061 -25.726208
18.764793 10.696111 -26.032158
18.934938 10.705686 -25.957493
19.020828 10.780571 -25.740309
20.045103 7.9985442 -25.877003
18.675022 10.776633 -26.048397
18.851593 10.709247 -25.98657
18.803225 10.265458 -25.795366
19.12322 10.529584 -25.830561
19.079859 10.377592 -25.750935
19.931717 8.2219534 -25.900429
19.220623 10.270926 -25.644449
19.150797 10.300051 -25.687231
18.834728 10.613096 -25.921295
18.978493 8.0748158 -26.357016
19.072067 10.470814 -25.855223
19.019609 10.315966 -25.758234
19.019886 10.456289 -25.939386
20.061764 10.367371 -25.403986
19.839937 10.174725 -25.51483
19.132607 10.082256 -25.85434
20.256907 10.139444 -25.288851
19.448807 10.062651 -25.704838
19.047882 10.209149 -25.721899
19.307747 10.083648 -25.759102
19.929831 10.154206 -25.492012
19.826195 10.102492 -25.579077
19.129997 9.8868732 -25.799961
19.023495 9.8688412 -25.823154
19.47983 9.9211378 -25.688932
19.036831 9.778986 -25.851658
18.962692 9.8673449 -25.891113
19.155537 9.7933359 -25.773972
19.437788 9.9908314 -25.81109
19.964396 9.786787 -25.399622
18.809278 9.6864061 -25.916498
19.241461 9.7466383 -25.755255
19.385477 9.7797432 -25.704126
19.731794 9.7894888 -25.556923
19.622463 9.9237852 -25.718393
19.424629 9.9071836 -25.829405
18.936825 9.7796602 -25.893373
19.82193 9.9773989 -25.584902
19.004194 9.6829357 -25.840179
19.7838 9.8219662 -25.629908
18.892269 9.67593 -25.846951
20.164036 9.8071651 -25.394709
19.862803 9.7845249 -25.593758
19.11561 9.6795626 -25.82103
18.93482 9.6850176 -25.921999
18.848906 9.6797895 -25.788086
19.095493 9.5997839 -25.801773
19.949425 9.7145634 -25.551908
19.194286 9.3515911 -25.696003
19.169323 9.3871403 -25.719145
18.920425 9.5778389 -25.899519
19.822538 9.3844986 -25.646957
18.628363 8.9534245 -26.067827
18.929573 9.6357107 -25.916603
18.897806 9.5210114 -25.889935
18.815125 9.1053286 -25.874779
19.101851 9.3913527 -25.84407
19.557165 9.0958929 -25.506357
19.709862 9.2615128 -25.721279
18.96171 9.4832144 -25.928965
19.57338 9.3271542 -25.781557
19.455523 9.0951757 -25.546707
20.107111 9.2239428 -25.446953
20.067171 9.0780144 -25.429283
19.788984 9.2579288 -25.680592
18.881168 9.3939171 -25.979652
19.507776 9.2452002 -25.858305
19.539188 9.0188913 -25.750788
19.53183 9.1742697 -25.854237
19.84219 8.2284241 -26.027489
19.817896 8.1588068 -26.025227
19.917959 9.1390648 -25.645292
18.685398 8.6002312 -26.210909
19.522312 8.5837946 -25.93862
19.540634 8.0151415 -26.144165
19.13623 8.6342754 -26.008131
19.035463 8.6693792 -26.060305
18.992311 8.5770206 -26.016634
18.72304 8.4450026 -26.241737
19.409666 8.8436279 -26.003036
19.575666 8.8418064 -25.904522
19.180157 8.5157557 -26.053137
19.414455 8.5569592 -25.981012
18.931583 8.9575596 -25.887115
19.079746 8.6876144 -25.867296
19.284151 8.502533 -25.996313
19.524807 8.4841824 -25.933443
19.499146 8.6367006 -25.906672
19.399475 8.4729795 -26.013746
20.267195 8.4171209 -25.566851
19.016598 8.3098316 -26.203773
19.103434 8.2973719 -26.168457
19.524469 8.3176336 -25.954302
20.135439 8.3092737 -25.669571
20.324814 8.3160391 -25.609306
19.199257 8.2486515 -25.993734
18.957836 8.3017464 -26.157507
19.589037 8.5234671 -25.899868
20.079628 8.3171425 -25.647278
19.17108 8.156621 -26.059843
19.650267 8.2546663 -25.960289
20.199888 8.3161211 -25.685003
18.905388 8.3306684 -26.262878
18.853432 8.2586832 -26.127865
18.947742 8.0273924 -26.188576
18.847727 8.3035479 -26.276073
19.023521 8.2308588 -26.244307
18.988714 8.1147442 -26.164124
19.264973 8.3574877 -26.112326
19.140591 8.0480785 -26.134182
19.408728 8.1035643 -26.278421
20.117365 8.1285238 -25.776262
20.309875 8.1222935 -25.704355
19.020733 8.0536108 -26.208755
19.238806 8.0360212 -26.13026
18.799685 8.0291557 -26.314491
20.119856 8.0415192 -25.788742
19.035763 7.9521699 -26.243279
19.904707 8.0856094 -25.942238
19.716452 8.0652962 -26.043734
19.74122 8.090169 -26.071205
19.482641 7.9330411 -26.032974
20.267057 8.1671648 -25.722357
18.726559 8.3015223 -26.273794
20.251968 8.0734262 -25.746384
19.612146 8.0825224 -26.063389
19.587173 7.9193268 -26.104061
19.56102 8.1057367 -26.189302
20.259336 8.0984068 -25.697216
19.76511 7.8881145 -26.075636
19.662468 7.9186707 -26.183489
19.517315 7.9936485 -26.217043
18.759809 8.2396059 -26.307011
19.500336 8.0888329 -26.03294
19.878351 7.931468 -26.045391
19.828373 8.0848465 -26.040459
19.628988 7.8185287 -26.184271
19.734043 7.9086766 -26.150398
19.746517 7.9774137 -26.109472
20.025852 8.0137615 -25.961948
20.091494 8.0336084 -25.901506
19.899935 7.9897513 -26.048288
19.621826 8.0228157 -26.177277
19.899263 7.8878078 -26.108891
19.850241 8.0231705 -26.036205
