# .PCD v0.7 - Point Cloud Data file format
VERSION 0.7
FIELDS x y z
SIZE 4 4 4
TYPE F F F
COUNT 1 1 1
WIDTH 545
HEIGHT 1
VIEWPOINT 0 0 0 1 0 0 0
POINTS 545
DATA ascii
7.5851345 54.272984 -33.589996
7.5591412 54.38953 -33.542046
6.9057169 54.332623 -33.467758
7.2964129 54.287701 -33.607185
6.7360659 54.446201 -33.550266
6.925005 54.441654 -33.567638
7.4206753 54.23983 -33.547321
6.7393374 54.212849 -33.532764
6.6631007 54.206093 -33.538074
7.1376457 55.321781 -33.67609
7.1135154 54.477047 -33.618614
7.128511 54.231922 -33.531502
7.2233829 54.215149 -33.530876
7.022615 54.481228 -33.609364
7.5244689 54.747814 -33.576298
7.2993212 54.496204 -33.605354
7.0305114 54.439922 -33.561829
7.5766935 54.563042 -33.599586
7.2288709 54.481586 -33.63319
7.6187944 54.768074 -33.576057
7.2251444 54.577694 -33.608395
7.3228111 54.58197 -33.600464
6.9155841 54.087128 -33.608063
7.4121819 54.585587 -33.587971
7.0232124 54.571674 -33.604778
7.316617 54.129295 -33.54594
7.1286364 54.569633 -33.413166
7.1229625 54.12458 -33.549301
7.4228129 54.130184 -33.555408
7.2248316 54.016777 -33.510666
7.6098833 54.635338 -33.595436
7.1115541 54.056248 -33.62685
7.0084729 54.06937 -33.608978
7.2984285 53.901207 -33.583263
6.9278965 54.138905 -33.553848
7.1543922 55.698971 -33.612873
7.0277882 54.629887 -33.647175
7.4206028 54.00285 -33.514225
7.3184128 53.917858 -33.526207
7.2426715 54.576218 -33.681995
7.6179523 53.997425 -33.541985
7.3195181 54.013062 -33.516602
7.1292186 55.300266 -33.61327
7.0165901 53.912018 -33.525955
7.1874838 54.087685 -33.500004
7.0284934 54.136921 -33.553387
7.0150251 53.938175 -33.572521
7.4472933 55.363071 -33.671543
7.3178401 55.209099 -33.619484
7.1264491 54.857086 -33.560036
6.531383 55.302616 -33.564865
6.6263466 55.317734 -33.600868
7.0269241 55.29483 -33.619423
7.3227706 55.730835 -33.667717
6.6343422 56.063911 -33.662888
7.5314207 55.3064 -33.620228
7.5329456 55.194263 -33.630409
6.6512127 55.240246 -33.608536
6.9305325 55.206905 -33.62949
7.2370343 56.054008 -33.683922
7.2254033 55.825375 -33.650146
7.4921179 55.815472 -33.644009
7.4290686 55.382236 -33.60907
6.7368879 54.359367 -33.565578
7.3274164 56.058422 -33.685631
7.3279343 55.836426 -33.639957
6.7283926 55.732059 -33.650936
7.3261843 54.348225 -33.568729
7.1257968 56.04961 -33.680454
7.4204359 55.831387 -33.646118
7.000823 56.341541 -33.672611
6.5672712 55.822025 -33.605751
6.8316994 56.056122 -33.671955
7.2288704 54.35326 -33.58107
6.842927 54.537003 -33.547932
6.9275694 54.35326 -33.580578
7.5073829 56.028202 -33.624115
6.9943519 56.030884 -33.597515
7.421061 55.805771 -33.613663
7.2286358 55.781925 -33.599937
7.4368639 55.710876 -33.625099
7.1730547 54.91745 -33.525051
6.8361163 54.351315 -33.573799
6.6167984 55.391251 -33.561821
6.8342428 55.295193 -33.612282
6.5607457 55.154461 -33.537399
6.9415941 56.079605 -33.586651
6.6331639 55.840076 -33.619373
7.2637768 56.112976 -33.599548
6.7156148 55.930679 -33.607918
6.8719616 55.471096 -33.560566
7.2144055 55.949196 -33.701801
6.8255892 54.75246 -33.576641
6.7329316 55.29324 -33.601917
6.647738 55.132492 -33.522377
6.923584 54.746052 -33.577648
6.8596721 56.029297 -33.599613
6.5898905 55.9034 -33.594578
6.5666637 55.717781 -33.56395
6.5322795 55.599861 -33.549568
6.7288942 55.467503 -33.5527
7.1317205 54.551098 -33.541553
6.9360628 54.551529 -33.540077
7.0198097 56.054855 -33.685516
6.9296432 55.706589 -33.599758
6.8302503 54.129852 -33.548809
7.0204716 56.084423 -33.7216
7.4192114 55.301785 -33.615303
6.933145 55.29121 -33.609917
7.3207159 55.30616 -33.611572
7.3295422 55.076756 -33.591011
6.8427711 54.879211 -33.529366
7.0248194 54.871944 -33.550255
7.0356474 54.220352 -33.531288
7.3072233 55.932713 -33.692535
7.0276961 55.953831 -33.688244
6.9293494 56.147251 -33.67149
7.2340736 54.545509 -33.549969
6.8326826 55.738842 -33.656456
6.8253489 54.201553 -33.532356
6.9303794 55.270344 -33.519493
6.6952395 55.209888 -33.519001
6.9091067 55.165646 -33.528118
7.1311622 55.163055 -33.571831
6.6333804 54.966404 -33.507469
6.9402499 55.68491 -33.767315
6.9304447 54.984047 -33.606464
6.9359264 55.840717 -33.653637
6.9453015 54.914463 -33.67437
7.2705436 55.649265 -33.768291
6.9382591 54.212257 -33.530056
7.2272263 56.107323 -33.75605
6.6926436 55.917938 -33.766399
7.1207728 55.003178 -33.661861
6.8353014 55.975723 -33.766994
6.8232288 55.838737 -33.648369
6.6955776 54.608486 -33.63179
6.8559837 55.905685 -33.596077
7.0279884 55.202824 -33.641056
6.7390957 54.167332 -33.572014
6.9357185 55.926399 -33.622993
7.211164 54.32967 -33.522552
6.7438364 55.838749 -33.640278
7.2217894 55.326832 -33.681858
7.1155519 55.220821 -33.692963
6.9288812 54.893257 -33.616016
6.6467667 54.887035 -33.594784
6.9302177 54.660446 -33.593563
6.7395377 55.33556 -33.639774
6.8339052 55.324352 -33.655426
6.7407951 55.102345 -33.616337
6.8522072 54.612656 -33.638542
7.3372736 54.762707 -33.572853
6.9311333 54.869759 -33.54211
7.2106066 55.762474 -33.750271
6.7488132 55.46109 -33.699234
6.8307447 55.103729 -33.625229
6.8232527 55.6991 -33.595867
6.9485607 55.808693 -33.582119
6.8108883 56.094555 -33.719608
7.31143 55.251236 -33.684399
7.4248438 54.883312 -33.607056
7.5309544 54.238285 -33.553585
7.0193357 56.247208 -33.708515
6.7417121 54.487831 -33.596386
7.022912 54.671562 -33.593647
6.8330045 55.95256 -33.678478
6.8328032 55.869984 -33.695183
7.2227325 54.888233 -33.616302
6.9237375 56.055786 -33.68335
6.7410402 55.19566 -33.611427
7.1213217 55.207947 -33.632267
6.9338121 55.106644 -33.634869
6.8373356 54.98761 -33.602909
6.9360523 54.573109 -33.595848
6.6358051 55.953487 -33.672535
6.6460867 55.861069 -33.688511
6.6429396 55.339676 -33.651474
6.8217516 54.668224 -33.586926
6.7320204 55.76749 -33.702286
6.8922892 55.149502 -33.707451
6.7271981 55.027294 -33.63649
7.0292106 55.601391 -33.7761
7.1284933 55.775421 -33.736588
6.6322966 55.234676 -33.685009
6.7404218 55.420399 -33.633114
6.9245777 55.067986 -33.571518
6.7171149 56.093723 -33.710743
6.7043839 55.993965 -33.73988
6.6174669 55.798546 -33.706394
7.1144848 56.075207 -33.74139
7.0176091 55.830006 -33.652283
6.9116316 55.236885 -33.6847
6.6381063 55.104477 -33.623314
7.0245957 55.017006 -33.653381
6.7380915 54.573811 -33.578491
7.0234637 55.240704 -33.686451
6.7572079 54.920509 -33.653419
6.7253952 54.700123 -33.618114
6.8264117 54.38567 -33.617458
7.0249443 54.15601 -33.602283
6.9377289 55.985535 -33.779049
7.1088829 55.999172 -33.773449
6.8411798 55.374557 -33.594257
6.7288289 55.221481 -33.668819
7.4287057 54.858047 -33.567219
7.029151 55.095997 -33.574409
6.8395114 54.709549 -33.617397
6.636097 54.567532 -33.576584
6.83145 54.573292 -33.596462
6.7329168 55.63765 -33.655689
7.2419791 55.564453 -33.799065
7.2289143 55.082169 -33.588852
6.7529025 54.404598 -33.597374
6.9999895 55.670208 -33.747646
7.2256184 55.398003 -33.602146
7.1366739 55.929432 -33.644569
6.7343397 55.614597 -33.616272
7.1241417 55.387238 -33.595051
6.7415724 55.547115 -33.6777
7.2182226 55.015648 -33.667248
7.2255754 54.865219 -33.564518
6.6984882 55.37228 -33.585281
6.8166552 55.680161 -33.749908
6.7333112 56.05616 -33.665588
7.1300077 55.836025 -33.647522
6.63094 55.419743 -33.628712
6.9298654 55.334705 -33.657581
6.9361572 55.516479 -33.642967
7.0307212 54.926003 -33.678669
6.8313971 55.208454 -33.621666
6.6526346 55.648819 -33.669651
7.411561 54.656197 -33.579666
7.0933075 54.940311 -33.666306
6.9239817 55.611134 -33.625847
7.3446932 54.795719 -33.652802
6.8204336 55.776035 -33.717396
7.3208818 55.803535 -33.605618
6.8380375 55.639015 -33.665424
6.7272282 55.865646 -33.687397
7.0267687 55.33036 -33.663979
7.7695656 54.675903 -33.608864
6.9338365 54.475357 -33.603024
6.9301143 56.0905 -33.73798
6.9289322 55.881252 -33.694748
7.1292391 54.987968 -33.605896
7.0123549 55.400116 -33.594009
7.1547852 55.609356 -33.774967
7.0560942 55.704029 -33.598801
6.9264774 55.781128 -33.727669
7.1138983 56.178131 -33.719833
7.1951485 56.343483 -33.676403
7.1151342 55.963112 -33.693604
6.7317686 55.966198 -33.672688
7.0505958 55.789314 -33.727779
6.9193316 55.448315 -33.720604
6.8347282 55.519211 -33.639507
6.8384533 55.547749 -33.682686
6.8239565 55.608017 -33.621223
6.9243431 55.648056 -33.667583
7.6372604 55.173153 -33.595093
6.9184313 55.421825 -33.651085
7.3293376 54.666557 -33.586624
7.3204775 55.424671 -33.642044
7.3069677 55.662472 -33.674408
7.0408559 54.080723 -33.490795
7.1354074 56.261749 -33.712517
7.0227284 55.550926 -33.688953
7.0330076 55.617161 -33.618263
7.2281942 55.425327 -33.653748
7.5438118 54.014038 -33.528458
7.4298697 54.406391 -33.519062
7.4197006 54.452335 -33.562698
7.4221082 55.738533 -33.653416
7.1973605 54.922935 -33.684441
7.4173536 54.10416 -33.502377
7.1911278 55.453968 -33.733189
7.6149259 55.572792 -33.637199
7.4144602 54.343937 -33.57576
7.1282253 55.619011 -33.630615
7.3270698 55.613388 -33.634384
7.355855 54.736332 -33.528931
7.1294174 55.651241 -33.679733
7.3052187 55.474495 -33.595829
7.1584501 55.477581 -33.587955
7.0277596 55.919888 -33.640694
7.2443657 54.638603 -33.538696
7.2167969 55.614437 -33.619305
7.0319519 55.4907 -33.564529
6.8396192 55.462379 -33.701603
7.4233623 54.029228 -33.563255
6.6401663 55.736073 -33.647598
6.8205233 55.243294 -33.668278
7.2140651 56.328461 -33.618916
7.1281204 55.518196 -33.637733
7.208456 55.640041 -33.692448
7.046999 54.007053 -33.507271
7.037621 54.76305 -33.570217
7.1208334 55.42638 -33.652859
7.2352648 54.76263 -33.571369
6.9503736 55.409168 -33.5667
7.0206423 54.35273 -33.580379
7.5272532 55.509739 -33.63776
7.233902 54.700291 -33.519428
7.5350409 55.390224 -33.614098
7.6050162 55.406185 -33.620708
7.4209495 55.516582 -33.639484
7.1343431 55.899632 -33.789177
7.1297016 54.760593 -33.572327
7.0466013 54.547756 -33.544159
7.119132 55.870945 -33.712223
7.5866842 55.518841 -33.658863
7.4658842 55.976425 -33.698338
7.5327134 55.131485 -33.630959
7.4326067 55.484589 -33.597767
7.3311853 55.525696 -33.635967
7.2164965 56.193008 -33.810665
6.6571646 55.144257 -33.679165
7.2315254 55.296261 -33.614124
7.1259823 54.354282 -33.58815
7.1277246 56.244709 -33.626717
7.221652 55.522396 -33.631828
6.8400173 55.009922 -33.632133
7.1311865 54.444386 -33.557262
7.3259473 55.124035 -33.643055
7.5011725 54.934223 -33.558765
7.4181824 55.62661 -33.63446
7.0239592 55.518517 -33.637768
7.322988 54.438324 -33.552742
7.6292334 55.496574 -33.610413
6.7458348 54.987526 -33.593418
7.3610516 54.690117 -33.648968
7.4292974 56.283043 -33.709778
7.1152196 54.706161 -33.640324
7.3268528 55.386555 -33.598854
7.111526 54.040928 -33.572029
6.8791656 55.463585 -33.57428
7.4215145 54.941631 -33.561413
7.2271509 55.201698 -33.62751
7.0296764 54.891697 -33.624577
7.0992479 55.948231 -33.51503
7.5267439 55.480259 -33.600037
7.5119886 54.320763 -33.547268
6.9254603 55.960003 -33.685272
7.2094817 56.174465 -33.727066
6.9208612 54.039913 -33.561821
7.2287955 56.268211 -33.702446
6.9282808 55.010109 -33.641338
7.4479008 55.891911 -33.635696
7.1085854 55.544411 -33.70105
7.1240501 56.248371 -33.782742
7.3214436 54.640911 -33.541153
7.1255388 53.920002 -33.514763
6.8288212 55.139385 -33.696945
7.2141662 55.551155 -33.701866
7.4101706 55.122387 -33.626652
6.6354308 55.516636 -33.596497
7.23594 55.48978 -33.589798
6.7663679 55.158329 -33.671741
7.0196052 56.133709 -33.672382
6.746748 54.791378 -33.608723
6.9483929 54.007713 -33.511467
7.0267725 54.98613 -33.604
7.4920483 55.946281 -33.632576
6.7345152 55.52198 -33.618553
7.2849078 54.084743 -33.648708
7.6708803 54.925705 -33.569054
7.2158022 55.112835 -33.649464
7.020031 54.03508 -33.566895
7.2253838 55.713333 -33.615047
7.3288684 54.956512 -33.556927
7.2438011 54.061172 -33.634262
7.0261307 55.108021 -33.644337
7.3989983 56.25032 -33.682949
6.7366438 54.679153 -33.580444
7.1383548 56.01664 -33.619164
7.116272 55.106907 -33.643471
7.2150908 56.250137 -33.630447
7.3126202 55.930073 -33.635014
7.2854996 56.230118 -33.636711
7.1254206 54.576363 -33.606873
6.8251009 54.157394 -33.585266
6.8294897 54.468483 -33.602055
7.295393 56.191086 -33.737568
7.3249621 56.26926 -33.715164
7.1259518 54.796097 -33.631424
7.1190028 53.945358 -33.583702
6.9357214 54.168682 -33.590569
7.1241431 56.142117 -33.670692
7.2238789 56.158993 -33.660839
7.1236582 54.004601 -33.50433
7.3071623 54.035339 -33.55574
7.4852562 56.269684 -33.710674
7.5286541 54.068005 -33.55077
7.2194891 55.861309 -33.725887
7.3329315 56.147972 -33.685471
6.5901508 55.047459 -33.569168
7.0249891 55.85667 -33.703621
7.2239742 54.041195 -33.568771
7.1236782 55.741367 -33.65873
7.5925522 54.037193 -33.57238
7.2371597 53.914497 -33.52372
7.1244164 54.636948 -33.530838
7.3089991 54.090706 -33.505188
7.5275536 54.659412 -33.553001
7.5878067 55.423195 -33.653679
7.0725594 54.625618 -33.534492
7.4226065 54.76413 -33.582058
6.6344914 54.793461 -33.594021
7.3303957 54.881233 -33.609287
7.4295769 54.541245 -33.557961
7.4674063 54.710266 -33.537308
7.4964581 54.116882 -33.510582
6.9272256 54.795387 -33.617249
6.8300772 54.791527 -33.605244
7.2202644 55.921421 -33.643383
7.2114959 54.792843 -33.643585
7.6792102 54.509628 -33.593582
7.5210209 54.525352 -33.559639
7.6111755 54.542957 -33.586281
7.3267531 54.542847 -33.558464
7.517375 55.636356 -33.631222
6.8387127 55.067932 -33.584042
7.1275921 55.080746 -33.581161
7.4349728 55.416569 -33.641666
7.4462466 54.638493 -33.543404
6.835618 55.42384 -33.639915
7.6084399 54.600456 -33.551159
7.0225964 55.423313 -33.658653
7.023428 54.790588 -33.626465
7.0140476 54.702129 -33.633091
6.9135699 54.948856 -33.529568
7.2060747 55.216679 -33.694908
7.2176781 54.713108 -33.649273
6.8585086 54.976791 -33.514595
6.9140868 55.558327 -33.684929
6.9299965 55.745331 -33.66497
6.9259806 54.698814 -33.632362
7.2286692 54.666809 -33.584274
7.521224 55.434292 -33.652245
7.5333424 54.681576 -33.600735
7.0279346 55.739342 -33.66785
7.1289196 54.669685 -33.593483
7.2298489 55.732735 -33.662849
7.1259823 54.886158 -33.619495
7.0284433 55.639027 -33.680836
7.2304492 54.13401 -33.538811
7.4284034 56.351177 -33.669949
6.8748064 55.141865 -33.537323
7.3201752 55.705235 -33.615093
7.0531402 54.94212 -33.536602
7.0117984 55.478146 -33.720665
7.1171293 55.431019 -33.722584
6.8234358 54.25449 -33.575493
7.3226814 54.230843 -33.533768
6.7429948 54.260693 -33.562641
6.8243494 53.940365 -33.563026
6.8297033 54.043411 -33.558479
6.9281311 54.256664 -33.581001
7.1169529 54.262127 -33.599239
6.7369232 54.126877 -33.54327
7.1162653 54.16674 -33.60461
6.9261551 53.945404 -33.564396
7.0266829 54.251991 -33.587276
7.2190647 54.253258 -33.598747
7.2283649 54.163021 -33.617374
6.6498551 54.967514 -33.591503
6.8012037 54.077072 -33.602402
6.7514739 55.076721 -33.573666
7.2211809 54.975712 -33.591282
6.6287041 54.682022 -33.569073
6.6379848 54.456505 -33.548321
6.8317909 54.450275 -33.561626
7.0389771 54.394318 -33.62302
7.2043805 54.387905 -33.645512
6.642405 55.59116 -33.603622
6.6398783 54.739532 -33.564014
6.9308529 54.388786 -33.618538
7.4174051 54.984226 -33.600559
7.2283239 54.448986 -33.553284
7.117837 54.407127 -33.630646
7.584692 54.925758 -33.622513
7.6049457 54.43111 -33.574425
7.5153303 55.274502 -33.573097
7.3292398 54.857399 -33.566925
7.7559547 54.827976 -33.614449
7.5276842 54.977524 -33.609116
7.6814919 55.742611 -33.661758
7.6672354 55.82428 -33.662811
7.5327253 55.762947 -33.603653
7.4891 55.723301 -33.661884
7.1364212 55.777817 -33.59013
7.5337873 54.888161 -33.61245
7.3372345 55.269711 -33.559273
7.2112408 55.23494 -33.565483
7.3916216 55.266201 -33.569031
7.4184566 55.07605 -33.604664
7.3342152 54.984592 -33.596947
7.1238165 54.326141 -33.518463
7.4183269 55.204586 -33.623909
7.602201 54.968758 -33.598106
7.5174866 55.07122 -33.589218
7.2309113 55.175365 -33.573742
7.5272541 54.453815 -33.56929
7.3259048 54.330307 -33.527676
7.4232092 55.172367 -33.583145
7.5803375 55.270782 -33.581078
7.3159056 55.171921 -33.573025
7.5494661 55.163548 -33.589676
7.2294683 54.930069 -33.550747
7.7214828 55.11153 -33.611973
7.5399342 54.859493 -33.57056
7.4317732 54.333267 -33.531906
7.5975933 54.198067 -33.561821
7.341239 56.008099 -33.634842
7.7325306 55.303772 -33.621216
7.2267194 54.389004 -33.512486
7.5130486 55.693344 -33.637669
7.6169343 55.275948 -33.619923
7.5323315 54.351631 -33.582146
7.5164137 54.135834 -33.545151
7.0451307 54.310978 -33.511169
7.6017494 55.702374 -33.640011
7.6123075 54.86594 -33.589218
7.440052 54.280571 -33.5924
7.6344948 55.068043 -33.611389
7.69099 54.358227 -33.592747
7.7027087 54.203438 -33.590206
7.6084957 54.12841 -33.571922
7.6940041 55.587269 -33.655006
7.5997066 55.229588 -33.635441
7.7624245 54.786278 -33.622887
7.7798805 54.592571 -33.6157
7.7844582 54.488544 -33.594288
7.7959938 54.368492 -33.591667
7.799839 54.314034 -33.585239
7.3097734 54.414127 -33.499393
7.684247 54.594791 -33.549961
7.6862001 54.451 -33.527992
7.0183883 55.14957 -33.564384
7.1302156 54.316788 -33.652351
7.4399691 54.195911 -33.622833
7.2680621 54.305962 -33.668591
7.3430152 54.410477 -33.63401
7.6229496 54.075001 -33.516464
