# .PCD v0.7 - Point Cloud Data file format
VERSION 0.7
FIELDS x y z
SIZE 4 4 4
TYPE F F F
COUNT 1 1 1
WIDTH 1377
HEIGHT 1
VIEWPOINT 0 0 0 1 0 0 0
POINTS 1377
DATA ascii
55.550453 41.771347 63.812637
55.486542 49.186146 63.887173
55.712502 49.198841 63.831127
55.804298 48.449131 63.79089
55.249096 49.032505 63.815426
55.960155 48.159496 63.757954
55.69162 49.093334 63.808659
55.300148 48.270123 63.828495
55.352226 46.840874 63.82864
55.933315 48.240963 63.794754
55.793495 49.157276 63.795803
55.698723 49.069607 63.843067
55.674793 49.284855 63.84481
55.966881 46.713947 63.762203
55.402477 47.152935 63.825008
55.296986 48.553925 63.834927
55.707893 48.472775 63.795994
55.487534 48.456882 63.802853
55.697384 48.566185 63.805664
55.602558 49.186375 63.823246
55.719982 46.213909 63.791206
55.861107 47.110756 63.794353
55.291344 46.928658 63.841095
55.320953 44.368069 63.847836
55.902977 45.204941 63.831348
55.914207 46.862926 63.822109
55.518951 46.838604 63.813499
55.20636 49.090221 63.813396
55.311691 47.17831 63.83316
55.278603 45.230946 63.839569
55.663433 45.176491 63.823555
55.580296 49.388714 63.861053
55.778053 47.17445 63.822521
55.366539 43.240189 63.832375
55.355415 46.222801 63.810631
55.723717 44.038795 63.841801
55.492088 45.19268 63.831615
55.351265 43.772972 63.824883
55.338257 43.530682 63.835964
56.07188 46.333694 63.790405
55.855389 43.742908 63.809433
55.688766 43.536419 63.824886
55.885593 43.614147 63.827473
55.27401 49.188843 63.845516
56.004574 43.524986 63.818829
55.625782 42.911961 63.821194
55.511578 42.383087 63.826904
55.912991 43.486462 63.859127
55.397392 45.580551 63.844467
55.397758 48.481552 63.815617
55.562645 42.46962 63.837311
55.393051 42.39711 63.825695
55.620506 45.709282 63.80801
55.703373 43.372173 63.867092
55.680954 45.696316 63.799747
55.414108 42.469414 63.844528
55.983353 47.962437 63.802212
55.408077 43.536442 63.84346
55.39817 46.872437 63.826694
55.965282 48.089478 63.805965
55.692242 43.623306 63.842545
55.565029 44.032272 63.883678
55.822392 43.403278 63.839577
55.806805 43.706955 63.851799
56.008499 46.826523 63.802498
55.87849 45.592175 63.82333
55.66869 43.321625 63.844036
56.014862 48.024368 63.875568
55.970123 47.625332 63.876965
55.898209 43.69479 63.855873
55.993332 48.056293 63.85498
55.615444 43.537514 63.830902
55.858158 43.384834 63.845394
55.61124 43.726608 63.851315
56.012524 43.612389 63.829411
55.800339 43.607601 63.825352
56.076702 47.68206 63.798122
56.080185 47.599674 63.812397
55.511856 47.159031 63.825211
55.791367 43.554695 63.842865
55.679859 43.884865 63.885719
55.691517 43.728519 63.854477
55.681679 43.589603 63.878414
55.591511 46.311096 63.817486
55.697651 46.301254 63.808132
55.697796 47.385048 63.805344
55.384315 49.106964 63.819748
55.841942 45.460094 63.823223
55.76701 42.755547 63.813023
55.051388 41.977665 63.930904
55.707447 42.685452 63.814404
55.80582 43.300751 63.823532
55.426483 42.173954 63.834278
55.012741 44.556377 63.944477
55.30949 42.149185 63.859604
55.39674 41.79451 63.940495
55.531578 42.689671 63.828262
55.503723 41.734402 63.927151
55.537323 41.817688 63.942791
55.093777 41.689926 63.92458
55.811371 42.067585 63.935055
55.484615 42.041473 63.927532
55.123989 41.99868 63.902462
55.298603 43.109821 63.925751
55.301163 41.739006 63.921543
55.374798 42.596607 63.929989
55.051632 43.049244 63.9189
55.788097 41.747368 63.910271
55.77594 43.842468 63.866585
55.759518 42.686443 63.822296
55.314621 44.527031 63.930477
55.506001 43.290401 63.844143
55.922863 43.253773 63.814938
55.423279 44.626713 63.83548
55.312859 42.458321 63.86459
55.694908 43.095005 63.853577
55.105145 44.026516 63.916286
55.720612 43.294319 63.899242
55.594513 43.589359 63.898151
55.567841 43.351479 63.892567
55.592033 41.745037 63.918358
55.704819 43.159004 63.917995
55.689262 43.185265 63.869579
55.700146 42.780075 63.851883
55.777851 42.866409 63.918049
55.414314 42.785351 63.861347
55.261955 44.1973 63.903751
55.694225 47.842537 63.776196
55.117935 43.585232 63.916546
55.235058 41.70787 63.896339
55.311596 42.98315 63.834103
55.731735 47.614223 63.780609
55.792454 42.949299 63.899086
55.083767 43.64856 63.902172
55.29826 43.627178 63.874413
55.211357 46.937752 63.86385
55.669804 42.45438 63.831451
55.60001 43.307655 63.836964
55.597321 43.621277 63.846519
55.865677 42.769268 63.85593
55.581039 42.76923 63.830914
55.313549 43.319355 63.85696
55.110245 42.462273 63.873154
55.506371 49.198284 63.831257
55.207642 47.261662 63.862011
55.395374 43.626572 63.858524
55.870193 42.349274 63.855392
55.894123 42.716358 63.859737
55.378876 44.023884 63.881817
55.596565 43.157185 63.882175
55.098736 45.643311 63.911968
55.671562 41.770569 63.92075
55.203846 43.136528 63.933147
55.206894 43.377605 63.931061
55.898125 47.932148 63.788635
55.20871 42.825985 63.932838
55.397655 43.115067 63.909603
55.786041 42.274269 63.903225
55.598907 47.94891 63.809334
55.206051 43.281857 63.914429
55.315987 43.910179 63.90522
55.13055 47.299789 63.914314
55.236511 47.299412 63.917786
55.130753 45.368553 63.882469
55.18935 46.71677 63.88353
55.312843 47.47438 63.842815
55.203201 47.791157 63.847275
55.527618 41.628536 63.868145
55.906006 42.646324 63.856762
55.524109 41.919876 63.863991
55.525063 42.42934 63.840214
55.514217 42.769344 63.860626
55.284576 44.133114 63.891594
55.872608 42.41507 63.873657
55.609665 43.081787 63.839428
55.398735 43.174702 63.889355
55.517212 43.624008 63.856247
55.220993 43.628426 63.875259
55.325123 41.930637 63.879948
55.598602 42.246071 63.876308
55.307949 42.864353 63.8853
55.386513 44.114479 63.879776
55.111206 41.794281 63.911793
55.497837 43.177441 63.882702
55.091629 43.366245 63.940662
55.307449 43.180153 63.892895
55.308865 43.282463 63.897472
55.785416 42.737408 63.893108
55.292324 43.588692 63.900608
55.428173 43.908703 63.900082
55.796661 41.981979 63.899937
55.494583 43.277447 63.889019
55.391548 43.597794 63.896683
55.202869 43.718094 63.900227
55.608723 43.269329 63.884697
55.504372 43.716461 63.856834
55.312157 43.712086 63.887703
55.112465 47.571838 63.870415
55.121883 42.100712 63.914925
55.113903 42.206787 63.920193
55.021683 42.637482 63.905602
55.21954 41.902977 63.873642
55.115314 46.181271 63.895729
55.193134 47.030006 63.870983
55.119091 44.363766 63.89769
55.401573 49.188229 63.85247
55.913654 42.176365 63.8731
55.809433 42.543789 63.856262
55.419132 41.70499 63.885315
55.410908 42.011864 63.890743
55.796333 48.037403 63.81477
55.314705 42.823353 63.919773
55.864761 42.912251 63.832554
55.200821 43.812412 63.904705
55.500851 41.699089 63.887016
55.697346 42.819382 63.903767
55.684883 42.847282 63.885811
55.518894 49.374207 63.867531
55.217773 43.164883 63.904987
55.59016 49.357033 63.794479
55.484951 43.583588 63.904881
55.856834 41.919666 63.906776
55.389885 43.7127 63.875698
55.157661 45.486927 63.8279
55.501999 45.934673 63.91605
55.409325 41.78476 63.899189
55.497047 42.546112 63.879093
55.511856 43.811951 63.871727
55.219559 47.129589 63.901348
55.566841 48.469139 63.925987
55.825726 47.942207 63.788715
55.048279 42.825291 63.909332
55.218754 43.048771 63.91856
55.216515 45.617432 63.914474
55.20583 45.844559 63.905834
55.507912 44.524235 63.925457
55.112877 45.540741 63.909359
55.582916 48.703175 63.903831
55.18327 47.728287 63.840927
55.600666 42.272594 63.902084
55.586205 44.527363 63.918156
55.194176 47.846634 63.91415
55.143753 43.072411 63.881069
55.408371 44.531956 63.923248
54.991856 47.167805 63.948944
55.688797 42.633347 63.891479
55.241879 42.763256 63.864365
55.112568 43.280655 63.918621
55.410282 45.77998 63.837074
55.797905 41.887318 63.881603
55.695271 48.740154 63.846539
55.702652 41.776123 63.882416
55.213715 42.469826 63.871384
55.114124 42.738403 63.903572
55.40292 46.949383 63.847576
55.505375 48.654743 63.837894
55.58329 48.818459 63.889542
55.427483 43.801594 63.89455
55.306763 42.007248 63.894215
55.711578 48.434269 63.839039
55.501785 49.060505 63.875877
55.753605 42.849941 63.878513
55.40094 42.86068 63.88504
55.409954 46.083031 63.83659
55.875614 41.798134 63.874752
55.779243 42.210373 63.898727
55.704296 42.536221 63.852234
55.604164 42.855122 63.877163
55.401344 42.959587 63.891109
55.509571 43.356678 63.894909
55.218445 46.995365 63.923557
55.632637 43.813869 63.865242
55.173878 44.518894 63.930386
55.900372 45.638458 63.865025
55.201725 45.738125 63.900898
55.819675 46.43491 63.911884
55.703327 41.66851 63.901611
55.304245 41.658726 63.91206
55.312508 42.792217 63.865089
55.835011 44.535194 63.918598
55.749432 44.836014 63.91679
55.824207 45.697086 63.919056
55.222355 47.243481 63.904358
55.381168 42.814861 63.914314
55.399261 42.635464 63.891201
55.401184 42.74081 63.89735
55.404423 45.644508 63.877522
55.128643 47.457253 63.896622
55.781204 41.709843 63.887539
55.21244 42.745388 63.920807
55.134197 46.382683 63.905022
55.601429 42.54496 63.865543
55.498341 42.732822 63.890106
55.098186 42.640717 63.904385
55.130394 42.791294 63.88641
55.612183 45.611725 63.909966
55.111031 46.493919 63.897026
55.791054 47.333504 63.911285
55.312443 47.725407 63.820431
55.790627 41.54258 63.889854
55.305313 41.705986 63.89167
55.403542 42.551693 63.882111
55.204922 42.645367 63.898426
55.587761 42.633839 63.885506
55.321632 46.995419 63.903229
55.743618 43.812866 63.817268
55.905758 41.699215 63.864929
55.792942 42.234779 63.875355
55.798931 42.43541 63.881275
55.804802 42.626583 63.869114
55.715904 42.721088 63.894047
55.494045 42.86356 63.878368
55.69545 42.957424 63.880215
55.404579 43.27293 63.891312
55.404945 44.45145 63.908966
55.204235 45.518234 63.913792
55.304535 42.536495 63.879845
55.313553 42.642757 63.898872
55.613308 47.637138 63.793266
55.318913 48.657459 63.853756
55.899303 47.258587 63.881931
55.406555 45.345104 63.870789
55.122143 46.595306 63.900829
55.530807 46.451958 63.906322
55.408768 46.145115 63.905804
55.203678 46.190033 63.886818
55.199444 44.353329 63.898853
55.214058 47.354996 63.885178
55.205547 47.452278 63.891888
55.108246 46.723816 63.898296
55.205963 44.455734 63.911552
55.600849 42.099911 63.887936
55.185612 42.002678 63.897591
55.49448 42.824417 63.906872
55.13414 47.0117 63.919449
55.309837 44.450531 63.911335
55.50132 44.570358 63.893883
55.494968 42.63924 63.88628
55.875797 41.656597 63.892006
55.490788 42.105583 63.887989
55.119854 47.13213 63.896282
55.455055 47.085419 63.926926
55.408321 44.349819 63.899994
55.305134 46.492371 63.883057
55.111805 47.238308 63.907185
55.402241 44.378033 63.834061
55.311214 46.917767 63.894894
55.44326 47.312603 63.911335
55.217979 47.542042 63.903454
55.400166 45.513943 63.898746
55.297276 46.056824 63.897873
55.203522 42.096443 63.90659
55.204792 42.19244 63.907135
55.312363 47.228222 63.906445
55.197971 44.665897 63.903362
55.508575 41.791897 63.887753
55.493652 47.317303 63.917133
55.408417 47.5401 63.910179
55.305824 48.403942 63.917671
55.213818 46.905167 63.911564
55.400711 46.999397 63.909927
55.792496 41.656277 63.894901
55.218922 42.501312 63.900906
55.318626 46.189831 63.864239
55.121845 47.060528 63.894344
55.678719 44.536613 63.916824
55.583435 43.05505 63.898407
55.725708 42.229847 63.874126
55.708576 42.437534 63.887505
55.208427 42.423176 63.901638
55.109341 42.963963 63.908085
55.796585 42.091736 63.887379
55.493134 48.627666 63.902237
55.324852 45.710533 63.821186
55.300591 48.961403 63.866627
55.409359 48.391411 63.908932
55.310257 45.340717 63.876259
55.301109 47.137371 63.894096
55.306419 47.041096 63.883953
55.401768 46.695724 63.905003
55.69957 44.747227 63.898998
55.704071 42.075256 63.884373
55.78783 41.792679 63.884377
55.303188 42.101276 63.897942
55.497471 42.192947 63.90004
55.40033 46.91127 63.898647
55.311348 46.732204 63.865452
55.728806 45.346748 63.861122
55.303246 44.762524 63.913651
55.506618 44.46463 63.878845
55.405037 48.659264 63.847012
55.601246 48.514378 63.87043
55.407013 48.521622 63.895176
55.898308 45.964195 63.857864
55.92944 45.906895 63.889927
55.819641 43.1758 63.868759
55.406685 46.190311 63.875973
55.872417 45.84457 63.889389
55.681705 45.058334 63.899414
55.907364 47.600182 63.935562
55.69775 47.634762 63.923996
55.801258 47.843868 63.915527
55.867886 47.324966 63.901543
55.420513 46.768852 63.923824
55.714725 45.622013 63.914383
55.67189 45.67165 63.945686
55.308498 45.603344 63.910915
55.601913 42.734238 63.890549
55.600548 42.821075 63.909069
55.909985 42.109951 63.890987
55.919327 42.264114 63.933922
55.584953 42.598003 63.931797
56.00502 41.799191 63.928734
55.408932 42.199123 63.905071
55.4011 45.921627 63.917019
56.006554 44.800907 63.932026
55.706814 47.85894 63.908878
55.604946 48.401985 63.90316
55.996632 46.761341 63.902462
55.590424 46.990246 63.909897
55.876015 45.520031 63.888355
55.874561 45.621929 63.90411
55.787643 45.839203 63.902519
55.39909 46.052883 63.898026
55.321625 46.443974 63.919159
56.107883 44.569622 63.923565
56.058201 44.792236 63.923515
55.689011 44.456188 63.911621
55.493694 48.520248 63.895672
55.30666 48.528633 63.898293
55.511562 47.856411 63.908249
55.686981 47.083248 63.927265
55.602493 47.30682 63.912979
55.60408 46.458385 63.913925
55.715736 45.916599 63.914818
55.208694 46.500137 63.901443
55.901649 45.114208 63.921333
55.790825 45.61544 63.912205
55.403206 45.613304 63.912205
55.405315 48.082333 63.905964
55.638531 47.868294 63.91394
55.405647 47.860016 63.91264
55.701523 47.300316 63.909702
55.810356 46.789902 63.924416
55.791012 47.072319 63.921551
55.40789 47.229218 63.898766
55.48558 46.775616 63.920479
55.215508 46.154083 63.912395
55.611343 45.923409 63.915382
55.220028 45.961201 63.894688
55.704315 45.526859 63.903713
55.313164 45.526794 63.902424
55.498035 44.350086 63.895195
55.492256 47.543751 63.905502
55.767937 46.999214 63.901566
55.396774 47.133812 63.893505
55.307175 47.352718 63.882736
55.882378 46.46674 63.903053
55.306805 45.654083 63.87933
55.498272 48.393238 63.908058
56.105419 41.821911 63.855572
55.599152 41.566528 63.894527
55.401733 45.744572 63.891968
55.399796 45.421566 63.896385
55.856754 48.712673 63.777119
55.600224 48.083138 63.902836
55.595009 47.985027 63.887486
55.689541 47.553589 63.902325
55.811234 46.685696 63.905678
55.810276 47.869682 63.847336
55.988625 47.885849 63.855396
55.605011 47.775265 63.894337
56.202991 46.924858 63.868515
55.691895 42.198921 63.901127
56.001148 41.803959 63.856991
55.897911 47.520351 63.877102
56.057434 46.992096 63.87154
56.333191 45.703915 63.831177
55.391869 49.372078 63.881088
56.182892 47.133244 63.870476
56.271606 44.744122 63.870171
55.805378 44.762367 63.903561
56.032173 41.693275 63.858906
55.705997 48.071323 63.904057
55.497765 47.767105 63.898911
55.319557 47.836201 63.911381
55.407364 47.45026 63.899841
55.500393 47.006161 63.907505
55.875412 47.001858 63.905025
55.50864 46.689877 63.902344
55.877338 46.697208 63.89856
55.970173 46.481625 63.909187
55.408749 44.668957 63.906639
55.590897 48.432178 63.85162
55.878468 48.116699 63.820763
55.894108 47.77351 63.879669
55.774525 47.522991 63.900688
55.682583 46.916351 63.886692
56.095104 46.893368 63.86063
55.61039 47.770378 64.005241
55.812843 47.690697 64.005508
55.668617 47.38586 64.01017
55.680885 47.307247 64.013268
55.975075 46.724411 64.020485
56.006386 46.540764 64.026077
56.023293 46.44352 64.03067
55.41264 47.265541 63.858253
55.692154 46.947414 63.823799
55.950756 47.416458 63.820847
55.775864 48.099674 63.885796
55.787434 47.988491 63.884785
56.005173 47.160393 63.801407
55.93277 46.023773 63.81892
56.037506 45.205692 63.828182
55.4007 47.491497 63.840027
55.868389 44.865738 63.887524
55.903572 47.703056 63.857552
55.805145 46.908218 63.883934
56.146255 46.092957 63.839214
55.706326 45.966106 63.870262
56.210686 45.416946 63.851753
55.791607 45.43195 63.869961
56.014072 47.591461 63.852676
56.004482 47.296478 63.839516
56.118572 46.506275 63.843159
56.26701 45.313786 63.847206
55.709011 46.477135 63.913948
56.004173 47.445385 63.855198
55.898544 46.723244 63.845646
55.688423 46.594139 63.880417
56.164433 46.396328 63.847977
56.259525 45.633331 63.85778
56.268497 45.548302 63.852871
56.281803 45.442883 63.854893
56.20356 47.022842 63.859661
56.23246 46.771114 63.855515
56.264065 46.438507 63.842522
56.274624 46.349979 63.842136
56.283718 46.266449 63.838478
56.291714 46.186214 63.832554
55.901993 45.283127 63.853596
55.696342 41.697529 63.868214
55.948826 47.983578 63.877125
55.506199 47.983006 63.894341
55.971752 47.762817 63.867226
55.802822 47.378197 63.864956
56.022617 47.2547 63.867508
55.606712 47.233383 63.897766
56.088684 46.81744 63.855843
56.17915 45.872196 63.847618
55.693779 45.837307 63.898018
56.204964 45.814884 63.868942
56.265537 44.969738 63.875149
56.322727 44.423763 63.872868
55.800339 46.098785 63.828346
55.795158 45.564625 63.851917
55.911434 47.88113 63.864388
55.912937 47.253532 63.853626
55.515511 47.272541 63.849342
56.028477 46.10878 63.850571
56.20179 44.79298 63.846165
56.170982 44.689014 63.851677
56.009403 47.33392 63.855652
55.808769 47.240349 63.883396
56.11301 47.154457 63.85677
56.122929 46.38446 63.862164
55.903336 46.061359 63.880363
55.910728 45.735622 63.873299
56.215717 45.525246 63.858952
56.257614 45.044674 63.877357
55.785194 44.806782 63.873798
55.800022 44.682907 63.886501
56.000641 47.022018 63.839577
56.020859 46.195889 63.863113
55.802223 45.854111 63.846786
55.901665 45.005226 63.897976
55.687496 47.988766 63.88504
55.697163 47.795334 63.83688
55.303349 45.7374 63.898037
55.875683 44.768879 63.902851
55.323231 44.666706 63.908184
55.503155 47.360809 63.878788
56.079727 45.967144 63.859352
56.082451 45.540173 63.849464
55.591026 44.481678 63.876465
55.88776 46.494217 63.858479
56.192207 46.178562 63.849613
56.174637 46.082481 63.839348
56.171261 45.985077 63.833858
55.914249 45.879585 63.834251
55.692936 45.869644 63.841396
55.705265 45.724419 63.88142
56.211845 45.740707 63.849895
56.232315 45.318722 63.849056
55.712517 45.244331 63.837574
55.706558 44.98008 63.905102
56.274567 44.814648 63.866493
56.292877 44.670841 63.869373
55.689983 44.653481 63.896816
55.883347 47.367626 63.870983
56.134914 47.176422 63.813015
55.700508 47.162888 63.812111
55.899609 47.143227 63.868965
55.916649 46.961472 63.831135
56.154991 46.890461 63.824402
55.892727 46.819294 63.852242
56.162926 46.729897 63.826023
56.164757 46.656803 63.821491
56.175255 46.486656 63.828026
56.208855 46.290737 63.848949
55.909897 46.192184 63.851971
56.202728 46.065067 63.844067
55.704327 46.059811 63.883137
55.995342 45.855988 63.840416
56.213692 45.620651 63.841255
55.711548 47.221603 63.894173
55.698025 47.12949 63.896736
55.905731 46.923798 63.873302
55.793999 46.044315 63.886543
56.007271 45.847149 63.918022
56.040146 45.599541 63.901199
55.501789 45.601707 63.910511
55.799725 45.508659 63.888622
56.013432 45.406673 63.868732
56.11689 44.891113 63.867195
56.086647 44.683746 63.919323
55.505505 44.663441 63.903088
55.594242 46.695412 63.895901
55.802544 46.586994 63.894928
56.021851 46.387775 63.868473
55.801689 46.179852 63.8475
55.588867 46.057884 63.889179
55.604202 45.842113 63.896225
55.890781 45.414036 63.868351
56.195488 44.878788 63.86438
56.197475 44.736301 63.875004
55.891964 44.658821 63.886158
55.595478 42.953297 63.897018
55.700218 47.672874 63.881016
55.898331 47.477753 63.890747
55.702076 47.353077 63.87487
55.70068 47.261032 63.830158
55.500645 47.22702 63.89772
55.499126 46.911327 63.889969
56.001072 46.7267 63.841614
55.500805 46.495216 63.871052
55.806217 46.957535 63.847008
55.594353 46.904736 63.894653
55.602108 46.81881 63.873653
56.000023 46.602348 63.861725
55.816658 46.28624 63.864883
56.089111 45.753448 63.855095
55.607735 45.736332 63.883095
56.104282 45.233673 63.838581
55.820072 44.892994 63.883945
56.116081 44.511639 63.854176
55.498039 47.131512 63.885986
55.692562 47.03363 63.85545
55.498459 46.943184 63.844582
55.991741 46.947327 63.837311
56.002373 46.90873 63.849628
55.50066 46.818855 63.881691
56.001564 46.821507 63.861328
55.687523 46.724957 63.846439
56.00061 46.646458 63.826122
55.998558 46.500244 63.854721
55.986259 46.427471 63.842644
56.002567 46.289013 63.856449
55.509472 46.18082 63.868782
55.703335 46.173172 63.854496
56.016094 46.05957 63.851254
55.504665 46.05592 63.891617
56.003098 45.965443 63.856342
56.008987 45.758785 63.859947
55.501125 45.654087 63.877419
56.020218 45.535427 63.869873
55.497581 45.52552 63.893059
55.698799 45.421085 63.882694
55.997143 45.323837 63.847336
56.009865 44.784 63.847973
56.010254 44.679012 63.888905
55.39962 47.795708 63.842491
55.369431 47.635399 63.812347
55.592705 47.139362 63.883442
55.996044 47.124237 63.850574
55.804146 46.736393 63.851921
56.0611 46.658295 63.842777
56.093002 46.573631 63.861118
55.790737 46.504578 63.858555
56.094769 46.287056 63.855728
55.592205 46.201252 63.847466
56.090282 46.170525 63.858303
56.084839 46.049477 63.862682
55.802116 45.951721 63.871544
56.076633 45.818901 63.860065
55.797642 45.751301 63.87796
55.594696 45.654766 63.872482
56.093956 45.621758 63.856289
56.108746 45.510536 63.858986
55.587791 45.526939 63.896133
56.104603 45.436386 63.856331
55.587696 45.428329 63.887165
56.104259 45.34095 63.855053
55.993412 46.669006 63.88134
56.091282 47.485565 63.819035
55.80439 47.450069 63.884975
56.09943 47.366501 63.822964
55.598656 47.355469 63.875813
55.79631 47.254253 63.83939
56.104679 47.251289 63.837193
55.611038 47.172302 63.826202
55.797974 47.129093 63.875702
56.093018 47.060085 63.835819
56.079273 46.92495 63.823547
55.598457 46.948982 63.832912
55.798512 46.813068 63.875099
56.099232 46.746181 63.849072
55.585869 46.72929 63.852364
56.097321 46.40501 63.839138
55.508286 48.841068 63.900848
55.708084 43.797607 63.858284
55.862209 43.492306 63.804836
56.207268 46.591503 63.836636
56.155777 46.3438 63.838337
55.608829 49.398514 63.810047
55.394817 49.411819 63.825859
55.790722 48.654167 63.809723
55.603863 48.736454 63.866734
55.599316 48.649521 63.825161
55.80965 48.244614 63.793053
55.504456 48.243492 63.817417
55.797634 47.617035 63.794983
55.916191 47.483803 63.816265
55.499065 47.493027 63.832478
55.406925 48.86237 63.834332
55.897114 47.580166 63.819
55.70158 47.486076 63.818703
55.790611 47.480743 63.831989
55.508835 47.45089 63.892971
55.401344 48.262573 63.81258
55.604324 48.566982 63.815304
55.409023 48.554611 63.824062
55.902721 48.020939 63.786728
55.522701 49.078983 63.811371
55.503304 47.670685 63.88409
55.688324 49.395264 63.813663
55.321625 49.400459 63.844574
55.610344 48.239418 63.805126
55.791485 48.116604 63.824383
55.718044 48.968735 63.829517
55.493576 48.973179 63.850243
55.598869 47.580799 63.858887
55.4011 48.436562 63.871597
55.797447 47.038185 63.854435
55.412685 47.035927 63.871857
55.589493 49.284702 63.840759
55.405811 49.28833 63.871899
55.617561 46.859844 63.813423
55.819489 46.846992 63.80014
55.400501 46.812824 63.883232
55.694103 48.874077 63.816074
55.91906 47.71067 63.801037
55.519012 47.810646 63.840626
55.802532 46.620216 63.819321
55.603924 48.888264 63.818184
55.80262 47.688492 63.802139
55.405987 47.66959 63.885944
55.700012 46.411507 63.849594
55.587971 46.408703 63.843483
55.806767 46.329117 63.816029
55.781784 48.413124 63.820354
55.599659 47.713123 63.80883
55.962471 47.086906 63.759132
55.598969 47.10231 63.802734
55.598095 47.048817 63.85603
55.795643 45.814293 63.817856
55.707806 45.763062 63.815395
55.902409 45.739185 63.801208
55.788704 47.797459 63.812908
55.812019 45.241814 63.826366
55.40237 45.241577 63.835869
55.501465 47.895241 63.875618
55.307358 47.899246 63.878731
55.599903 45.326904 63.867538
55.595619 45.246662 63.832672
55.594448 47.898544 63.868385
55.784763 46.548111 63.808228
55.600826 45.994961 63.813816
55.671104 44.598038 63.815334
55.392578 44.490604 63.867455
55.910831 45.881397 63.769341
55.501396 46.723286 63.851414
55.894085 46.630177 63.824017
55.504276 46.597477 63.888565
55.889053 47.033081 63.858646
55.491974 47.039066 63.866344
55.795921 47.586624 63.829472
55.413685 47.581779 63.863747
55.917133 46.108112 63.817989
55.68079 46.853779 63.808655
55.65794 47.105022 63.808403
55.589298 44.785187 63.87698
55.494976 43.932495 63.854656
55.402279 46.726097 63.868023
55.810101 43.097157 63.835541
55.308319 48.431293 63.875771
55.593533 41.690243 63.87701
55.313133 42.737892 63.901279
55.35548 49.355659 63.8092
55.106018 43.17268 63.896469
55.21497 46.830219 63.897793
55.509819 46.375519 63.893059
55.214085 41.962399 63.92181
55.126507 41.960331 63.918884
55.9021 47.803867 63.817253
55.717152 48.130009 63.821838
55.225677 43.399952 63.899963
55.411327 44.758297 63.915768
55.310337 45.299046 63.908989
55.520943 41.964443 63.905716
55.491737 49.283337 63.85862
55.401588 43.497635 63.88686
55.198631 42.250305 63.890362
55.303303 42.238361 63.874081
55.294449 44.346245 63.898544
55.48843 43.390434 63.870983
55.234474 47.617683 63.936714
55.139931 46.64399 63.863285
55.694382 45.925297 63.788189
55.499302 45.201172 63.90052
55.607586 48.034351 63.82003
55.211536 47.995422 63.901707
55.816036 42.492485 63.895561
55.207802 47.668179 63.89637
55.414711 47.828968 64.014389
55.712978 48.658249 63.828735
55.399658 43.398811 63.883446
55.800144 45.387344 63.91618
55.392853 41.96904 63.911972
55.899937 48.231426 63.826321
55.393463 48.618721 63.901894
55.502285 48.121876 63.850876
55.88802 45.341297 63.910969
55.603241 46.377369 63.896725
55.319416 41.969292 63.914204
55.502953 45.104885 63.88736
55.586571 41.942677 63.918224
55.139717 44.620247 63.830029
55.211391 44.773697 63.919529
55.520683 45.491394 63.820557
55.502922 45.424232 63.891453
55.319649 46.219296 63.931767
55.297966 42.961327 63.898857
55.796482 43.054089 63.893196
55.80397 48.22596 63.860851
55.810402 45.286083 63.890484
55.297604 42.623127 63.949619
55.417973 47.768593 63.897705
55.307846 44.785831 63.877071
55.596516 42.988411 63.831123
55.595428 46.151829 63.903099
55.688477 48.2043 63.865002
55.521687 46.318516 63.831924
56.313843 45.818848 63.870232
55.10955 44.487591 63.904327
55.806599 44.865402 63.932198
55.571144 44.833946 63.925434
55.798897 47.675091 63.863144
55.588188 46.595543 63.885311
56.293732 44.560966 63.859097
55.706108 44.574093 63.89072
55.598114 44.571468 63.892521
56.168556 44.564552 63.857712
55.894978 46.590477 63.884792
55.895016 44.561142 63.891365
55.2108 42.964676 63.915192
55.600296 47.667473 63.876747
55.874752 43.220821 63.822815
55.404503 41.664146 63.908005
55.497414 41.567146 63.897823
55.867229 46.309818 63.7967
55.895802 48.143314 63.778095
55.79578 45.354649 63.85186
55.118843 43.886971 63.913025
55.501282 42.418045 63.891529
55.402218 42.511337 63.909378
55.804527 45.112167 63.867641
55.398914 43.040115 63.901554
55.316132 42.418247 63.896511
55.5979 45.109016 63.87447
56.006771 45.154575 63.860428
55.575912 43.211708 63.827126
55.788708 43.221497 63.813095
55.395935 49.062897 63.892323
55.415104 42.296875 63.927132
55.601929 42.418114 63.889011
55.305897 43.49295 63.895508
55.500847 47.574539 63.856739
55.701038 44.8811 63.892677
55.443806 44.942829 63.844418
55.199272 44.134026 63.909882
55.411514 47.938267 63.818195
55.214233 46.772869 63.921871
55.499493 48.166862 63.924091
55.502827 43.476227 63.877254
55.50119 48.747486 63.870461
55.495514 44.920689 63.836761
55.398193 41.562363 63.89764
55.361214 42.929291 63.814342
55.688725 46.50016 63.86087
55.748978 44.916538 63.821136
55.843906 44.950733 63.843922
55.999138 45.217499 63.863255
55.727554 45.377163 63.909855
55.903717 46.411556 63.844986
56.230301 45.208248 63.867104
55.689842 45.009941 63.841183
55.437637 45.372734 63.920353
55.544872 48.157562 63.79068
56.287933 45.103584 63.825413
56.238785 45.11203 63.848381
55.132732 43.396004 63.886799
55.210972 44.258244 63.891891
55.581913 48.492489 63.799587
55.78046 47.753338 63.882633
55.716133 46.692902 63.895023
55.789978 45.093204 63.914574
55.687626 46.642918 63.816669
55.408852 46.622856 63.834949
56.104069 45.234657 63.859211
55.22467 46.095257 63.855812
55.31871 45.965836 63.822369
55.406574 47.888573 63.872471
55.103798 42.562908 63.890957
55.246758 47.127892 63.840691
55.306618 45.066387 63.921169
55.18623 46.38279 63.9049
55.806839 45.002254 63.858501
55.233604 46.019619 63.838665
55.298946 41.564854 63.903194
56.176643 45.313496 63.874176
55.112022 43.065983 63.92598
55.317787 46.102962 63.841461
55.503334 45.330753 63.866398
55.434608 45.998875 63.822025
55.410992 46.369156 63.902424
55.401665 47.98431 63.899353
55.695141 46.119617 63.837753
55.490509 46.093613 63.838131
55.577091 45.559273 63.849689
55.596081 45.201763 63.890053
55.20388 46.280273 63.899055
55.235065 45.369621 63.921291
56.120827 45.129745 63.851971
55.783379 49.107735 63.806526
55.200203 48.162346 63.801254
55.995632 45.64127 63.863525
55.701881 45.205929 63.888851
55.198143 44.948334 63.837883
55.337727 48.800884 63.826096
56.263466 44.689686 63.828594
55.075092 47.336105 63.892723
55.797573 45.19949 63.88929
55.10854 44.661213 63.906799
55.101299 43.806805 63.909615
55.494247 45.558792 63.850273
55.414242 47.350651 63.880398
55.689636 45.107651 63.868652
55.70961 47.894634 63.851944
55.616142 46.62561 63.826309
55.806149 48.553085 63.807957
55.52388 42.517132 63.901138
55.310093 45.206139 63.904778
55.491787 45.299637 63.904514
55.617596 42.661133 63.814171
56.153435 44.498493 63.865826
55.511116 46.02512 63.824894
56.107643 44.715199 63.840065
55.499844 41.658985 63.904945
55.231819 43.330566 63.880062
55.513214 45.377144 63.918293
55.497082 48.082905 63.900658
55.140923 47.251492 63.870228
55.333725 44.471882 63.862587
56.003952 46.225323 63.903126
55.405148 45.110054 63.890739
55.491592 47.937531 63.80965
55.785896 45.64167 63.861431
55.131248 46.273808 63.908943
55.410126 45.016006 63.868866
55.406113 47.70414 63.823494
55.337715 42.880577 63.814571
55.599922 46.278889 63.884644
55.300018 46.63496 63.852444
55.619156 44.927155 63.837654
55.309292 47.986816 63.89341
55.209206 46.705063 63.910191
55.313396 47.778214 63.901695
55.399765 48.746365 63.884151
55.207668 46.621696 63.839912
55.886604 45.101742 63.875511
55.401031 44.156483 63.822163
55.588654 45.288357 63.896389
55.098114 45.303337 63.904747
55.686657 48.022606 63.8036
55.90403 45.2164 63.895336
55.598125 46.769882 63.918629
55.52533 46.632675 63.831635
55.692024 47.591564 63.848179
55.90472 46.374557 63.906506
55.204628 45.120438 63.892258
55.304512 45.374561 63.925289
55.511738 48.568104 63.819347
55.308151 45.110443 63.886944
55.411057 45.20887 63.89925
55.678223 45.437786 63.813103
55.692345 45.63974 63.87117
55.207832 47.759487 63.901573
55.684547 42.505188 63.9021
55.03653 47.543377 63.89986
55.506153 44.756062 63.910011
56.306274 44.908279 63.787956
55.311615 47.591988 63.866867
55.411556 44.991001 63.907124
55.499287 45.022709 63.861572
55.397423 43.375969 63.909855
56.095367 44.999542 63.875206
55.30555 46.401764 63.859821
56.107346 45.017506 63.849983
56.110386 44.59008 63.867558
55.724178 41.961899 63.905277
55.597897 47.789772 63.840237
55.528156 48.802361 63.813389
55.318039 44.89534 63.831532
55.204483 45.213581 63.903473
55.412704 44.717834 63.855465
55.211533 44.695908 63.862068
55.805771 48.340958 63.816486
55.106537 47.674263 63.899727
55.312901 46.288013 63.890682
55.587166 45.866966 63.862606
56.232738 45.036732 63.845749
55.210934 45.86657 63.882427
55.211899 43.907887 63.903126
55.40451 48.198196 63.887035
55.60342 45.002293 63.850346
55.408981 45.862133 63.856327
56.268375 45.20166 63.841789
55.208557 43.667526 63.912266
55.587509 43.782932 63.826756
55.292629 43.047165 63.910259
55.601898 47.274422 63.839691
55.319603 48.085777 63.905701
55.179222 44.977787 63.855762
55.408562 45.069023 63.91188
55.407696 45.458534 63.827545
55.316296 47.788265 63.847237
55.303036 46.687706 63.905056
55.597832 47.487282 63.819992
55.203224 47.880043 63.889259
55.406429 46.272316 63.896255
55.296425 43.811756 63.896671
55.60157 44.666683 63.900982
55.300987 48.304737 63.899967
55.675545 48.281303 63.894127
55.305206 47.92997 63.806194
55.601551 43.838814 63.841053
55.618607 45.144646 63.929668
55.209976 46.066944 63.901447
56.281559 44.904736 63.84164
55.415817 42.240929 63.872337
55.5895 42.156181 63.847927
55.081383 44.74559 63.924496
55.529148 46.237083 63.805374
55.59898 46.253895 63.805626
55.506809 46.144592 63.901974
55.389763 48.796391 63.820446
55.204258 44.563984 63.890972
55.675022 43.49659 63.874619
55.594513 44.768002 63.914299
56.001152 44.579674 63.861481
55.299732 41.88596 63.904278
56.086403 45.876881 63.848076
55.964687 45.759506 63.825771
55.783455 44.681683 63.842041
56.105335 44.796597 63.855026
55.801041 44.9837 63.904541
55.704113 45.2985 63.906525
55.071404 44.186256 63.898327
55.674969 44.710369 63.859612
55.695244 46.152302 63.90062
55.518051 43.518688 63.835754
55.213051 42.548019 63.889198
55.308361 45.422344 63.89278
55.805634 46.15554 63.906261
55.587944 49.140976 63.87392
55.191509 48.567112 63.843147
55.883904 44.796803 63.856747
55.984386 44.989731 63.896667
55.315018 43.35342 63.909863
55.223923 44.207432 63.912991
55.488796 42.319992 63.88707
55.221493 47.573524 63.881096
55.10244 44.193096 63.911282
55.690918 48.758026 63.802834
55.396656 45.301884 63.908707
55.569775 48.711552 63.787971
55.791306 47.38419 63.791588
55.80022 43.119499 63.899303
55.501793 42.984978 63.840889
55.498665 45.072395 63.917515
55.410805 48.166859 63.916893
55.026558 47.56472 63.916218
55.115318 47.542957 63.906364
55.593754 48.304756 63.898418
56.013805 44.900711 63.859615
55.600506 48.155109 63.908028
55.119694 45.848896 63.880466
55.316647 46.815514 63.889339
55.7038 46.819092 63.876698
55.57777 47.372723 63.812859
55.106621 43.495773 63.844177
55.783569 46.415928 63.830463
55.259163 44.310268 63.777725
55.50119 42.237381 63.869984
55.228153 46.464706 63.925003
55.412445 42.428539 63.898258
55.590569 47.454586 63.890877
55.301617 44.026173 63.893772
55.396614 48.329639 63.837212
55.70406 48.349106 63.812069
55.778992 47.326027 63.789192
55.890713 48.325768 63.812782
54.999973 43.404118 63.912712
55.113129 42.311073 63.907059
55.102676 47.828445 63.89592
55.317844 44.980816 63.908764
55.119144 44.912346 63.89534
55.14547 44.778423 63.870342
55.505535 45.743908 63.885429
55.301331 47.264187 63.864334
55.400757 43.311436 63.847897
55.193626 48.121521 63.87788
55.284321 45.015152 63.873268
55.128674 44.452606 63.905361
55.608295 48.124763 63.835022
55.398106 43.846642 63.848228
55.507885 42.007877 63.886074
55.398487 45.848202 63.901562
55.596535 46.102371 63.832619
55.404919 46.59544 63.894619
55.637344 46.556923 63.812752
55.198177 43.503223 63.902267
55.110432 43.488361 63.905586
55.326584 46.236469 63.818153
55.307796 45.956684 63.886471
55.114079 45.741173 63.915005
55.343834 46.313797 63.838337
55.500782 48.433941 63.86858
55.112301 45.85437 63.908188
55.115425 41.889236 63.912056
55.046455 42.029736 63.909298
55.207664 45.341789 63.871136
55.146343 48.095181 63.871597
55.102821 45.438187 63.927094
55.207924 45.430191 63.89846
55.204067 45.298004 63.913868
55.30526 45.837353 63.901161
55.204254 44.154449 63.860962
55.292728 43.950272 63.859821
55.046944 44.329144 63.95406
55.027557 44.655106 63.91869
55.324089 45.561367 63.84808
55.327194 44.155594 63.856979
55.304985 47.66431 63.893032
55.317383 48.874432 63.834118
55.310379 45.780872 63.843967
55.307613 42.314621 63.893879
55.107822 47.773155 63.906158
55.296127 44.677799 63.8563
55.143414 43.961506 63.897453
55.541264 44.576565 63.799679
55.303524 43.397308 63.884819
55.502117 45.838707 63.900814
55.408863 48.95734 63.87262
55.687469 47.016914 63.899883
55.60125 47.546379 63.90218
55.237114 43.878197 63.832733
55.732971 45.561962 63.833256
55.19725 46.608212 63.897942
55.506771 49.39399 63.825428
55.511974 41.885826 63.894615
55.548599 44.052521 63.849224
55.118156 46.802254 63.906143
55.250732 45.789013 63.8498
55.927418 44.987507 63.847195
55.595539 44.979706 63.897186
55.598812 44.4412 63.904953
55.593128 43.395359 63.869606
55.632843 45.149406 63.806549
55.453125 46.215755 63.917915
55.179825 42.279179 63.920471
55.302639 43.854809 63.851414
55.230953 44.400654 63.847336
55.979118 45.534668 63.833633
55.582123 48.788681 63.801033
55.38504 44.847885 63.929516
55.60297 48.338924 63.818493
55.303402 42.354263 63.941452
55.022758 43.991253 63.901699
55.586548 42.195728 63.890976
55.410583 46.305389 63.828362
55.404419 48.305351 63.901203
55.5037 44.983486 63.903584
55.210201 41.880714 63.911381
55.024841 41.922817 63.904705
55.207901 44.799744 63.891914
56.004478 44.714085 63.832256
55.301956 44.25098 63.876965
55.317673 42.201481 63.90065
55.205948 43.606064 63.910271
55.895107 46.146149 63.909843
55.30521 43.668037 63.917023
56.300446 45.005253 63.819752
55.497551 42.954594 63.88665
55.511971 44.30674 63.857567
56.200058 44.424786 63.867767
55.505501 43.850399 63.846836
56.056564 45.304199 63.907066
56.156479 46.122646 63.868324
55.594952 44.694714 63.848049
55.617516 46.221523 63.914585
55.797642 48.793591 63.788952
55.276184 42.277603 63.919559
55.60141 45.066071 63.914116
55.478035 44.693497 63.849705
55.126122 44.263458 63.90321
55.200455 45.086525 63.924648
55.309986 47.448418 63.893333
55.809231 42.016045 63.871342
55.221741 43.943504 63.877167
55.696136 46.530949 63.803902
55.698917 42.011272 63.878143
55.310856 47.541458 63.906803
55.216152 44.995331 63.909447
55.209709 44.483704 63.880459
55.219933 46.339828 63.835289
55.112629 42.843285 63.899307
55.14426 45.599449 63.91687
55.045956 42.230259 63.911335
55.403217 48.120628 63.858772
55.318371 48.009434 63.836361
55.303345 48.113697 63.856346
55.170654 48.014217 63.858047
55.401836 48.023113 63.829506
55.102581 46.06303 63.903999
55.136463 46.155159 63.908016
55.199165 44.031063 63.900738
54.989952 47.293579 63.899849
55.102684 43.661343 63.932228
55.116726 44.577408 63.905102
55.030273 42.92001 63.904308
55.119671 46.443172 63.908775
55.224281 48.846115 63.834663
55.106827 44.14196 63.906227
55.21439 41.775589 63.905804
55.337662 44.601109 63.832966
55.212746 45.632725 63.884041
55.333481 45.17519 63.818256
55.203434 42.86459 63.901051
55.30938 41.78616 63.897778
55.401653 46.560078 63.828621
55.502556 45.779144 63.819111
55.515709 44.447563 63.909977
55.374168 45.150799 63.824917
55.587601 42.322254 63.878063
55.405167 45.964828 63.880859
55.400486 42.105354 63.898643
55.502365 45.863792 63.853512
55.602123 41.875984 63.894943
55.591541 44.350662 63.882854
55.505527 48.874668 63.811115
55.529465 45.650234 63.802128
55.684273 43.048988 63.900921
55.806866 43.504749 63.870659
55.626041 45.797382 63.816574
55.705921 41.897232 63.889866
55.600361 41.779732 63.886387
55.205429 42.317657 63.903465
55.594341 46.495232 63.877266
55.507641 44.834915 63.924267
55.407421 42.329025 63.890587
55.588345 49.065674 63.854866
55.592312 45.954899 63.875706
55.694874 47.449932 63.884098
55.706894 47.765186 63.898041
55.611599 48.96904 63.842712
55.510456 45.965588 63.87381
55.598236 43.508934 63.87114
55.792271 42.318699 63.884346
55.469471 47.617313 63.920616
55.641121 44.243275 63.888916
55.391674 44.2626 63.846779
55.82021 44.572735 63.871613
55.521393 42.2798 63.911129
55.731335 47.916153 63.772434
55.605476 42.00877 63.883484
55.600891 42.521973 63.904671
55.699303 42.331699 63.881786
55.422752 44.795502 63.878532
55.399464 44.572449 63.892521
55.282883 43.223324 63.831341
55.602959 48.21019 63.877956
55.504467 48.021179 63.821983
55.408588 46.503822 63.880951
55.375336 43.689293 63.917038
55.525387 43.224327 63.811302
55.395077 46.458866 63.910397
55.495491 43.054108 63.891186
55.402489 41.882584 63.900314
55.692829 46.369728 63.889843
55.331203 47.302887 63.914543
55.527378 48.352123 63.84478
55.306595 46.595322 63.899113
55.533958 46.557396 63.820385
55.504704 48.201805 63.885468
55.688496 48.242432 63.802986
55.494373 48.306995 63.899376
55.69405 46.288834 63.874813
55.50491 46.275063 63.886379
55.918121 46.283199 63.860046
55.307201 42.502056 63.917961
55.61306 49.094593 63.807121
55.508999 47.41185 63.818638
55.694164 47.664852 63.807373
55.714481 44.801113 63.879517
55.432095 47.372753 63.808361
55.625481 47.644524 63.927303
55.210297 45.583786 63.829773
55.497051 47.713078 63.818172
55.307941 46.378853 63.900562
55.171032 42.064293 63.945107
55.953987 44.808483 63.772587
55.329853 48.353439 63.850571
55.321743 47.091446 63.817722
55.308037 45.867432 63.860722
55.63385 45.468109 63.816269
55.220963 44.893051 63.901131
55.22015 45.266987 63.859001
55.406986 44.883801 63.898701
55.495026 44.792667 63.875778
55.800709 46.3801 63.884964
55.215691 46.389256 63.876205
55.602871 44.878105 63.889126
55.392975 44.058552 63.823799
55.405472 43.096169 63.869228
55.315086 43.088314 63.875267
55.409939 46.411938 63.835499
55.496346 44.888321 63.894962
55.306862 44.879967 63.904324
55.506344 46.408646 63.852406
55.21629 44.067764 63.819065
55.034542 43.244038 63.931339
55.696667 49.022503 63.786217
55.709587 46.240936 63.92651
55.152901 44.018364 63.832611
55.318714 44.046936 63.824097
55.195183 47.952206 63.825771
55.299038 46.141918 63.905014
55.229095 43.088642 63.877254
55.499195 43.08569 63.87011
55.207466 42.99078 63.849663
55.297199 44.573986 63.899101
55.506546 46.23204 63.923965
55.596741 41.660751 63.900948
55.310379 45.472588 63.842819
55.133339 43.700634 63.898804
