# .PCD v0.7 - Point Cloud Data file format
VERSION 0.7
FIELDS x y z
SIZE 4 4 4
TYPE F F F
COUNT 1 1 1
WIDTH 1237
HEIGHT 1
VIEWPOINT 0 0 0 1 0 0 0
POINTS 1237
DATA ascii
-2.0068023 -0.36932334 2.9630558
-1.9421291 -0.27162686 3.0311806
-2.8873162 -1.4365336 2.8560076
-1.9372836 -0.055011388 2.9544303
-1.8775725 1.1218218 2.7587981
-2.0758219 -3.3781915 2.9594653
-1.9639843 -1.2771755 2.9124372
-1.9522706 0.91459823 2.8537171
-2.0406277 -3.6998456 2.9388621
-1.9182389 0.19401309 2.9818738
-1.9835645 -3.71843 2.9519083
-2.8634734 -0.7003774 2.8446569
-1.7104363 -0.44681147 2.9773626
-2.0653114 -2.8888514 2.9646981
-2.8520648 0.85245883 2.8246906
-1.9907049 -2.8873696 3.0048399
-1.9530209 1.1299256 2.7644818
-1.9597661 -0.34022197 2.9757953
-1.9581226 1.1807005 2.7805882
-2.0426974 1.0826709 2.7794044
-1.9706712 -3.2252395 2.9601774
-2.1167848 0.035470147 2.8406656
-2.1087883 -0.72478902 2.8999929
-2.0718908 -0.92882115 2.8504965
-2.0419438 -0.099080384 2.8066018
-2.0774875 -1.7687016 2.8650985
-1.9695568 -2.7036324 2.9062204
-2.948395 0.47063568 2.7419598
-1.9641209 -0.98655975 2.9769499
-1.9311287 -3.2786942 2.9140189
-1.9597374 -0.24680635 2.9156144
-2.2129643 -3.4373031 2.9596479
-1.8815792 -3.7519088 3.0043774
-1.944752 -1.5869944 2.9956954
-1.9881532 -3.0768178 3.014559
-2.0486188 0.53731966 2.8588893
-1.9777801 -0.73649603 2.9131305
-1.9896768 -3.8027482 2.9502165
-0.96956599 -1.5756365 2.8763227
-1.0189143 -2.0750408 2.8872561
-1.9818723 -1.3860235 2.911042
-2.006778 0.27786699 3.0027444
-0.96375883 0.0036408417 2.9351313
-1.3664875 -0.48329681 2.9304798
-1.5808125 -0.48853523 2.9301622
-0.95702374 0.091601864 2.9557502
-1.9462448 -3.5665843 2.9873164
-0.97141492 -0.1930393 2.8649569
-0.9082365 -0.044942163 2.9872789
-1.9576225 -2.4704881 2.9974153
-0.97199726 0.1320004 2.8228559
-2.0321236 -3.170063 2.9448893
-2.1360154 0.81165719 2.8215091
-2.0263751 -3.2321675 2.918689
-2.000505 -1.3077292 2.9751272
-2.1341276 -0.45231605 2.9368243
-1.0186021 -1.8440138 2.9303007
-1.0172855 -1.7902386 2.9145708
-2.0297227 -3.2974739 2.9540248
-2.0598812 0.98247802 2.8096254
-2.0427079 -1.36123 2.899385
-2.048954 -0.63639128 2.9087031
-2.0267513 -1.4716495 2.8812912
-1.0419257 0.10854165 2.8831813
-1.0115566 0.24017131 2.8424778
-0.97655141 -0.34413663 2.9046412
-1.0348407 0.72914386 2.8292916
-1.9757235 -1.6954427 2.9117997
-1.9681659 -1.4435786 2.8888927
-2.0587521 0.12600954 2.8575873
-2.0444291 -1.6895094 2.9064755
-2.0539277 -0.82743663 2.8815415
-0.95689535 -2.0996435 2.9085407
-1.0236627 -0.29234567 2.86288
-1.9829232 -1.3995266 2.9516668
-1.9777046 -3.2970698 2.9460094
-2.0243783 -2.343504 2.9145687
-1.9566839 -3.3750091 2.9519551
-2.0459158 -1.0708255 2.9528382
-0.97685432 0.68333173 2.9482853
-1.9751837 -2.6240995 2.9224615
-2.0418043 -1.2783316 2.9040699
-0.97596681 0.59705555 2.9142025
-2.038172 -0.7254619 2.8881061
-1.9741731 -1.7233078 2.9423287
-1.9746752 -1.1277306 2.8920667
-1.9791348 -1.4954536 2.9486139
-0.94243705 -1.0240792 2.8462517
-1.9638003 -2.2427411 2.9275467
-1.9695671 -1.1928384 2.943527
-0.97400165 0.44631988 2.8677819
-0.97669959 0.52534378 2.8852816
-0.96448994 -1.4453102 2.8848972
-1.0595896 -0.11060695 2.8777702
-1.0351629 0.34024429 2.8597903
-1.9852803 -2.9526904 2.9242921
-0.83615136 0.43240401 2.8869612
-0.73181951 0.021665286 2.9063289
-0.72965395 0.23037051 2.8228688
-1.7063613 -1.6612291 2.9201648
-1.5955855 -1.3218373 3.0129824
-1.5742521 -3.1951957 2.9217575
-1.5364814 -2.986696 2.9315674
-0.59660304 -1.5750824 2.8825119
-1.5562224 -2.3188963 2.9417169
-1.4957428 -2.9608657 2.9325013
-1.5927606 0.38915542 2.8509345
-1.4899461 -2.668771 2.9158878
-1.5817513 -2.5406206 2.9497473
-0.64000738 -0.69574541 2.8737772
-1.6436461 -2.9192595 2.9402158
-0.639925 -1.5380793 2.874161
-1.6729636 -1.074597 2.9085386
-1.6067157 -2.5955896 2.9372602
-1.5881562 -3.2455139 2.9211025
-1.5969027 -1.2940127 2.9227936
-0.59342253 0.042603176 2.937367
-1.6117632 -1.1266521 2.8930292
-2.5417075 -1.1750538 2.8618729
-1.5935715 -2.4384317 2.925813
-1.5706499 -1.4332743 2.9207172
-0.5570631 0.53465557 2.8916736
-0.77484083 0.73264515 2.7125356
-1.5238955 -1.3580856 2.934226
-1.5830047 -0.67729062 2.8542433
-0.57542646 0.36715958 2.8553138
-0.59342372 0.41139534 2.8414891
-1.5657054 -1.5096645 2.9053769
-2.5647111 -1.7404861 2.9174442
-0.57799149 -1.4871004 2.8687322
-1.6035118 -1.6932095 2.9123659
-1.5414786 -1.5593604 2.9005539
-1.6182406 -0.8433556 2.8841846
-1.5790062 -0.72329366 2.8735435
-1.5302989 -0.81864774 2.8875952
-0.70487118 -0.5513202 2.7864251
-1.5929012 -1.1897261 2.8904383
-1.567915 -1.0382379 2.8939645
-1.5818665 -0.18697609 2.8549201
-2.4872365 -0.56097901 2.8855729
-0.64895964 0.48157299 2.8209846
-1.038342 -0.68607777 2.8632538
-0.52016234 -2.1261315 2.9287786
-3.1132233 0.70901442 2.7196569
-2.9295285 0.45442367 2.7749753
-2.0164795 0.70712745 2.9175839
-2.038048 0.080122866 2.9158924
-2.0164616 0.39852014 2.8992391
-2.2273543 -0.50306511 2.8971868
-2.9372756 -1.4377538 2.8346832
-2.0432169 -2.4511218 2.9455142
-2.9405694 -1.3891102 2.8624601
-0.98118842 0.0205402 2.8590384
-0.95947051 0.49524635 2.8272583
-2.5463638 -2.0392201 2.9487176
-2.0476801 0.27778545 2.9031196
-2.222286 -2.0588722 2.8171465
-2.0430727 -2.534127 2.9459405
-0.98057687 -2.0379562 2.8297634
-2.0383387 -2.0578394 2.835022
-1.9831414 -2.0652893 2.9024758
-0.97363067 -1.7666947 2.8998005
-1.8201296 0.50978827 2.9473338
-1.031911 -2.0193603 2.7998347
-1.5759754 -2.7063594 2.988513
-0.54663146 -0.51410496 2.9688568
-0.96603394 -0.082523853 2.8371227
-1.0360823 0.38414466 2.9149082
-0.97190833 0.45109192 2.9460864
-2.0367517 -2.7808704 2.9523683
-2.0350075 -2.6287084 2.9191175
-1.8566132 -2.6031232 2.9375885
-2.0495443 -1.9281038 2.9712768
-1.9703474 -1.5041896 3.010735
-1.9846489 -2.1198833 2.9297612
-1.9671637 -2.5441463 2.9363961
-1.8058901 -2.2890131 2.9385786
-1.9932129 -2.2958288 2.9207561
-0.98003244 0.31227139 2.9098847
-0.53339052 0.39724404 2.9488571
-2.4937348 0.41165307 2.8411281
-0.63329589 0.70051903 2.7035151
-0.76460612 -0.43799248 2.7444558
-1.7938123 -1.6416214 2.9447825
-2.0260935 -0.69280165 2.9805675
-2.4827383 1.0260389 2.7724094
-2.1419265 0.54460406 2.8542774
-1.3452778 0.15042962 2.8553634
-1.4124275 0.28879553 2.921531
-1.2933613 0.56090039 2.8832197
-1.3066144 0.6436066 2.8879573
-2.6018558 0.077513531 2.8917356
-0.97169423 0.21316251 2.8827753
-0.65635252 -1.913057 2.9163334
-0.84144235 0.11943497 2.8830323
-1.435226 0.44973758 2.8947778
-1.4239768 0.55658466 2.8202722
-0.63883436 0.59736246 2.8161247
-0.75800729 -0.58309382 2.9486032
0.24081159 -0.34769675 2.8000059
-1.3703818 -0.34311882 2.9300439
-1.3581896 0.43541232 2.845248
-0.76650202 -0.29577342 2.8151634
-0.97400713 -0.26304445 2.7949512
-0.16201663 -0.30313304 2.8368948
-0.5083847 -0.58488625 2.9329646
-1.9457662 -0.44326973 2.9773948
-1.4727641 -0.082833819 2.8796782
-2.1705105 1.0127894 2.7433562
-2.5442533 -0.29912412 2.7953126
-0.80037606 -0.20951791 2.8690028
-0.81659293 -0.15984763 2.8395734
-1.6049824 -0.118503 2.8535564
-2.5962157 0.99209344 2.7138588
-1.9669139 -0.64929467 2.9102852
-1.9630272 -0.614631 2.8257234
-1.6351315 0.57728666 2.7993028
-0.49252784 -0.63940072 2.9049041
-1.275461 0.57486224 2.7813272
-1.3597023 0.86154211 2.762795
-1.3741522 -0.30596125 2.8251491
-0.97151601 -0.30130416 2.8466265
-2.4853227 -0.2973417 2.8080986
-2.6617069 -0.1772382 2.799716
-1.9666946 -0.23010862 2.8637755
-1.4295763 -0.21039546 2.7938082
-1.2511748 0.96727365 2.7426386
-1.6118506 1.0110751 2.7430723
-1.9495335 -0.31534031 2.8367245
-1.2751623 0.8629083 2.791784
-0.57591581 -0.52026677 2.8522561
-1.6110973 -0.083701916 2.8068783
-1.9565312 -3.169358 2.9438992
-0.77818084 -1.070892 2.9182439
-1.5782944 -0.18297885 2.7840903
-2.5346172 -0.87507123 2.9264448
-2.51334 -0.54054034 2.927536
-0.060523987 -0.46474946 2.8048956
-0.3517791 -0.29942879 2.8660607
-1.4338881 -0.39276093 2.9585226
-0.96800649 -0.088855609 2.8857348
-0.98774838 0.23247179 2.8514698
-0.98277581 0.57161409 2.8369153
-2.2434635 -0.33989039 2.8830369
-0.43684506 -0.4818019 2.8726399
-2.331506 -0.31740192 2.8162911
-2.1415837 0.85908365 2.7631872
-2.8507009 -0.32262543 2.7940321
-0.45465398 -0.59789914 2.8471024
-0.77943289 -2.5200524 2.924747
-1.4534868 0.82686943 2.8776691
-1.9620057 0.85772413 2.7900481
-0.76648033 0.297683 2.856838
-0.95719111 -0.9274655 2.8600583
-0.7842263 -2.4793308 2.8868351
-0.89048409 0.14692946 2.9532404
-0.8471123 0.75373417 2.8481874
-0.82652402 -0.31453767 2.8573949
-0.84702158 0.0065837391 2.839133
-1.8670924 -0.20546271 2.8586655
-0.96527946 0.34288567 2.8635359
-1.9727303 0.12 2.8605554
-2.8525574 0.44488522 2.7939606
-3.7540021 0.74674463 2.1503208
-2.8371563 0.74003375 2.7919042
-0.88118851 0.22127585 2.8425148
-0.80662549 0.42889771 2.8180294
-0.44387698 0.56683624 2.8093703
-2.3634703 0.55608976 2.8020017
-0.88088894 0.54521632 2.7976732
-1.3595331 0.5444594 2.8146911
-0.752141 0.76608056 2.7738242
-1.9633777 0.96097368 2.818635
-2.7496257 -1.9621475 2.7981405
-0.85054946 -2.1023054 2.9033818
-1.5822977 -0.58051068 2.8823416
-1.1578244 0.74733883 2.850893
-2.2570477 0.8567158 2.7556055
-0.76735318 -2.3761148 2.955364
-1.7430971 0.85991323 2.783195
-3.1531572 0.87553644 2.7386544
-2.6507087 -0.34025145 2.8441336
-2.1546621 -0.31880859 2.8837848
-2.952276 0.58528173 2.7440114
-0.60513556 -1.3660182 2.8754344
-2.431582 -0.34064248 2.8519232
-1.1833559 -0.19520284 2.7960131
-0.98089361 -0.13244437 2.8204396
-0.36863601 -0.33819506 2.953438
-2.4050181 -0.67193395 2.8858769
-2.718343 -0.71464622 2.789675
-1.808461 1.2342148 2.8328536
-3.0610585 0.61209637 2.7174482
-1.7101076 -2.6553266 3.0445147
-1.9832022 0.54304177 2.821054
-2.0392313 -2.2232759 2.9232144
-2.0307083 -2.9621923 2.9450309
-0.79279494 -2.6077018 2.8934712
-1.4614247 -1.9566857 2.8363316
-1.5599232 -0.94739944 2.9146812
-1.4612598 -2.7728031 2.9208789
-2.7338593 0.39417443 2.8947031
-0.78927946 -2.3831372 2.9034848
-0.55885231 0.58360684 2.8025546
-3.008502 0.47716147 2.6920357
-1.9589804 -1.9298321 2.8806889
-2.291229 0.88574737 2.6948593
-2.7543182 0.32819521 2.7949138
-0.13725019 -0.49473539 2.8765278
-1.6550055 -0.42708132 2.8582814
-2.4530811 -0.58597976 2.8076763
-2.1299603 -0.57820088 2.8235462
-2.6954515 0.33960596 2.8247728
-3.0221858 0.34435239 2.7643735
-2.1808674 0.91785568 2.7163935
-2.9071136 0.70972139 2.7994459
-1.1826506 -0.19662583 2.8786497
-1.8063028 -1.427338 2.9066319
-2.2560833 0.74484891 2.7997878
-1.5968957 0.91293806 2.7355199
-2.7720139 0.43117324 2.7899606
-1.5757537 -2.2330914 2.9281917
-2.6547852 0.54361159 2.8566988
-2.2228391 0.15441014 2.9041722
-1.7920759 -3.7259445 2.9790449
-0.95162785 -0.8311007 2.8666384
-2.5198593 0.47315201 2.7934496
-1.5594051 -1.9683665 2.8793805
-1.6454556 0.81949031 2.8509142
-0.85412395 0.71056813 2.7621045
-2.7440267 -0.41501635 2.7708549
-2.8462138 0.51096189 2.8063459
-0.67323864 -2.6094644 2.9436278
-1.6726775 0.10173051 2.9410574
-1.2284801 -0.3097561 2.8292656
-2.1599915 -0.51961744 2.9242642
-1.6888146 0.33097854 2.8570988
-2.6544905 -1.9232608 2.8561466
-1.6452752 0.4427869 2.8629098
-0.64960492 0.039914828 2.8533304
-1.7851528 0.31198204 2.9053075
-2.1912282 0.076579601 2.886029
-1.3570931 0.75957054 2.7678745
-1.5928109 -3.0791736 2.9435756
-0.96015787 0.70936388 2.756453
-1.6557759 0.70660466 2.7497661
-2.1215856 0.42368421 2.8537967
-2.2185454 0.43380824 2.8223398
-0.94786119 -1.9119509 2.8661044
-2.0428627 -3.0818429 2.9456263
-1.6577237 -1.9652498 2.8842423
-1.151863 -0.50575995 2.8543813
-1.7248106 -2.8284273 3.0506935
-1.3607624 0.70525533 2.7556179
-2.2533922 -0.48234838 2.8183696
-1.7616146 -0.48681512 2.8323653
-1.9533167 -3.0795848 2.9422312
-1.8582549 0.31609562 2.9127588
-1.8717878 -2.2434821 2.9408705
-1.6513507 -0.30967721 2.8849025
-1.2685001 -0.48862919 2.8494639
-1.3589587 -0.48086205 2.8436253
-1.5525854 -0.48726168 2.8388779
-1.4551189 0.75520319 2.7625387
-0.65630794 0.11502367 2.879292
-2.4860055 0.53548473 2.844162
-1.8489258 0.033377834 2.9905088
-1.7671087 0.069331668 2.9238944
-1.6394758 0.049511079 2.8483765
-1.8547554 1.1835173 2.7867475
-2.0178266 -2.9835377 2.9184928
-1.6668141 -0.091150403 2.8972447
-2.6491926 -0.73645252 2.8357601
-1.8465725 1.1486328 2.8620696
-1.8445622 0.07179936 2.9297175
-0.74713492 0.23440497 2.8965056
-0.66376758 0.1937416 2.8631756
-2.7511125 -1.9154907 2.8643844
-0.80776978 -1.2064588 2.8352377
-1.968369 1.0528718 2.8319755
-0.77204704 -0.50730008 2.8497448
-2.1234462 -0.24314462 2.8925452
-0.76190484 -1.9475188 2.8430643
-2.2528081 -0.42331699 2.8404195
-2.0469174 -0.32944581 2.8833041
-0.74732089 0.34609538 2.9429567
-1.8237505 -3.567348 2.9141374
-0.77211714 -0.88051343 2.826648
-2.4493117 -0.71524322 2.854512
-1.5629071 -0.36416635 2.922621
-0.65455365 -1.8990703 2.8734057
-2.0600286 0.45139769 2.8277378
-2.7547359 0.75046498 2.7980878
-2.6338546 -1.0351169 2.8502388
-1.4530002 0.88670725 2.7327185
-2.8449016 -0.41036102 2.7764671
-1.8579139 -0.47027177 2.7851086
-1.6651889 0.91709375 2.7410254
-2.252558 0.70080423 2.7760396
-2.3775973 -0.2413667 2.883285
-1.8555741 -3.4831061 2.8997111
-0.75963831 0.78196049 2.7230477
-3.2346437 0.71924525 2.8120344
-0.77611768 -1.7051802 2.9084435
-1.8258381 0.47241825 2.8505352
-0.78266931 -1.653092 2.8560939
-2.1522372 -1.9202739 2.8430188
-1.9713259 -0.9465856 2.9156587
-1.6554332 -3.482933 2.901577
-1.674035 -0.94560421 2.9076455
-1.1563451 -1.9539776 2.8416493
-1.7913291 -0.95476907 2.9494193
-1.8423238 -0.95930916 2.9199095
-1.0440983 0.0050199274 2.878767
-1.8644019 -0.85520947 2.9566579
-1.753149 -0.86249524 2.9514952
-2.6508641 0.45620361 2.8063087
-0.036749125 -0.42233038 2.8903122
-2.7642331 -0.50450343 2.8888054
-2.551394 -1.9613005 2.8039067
-2.2630918 -1.922389 2.8370104
-2.5990696 -0.73797017 2.8588893
-1.0128899 0.60196614 2.7842891
-2.6560321 -0.41625914 2.77315
0.019763231 -0.38884479 2.8279738
-0.45586121 -0.41393906 2.9246423
-2.5113597 -0.9505077 2.9281676
-1.661147 0.62496632 2.8937991
-2.9505799 0.67734289 2.7045827
-0.041075706 -0.47443244 3.0137541
-0.86722994 -2.195693 2.8762097
-0.78761148 -2.1225524 2.9022896
-0.66589189 -2.0928757 2.881058
-2.7486095 -1.9820033 2.8492532
-2.569612 -0.12023415 2.80073
-2.5472744 -0.43123659 2.925072
-2.8367543 -1.993219 2.8529787
0.090840578 -0.26818392 2.8139539
-1.6666974 -3.5417445 2.9058402
-1.7671093 -3.5349171 2.898035
-2.0619919 0.75559211 2.7455344
-0.65972018 0.42736354 2.8574376
-1.0560172 -0.34367591 2.8959806
-2.0332527 0.6112023 2.8912749
-2.3537643 -0.42293808 2.7875588
-2.0549929 -0.48665154 2.8283544
-2.3747015 0.76598698 2.8033774
-0.7668947 -0.63028741 2.9154239
-1.1512659 0.65214413 2.8175471
-1.9642539 0.74043155 2.8219469
-1.9591116 -0.58709079 2.9641948
-2.5685158 0.55255878 2.8008103
-1.8259814 -0.94505346 2.9900463
-1.720504 -3.0599983 3.0412734
-2.5685153 0.23119922 2.8614497
-2.4500618 -0.41942364 2.7836568
-2.2452288 -0.34214619 2.8252842
-1.9877172 -0.012404355 2.9222298
-2.3526666 -1.9299765 2.8640392
-0.64552772 0.2269818 2.8269584
-1.7483025 0.43219665 2.8623378
-1.6530073 -1.1610628 2.9245713
-2.6711149 -2.0628736 2.8415928
-1.8341031 0.0011390791 2.9114904
-2.6402164 0.90074229 2.6842458
-2.0617821 0.55819994 2.7903116
-2.610568 -0.90091717 2.8740261
-2.6562438 -1.919355 2.8227377
-1.5394961 0.68201226 2.8120706
-1.8185487 0.71091574 2.9069808
-2.5685606 0.27169648 2.8976278
-1.7326009 0.12528312 2.8575463
-1.4539974 -0.4840349 2.8470881
-2.6527128 0.76385301 2.7256427
-2.1556025 0.75538623 2.7410583
-0.44761539 -0.12503022 2.8770242
-2.6081131 -1.4493309 2.863889
-0.67492855 -2.5181172 2.8788555
-1.7603161 -1.9213518 2.8478105
-2.5235536 -0.7122764 2.9663155
-2.6403098 -0.28825629 2.8257136
-2.038594 -2.6630571 2.9522836
-2.3533492 0.70872933 2.7346048
-2.306581 -1.9647257 2.9446082
-1.6662772 0.52128088 2.8870687
-1.8302283 -2.4741604 3.0165098
-1.7689834 -2.6724601 2.9658682
-0.9723748 -0.60224873 2.8677351
-0.81161511 -0.35670912 2.8956869
-1.7454903 -2.2178643 2.9419665
-3.2441201 0.81514603 2.6540093
-1.7595763 -0.63800216 2.9136596
-2.5722275 -1.9535453 2.9696281
-1.7744694 -1.0395513 3.0101488
-2.4555442 -0.41844895 2.833009
-2.7436366 -0.94437361 2.8744612
-1.5522245 -1.7635726 2.9233987
-2.2734451 -1.9599395 2.9462473
-1.7561741 0.53248894 2.8706369
-2.3542066 0.76381713 2.7424107
-2.4571571 -0.46608266 2.7657683
-2.2773857 0.61114395 2.8613069
-2.4553161 -2.0006104 2.9411275
-1.6307573 -0.16341704 2.948977
-0.96587527 -0.5042215 2.8733299
-1.5585895 -0.43806109 2.8557224
-0.77877057 -2.307704 2.8974745
-1.8711346 -1.2593776 2.9099596
-0.056867361 -0.33669561 2.9572721
-2.9294913 -0.53065431 2.8052554
-1.8346577 -1.9574333 2.9986289
-1.6184951 0.31430936 2.9281337
-1.6543384 -0.77338231 2.9827993
-0.74932945 -1.9653373 2.9029663
-2.6671853 0.88348234 2.7702115
-1.8535111 -1.5943811 2.9999192
-1.9577918 -1.0944405 2.9362571
-2.6595907 0.41634861 2.8723705
-1.8574772 -1.7004348 2.9678483
-1.0638502 -1.9546775 2.8443582
-2.7693007 -1.5560749 2.8420079
-1.962178 -1.9380269 2.9740126
-1.3674088 -0.069215253 2.9016232
-2.7872939 -0.29286042 2.8161592
-2.7848728 -1.4439092 2.8261344
-2.9560745 0.77994871 2.713454
-2.7587845 0.019286726 2.8072274
-1.7555945 -0.70917469 2.8944046
-1.821409 -2.1675096 3.0186417
-2.7445405 -0.18154393 2.8083937
-2.1558018 0.70702803 2.7370872
-1.7677755 -0.98947316 2.9734957
-1.2529089 -0.59116483 2.8444557
-1.8670623 -3.4184811 3.0270464
-2.4560521 0.76647097 2.7363868
-1.8587713 -1.0582036 2.95069
-2.8502059 -1.5563711 2.8256564
-1.9587758 0.69079465 2.7969615
-1.761111 -0.29637906 2.8043742
-1.8703884 -1.5156537 3.0149872
-1.9637426 -0.1206238 2.8789651
-1.6553369 -0.42475533 2.8049524
-2.754662 -0.91114354 2.9267788
-0.81862724 -1.6701248 2.878274
-1.8645698 -0.72331715 2.9122486
-1.2013649 -0.66822773 2.8403859
-1.721031 -1.2304426 2.9918454
-1.6929667 -3.0831423 2.9613755
-2.2543399 -1.9742846 2.8629398
-1.8490688 -2.8577766 2.9529836
-0.5770185 0.69238681 2.8231442
-1.966835 0.30616513 2.8899665
-0.95287573 -0.46402824 2.8035536
-1.773654 -0.29532629 2.9081271
-1.7533568 0.70581752 2.746738
-1.862017 -3.485707 2.8565364
-0.16842222 -0.46205342 2.8047376
-0.95119405 -1.9729717 2.8930278
-2.036253 -1.5896846 2.916743
-2.0572658 -1.9320021 2.876642
-1.2606111 -0.27713823 2.7787106
-2.2549231 -0.42104888 2.7907095
-1.8517398 -3.5093203 2.9902318
-2.1531384 -1.9611564 2.8179109
-2.15347 -0.42478418 2.7951436
-2.5562167 -0.46352625 2.7614479
-2.6533797 -1.9609243 2.7979584
-1.9528499 0.70610464 2.7440314
-2.3529799 -1.9619476 2.8095369
-2.4713159 0.86666787 2.7686965
-1.9840888 -1.0542479 2.895782
-1.9534585 -3.4832702 2.8550482
-1.8757619 -0.29785281 2.8381963
-0.65235579 -0.40759817 2.8279498
-1.0537189 0.7615363 2.7709687
-1.8526765 0.69210356 2.7929714
-2.7564778 -0.42136586 2.8399634
-2.5505345 -0.41742396 2.7809896
-2.152812 -1.9703203 2.8612711
-2.2546756 0.75927114 2.7419908
-2.1554103 -0.47016951 2.7764311
-1.7100128 -0.095010579 2.8856082
-0.82256877 -1.6428134 2.8574479
-1.8321406 1.0471019 2.7142406
-0.85875368 -1.9489238 2.8464673
-1.5590549 -1.9201368 2.8563356
-2.012233 -0.92073542 2.9972429
-1.94977 -0.42351714 2.8033724
-2.6665342 -0.54205751 2.9236593
-0.78897059 -1.1434472 2.8640242
-0.95469558 -0.41427252 2.8228836
-1.1623152 -0.46851465 2.7970486
-0.77881992 -0.61914587 2.8752456
-2.9556251 -1.6562783 2.8390188
-2.0557268 -0.5987879 2.8441362
-2.0197682 -0.10508983 2.9537106
-1.0629133 -1.916893 2.8610909
-1.6639118 0.094046585 2.8526833
-1.8610058 -2.8928623 2.9965696
-2.1544826 -3.4722457 2.8968122
-2.166595 0.34078941 2.9028151
-2.3538525 -0.46694267 2.7666826
-1.7514192 0.75333959 2.7505059
-1.1562059 -0.41603491 2.8186429
-1.7695346 0.30497199 2.9675245
-1.7514434 -0.42593586 2.8027527
-1.9512744 -1.9705268 2.8713915
-1.4565442 0.70506036 2.75402
-1.7770116 1.1171286 2.7958171
-1.7969972 -2.5010011 3.0096896
-1.8406402 -3.1226068 3.0299964
-1.8500222 -1.183179 2.9319227
-1.4556327 -0.4710055 2.7946749
-2.5438759 -1.3681462 2.8836424
-1.8034153 -1.571362 3.0861278
-0.73927796 -2.4012952 2.9480124
-1.8314101 -0.92381424 3.0373197
-0.77273762 -2.2217438 2.9431076
-1.0576109 -0.40851188 2.8195739
-1.9648662 0.34570798 2.8388255
-1.7421408 0.19515952 2.8761246
-1.8435732 -3.3948467 2.9466658
-0.81338847 -1.1368067 2.8499241
-1.1569802 0.76047862 2.7650115
-2.0340018 -2.8482664 2.9301538
-1.2574394 -0.42195493 2.8162029
-1.5549453 -0.42370713 2.8108835
-2.0597584 -0.42318586 2.7979407
-2.1517148 0.68045038 2.7782488
-1.8676651 -1.1617136 3.0605102
-1.9531401 0.75526541 2.7497001
-0.77361047 -1.5055645 2.8553944
-0.39288712 -0.57275277 2.8391428
-1.8443413 -3.6083908 2.9487405
-1.6620892 -0.18663712 2.8797493
-1.848701 -2.9508939 2.9348602
-0.74807668 -1.4629564 2.8887789
-0.55338287 -0.60274535 2.8797231
-2.6552143 0.55600673 2.7696197
-2.6656575 -1.5422912 2.8498435
-2.7485249 0.70093864 2.7032437
-2.2529547 0.70809686 2.7372427
-2.050781 -3.5360522 2.8901811
-2.5336094 0.32594204 2.8151906
-1.4567485 -0.42387033 2.8107464
-1.4505556 -1.9645078 2.8886602
-2.8527527 0.53665727 2.7813253
-2.4531336 -1.9606633 2.8076949
-2.5830245 -1.5919544 2.890008
-1.2564597 0.76248372 2.7643986
-1.7553923 -3.1975768 3.0135555
-1.8452206 0.12666887 2.8799689
-1.8556248 0.75313097 2.8235984
-1.8546739 -2.9722526 2.9616485
-1.8387944 -1.3195568 3.0008552
-0.64173603 -0.60886234 2.8533018
-0.96442187 -0.42153257 2.8937469
-0.77722907 -0.78349853 2.8307943
-2.2552719 -0.47013086 2.7691128
-2.4573958 0.71023977 2.727875
-2.3343205 -1.9988238 2.9414654
-2.8666825 0.78277069 2.711601
-2.6495016 -1.2566803 2.8978965
-2.7598555 -1.6501541 2.8476892
-1.8609843 -3.2068069 2.9954669
-1.5537267 -1.9312919 2.8797951
-1.0580895 -0.4666912 2.7947164
-1.8034081 -1.3972666 2.9745333
-0.75860417 -0.81087619 2.8606679
-1.8276237 0.86139572 2.8671093
-0.96092248 0.66700935 2.8372121
-2.1651607 -3.5563064 2.9167616
-1.1677934 -0.42514151 2.874172
-1.8630822 -0.1280982 2.8956292
-1.6100463 0.37394729 2.9353428
-1.7544324 -2.6007109 2.9849844
-1.7873693 -2.447221 2.969084
-1.7174373 -0.70625108 2.9501503
-2.0573134 -0.47048184 2.7764766
-1.8339084 -2.2816343 3.013274
-1.8353057 -2.5713696 3.0028801
-0.40657651 -1.9872327 2.9905655
-1.3559048 -0.423282 2.8149335
-2.502811 -0.91391414 3.0052752
-1.9551399 -0.4706763 2.7831538
-0.66852617 -0.33590373 2.9309757
-0.75737953 -0.73208439 2.8973629
-0.66112816 -1.9460503 2.8520365
-1.7987148 0.96787113 2.7922604
-1.7978185 -2.3043945 3.070384
-0.7693603 -1.2159451 2.9251332
-1.8595431 -0.67056334 2.9342005
-0.75807834 -2.0235188 2.8127279
-1.8539087 -0.42319739 2.8025503
-0.79439211 -1.2266942 2.8534501
-1.2629378 -0.4689818 2.7946806
-0.76144314 -0.46184841 2.8092492
-1.7676415 -2.2411203 2.9949615
-1.8582659 -3.8112674 2.9344735
-0.76566303 -1.1221625 2.8239036
-2.5406661 0.82388365 2.8288836
-2.6467404 -0.42228752 2.8493385
-2.0579414 0.7077176 2.7406929
-0.81031966 -2.2515614 2.8850651
-1.8665533 -0.48599789 2.8315222
-0.38600659 -0.49754408 2.8705406
-2.7570803 -0.088053666 2.7995064
-1.8053814 -1.0939934 3.0572031
-1.353313 0.7495479 2.8252048
-2.4513018 -1.9737448 2.851939
-1.9522487 -1.9582603 2.8259168
-2.5281124 0.51313567 2.8129525
-2.7597051 0.56630117 2.7775133
-1.7425973 -1.791851 2.952265
-1.7901777 1.1982669 2.7857099
-2.1553111 -1.9330223 2.8670685
-2.0468373 0.68273157 2.7986531
-2.0479236 0.0020762947 2.8840775
-1.9553506 -3.5214558 2.9781013
-1.783257 1.0795463 2.849436
-1.647032 -1.5856326 2.9382014
-0.44890332 -0.35817754 2.9651732
-0.63345361 -1.4385053 2.8728878
-2.4456611 0.68956554 2.7760928
-1.9680791 -0.85574353 2.9304466
-1.760499 -3.5107465 2.9722731
-1.6556089 -2.5979414 2.9855244
-1.8484731 -0.89649445 2.8758426
-0.58108246 -0.12567717 2.8184576
-2.8679347 -0.62694061 2.8537712
-2.3485498 0.68710524 2.7723904
-2.1789539 -2.0110106 2.9465632
-2.3655829 -1.9219693 2.8362164
-2.8621087 -1.9029266 2.8503318
-1.6489415 -0.036702488 2.879513
-0.64872563 -2.2124851 2.9596202
-2.4535365 -1.9192079 2.8331132
-1.8529485 -2.4473848 2.9760351
-1.7764399 -0.216258 2.9241009
-2.3500082 -1.9737285 2.8628743
-1.7795178 -1.16357 2.9556572
-1.8596159 -1.6682388 2.905987
-1.7537054 -3.4870024 2.8585176
-2.8586271 -1.5968282 2.866209
-1.0067062 -0.26547089 2.7951243
-2.0591455 -1.9601709 2.8216813
-0.67461967 -0.068456061 2.8316057
-2.71979 -1.314363 2.942539
-1.9570259 -1.7922831 2.9336069
-1.8330448 0.54159498 2.8797452
-1.6680512 0.1887354 2.9062715
-1.7250259 -3.2691998 3.0726557
-1.9513657 -2.4441524 2.9538565
-2.2463417 -1.9964256 2.9558091
-1.8436587 -0.77317452 2.9662693
-1.6713386 0.7411077 2.823158
-1.859365 -2.0254128 2.9529283
-1.9230295 -2.5688028 3.0367305
-2.0566969 -3.5260541 2.9638035
-1.2592931 0.70589697 2.753123
-1.7803825 0.34023175 2.8482506
-0.85504973 -0.40761635 2.8246937
-2.8468013 -1.8952404 2.8235781
-0.74279904 -1.3716962 2.8887882
-0.059158087 -0.38112056 2.8096049
-1.6447333 -3.5237923 2.9842873
-2.689882 -0.90926915 2.8440785
-2.2539544 0.81752717 2.8327501
-1.255753 0.61727905 2.8742633
-1.6880461 -0.88261271 2.9385891
-1.8750676 -3.170892 2.950357
-2.6596634 -1.9807334 2.8533697
-1.8513337 -0.56845492 2.9442637
-0.75825739 0.71099651 2.7643766
-1.8451921 -0.63226497 2.9750063
-1.2523401 -0.43336192 2.8769784
-2.1688051 -3.5231438 2.9797757
-1.9708176 -1.9997542 2.9679143
-3.150116 0.80261332 2.7235937
-1.8501954 0.87934345 2.7925179
-2.5678463 0.67489523 2.7846115
-0.96501434 -1.9517422 2.8446515
-1.89993 -3.7040956 2.9478228
-2.3558507 -0.48918986 2.8273332
-2.7414975 0.76106441 2.7210989
-1.849755 -1.024954 2.9151173
-1.8187805 0.20228615 3.0377035
-0.69851351 -1.367035 2.9204543
-1.4578061 0.75501961 2.8442597
-1.7603736 0.0087028341 2.9201419
-1.8725811 0.41367567 2.9157274
-2.6361344 -1.387045 2.870446
-2.8379312 -0.46710506 2.7493329
-2.8511605 0.69299358 2.6958957
-0.76754808 -1.0270696 2.8588893
-1.7522988 -2.5433691 2.9448929
-1.7638347 0.75698596 2.8221529
-0.5599817 -0.4601731 2.8069463
-2.0583847 -0.11894523 2.8749728
-1.6561205 0.75815594 2.7557936
-1.857493 0.75466555 2.7502601
-1.6663078 -0.63237542 2.9237518
-2.4394729 0.76140201 2.8039062
-1.6768593 0.91992748 2.8760719
-0.64550495 -0.15380865 2.8295023
-1.2616739 0.74530715 2.8437052
-1.9502325 -3.5650327 2.9044411
-2.6339715 -0.59440899 2.8212883
-1.552276 0.74629354 2.8227832
-0.45386314 0.68389702 2.8427145
-2.5675173 -0.49412715 2.8269053
-1.8119278 -2.7396693 3.0205367
-1.9597384 -0.49674851 2.8271737
-2.7630539 0.83483034 2.823128
-1.8298354 -0.32087803 2.9103439
-1.9076152 -0.125917 2.7887385
-0.65546405 -1.9669569 2.9069448
-1.840373 0.1991536 2.9410949
-1.7593858 -1.4758601 2.9571621
-2.5570936 -1.9196807 2.8293939
-2.5483496 -2.0751445 2.8618593
-2.1473122 0.7384966 2.8058178
-2.157768 -0.13098116 2.8638544
-0.5762074 -2.0085437 2.992327
-1.7730228 -2.9772041 2.9673412
-2.2557495 -1.9613595 2.8133752
-2.1707604 -3.5699639 2.9543839
-0.66080177 0.33373836 2.8568363
-2.1548004 -0.48496112 2.819015
-0.82816589 -0.085465357 2.8342583
-2.5649269 -1.2482295 2.896368
-1.6545284 -1.3642135 2.9227917
-2.5866292 0.43060023 2.9239209
-0.96653605 0.73692948 2.8489418
-1.8693953 -1.4617404 2.9395061
-3.6480947 0.74390167 2.1701035
-1.560362 0.75619948 2.7605143
-2.0653396 0.73036641 2.8079147
-2.6857684 -1.1142539 2.8384433
-1.7606069 -1.0559548 2.9268639
-0.59490776 -1.6153923 2.8928459
-1.7882537 0.84273618 2.8818831
-1.6017675 -0.74288124 2.9565175
-1.6714435 -1.6999502 2.9715669
-1.0502894 0.6737693 2.8326004
-3.3640065 0.77276522 2.695322
-0.85267615 0.76747954 2.7770536
-0.64955294 0.71345943 2.7621992
-0.66865408 -0.49252591 2.8723626
-0.95961952 0.77121633 2.7754359
-1.7666898 0.90852422 2.9143877
-0.45147943 -0.40256104 2.8257473
-2.9459245 0.67247623 2.7672987
-0.55584669 -0.40638375 2.8253286
-2.0542259 -1.9250849 2.8424141
-0.53431559 0.59167373 2.7602065
-0.67514706 -2.3195763 2.9119401
-0.7532953 -0.41066378 2.8255224
-1.9514514 -2.9716344 2.9529986
-1.4563298 -0.43030334 2.8580668
-1.8417221 0.91795123 2.703156
-0.63184094 -0.82873046 2.8933222
-2.6536894 0.70908612 2.7151561
-1.8522755 -1.7711891 2.9398601
-2.2258115 0.30342406 2.8686543
-0.15877819 -0.3950288 2.8259685
-2.9455698 0.80490571 2.6446879
-1.0690798 -1.9722692 2.8915515
-2.1209898 -0.16732976 2.8613086
-0.26418567 -0.40893584 2.8165486
-1.9763939 -2.8548338 2.9336948
-1.8765991 0.54513049 2.8152351
-1.6560905 -1.932356 2.8831682
-2.4548388 -1.9314697 2.8629866
-3.0335007 0.68334597 2.7428472
-3.2059634 0.75689125 2.7195096
-2.5671697 -1.0492098 2.8767102
-0.86060011 0.67823356 2.8108001
-0.78064823 -0.71530044 2.8410077
-2.6638756 0.75936264 2.7997415
-0.74270236 0.043068971 2.8604233
-1.680243 -1.7789007 2.9448669
-1.5580695 -1.9571682 2.8360047
-1.852672 -1.9317995 2.880512
-1.6572677 -1.9582429 2.833349
-1.7711028 -2.1375926 2.9614518
-1.2524705 0.6711008 2.8011653
-1.5565184 -0.46936247 2.7919016
-2.4658456 0.83078218 2.8314097
-0.67304337 -1.6740803 2.9157841
-1.7679451 -2.8805466 2.9680061
-2.5545323 0.76703423 2.791075
-2.7787299 0.47969082 2.75981
-2.2532387 -1.9336547 2.8702402
-2.6550479 0.12155214 2.8237276
-1.4159216 -0.26859844 2.8989723
-1.6516129 -3.4858458 2.8650954
-1.0610739 0.70632786 2.7547987
-2.6467631 -0.48447385 2.8048792
-1.8609854 -3.3076425 2.9669712
-1.3602692 0.56011754 2.8865364
-0.94572222 -1.9131598 2.9126835
-1.6580485 -0.48173961 2.8417292
-0.67787766 -2.4349768 2.9364369
-1.359468 -0.46917957 2.7967713
-1.4619098 -1.9213222 2.8602066
-1.8385828 0.21810696 2.8766918
-1.8398032 0.91919488 2.8729024
-2.5490572 -1.9299464 2.8582838
-1.1826459 -0.58832151 2.8378882
-2.647655 -1.1617254 2.9238193
-0.8421247 -2.2309232 2.912688
-1.7986678 -0.0025022561 2.848619
-1.6586561 -0.47105363 2.7882376
-2.6586018 -1.5738933 2.8734746
-2.7371624 -1.5803894 2.8640287
-1.8401387 -0.35258761 3.0038776
-0.7906642 -0.16428559 2.8173609
-1.4537785 0.68233645 2.8048425
-2.0551932 -0.29071635 2.8316584
-2.6237211 0.48031759 2.8935483
-0.86630154 -0.46220052 2.8013222
-0.65073085 -0.45850885 2.8089573
-2.8555853 -1.7432451 2.8460691
-2.8722575 -1.27115 2.817307
-0.66282058 -0.42526206 2.8908563
-1.0327636 -0.42041925 2.8884907
-0.45558131 -0.45815966 2.8077815
-2.4896374 -0.92029554 2.8588338
-2.3213096 -0.77050972 2.9528835
-2.3250732 0.8797543 2.7971444
-2.122551 0.54057693 2.8133829
-1.7553911 -0.47012118 2.7865584
-2.8658655 0.47090885 2.7669778
-2.4473364 0.51004863 2.7982771
-1.7607148 -3.0718296 2.9651115
-0.25618005 -0.45789096 2.8018155
-3.4377942 0.72620356 2.7470338
-2.1667793 0.10543256 2.8500369
-2.0547428 0.33109114 2.8300135
-2.063854 0.04060838 2.8534491
-2.1365626 0.22476202 2.8604763
-2.5478156 -1.7127892e-05 2.887418
-2.0753732 0.27698427 2.8127439
-1.9900168 0.22889045 2.8813405
-2.3465514 0.53079593 2.8477802
-0.82483912 0.8137179 2.685812
-1.7188051 0.93919152 2.7091475
0.020975351 -0.49643502 2.9115987
-2.6012759 -0.07858105 2.8682067
-2.2578394 0.0022734485 2.8154142
-2.6846962 -0.13154233 2.851615
-2.3021166 0.041193184 2.8943217
-3.7562268 0.76050979 2.717222
-0.64988387 -0.65181744 2.9335842
-1.7484758 -0.09951362 2.9743781
-1.7330687 -2.0211875 2.95433
-3.4294281 0.7082817 2.8399973
-2.3847373 0.59642559 2.8998535
-1.8662616 -3.0892713 2.9704709
-1.7568744 -1.2813342 2.9288709
-2.0813446 -0.19491035 2.8708556
-1.8577092 -1.3654799 2.9089921
-2.14556 -0.32171693 2.8103712
-2.8696158 -0.59416395 2.8145714
-2.8510189 -0.67988402 2.8158467
-2.0635376 -1.1432939 2.8708336
-2.0312397 -1.0800309 2.898998
-2.0391474 -0.88156444 2.9373741
-2.5260775 -0.64418471 2.8950603
-2.4205735 -0.63598913 2.8719707
-2.9218202 -1.7637031 2.8586035
-2.0310299 -1.6306996 2.9941394
-2.6188662 0.023447607 2.8450296
-1.853546 -1.9675359 2.8741934
-1.6525385 -0.73627257 2.8893046
-2.0437133 -2.3493936 2.9633694
-1.965606 -2.6566064 2.9624321
-0.63967872 0.67116356 2.8253171
-1.8416951 0.97729754 2.8011992
0.17963386 -0.30447313 2.8151622
-2.7451591 0.67482293 2.7801061
-2.5650935 -1.7013514 2.8651333
-0.070539236 -0.18977547 2.9560082
-2.5496767 -0.41643754 2.8413796
-2.456389 -0.48783007 2.8269532
-2.0908213 -3.1427727 2.9773493
-2.0460653 -0.23032053 2.9399467
0.072784901 -0.32440016 2.8227837
-1.9991868 -2.1684737 2.9976728
-2.3535376 -0.41991329 2.8379319
-1.8591647 -1.9253514 2.8491702
-1.359778 -0.43608475 2.8668015
-1.7361718 -2.2850232 2.9373176
-1.8681002 -0.42991742 2.8498435
-2.5693486 0.86567557 2.6837258
-1.6603088 -1.283684 2.9214587
-1.9750868 -2.7704139 3.0004756
0.17988825 -0.38457432 2.8141458
-1.9573779 -0.14188953 2.9562564
-0.022097349 -0.31690133 2.9101353
-2.1546917 -0.42929766 2.8326442
-1.849118 -0.17936392 2.966886
-2.3056371 0.19783312 2.8369815
-0.87622929 -1.960649 2.8970327
-1.8735385 -3.2644768 2.9352362
-2.058753 -1.9688153 2.8673141
-2.655021 -1.6662446 2.862334
-3.1312554 0.63684243 2.7847245
-2.5512271 -1.9728746 2.8510642
-2.0557196 -0.42694047 2.8481526
-0.86608994 -0.5055806 2.8727572
-0.85694671 -0.42572564 2.8839533
-2.8696506 0.673011 2.7813759
-1.7541924 -1.9671283 2.8797805
-2.5634763 -0.60243374 2.9623418
-1.9095442 -1.1845359 3.0693209
-2.0198226 -1.2453519 3.0185988
-1.5434048 -2.2721064 2.9670937
-1.9754245 0.5330081 2.859623
-0.7496736 -1.9004532 2.8736758
-1.7764992 -2.0611296 2.8918514
-0.079753399 -0.46361518 2.8674307
-1.7646384 -0.52408761 2.9527483
-0.73188913 0.66840619 2.8433042
-0.94949985 -0.70401782 2.8418241
-1.7583919 0.68387544 2.8048754
-1.8555276 -0.23793893 2.9301653
-1.770087 -0.43062973 2.8526595
-1.9572674 -0.42850137 2.84761
-1.3607453 0.67274338 2.8078134
-2.6486614 0.66863978 2.7842956
-2.7566299 -0.4988738 2.816221
-1.6551312 -1.5086778 2.9258118
-1.9706805 -2.6621199 3.0329998
-1.7577925 -3.1820943 2.9610033
-2.8767061 0.81205386 2.651284
-0.35535431 -0.39436629 2.911603
-1.9840734 -2.2777646 2.9739854
-2.1836987 0.95149678 2.7597077
-1.976317 -0.76760083 2.9659457
-0.78114331 -1.325579 2.8483484
-0.09924221 -0.12820059 2.8719883
-2.7733436 -1.4881054 2.8787987
-1.6500951 0.68550158 2.800164
-1.8235773 0.61905903 2.9159093
-1.1322235 -0.29692701 2.8198574
-1.7547292 -3.480722 2.8996501
-2.0567393 -3.4763725 2.8987107
-1.7804923 -1.3395307 3.0269356
-1.9572419 -3.4777901 2.8991585
-0.66226494 -2.1736777 2.9951243
-2.1812611 -3.4267671 2.9360654
-0.52136123 -2.1042178 3.0204308
-0.84779334 -2.1316614 2.9429622
-0.79154217 -2.0801151 2.9583833
-1.9520733 -1.5545747 2.9322412
-0.25616336 -0.43372071 2.9421988
-1.5443654 0.19527459 2.8574846
-2.7569275 -1.3771639 2.8617003
-2.8693392 -1.3833075 2.8626454
-0.74032342 -0.061221931 2.8455832
-0.42340529 -0.22085744 2.9471974
-1.7907268 -2.889725 2.952812
-1.8499779 -2.7748992 2.9722207
0.06695509 -0.44854406 2.8498862
-2.0077856 -2.1953638 2.9804218
-0.21014977 -0.21973044 2.9458773
-1.9568886 -2.7741716 2.9470117
-0.4928062 -2.0918212 2.9947011
-2.0347133 -1.7201666 2.9507575
-1.8217223 -0.62658858 2.8430445
-0.65838015 -0.88230169 2.9526606
-1.9827076 -0.67119175 2.9769671
-2.0356371 -1.8622078 2.9812613
-1.9786894 -1.7727135 2.887634
-0.87675333 -1.4750897 2.9507022
-2.0390794 -2.541234 2.9925458
-1.8592403 -2.6757932 2.9658306
-1.8350916 -2.1088269 2.9470124
-1.6640751 -2.2018669 2.9656754
-1.6599677 -2.1303592 2.9406433
-2.0461876 -2.1143384 2.9261889
-2.0382612 -1.7854424 2.9291909
-2.05457 -2.0186627 2.9508085
-1.6716084 -2.4388697 3.0294108
-1.7731179 -2.7830033 2.957644
-2.5551221 0.76682526 2.7330661
-1.5664678 0.86521882 2.8083165
-1.7557333 -1.9614018 2.8311653
-2.8870602 -1.7837371 2.8977454
-2.9301393 -1.734377 2.9156117
-2.848177 -1.9629283 2.7943745
-2.8896077 -1.7270471 2.9343359
-0.51781714 -0.41953197 2.9762692
-1.9638867 -2.3467846 2.9609542
-1.7445006 -1.7257522 2.9545968
-1.7186275 -2.3645935 2.9668913
-0.85650289 -1.9120029 2.9164157
-0.55500734 -1.9136943 2.9210021
-1.7528336 -1.9308501 2.8816252
-1.6287377 -2.7637148 2.9471033
-1.4587526 -1.9308723 2.8897996
-0.52865911 0.10188738 2.941936
-1.5667405 0.32548276 2.84108
-1.1608431 0.26450539 2.8466468
-1.3188233 0.24613312 2.8428409
-2.4078984 0.092022121 2.8975992
-1.0256834 0.44773498 2.8771949
-1.0375499 0.2999801 2.8961267
-0.84984672 0.51281458 2.8973742
-0.9756887 0.12168864 2.8642099
-0.75681543 -1.9094763 2.9131329
-1.9887128 0.067763641 2.9115715
-1.3507931 0.11708853 2.925266
-1.3096303 0.31216934 2.8673527
-2.7378292 0.87756234 2.7740979
-1.1307625 0.30691701 2.8541124
0.00013208389 -0.21503115 2.9085069
-1.034225 -0.21752933 2.8730652
-1.9511645 0.62371403 2.9028013
-1.0315866 -0.01941351 2.9327631
-2.5686674 0.86837411 2.766547
-1.7525405 -0.18986176 2.9027562
-1.4491718 0.85376358 2.7667334
-0.57128322 -0.40376562 2.9012213
-1.6506511 0.84430707 2.7602966
-0.55480695 0.04125046 2.864161
-1.5884926 0.14663588 2.8583987
-2.0640433 -0.54814702 2.9520009
-1.6457385 -0.30131873 2.840806
-0.75527656 -0.42629588 2.8818426
-1.8568553 -1.9578375 2.8281472
-0.41483164 -0.21920705 2.9000566
-1.4660962 -0.28052533 2.8367352
-0.45833611 -0.31040421 2.8623152
-1.1568465 -0.098214187 2.8725324
-1.3926061 -0.17227469 2.8626297
-0.27111959 -0.32742563 2.8792477
-1.9047878 0.024092531 2.8610764
-1.6508762 -0.5175401 2.9078932
-0.6453824 -0.74558657 2.9161856
-0.66789699 -0.30854458 2.8510497
-1.5826604 -2.0199325 2.9741504
-1.4622989 -0.23126262 2.8294914
-1.845009 0.32277629 2.8255792
-0.76505816 0.15326156 2.877599
-2.4904191 -0.23006336 2.8034964
-1.0566014 -1.9235004 2.9057176
-1.6786849 -0.45093313 3.0073249
-2.3712134 -0.63661051 2.8415949
-0.28920746 -0.52435732 2.9040892
-2.5652673 -0.57556498 2.8250387
-1.4241009 -0.6484279 2.8718195
-2.0523548 0.21967606 2.8702781
-2.0455382 -1.1824129 2.9371622
-1.6564376 0.71788764 2.9041119
-1.4962723 -1.8137616 2.9311476
-0.72667301 0.52347291 2.930038
-1.9633111 -0.84023124 2.8947875
-2.2015479 0.41505262 2.92589
-1.7527406 -1.6106637 2.977668
-1.9802461 -0.32836923 2.9221115
-0.59936929 -1.831684 2.9430282
-1.475619 0.046854369 2.8694606
-2.3305197 0.19280769 2.927072
-1.9542986 0.47841185 2.9666159
-2.2275708 0.38275981 2.911592
-1.528631 -0.63740271 2.8769076
-1.8717041 -2.3517303 2.9675844
-1.3656374 -0.2034272 2.7997684
0.10239339 -0.17174533 2.8665287
-1.9609643 0.43054697 2.8435774
-2.2221568 -0.64205557 2.851588
-1.226005 0.38266581 2.8693373
-2.5541461 -0.24725467 2.9127851
-2.2718291 0.53306037 2.8192046
-2.4060414 -0.84829605 2.9348035
-2.5679696 0.93470365 2.7836142
-2.3031013 0.93666786 2.7594199
-2.1315863 -0.65808064 2.8681109
-1.5350006 -0.46119189 2.9401288
-1.1391889 0.10342366 2.9488719
-1.5564899 0.70631319 2.7516837
-0.20014739 -0.63705605 2.9330502
-1.4207801 0.52071804 2.8788795
-1.5052366 0.58054477 2.9236448
-1.5996661 0.32615378 2.8812158
-1.5393192 0.025307026 2.8651292
-3.7037587 0.83715326 2.7081444
-3.6413262 0.66526186 2.7069514
-1.8575931 0.70605582 2.7442644
-2.5542302 0.70884389 2.723469
-3.174089 0.58244246 2.7734632
-2.042516 -0.95029336 2.8992202
-2.7510653 -1.9112613 2.8237762
-2.0539579 -0.9981367 2.9505944
-1.8498813 -2.5409462 2.9454782
-1.869329 -1.4100367 2.9670589
-1.860675 -1.5883424 2.9369678
-2.5676105 -0.79988444 2.9254594
-3.0494137 0.79037738 2.7088802
-3.0454216 0.69594097 2.7084548
-2.0500426 -1.3960501 2.9540503
-1.9528894 -1.9233057 2.8455892
-2.4599948 -0.73013413 2.9395318
-0.8534981 -1.9057363 2.8665547
-2.0398304 -1.4883217 2.930512
-1.6316524 -2.4228446 2.9381881
-2.6341949 -1.7753754 2.9047413
-1.6539557 -1.9211698 2.8516567
-2.0562911 0.87291414 2.79862
-1.6792319 -2.0062499 2.9543676
-1.7025467 -1.9520186 2.9593468
-0.83843458 -1.7590967 2.8899004
-0.77792084 -1.7753607 2.8913848
-1.3304086 0.94644541 2.7759666
-1.024906 0.54027492 2.8876703
-1.1585509 0.70669955 2.7531233
-1.5785943 -0.31322983 2.8442187
-0.29307485 -0.57110125 2.9737647
-0.14143467 -0.39805463 2.8929632
-0.72115982 0.17855121 2.9643095
-0.73523033 -0.10361101 2.9352269
-1.9329476 0.82939941 2.8479879
-2.0447018 0.84359807 2.8508778
-1.9440864 0.38178518 2.9170547
-0.25373888 -0.5986957 2.9090388
-1.4776815 -0.22288583 2.9751964
-2.313411 -0.35673377 2.8486335
-3.6463022 0.59482861 2.7991245
-3.6424766 0.67985535 2.7536492
-3.5726209 0.64186537 2.7472832
-1.6872998 -2.8213418 2.9618809
-1.658915 -2.2828088 2.94647
-1.5893997 -2.8264499 2.9359071
-1.0409472 0.22910665 2.913779
