# .PCD v0.7 - Point Cloud Data file format
VERSION 0.7
FIELDS x y z
SIZE 4 4 4
TYPE F F F
COUNT 1 1 1
WIDTH 834
HEIGHT 1
VIEWPOINT 0 0 0 1 0 0 0
POINTS 834
DATA ascii
16.351061 67.367775 -44.667233
17.098381 67.989571 -44.848919
17.125175 67.879608 -44.833908
17.043255 67.99102 -44.879902
17.009882 67.817429 -44.842579
16.665504 67.785484 -44.801205
15.70523 67.422424 -44.850227
14.646326 67.836906 -45.087582
15.781503 67.868477 -44.917988
17.388496 67.989548 -44.793919
17.090683 68.027176 -44.71027
17.107651 68.003639 -44.845268
16.845551 68.045807 -44.786831
17.113451 67.38858 -44.549164
17.134676 67.431145 -44.566532
16.92329 67.998848 -44.75066
17.17865 67.40052 -44.540039
17.1693 67.432861 -44.556042
17.044939 68.001373 -44.731289
17.190308 68.019905 -44.821072
17.209209 67.917397 -44.677536
16.304514 67.423843 -44.703896
15.634469 67.049232 -44.743427
15.017223 66.821144 -44.811096
17.050505 67.416046 -44.600376
17.933882 68.190109 -44.556667
17.210463 66.881973 -44.351906
17.510365 67.823677 -44.588848
16.433727 66.848106 -44.564358
15.218043 66.831482 -44.758354
15.62204 67.004753 -44.71011
17.146431 66.822914 -44.469368
17.387495 66.820999 -44.434807
17.297113 66.82972 -44.446594
16.303724 66.810356 -44.581547
14.883835 66.847382 -44.870655
17.106646 67.805992 -44.659866
16.737074 67.930519 -44.799561
16.86755 67.947929 -44.749142
16.642206 68.182892 -44.932877
16.976887 68.091469 -44.871353
17.184128 67.767075 -44.770233
17.504194 67.133064 -44.434803
16.490164 67.191589 -44.608932
16.724596 67.588631 -44.688965
14.576931 68.275452 -45.203381
14.949699 66.970802 -44.807732
17.192593 67.712364 -44.613522
14.227983 66.919586 -44.786621
16.921753 67.370483 -44.575172
16.897226 67.727974 -44.688789
17.189318 67.727592 -44.640671
18.292027 66.720955 -44.213161
16.700697 67.739288 -44.740753
17.108482 67.738983 -44.651249
17.333757 67.706558 -44.642612
17.014551 67.739235 -44.667896
17.355516 67.701149 -44.721653
14.385056 66.884285 -44.74826
14.627577 66.887245 -44.748756
14.316969 66.883339 -44.77013
17.27309 67.470016 -44.5317
16.725449 66.678963 -44.38467
15.944555 68.334656 -44.963375
17.280315 66.714561 -44.290325
16.385284 66.901443 -44.554535
15.129369 67.211586 -44.79052
14.999375 67.067444 -44.684811
16.193638 66.878632 -44.558933
18.103933 66.709496 -44.228401
17.253727 67.657692 -44.628296
16.048571 67.145737 -44.644295
14.537813 66.889557 -44.837143
17.136368 67.934235 -44.676304
15.597472 68.205269 -44.908306
15.379263 67.082474 -44.740299
15.319972 66.888702 -44.704674
16.958281 68.035919 -44.834248
14.575048 66.66964 -44.719276
15.198424 66.889412 -44.686462
14.732809 67.309914 -44.876129
17.754601 67.849846 -44.614307
17.296782 67.430397 -44.564045
14.406017 66.660576 -44.72493
16.624044 66.961731 -44.528934
17.887774 66.984138 -44.371075
17.105963 66.869377 -44.30584
17.68618 67.091621 -44.400139
17.146626 67.335251 -44.552944
15.804878 66.892288 -44.655949
14.986942 66.723549 -44.636127
17.997177 66.657616 -44.283112
14.684106 66.744156 -44.659424
14.997706 67.009003 -44.778049
18.177038 66.878044 -44.309959
14.938846 67.2985 -44.84367
16.997089 67.669594 -44.663681
15.603198 67.528168 -44.822163
17.644716 68.303902 -44.742054
15.290995 66.885605 -44.672585
15.993846 66.879356 -44.568352
15.812244 67.720383 -44.879662
15.725985 67.31073 -44.7309
14.806642 66.655457 -44.818577
17.006111 66.715546 -44.329834
15.45226 67.33432 -44.788826
16.283272 67.675606 -44.760632
16.114105 66.879395 -44.539108
18.31271 66.940498 -44.274048
15.543117 67.007462 -44.71666
14.62772 67.06134 -44.859245
15.578091 66.880493 -44.635006
15.950089 66.862221 -44.588299
16.39954 67.724533 -44.778362
16.306314 67.740692 -44.785244
15.023412 67.130608 -44.813797
15.732386 67.386635 -44.744656
16.611727 66.863548 -44.439873
17.334068 66.860489 -44.294083
16.099283 68.30423 -44.947449
16.234919 67.764961 -44.790245
14.850919 66.968407 -44.767303
18.106169 66.907753 -44.289204
15.188662 66.868668 -44.738857
16.216759 66.914421 -44.526402
15.395261 66.899467 -44.652859
16.080307 68.265175 -44.953308
17.215046 68.270767 -44.880177
15.703794 67.754677 -44.861115
15.599531 66.907227 -44.677719
14.809981 66.735497 -44.673355
16.822882 67.734177 -44.707184
14.918361 67.095726 -44.841072
17.596642 68.106796 -44.750511
15.219133 66.696793 -44.7799
14.355635 66.675003 -44.796326
15.091328 67.032143 -44.810776
17.190584 66.854393 -44.444767
14.422091 67.056847 -44.879982
14.978395 67.104614 -44.787933
15.835507 68.191338 -45.074142
17.962654 66.906281 -44.356468
17.302063 66.791489 -44.290401
14.91053 67.140572 -44.79977
15.109618 67.097099 -44.7799
15.43528 68.208733 -44.934402
14.589297 67.630165 -44.980515
15.169823 67.039703 -44.770706
15.178686 67.114845 -44.769516
15.616857 67.333427 -44.767406
16.105574 68.140617 -44.872677
16.029274 67.195656 -44.680317
18.204617 66.636353 -44.325909
18.291273 66.862411 -44.128033
14.610798 66.827805 -44.726765
16.134468 66.870819 -44.582748
17.644899 67.507439 -44.569275
17.907667 66.660194 -44.324539
16.717089 67.510155 -44.685764
17.370926 67.532547 -44.55299
17.091825 67.701134 -44.634159
17.186049 67.521927 -44.578621
15.295962 66.716049 -44.59296
16.011894 66.926949 -44.6124
17.256855 67.35463 -44.533154
15.726081 66.894783 -44.660641
17.82119 68.164803 -44.738865
17.3955 66.865425 -44.316051
16.799667 66.791794 -44.410339
15.094784 68.191849 -44.977222
17.115023 67.500771 -44.577362
17.395844 67.738747 -44.561386
14.809899 68.107758 -45.033485
17.791189 67.015251 -44.439537
14.743122 66.66143 -44.829655
18.567041 67.049187 -44.255131
16.358746 67.337265 -44.671322
17.020483 67.560211 -44.61396
15.177752 67.290253 -44.80265
17.631279 67.05397 -44.488235
17.529055 68.285347 -44.693813
17.90778 68.301888 -44.667553
15.835917 66.69207 -44.523521
17.655197 67.358162 -44.547138
17.758343 67.345039 -44.531784
15.205918 66.651932 -44.487122
16.704832 66.864708 -44.43037
18.20524 66.723206 -44.223145
16.610243 67.521187 -44.651318
14.332647 66.902298 -44.884342
16.083246 66.852005 -44.594124
17.897762 67.115402 -44.335701
16.112476 67.139969 -44.668388
16.294785 67.622581 -44.732777
18.01156 66.712379 -44.242775
15.677515 67.369408 -44.882446
15.791063 67.637314 -44.801807
14.98804 66.890617 -44.704544
14.615838 68.259521 -45.091534
16.701689 67.918434 -44.758331
15.96361 67.53653 -44.735641
16.620136 67.738518 -44.738632
17.682579 68.131966 -44.711449
17.911127 66.85009 -44.178226
15.683078 66.893051 -44.606991
15.181256 66.71553 -44.610569
16.703634 67.287323 -44.617821
16.070992 67.562798 -44.757877
16.092812 67.625237 -44.75745
17.472792 66.636528 -44.399803
17.700012 68.043137 -44.710808
15.136778 66.652039 -44.785957
15.735637 67.544968 -44.858952
14.692003 66.863289 -44.647018
16.2034 67.534042 -44.738274
17.890171 66.704033 -44.323746
15.114669 66.617874 -44.583019
17.52313 66.711922 -44.306255
14.805427 66.703362 -44.745209
18.213629 66.694824 -44.305599
17.288723 66.731506 -44.337242
18.124924 66.6735 -44.147335
16.04446 67.93618 -44.837337
15.113927 66.874741 -44.685631
15.584677 68.176704 -45.141163
15.387083 68.365677 -45.076855
16.906082 66.807205 -44.405064
15.397388 68.151749 -44.975163
14.552917 66.649666 -44.725887
17.496429 66.866356 -44.291954
15.678197 66.712669 -44.535305
16.945015 67.788124 -44.648216
15.49265 66.734764 -44.568707
14.901501 66.678978 -44.673531
14.659786 66.86824 -44.826256
14.202409 66.831711 -44.75864
15.623012 68.308159 -45.064976
17.458536 67.203453 -44.458469
16.420799 66.721207 -44.460342
14.496469 66.705559 -44.840961
16.427719 67.636238 -44.71777
17.800167 67.119545 -44.421822
17.115526 67.646652 -44.642723
16.172924 67.585609 -44.719952
17.403368 68.308929 -44.845566
14.621397 66.703285 -44.745766
15.18283 66.732353 -44.67329
17.925678 66.712509 -44.246075
16.116463 66.724373 -44.520885
15.611152 66.725822 -44.595581
15.551288 67.019783 -44.748871
15.442788 67.059914 -44.756538
15.006683 67.310539 -44.897701
17.546959 66.72821 -44.371944
15.925959 67.600449 -44.790722
15.914796 68.308022 -44.95084
15.09936 66.726677 -44.678192
16.155943 67.602325 -44.689983
18.555386 66.975334 -44.22551
16.116825 67.109695 -44.64056
15.507099 68.143013 -44.956932
17.903173 68.1409 -44.685219
14.93719 66.71743 -44.797455
15.78075 67.367401 -44.8577
16.007561 67.633003 -44.772686
16.821426 68.284134 -44.77562
16.806295 67.274635 -44.600983
17.829981 66.716576 -44.263535
15.044988 66.652107 -44.822456
17.333183 67.629822 -44.586102
15.636223 66.713768 -44.545769
15.085561 66.726044 -44.623402
15.20659 66.618309 -44.479126
18.179493 66.979523 -44.334167
17.746412 66.728531 -44.37542
15.1078 66.698532 -44.785648
15.008 66.720139 -44.79184
17.579079 68.283829 -44.650021
15.36544 66.741501 -44.695824
16.572502 68.298775 -44.827766
16.434122 68.241661 -44.936829
15.01337 66.712082 -44.701096
16.327349 66.695641 -44.436878
15.826916 67.311707 -44.747646
16.314848 66.73764 -44.510704
16.274748 67.312042 -44.712631
15.499867 66.732384 -44.619038
16.128191 66.712288 -44.46777
17.082968 66.732086 -44.367493
17.756554 67.90831 -44.607857
15.224371 67.96962 -44.978863
16.268877 66.865448 -44.525753
14.517474 68.131065 -45.051369
17.421988 66.725685 -44.345539
16.542585 67.658241 -44.687328
17.973177 66.88813 -44.232933
15.120586 67.303917 -44.810776
18.514061 66.925949 -44.227993
17.31002 67.929527 -44.655869
15.883801 66.694252 -44.504395
17.401167 66.727654 -44.401558
17.71554 66.710754 -44.262493
16.419106 67.016472 -44.56115
14.466105 66.978104 -44.823112
18.106243 66.732002 -44.296482
17.638271 66.714226 -44.293209
16.638594 67.26973 -44.636894
17.850048 67.107735 -44.373096
14.653376 66.945938 -44.852116
18.310024 66.725296 -44.275288
17.852169 66.740707 -44.204338
15.627782 67.839355 -44.895222
16.231827 67.350327 -44.72525
17.114256 67.608086 -44.619049
16.083471 67.898544 -44.845181
16.854321 67.349976 -44.618698
16.38615 66.707512 -44.41674
17.087994 66.773972 -44.32959
17.021936 67.621201 -44.610821
15.099051 68.285034 -45.036713
16.740608 67.609024 -44.709053
16.01195 68.29673 -45.023411
15.367468 67.106598 -44.782787
16.581837 67.609085 -44.68787
15.577569 67.143623 -44.736881
17.979359 66.711998 -44.175205
16.921541 66.695679 -44.321087
17.953342 66.653496 -44.185699
16.514647 66.727531 -44.395119
16.59346 66.725845 -44.441238
16.515654 66.734016 -44.450123
17.005829 66.792221 -44.376389
17.211462 66.803238 -44.329136
17.516935 67.150864 -44.417339
14.703407 66.897461 -44.721752
14.825695 67.626862 -44.933388
14.780197 66.863876 -44.709068
16.87545 67.594284 -44.652927
15.710382 66.730156 -44.593513
15.872882 66.592842 -44.481354
15.500236 66.908012 -44.693596
15.28824 67.139618 -44.7617
17.620564 67.110626 -44.455978
14.885711 66.687561 -44.742882
16.709301 68.241074 -44.944256
15.80641 66.731728 -44.561012
15.665944 66.627632 -44.514359
15.903275 66.730164 -44.532253
16.781992 66.86895 -44.421173
17.492729 66.713364 -44.252533
17.180597 67.316895 -44.506565
15.420938 68.308586 -45.017715
17.205507 67.621895 -44.598072
17.68495 67.118683 -44.492027
15.320311 67.138573 -44.771454
15.514211 67.096687 -44.726131
17.655153 67.609428 -44.584824
16.631849 66.848312 -44.379436
16.409445 67.540451 -44.712429
15.299337 68.287964 -45.016727
18.436607 67.101135 -44.340374
18.116385 67.106247 -44.359295
17.108158 66.719177 -44.324219
17.891205 67.094666 -44.404991
15.905273 66.897125 -44.622093
17.368023 66.693848 -44.280025
15.582739 67.197945 -44.731323
16.865915 67.289558 -44.570049
16.903765 66.86795 -44.410198
15.575321 68.282104 -44.99308
17.500322 66.625748 -44.303951
17.434509 68.279373 -44.691147
16.282902 67.349411 -44.679565
16.332315 67.509529 -44.735794
17.168018 66.985268 -44.453609
16.203606 67.312927 -44.686592
16.481007 66.723694 -44.593914
15.110022 66.821716 -44.683121
16.501524 68.332161 -44.898174
18.221554 66.751442 -44.153843
16.269533 68.333786 -44.916756
15.796903 67.135696 -44.671928
14.953019 68.286865 -45.119186
15.677903 67.149246 -44.697407
16.483755 67.122276 -44.582256
17.979929 68.285965 -44.621037
18.091087 66.967613 -44.305168
17.43729 68.179245 -44.7799
16.391443 67.887245 -44.782734
15.989259 66.739761 -44.538486
17.398222 68.067299 -44.607697
17.653353 66.869537 -44.30098
17.125708 66.870216 -44.354485
15.086721 67.014618 -44.764851
15.78114 67.014511 -44.678547
15.609997 67.115669 -44.70282
16.46797 66.868515 -44.522137
14.113854 66.829941 -44.760944
17.508436 66.801094 -44.37064
16.207729 66.730354 -44.502125
16.224733 67.915138 -44.825367
15.743145 68.244766 -45.029167
17.901503 68.301125 -44.653866
17.211224 66.766182 -44.306969
15.305635 66.725761 -44.672306
17.30084 68.231621 -44.69677
17.530319 67.928185 -44.600357
16.32568 67.89917 -44.783997
16.207455 68.3078 -44.895443
15.495196 68.31678 -45.008629
17.571091 67.199585 -44.450542
17.389454 67.808052 -44.62442
16.968109 68.322769 -44.859379
16.03207 68.245857 -44.982067
14.931551 68.169296 -45.072708
14.71568 68.127037 -45.017342
16.206438 66.765495 -44.459183
14.846724 68.099251 -45.081711
16.351162 66.78167 -44.412815
16.097754 67.252815 -44.714352
16.088499 68.290894 -44.891788
17.877975 68.07119 -44.579273
15.516258 67.131012 -44.737144
17.687212 66.856506 -44.250263
17.973156 67.146362 -44.377647
17.650087 67.558807 -44.577488
15.13221 67.141975 -44.826214
15.023024 67.239212 -44.897301
17.612122 67.337051 -44.457188
18.000841 66.795502 -44.257111
16.496836 66.875458 -44.457535
16.311378 68.248611 -44.925369
14.574251 68.306198 -45.068176
17.444799 68.188515 -44.630409
15.20327 66.805649 -44.662426
14.790582 66.810051 -44.704662
17.894806 66.797203 -44.17934
15.899726 68.221016 -44.920982
14.467338 68.275421 -45.080963
17.657009 66.767464 -44.207771
15.093537 68.143768 -45.040894
16.547897 67.621613 -44.744251
17.060839 68.17881 -44.910156
15.292097 67.177177 -44.764271
15.405383 68.225624 -45.000923
16.612381 68.248512 -44.901409
15.208006 68.139885 -45.00597
14.869821 67.194611 -44.828156
18.227386 67.057793 -44.329647
14.459319 68.105438 -45.204433
18.115049 66.775513 -44.229359
16.503567 67.740921 -44.746563
15.718501 68.298271 -45.003811
16.176899 68.303032 -44.967907
17.845253 68.27565 -44.678951
14.435405 68.06427 -45.1642
14.89945 66.772812 -44.640366
14.513268 68.199234 -45.045113
17.798038 66.780762 -44.265812
14.430714 67.10379 -44.866367
17.613516 66.808075 -44.282471
14.79419 67.127022 -44.796299
14.576696 67.13044 -44.950882
14.603564 67.188301 -44.841934
17.734894 67.230453 -44.463234
14.604845 66.797379 -44.699318
15.508266 68.253746 -45.065033
14.58673 68.053291 -45.150814
14.649578 66.65683 -44.806583
17.69949 66.803337 -44.278324
17.725962 68.051544 -44.596336
14.701676 66.831894 -44.735058
14.747232 67.066071 -44.850212
14.896725 66.820564 -44.696133
14.767767 66.647011 -44.790897
16.395031 68.328751 -44.920673
15.837338 67.426292 -44.749027
15.789558 66.887276 -44.615196
15.50843 66.867996 -44.632385
15.407256 66.812141 -44.637226
15.606444 68.212296 -44.963726
18.19068 66.788979 -44.224609
15.304377 66.820366 -44.65097
15.60743 66.803314 -44.601833
18.115059 66.803169 -44.304737
16.11898 67.708611 -44.796501
14.488141 67.210907 -44.852993
15.004574 66.803169 -44.672447
15.508969 66.806313 -44.622902
15.320525 67.023209 -44.743515
16.301069 66.797699 -44.491356
16.625914 66.770294 -44.382484
18.298399 66.80143 -44.095562
17.485123 66.779778 -44.250809
18.041014 66.758606 -44.126953
15.166214 67.163834 -44.780613
15.827207 68.166695 -45.124779
15.905985 68.239014 -44.998951
18.159449 68.134277 -44.500736
15.709386 67.181725 -44.688595
16.193745 68.180916 -44.812027
14.879526 67.210968 -44.83886
14.79944 67.073189 -44.697971
16.003149 68.217468 -44.896652
16.501776 68.219093 -44.824726
17.803038 68.130753 -44.626808
14.892659 68.124489 -45.006798
18.303228 66.790573 -44.21146
18.394619 66.789558 -44.187733
17.387173 66.79084 -44.319412
16.000332 66.784248 -44.484371
16.601742 67.853455 -44.693848
14.616824 66.785309 -44.830254
16.606636 66.799568 -44.440624
18.41906 67.060158 -44.298409
17.006914 67.828659 -44.682297
17.171291 68.047272 -44.742401
16.80485 68.148338 -44.762459
16.8067 68.220581 -44.775669
16.608643 68.145485 -44.797539
17.969389 67.010391 -44.36908
14.824193 68.243279 -45.050995
18.001398 68.225487 -44.601395
16.528866 67.745201 -44.710491
16.909775 67.814941 -44.694126
17.000069 68.22908 -44.745804
17.926136 68.064377 -44.670502
16.438828 67.80088 -44.764038
16.799274 67.836021 -44.720074
15.432671 66.763809 -44.58223
15.202258 66.772057 -44.608364
15.909854 66.813126 -44.564007
14.906775 68.193199 -45.012169
15.415745 67.004364 -44.725979
16.409199 66.802917 -44.481544
16.695789 66.805321 -44.440697
15.307579 67.192932 -44.804375
18.510864 67.105705 -44.315845
15.409534 68.228447 -45.088528
16.4123 68.156441 -44.818665
16.111008 68.221245 -44.883541
18.008204 68.132736 -44.596691
18.158606 66.82975 -44.261311
15.318993 66.768326 -44.5923
18.102757 68.072624 -44.603676
17.094299 68.330948 -44.842888
18.106508 68.120552 -44.597797
14.706808 67.888268 -45.044403
15.101108 66.777779 -44.625156
17.908566 68.130333 -44.617386
16.201311 66.795006 -44.506905
15.317434 68.149841 -44.987225
15.716883 68.144165 -44.937092
15.617105 68.138306 -44.953411
15.805743 68.154526 -44.913239
16.103645 66.813179 -44.52718
16.01799 66.810844 -44.54073
18.031008 68.113892 -44.665188
15.404614 68.135094 -44.944462
18.313772 66.82618 -44.267719
15.834149 68.179466 -44.879345
15.696417 68.134926 -44.904644
17.094521 66.805992 -44.365376
16.689804 68.227745 -44.799873
16.907042 68.150482 -44.752968
16.507895 66.806961 -44.468475
17.997822 66.778267 -44.290993
15.20157 68.125938 -44.964951
15.813823 66.805183 -44.574688
17.910505 66.7976 -44.321613
15.004288 68.132324 -44.994274
15.282965 68.185753 -44.960659
16.007284 68.15361 -44.883533
16.906776 68.212074 -44.760803
14.808654 66.796432 -44.666718
17.834471 66.813942 -44.334488
15.525131 68.127495 -44.917927
16.208847 68.143517 -44.852993
15.511172 68.200996 -44.919155
14.694315 66.790344 -44.676895
15.70896 66.808861 -44.589943
17.710218 66.826103 -44.338634
16.49539 68.1502 -44.812973
15.104529 68.117989 -44.982441
15.912093 68.139343 -44.899094
15.632377 68.132805 -44.912022
15.800132 68.221817 -44.933094
15.29928 68.122238 -44.955853
14.335501 68.127701 -45.040581
14.501781 68.24498 -45.111092
14.571005 67.729019 -44.973259
16.495014 67.816727 -44.780354
14.815081 68.182983 -45.025639
16.308159 68.149803 -44.846901
14.686344 67.857117 -45.064362
15.914227 67.914818 -44.924995
15.037271 68.055305 -44.973442
14.902149 68.2929 -45.049324
14.712564 68.03392 -45.025833
15.698145 68.022301 -44.874905
15.086113 68.045914 -44.987617
15.986209 67.690643 -44.786423
16.622286 67.916649 -44.755844
16.010052 68.151192 -44.851101
15.712639 68.223175 -44.954098
17.301615 68.252083 -44.787823
18.388765 67.233986 -44.367867
15.609708 68.234779 -45.068153
15.208879 68.221199 -45.014317
16.992319 68.226295 -44.844833
14.941216 68.024139 -45.017975
16.507837 68.234444 -44.910522
15.110166 68.228989 -45.035915
16.200491 68.244812 -44.95668
14.712608 67.841827 -45.123638
15.683846 67.006691 -44.697117
18.115749 67.015884 -44.41436
15.395028 66.91671 -44.706043
16.998442 66.875099 -44.390842
15.713053 67.212387 -44.722443
17.399319 67.932144 -44.64415
17.322527 66.806244 -44.321133
16.22193 68.383072 -44.928783
16.604391 68.217117 -44.809319
17.217201 68.20504 -44.701946
15.709983 68.025932 -44.931423
14.427552 67.211906 -44.828419
14.291578 66.802521 -44.749584
15.447455 68.404243 -45.042892
17.909739 66.791603 -44.252064
17.395994 68.226532 -44.686722
17.695984 68.135605 -44.636871
14.992876 68.219185 -45.00288
14.604475 68.13166 -45.126816
15.82737 68.302002 -44.951546
15.936289 66.75367 -44.503704
15.505537 68.218948 -44.982506
17.022097 68.117325 -44.676544
17.296926 68.138916 -44.685257
16.820503 68.019035 -44.719437
17.092003 68.119102 -44.672787
16.117001 68.124992 -44.836319
16.898663 68.12812 -44.712444
16.705656 68.236244 -44.875469
17.978371 68.126404 -44.555527
16.497829 68.132767 -44.77039
17.425222 68.124321 -44.633289
16.978395 68.026093 -44.680557
17.298796 68.11293 -44.6432
15.915461 67.98513 -44.859119
16.888586 68.046204 -44.70195
17.40744 68.142006 -44.679092
16.67881 68.044006 -44.731197
15.101673 66.897957 -44.771526
15.646858 68.239655 -45.112095
17.496883 68.222984 -44.667496
17.726185 68.218239 -44.635571
14.988984 68.221809 -45.038345
17.602287 68.225388 -44.646778
17.018988 68.266609 -44.893845
17.699886 68.13015 -44.577713
17.522982 68.13932 -44.667431
14.398766 68.321365 -45.100182
15.509922 66.819199 -44.691906
16.02948 68.291908 -44.933651
16.625788 68.030266 -44.794811
17.215693 68.249619 -44.806278
14.803699 67.202911 -44.816097
14.522993 67.900986 -45.074715
17.680904 68.07518 -44.625443
15.567618 66.755699 -44.552017
16.237104 67.707153 -44.74437
16.401073 68.214066 -44.840874
16.24486 67.712387 -44.86972
16.691879 68.146797 -44.782074
17.488972 66.894035 -44.375095
16.651682 67.401024 -44.635414
16.307156 68.222488 -44.859066
15.827415 68.017296 -44.916946
14.838856 68.007759 -45.028488
14.69895 67.763901 -44.968239
16.107483 67.823441 -44.801575
16.329979 68.027008 -44.843578
14.724686 68.292305 -45.08387
15.505787 67.18689 -44.746471
14.984598 68.29599 -45.032364
17.288748 67.845802 -44.649014
17.467281 68.007637 -44.648682
15.379068 68.061409 -44.965942
15.308208 68.221779 -45.001411
14.816673 67.214767 -44.855698
16.210453 67.25544 -44.697319
17.078026 68.237366 -44.820728
18.280605 67.118126 -44.301811
16.208122 68.217552 -44.866749
14.585741 68.213432 -45.0508
15.006568 66.947823 -44.737476
16.318777 68.180168 -44.801716
16.596325 68.131454 -44.752617
17.500271 68.110558 -44.619972
16.400375 68.112915 -44.779339
17.81163 68.050804 -44.661655
16.396864 68.071083 -44.802349
17.666958 67.648895 -44.604626
17.593758 68.046738 -44.756378
14.91226 68.228355 -45.055767
16.22258 68.039619 -44.850792
17.42333 68.081001 -44.777691
18.001911 68.041115 -44.527489
18.02527 68.066902 -44.572315
17.324215 67.655235 -44.658398
15.165704 68.282921 -45.028927
14.496346 68.034195 -45.11636
15.807637 68.129448 -44.872456
17.10067 68.142197 -44.716587
17.12463 68.013199 -44.68047
15.603625 66.838509 -44.675224
16.715439 66.771645 -44.379944
17.109901 68.215385 -44.722637
16.021708 67.916077 -44.892948
16.593016 67.834618 -44.76474
16.491385 68.032669 -44.761089
16.585146 68.178276 -44.767811
16.190718 68.130943 -44.824928
16.046961 68.038345 -44.816303
15.639999 68.040642 -44.888
17.809002 68.225128 -44.639015
14.359549 68.140724 -45.116703
15.70978 66.822334 -44.653816
16.883152 67.940994 -44.731186
17.296074 68.020218 -44.691002
16.797071 67.922745 -44.722843
17.223995 68.035698 -44.643257
15.360474 68.033401 -44.937607
15.674657 68.178444 -44.908825
17.648777 67.718864 -44.516396
16.308531 68.132454 -44.791618
16.073862 68.053169 -44.807079
15.334298 68.071983 -44.942051
15.477128 66.767242 -44.57312
16.94009 67.816612 -44.775993
17.21591 68.137726 -44.706345
17.519176 68.309364 -44.736172
17.613129 68.144768 -44.656773
14.40259 68.103973 -45.106731
16.432222 68.287231 -44.87397
14.712591 68.226883 -45.040279
15.62583 67.672043 -44.834778
14.789004 68.296463 -45.065033
17.21117 67.821487 -44.657482
14.701365 68.254745 -45.087906
16.71447 67.847145 -44.738613
15.899617 68.151138 -44.866207
15.755314 66.776062 -44.533165
16.901594 68.251167 -44.879887
16.814072 68.132446 -44.715607
15.788806 66.835838 -44.671734
16.31748 67.826637 -44.777645
16.013885 66.834564 -44.609344
17.196892 68.115799 -44.650013
15.9158 66.832077 -44.628796
16.407661 66.773659 -44.433159
14.998572 68.134682 -45.061638
17.619349 68.109993 -44.608486
14.428759 68.21949 -45.070446
14.688715 68.297646 -45.040291
16.560713 67.692947 -44.719692
17.489672 68.250748 -44.737209
17.936893 68.095863 -44.564663
14.892769 66.875984 -44.716976
16.20487 67.821144 -44.800873
16.098272 67.718674 -44.771568
17.580877 68.063759 -44.611156
16.104525 68.185623 -44.831181
16.727123 68.113396 -44.732059
16.119967 66.775391 -44.451477
16.999763 67.705772 -44.607197
17.823587 68.092834 -44.587242
16.662657 67.999458 -44.784904
15.109097 66.828186 -44.776928
14.597376 67.306236 -44.924988
15.980082 68.175278 -44.855274
16.535261 66.842331 -44.513187
14.495151 68.089401 -45.134323
17.695965 67.948425 -44.661491
17.016184 67.918312 -44.700531
14.548746 68.289658 -45.159527
16.541208 68.247971 -44.977562
14.785073 68.351578 -45.159328
16.238384 66.836815 -44.595638
14.384428 66.825432 -44.763504
17.640505 67.473404 -44.56023
16.483107 67.998428 -44.847183
14.483513 66.886177 -44.7607
14.510971 68.041046 -45.089485
14.525152 66.878181 -44.707588
14.900694 66.84095 -44.815914
17.520996 67.927994 -44.722652
16.102739 67.920135 -44.877586
16.264238 67.946098 -44.858418
14.389194 67.977654 -45.098755
14.452736 66.791641 -44.711163
16.402193 67.999268 -44.83493
15.918494 67.875778 -44.876476
14.536976 66.777802 -44.677013
14.467865 67.137848 -44.842144
15.404715 66.831116 -44.706459
14.456669 66.839996 -44.808544
15.285447 66.804092 -44.731899
14.982898 66.762756 -44.644257
16.346256 68.257698 -45.00164
15.178715 68.19191 -44.973717
17.016586 67.97242 -44.728542
16.016672 68.003632 -44.892456
15.744222 67.626846 -44.89669
16.108643 68.069031 -44.892281
17.501516 66.828026 -44.285767
14.685692 67.949928 -45.10844
17.346748 67.940529 -44.7234
15.777835 68.223412 -45.063255
17.206333 67.924713 -44.706047
16.793159 68.240562 -44.872498
14.445318 67.961121 -45.063892
14.581601 67.091484 -44.84993
16.99453 68.140388 -44.738258
16.855686 68.184151 -44.935581
16.557983 67.246582 -44.598778
14.716267 68.083656 -45.109249
18.225338 67.142982 -44.30064
17.400478 68.231636 -44.767963
17.55197 68.036629 -44.696278
16.365019 68.182167 -44.795418
17.87426 68.224617 -44.606327
15.018362 68.396477 -45.130402
