# .PCD v0.7 - Point Cloud Data file format
VERSION 0.7
FIELDS x y z
SIZE 4 4 4
TYPE F F F
COUNT 1 1 1
WIDTH 547
HEIGHT 1
VIEWPOINT 0 0 0 1 0 0 0
POINTS 547
DATA ascii
50.193783 -31.744621 3.9844007
50.008884 -31.624371 3.940907
50.300526 -33.136726 3.9870682
50.492977 -32.712254 3.8881993
50.552109 -32.401115 3.8505695
50.607563 -32.206951 3.8046987
50.762085 -32.162487 3.7770584
50.471943 -32.40192 3.8823299
50.543472 -32.848839 3.9024949
50.353214 -32.842758 3.9516561
50.187523 -32.455112 3.9334407
50.540108 -32.630211 3.8866673
50.680607 -32.635681 3.8507924
50.761143 -32.333103 3.8142149
50.640194 -32.809074 3.8849759
50.934437 -32.228855 3.781183
50.721016 -32.659939 3.8365381
50.291462 -32.667828 3.9804087
50.605377 -32.398808 3.84796
50.522148 -31.887741 3.8261359
50.969566 -31.293972 3.6817434
50.616352 -32.71154 3.8515155
50.370712 -32.41993 3.9032545
50.580944 -31.076632 3.7535849
50.463886 -32.627048 3.9061909
50.367855 -32.634689 3.9317751
50.18726 -32.460335 3.9884543
50.650612 -32.5354 3.8617287
50.186474 -32.521824 3.9727144
50.179695 -32.334064 3.9578114
50.195934 -31.022985 3.872051
50.271111 -32.638561 3.9575422
50.27916 -32.545177 3.9576712
50.665859 -32.313717 3.8328059
50.452168 -32.106342 3.8739829
50.555016 -32.339127 3.8698165
50.466923 -32.329369 3.8872378
50.275951 -32.143166 3.9405086
50.452087 -30.992746 3.8062265
50.638226 -32.10939 3.8214359
50.363792 -32.02676 3.909853
50.651665 -31.581953 3.7814488
50.54974 -32.105202 3.8500903
50.353821 -31.300671 3.8473375
50.550323 -30.995743 3.7791052
50.259529 -30.918177 3.8649664
50.655785 -32.236126 3.838784
50.94183 -32.100307 3.7403944
50.280777 -32.182491 3.8918109
50.857601 -31.0319 3.7340677
50.655445 -32.026505 3.8237011
51.07391 -32.010857 3.7387338
50.939865 -31.39707 3.7157845
50.752178 -30.998116 3.7281566
50.850433 -32.233356 3.7815709
50.368267 -31.801628 3.8927009
50.953815 -31.531017 3.7137828
50.336708 -31.08531 3.8126829
50.752522 -32.025299 3.7948244
50.767117 -31.881935 3.7526274
50.171867 -31.817524 3.9383223
50.754478 -31.604448 3.7364326
50.656124 -31.297852 3.764025
50.861183 -31.724201 3.7647085
50.178963 -32.112991 3.9174297
50.931091 -32.024139 3.746388
50.266209 -31.798613 3.8917654
51.160614 -32.031982 3.6974971
51.140228 -31.766222 3.6766922
50.260262 -32.133999 3.885381
50.895126 -32.109524 3.7482815
50.167164 -32.058277 3.9514909
50.85173 -32.04007 3.7642848
50.263973 -32.028454 3.9281919
51.029037 -31.504009 3.69245
50.647167 -31.925419 3.7797658
51.042683 -31.420786 3.696789
50.464161 -31.818964 3.8540294
50.657124 -31.810242 3.8063071
50.543262 -31.815039 3.8369069
50.959354 -31.818886 3.722868
50.183002 -32.968971 3.9903708
50.194477 -32.95977 4.0093184
50.757328 -31.804876 3.7693882
50.259151 -32.930721 3.9793816
50.843487 -31.821959 3.7486944
50.162582 -31.91675 3.9591348
50.980675 -31.871307 3.6811895
50.553448 -30.929388 3.7923868
50.281384 -30.903294 3.9083955
50.715424 -30.87785 3.8403156
51.148285 -31.903446 3.7008436
50.544029 -31.583057 3.8164001
51.282391 -31.811693 3.6696763
50.752033 -30.929037 3.8101654
50.270012 -30.979351 3.8661163
50.842079 -30.929684 3.7265418
50.356815 -30.987123 3.8366458
51.043808 -31.926743 3.732754
50.75671 -31.286364 3.7381344
50.675415 -31.0856 3.7224607
50.799431 -31.083319 3.6969261
50.654198 -30.994595 3.7541251
50.553932 -31.286179 3.793004
50.466927 -31.287973 3.8196967
50.062786 -31.22401 3.9544649
50.321827 -32.927578 3.9560075
50.266724 -31.106003 3.8835001
50.25161 -31.014288 3.8996468
50.172089 -31.119169 3.8945937
50.180008 -31.269968 3.9227092
50.298183 -31.182461 3.931865
50.179428 -31.001698 3.9056978
50.246906 -31.287731 3.8595691
51.039253 -32.269482 3.8352554
50.368649 -32.451035 3.937393
50.760471 -32.265537 3.8921714
50.84552 -32.158203 3.8172293
50.953438 -32.438354 3.8323464
50.655804 -32.05854 3.89047
50.471664 -31.243162 3.8641443
50.940826 -31.246622 3.7490394
50.354031 -31.227633 3.8922796
50.845165 -31.236092 3.7807665
50.260479 -31.513681 3.8969696
51.068302 -32.448242 3.8015931
50.953861 -32.276234 3.8485937
50.850929 -31.84425 3.8017919
51.131653 -32.295673 3.8046606
50.950356 -31.848923 3.7865903
51.060699 -31.840593 3.7567165
50.569141 -32.269474 3.9216142
50.558884 -31.845173 3.8652143
50.748562 -31.844826 3.8313675
50.37051 -31.850206 3.9066458
50.637508 -31.066092 3.8753517
51.055744 -32.188221 3.8258159
50.756493 -32.179352 3.9006827
50.765072 -32.919041 3.964504
50.654026 -31.758461 3.877068
50.171616 -31.213331 3.9040852
50.583176 -33.023666 3.9944377
50.747841 -31.465666 3.8585744
51.035244 -31.45822 3.7735882
50.866993 -31.448843 3.8188796
50.737911 -31.634186 3.7953343
51.226681 -32.181377 3.7677472
50.364429 -32.554516 3.9375112
50.589283 -31.044058 3.8954365
50.847622 -33.099171 3.9219849
50.845879 -31.796215 3.8780239
50.769974 -31.806498 3.8938546
50.436996 -32.179878 3.9818332
51.157482 -32.149067 3.8131413
50.867653 -31.578581 3.8525944
51.150047 -32.048779 3.7910922
50.575169 -32.71666 3.9725132
50.946953 -32.174595 3.8615432
50.96011 -31.632265 3.7153006
50.853577 -31.33946 3.7409196
50.455475 -32.662926 3.9365816
50.893009 -31.271339 3.7141433
51.231186 -31.966663 3.7745683
50.658798 -31.356667 3.8902886
50.464401 -31.848534 3.8862894
50.553909 -31.322861 3.828723
50.549347 -31.356874 3.8927577
51.041225 -31.665792 3.7960367
50.661118 -32.268631 3.9074423
51.168011 -31.957497 3.7953646
50.156101 -33.213615 4.0497565
50.455246 -31.352274 3.9484801
50.988331 -31.506933 3.8241599
50.459335 -31.634491 3.86496
51.144012 -33.158146 3.8422968
50.805714 -31.065798 3.8392749
50.957008 -32.140175 3.8121717
51.052238 -31.988731 3.8296895
51.140526 -31.852993 3.7575564
51.012112 -31.351048 3.8126402
50.536686 -31.149944 3.8733585
50.452629 -33.172371 4.0068636
50.549633 -31.118544 3.8008549
50.256519 -31.24567 3.9134722
50.753914 -31.739317 3.784905
50.453793 -30.923252 3.8226261
50.756241 -31.23592 3.8019993
50.665417 -30.944172 3.7691298
50.938248 -31.342686 3.8015018
50.450428 -32.551033 3.9079092
50.75061 -32.458904 3.8528738
50.022129 -31.60132 3.9629791
50.472343 -31.97608 3.9339457
50.668427 -32.474804 3.9370103
50.66658 -31.958647 3.8972483
50.456532 -31.328127 3.8462269
50.548504 -31.986767 3.9259882
50.355026 -31.630537 3.8929551
50.151363 -31.748209 3.9187961
50.451225 -31.030609 3.8405962
50.655411 -31.847158 3.8463349
50.390125 -31.980293 3.947871
50.561958 -31.246187 3.8569751
50.370838 -31.036253 3.863615
51.069485 -31.507263 3.8072605
50.645252 -31.248055 3.8272438
50.840519 -31.172703 3.8012433
50.754089 -31.329483 3.7690191
51.046299 -33.087448 3.8761299
50.746716 -31.021688 3.7589126
50.807724 -33.138256 3.9741302
50.251114 -31.729172 3.9197431
50.840164 -31.743114 3.8437197
50.94751 -31.963245 3.8457358
50.145573 -32.077713 3.9942055
50.548592 -31.032848 3.8007915
50.656857 -31.020758 3.7826016
50.750183 -32.1506 3.8463752
50.373077 -32.358475 3.9479475
50.556419 -31.726898 3.8339815
50.462471 -33.062145 3.9592335
50.850925 -31.965109 3.851233
50.755409 -31.959818 3.8812661
50.761055 -31.141178 3.8392196
50.540127 -32.750229 3.9246387
51.280647 -32.29818 3.7662456
50.939011 -31.752052 3.8265276
50.952293 -31.729704 3.7285671
50.553387 -31.62854 3.8406997
50.365852 -31.735834 3.8859024
50.653732 -31.165157 3.8575375
50.327614 -32.111435 4.0305538
50.458435 -31.72418 3.8619905
50.368362 -32.153328 3.9195926
51.034882 -31.635273 3.7247162
50.990192 -32.635704 3.8922787
50.657413 -31.324398 3.8028376
50.840881 -31.215618 3.7206297
50.449814 -32.996964 4.0159326
50.954376 -32.994022 3.90681
51.02956 -31.246868 3.6985233
50.948986 -31.327721 3.7121747
50.858772 -31.93474 3.7792289
50.742283 -31.354891 3.8539219
51.235062 -32.347946 3.7608078
50.352646 -30.923098 3.8439615
50.946297 -32.663727 3.8558881
50.361332 -32.962364 3.9801252
50.656689 -30.930992 3.8292367
50.456028 -31.205679 3.8274775
50.662922 -32.160988 3.9301777
50.974388 -31.622444 3.6882524
51.153423 -33.081482 3.8430767
50.458588 -32.967312 3.9693367
50.352203 -32.271366 3.9810793
50.961426 -31.632418 3.8239911
50.363804 -32.677628 3.96383
50.357471 -31.936546 3.9041195
50.552738 -31.215473 3.8002613
50.765011 -32.580425 3.9001486
50.362766 -31.484762 3.9195662
50.380772 -31.650064 3.9652877
50.859428 -32.171593 3.877238
50.573944 -32.162609 3.9523962
50.760418 -33.078766 3.9450448
50.536205 -32.798454 3.9781477
50.55706 -32.96698 3.9624019
50.270683 -32.970535 3.9880579
50.273415 -32.7598 3.9756682
50.356148 -32.74799 3.9554679
51.009338 -32.228722 3.7906137
50.965637 -33.1796 3.8903308
50.55555 -32.246204 3.8695087
50.262993 -32.256985 3.9432695
51.146175 -32.121956 3.7792394
50.551899 -32.15094 3.8724868
51.241283 -32.923882 3.8542347
50.997261 -32.871002 3.9154265
51.04784 -32.121437 3.8082507
50.366592 -32.121719 3.8957407
50.475243 -32.055305 3.9176335
50.460541 -31.514254 3.8422964
51.038788 -31.7614 3.7830763
50.555679 -31.5198 3.8183064
50.852581 -31.519276 3.7304435
51.036976 -31.326794 3.7068322
50.549431 -32.449162 3.8930702
50.763161 -32.065022 3.8687749
50.171738 -32.227524 3.9576628
50.655231 -33.099266 3.9682786
50.853767 -31.365044 3.8347244
50.48233 -33.085587 3.9913568
50.33609 -33.11129 4.0342917
51.035049 -32.302078 3.8749516
50.861385 -32.268822 3.8674095
50.474178 -32.301289 3.9705052
50.860065 -32.694466 3.9159417
51.114567 -32.087353 3.8242252
51.066971 -32.055424 3.7902918
50.656929 -31.726254 3.8109922
51.261894 -32.048275 3.762305
51.042191 -32.993916 3.8804343
50.744011 -31.51018 3.7676523
50.558052 -31.753338 3.9034159
50.961864 -31.579292 3.831032
50.543701 -33.091331 3.9957895
50.476048 -32.777981 3.9842877
50.742367 -32.981766 3.9217694
50.656807 -32.707657 3.9692295
50.755432 -32.993965 3.9562087
50.857208 -31.117931 3.7263944
51.056957 -32.701729 3.8690915
50.6581 -31.58707 3.8980615
50.654892 -31.508146 3.7895315
51.113697 -32.323811 3.8402433
50.74284 -31.559793 3.8894677
51.048973 -32.968204 3.8422968
50.556187 -32.065948 3.908689
50.551884 -33.081738 3.9541767
50.449844 -32.752449 3.9367394
50.865341 -32.87991 3.8953173
50.65485 -32.882816 3.9483974
50.612293 -33.144806 3.9168293
50.443211 -32.590919 3.9737101
50.440228 -33.310101 4.0758295
50.566196 -31.657997 3.9075086
50.303814 -32.907139 4.0399117
50.127262 -32.751194 4.077466
50.092773 -32.414291 4.0163422
49.988945 -33.064663 4.1075649
50.158009 -33.29491 4.0701733
50.03352 -33.011772 4.0477991
50.066902 -32.383614 4.0403142
50.153217 -32.347569 4.0015669
50.448402 -33.278881 3.9901242
50.253513 -31.549522 3.9330919
50.647213 -32.364899 3.9003389
50.372116 -32.239204 3.925442
50.295162 -31.469328 3.9391019
50.650536 -31.203299 3.7809389
50.682789 -32.92728 3.9767244
50.366669 -31.342466 3.8795195
51.142738 -32.899158 3.8566859
50.654766 -31.936161 3.8307157
51.138229 -32.560867 3.8676112
50.463692 -31.418657 3.8415382
50.252827 -31.636787 3.9221427
50.724873 -32.539013 3.8373601
50.46291 -31.359968 3.8022945
50.488914 -31.696274 3.9217334
50.843052 -32.304459 3.7899168
50.561283 -32.576759 3.9545393
50.951683 -32.572529 3.8681738
50.366867 -32.469177 4.0074501
50.748508 -31.755108 3.8566952
50.452278 -32.241444 3.8966544
50.230957 -32.266678 3.9994705
51.127956 -31.664133 3.8005538
50.474777 -30.931068 3.8700011
50.832142 -31.26298 3.8420742
51.199818 -32.846924 3.8595028
50.245964 -32.320965 3.9537659
50.651978 -32.765297 3.9185386
50.843681 -33.00462 3.9299002
50.642647 -32.998199 3.9804108
51.259434 -32.78891 3.8114238
50.827526 -32.627663 3.9268763
51.042282 -32.746037 3.8240812
50.927681 -31.939234 3.7598941
50.464664 -31.549109 3.8872428
50.362186 -32.330074 3.9212453
50.757931 -32.619255 3.9517264
50.748482 -32.48785 3.9151981
50.804161 -32.54034 3.8494203
50.545383 -32.54594 3.8927941
51.064819 -32.599007 3.877136
51.055973 -32.876335 3.8465123
50.531738 -32.881546 3.9706821
50.249928 -33.062679 3.9897952
50.168285 -32.859146 4.0112119
50.149231 -33.150723 4.0301509
50.965172 -32.961765 3.8720536
50.65583 -32.968185 3.9337475
50.480507 -33.17802 3.9388599
51.130051 -32.877117 3.8209331
50.746708 -31.210342 3.75231
50.244068 -31.205223 3.8796093
51.222824 -32.848888 3.8247662
50.354225 -31.229948 3.8577206
50.263195 -33.26001 4.0349612
50.339615 -32.891064 3.9980316
50.756653 -32.873585 3.9214065
50.360619 -32.055264 3.9399154
50.094433 -32.108337 4.0073142
50.654503 -31.110359 3.7785616
50.041477 -33.249676 4.0843282
50.463104 -32.037018 3.8757164
50.265148 -31.934942 3.9255953
50.852425 -32.744053 3.864038
50.224541 -31.770319 3.9511049
50.158913 -31.649714 3.9416256
50.456543 -31.114973 3.8323109
50.457367 -32.867146 3.9728503
50.757641 -32.363876 3.8821507
50.45163 -32.368706 3.9170258
50.749508 -32.236217 3.8265922
50.651142 -32.140133 3.8581774
50.264744 -31.416754 3.9033532
50.749161 -31.116074 3.7502356
50.031361 -32.011112 3.9996371
50.566696 -33.138935 3.9214976
50.211262 -33.177479 4.0322652
50.338844 -33.070217 3.9857185
50.253689 -32.456566 3.9639564
50.442249 -32.849712 3.9415476
50.258846 -32.85323 3.9854159
50.173519 -33.054043 4.0065961
50.215317 -31.365107 3.8661561
50.357365 -31.114635 3.8592744
50.456684 -32.448887 3.9102437
50.362293 -31.43384 3.8734615
50.56052 -31.537973 3.8512278
50.956177 -31.24131 3.6934335
50.84877 -33.181511 3.9110847
50.738152 -33.176147 3.9474525
50.646748 -31.441423 3.8715277
51.041389 -33.167725 3.8752337
50.867962 -32.781693 3.8953714
50.659283 -32.672588 3.9189017
50.851921 -32.668423 3.8756647
50.967422 -33.088604 3.8872538
51.139534 -32.972717 3.8179495
50.946613 -32.886902 3.8761475
51.030579 -32.675903 3.8282745
50.965 -33.041454 3.8548107
50.854748 -32.967686 3.8884268
50.648739 -33.187321 3.9656186
51.047829 -32.797123 3.8576431
51.148788 -32.574997 3.8064835
50.935928 -32.357372 3.8536646
50.846622 -32.444679 3.8511901
50.857201 -32.354221 3.8631198
50.753632 -31.937305 3.8117459
50.560814 -31.932549 3.8526258
50.96006 -32.788925 3.8781607
50.962631 -32.752258 3.8421247
51.060211 -32.574001 3.8414035
51.157818 -32.643673 3.7991302
51.041809 -32.383785 3.8135931
50.655903 -31.63291 3.8166008
50.657635 -31.544176 3.8438072
50.745411 -32.662064 3.8957825
50.785503 -32.74147 3.8823855
51.031601 -32.477467 3.8516631
50.947777 -32.05183 3.8245392
50.566673 -31.444454 3.8896489
50.850777 -31.563992 3.8088715
50.84977 -32.567966 3.8831084
51.135109 -32.785606 3.8400145
51.134048 -32.365929 3.8034797
51.162827 -31.876081 3.7735939
50.748615 -32.789829 3.9315867
50.747089 -31.550322 3.8105094
50.959713 -31.538919 3.7847748
50.660183 -32.572536 3.9282441
50.946606 -32.700226 3.8806605
50.846115 -32.474228 3.8922937
50.851505 -32.055046 3.8467834
50.845657 -31.880222 3.8690538
50.74506 -31.666258 3.8731937
50.927704 -31.449808 3.8156428
50.954433 -32.405888 3.8751137
51.238106 -32.586201 3.8009551
50.759907 -31.863871 3.888165
51.25692 -32.679905 3.812993
50.676815 -32.80175 3.9518497
50.941383 -32.480247 3.8710656
51.311481 -32.499947 3.7736022
51.313339 -32.017139 3.7290759
51.124905 -31.743998 3.7720397
50.461559 -31.943867 3.876327
51.043533 -31.535511 3.7466786
50.860363 -31.630127 3.7491491
50.844246 -31.661663 3.8473766
50.551147 -33.179943 3.9810319
50.462372 -32.149403 3.8910007
50.561184 -32.360542 3.9096355
50.671299 -31.886868 3.9022543
50.8447 -32.403191 3.8972516
51.076969 -32.908375 3.8852091
51.039898 -31.874752 3.8192384
51.183495 -32.712082 3.8352623
50.943253 -31.888126 3.8521261
51.042553 -32.078896 3.8424232
50.761185 -32.392941 3.928756
50.748962 -32.703209 3.944644
50.86729 -32.908661 3.9355679
50.778805 -32.094345 3.9026585
51.03093 -32.376114 3.8607483
50.598995 -32.910194 4.0019107
51.154884 -32.493076 3.8400629
50.572891 -32.471058 3.9780357
50.943199 -32.100609 3.8782327
51.158115 -32.422504 3.8276744
50.641441 -32.449173 3.8725793
50.660618 -31.668003 3.8899841
51.249912 -32.456356 3.7899232
50.67025 -33.074474 3.9142039
50.750374 -31.421024 3.769599
50.65498 -31.425295 3.7943296
51.04369 -31.707722 3.7121661
50.554886 -32.662987 3.9243741
51.152172 -31.81661 3.8050296
50.471901 -31.132389 3.8921142
51.044624 -31.784452 3.8250587
50.468426 -31.761492 3.9114037
51.070423 -33.047047 3.8237162
50.341312 -31.753544 3.9367564
50.337196 -33.193783 4.0314536
50.749878 -33.057922 3.9121959
50.560959 -32.028786 3.8521252
50.276901 -32.351776 3.973845
50.558098 -31.421934 3.8162634
50.352924 -31.546938 3.9032085
50.433666 -32.511272 3.9847853
50.538979 -31.87059 3.9380283
50.372543 -31.372761 3.9463847
50.4762 -31.458027 3.9017303
50.584671 -31.285862 3.9129553
50.840206 -32.085442 3.8883119
50.628559 -31.272345 3.9001117
50.46125 -31.26705 3.954412
50.751373 -31.288803 3.8709586
50.556347 -30.926619 3.8592215
50.186661 -31.563986 3.9253342
50.354229 -32.575954 3.9817748
50.249969 -31.846622 3.9301398
50.338608 -31.159769 3.9266222
50.350597 -31.512239 3.8729341
50.467072 -31.889936 3.9537268
50.628613 -32.092827 3.9429984
50.160866 -31.438015 3.9117558
50.46196 -31.601475 3.8238399
50.271473 -31.31963 3.9017708
50.860554 -31.417843 3.7401338
50.259121 -31.616655 3.8645339
50.338879 -30.938559 3.8817847
