# .PCD v0.7 - Point Cloud Data file format
VERSION 0.7
FIELDS x y z
SIZE 4 4 4
TYPE F F F
COUNT 1 1 1
WIDTH 1197
HEIGHT 1
VIEWPOINT 0 0 0 1 0 0 0
POINTS 1197
DATA ascii
17.784271 -0.96392471 15.890784
15.836975 -0.84827667 15.813403
17.100077 -0.86076427 15.963814
19.043245 -0.39178887 16.117748
17.105766 -0.73855346 15.817047
16.442305 -1.3325576 16.092007
19.240543 -0.41947719 15.965899
20.065498 -0.25156665 16.329239
16.660742 -1.0813628 15.896712
16.833109 -1.0666378 15.890975
14.867012 -0.54238021 15.762216
14.992508 -0.53428084 15.83776
17.419432 -0.83487779 16.034838
16.114191 -0.52670467 15.92014
16.309387 -1.3639868 16.057125
18.149813 -0.58941662 15.765386
15.471308 -1.2908317 15.940176
15.051229 -1.0397877 15.880618
15.13165 -0.19757162 15.588311
15.805705 -0.47090721 15.529881
16.367516 -1.1561064 16.014292
15.948211 -0.20769793 15.83976
15.370322 -0.39722493 15.686495
17.599749 -0.82418591 16.010681
15.89088 -0.5843851 15.853842
15.234774 -0.5188846 15.70633
16.757233 -0.52090758 15.880696
16.838015 -1.4843098 16.063309
17.346922 -0.27594438 15.845819
16.306948 -1.0819203 15.883543
16.819092 -1.5434923 16.128096
15.168665 -0.2771771 15.459645
16.136267 -1.0102717 15.871623
16.829466 -1.3726531 16.145779
17.695942 -0.45266056 16.140057
17.259295 -0.26286513 15.829357
15.329376 -1.0924567 15.733142
15.111037 -0.45584884 15.74065
17.328339 -0.22185183 16.011532
15.457193 -1.0854315 15.760921
15.105828 -0.42951685 15.470462
16.93667 -0.46548223 16.001701
18.25671 -0.41184366 16.192837
16.460461 -0.45414674 15.901238
16.927912 -1.097807 15.874224
18.343483 -0.19271176 16.011463
16.774021 -1.2085502 16.159048
16.318768 -0.13576244 15.77109
16.655031 -0.52055001 15.881994
15.057459 -0.27891147 15.646858
16.749578 -0.83683246 16.017817
15.639461 -0.1965203 15.664411
15.244495 -0.27566859 15.654673
17.443745 -0.41171747 16.032389
15.433164 -0.64520764 15.605244
16.343044 -0.26903442 15.798121
16.68368 -1.5063319 16.133106
16.240993 -0.26636159 15.780667
16.65086 -0.1566775 15.969658
15.460771 -0.19275866 15.521866
19.085278 -0.58441585 16.185165
15.147604 -1.1350881 15.689922
17.33745 -1.0107619 16.066643
17.086243 -1.0128535 15.849371
16.841305 -1.0100076 16.009113
15.505207 -0.17106916 15.552814
19.144194 -0.5779779 16.16787
16.1455 -0.26651791 15.767622
15.376862 -1.1008689 15.828632
15.44176 -1.0965314 15.829938
16.355345 -0.49246746 15.704737
17.46431 -0.27360898 15.761426
15.141471 -1.0575151 15.587634
17.94228 -0.50539899 15.887753
15.444134 -0.27113703 15.679352
16.574047 -1.2725208 16.05883
16.43638 -1.2733116 16.043926
16.528597 -0.51175237 15.856814
18.034338 -0.39587149 16.103228
16.525381 -1.4574845 16.103594
15.462624 -0.29131421 15.790336
14.992873 -0.52952963 15.517582
15.941401 -0.25880143 15.699038
18.536016 -0.45605901 16.257338
18.640059 -0.27268392 16.096998
15.55092 -0.55666238 15.579221
15.208172 -0.86847544 15.78286
14.958457 -0.20357107 15.561562
17.743994 -0.50436831 15.863502
15.842713 -0.20748529 15.739805
15.048719 -1.0523171 15.79236
16.649588 -1.5827142 16.130985
17.047878 -1.0035477 15.986477
18.326572 -0.42076975 16.092108
16.748951 -0.48962513 15.981928
17.546474 -0.67680836 15.860226
17.650755 -0.48776644 15.850698
15.15623 -1.1063418 15.803765
16.752005 -1.2414533 16.060774
15.311672 -1.3374317 16.027815
16.845198 -1.2348677 16.100105
15.13826 -1.1631931 15.941154
15.639318 -0.41483557 15.51352
19.357334 -0.36865562 16.320436
19.348652 -0.230266 16.252413
15.540842 -0.38400376 15.780638
17.434452 -0.68638492 15.85295
15.007605 -1.1748853 15.693051
19.735971 -0.27340367 16.229208
14.955783 -1.0551126 15.791022
14.846232 -0.19867679 15.55096
16.334641 -0.41746035 15.882595
15.341972 -0.27352378 15.66289
16.54813 -0.20771925 15.764997
19.048615 -0.23474027 16.221199
15.375935 -0.58629161 15.806997
17.024759 -0.70602798 15.863523
18.014668 -0.47509629 15.807625
18.981567 -0.27289581 16.070702
14.834144 -1.0466795 15.838364
15.520086 -0.8685692 15.787091
16.793926 -0.9678756 15.850434
18.745426 -0.62943178 15.942315
15.000847 -1.28539 15.930858
17.136181 -1.0044594 15.994948
14.956261 -1.1000708 15.760387
15.245531 -1.0100117 15.747644
19.764584 -0.53018075 16.12332
19.834356 -0.57973939 16.161194
17.538687 -0.91862768 15.920016
15.043621 -0.5585829 15.513074
16.567652 -0.14784066 15.942829
15.348623 -0.66373688 15.605185
17.250351 -1.0002688 16.014448
16.644531 -0.52270985 15.785666
15.344026 -0.52109486 15.630585
15.075512 -1.4169663 15.71086
18.839373 -0.48706418 15.993679
16.62747 -0.10581752 15.872942
16.339169 -0.21225572 15.903811
17.39432 -0.85179818 15.836501
19.445938 -0.2713742 16.196629
19.249987 -0.21920986 16.24983
17.347639 -1.0044568 16.018261
16.261959 -0.96678042 16.016598
15.991304 -0.43288982 15.534083
15.525809 -0.38288382 15.669802
17.266281 -0.70469719 15.816824
15.747493 -0.50963652 15.626451
16.74531 -0.21161413 15.943215
19.276697 -0.5472393 16.191181
15.450241 -0.23971608 15.771016
19.327833 -0.50937527 16.207895
17.447275 -0.51555109 15.87591
17.336296 -0.92321712 15.876739
19.232628 -0.2854197 16.16264
15.847023 -0.19958478 15.696253
15.539582 -0.27095464 15.688263
15.141886 -0.28345925 15.645524
15.541343 -0.96590906 15.854982
15.270949 -0.42247817 15.740458
15.25625 -0.3888306 15.67097
16.5228 -0.21906094 15.923859
15.842557 -0.26789963 15.733904
17.828251 -0.55652183 16.015636
15.029817 -0.41123423 15.602121
19.060432 -0.23436578 16.034027
16.864368 -0.27004963 15.786061
18.564028 -0.30889472 16.164103
15.743431 -0.19494393 15.683222
18.731014 -0.53793246 16.105345
15.430044 -0.38701469 15.655217
14.949696 -1.0342282 15.704749
16.448725 -0.19700398 15.770479
18.940567 -0.27257892 16.128857
16.841906 -0.19674212 15.811066
17.44212 -0.38866124 15.81271
16.133356 -0.96187997 16.009724
17.837591 -0.95776248 15.894268
16.237444 -0.88038111 15.958797
18.993818 -0.27773198 15.969649
15.13698 -0.94966686 15.898318
15.624555 -1.1215385 15.655487
16.54497 -0.26283965 15.760026
17.655891 -0.66840607 15.879244
19.159325 -0.57088345 16.084408
18.33075 -0.443234 16.20056
15.309766 -0.48684454 15.564952
17.22765 -0.41857225 15.922978
17.142794 -0.82274568 15.91476
19.428551 -0.57437569 16.099606
16.446541 -0.85225224 16.031593
17.335554 -0.68350679 15.821903
17.424393 -0.77066612 15.841083
18.053648 -0.50679433 15.899094
16.855709 -0.23832543 15.945315
17.141563 -0.50349307 15.780267
15.546439 -0.95271367 15.811119
15.931769 -0.50740135 15.648084
16.652361 -1.0501472 16.076422
16.384121 -0.79252779 15.950716
16.758596 -1.617645 16.156775
17.243914 -0.51473612 15.800005
19.245548 -0.43290991 16.06942
15.732327 -1.1100752 15.776838
15.844337 -0.52301526 15.690689
16.138868 -0.49393615 15.644728
15.450873 -0.49253616 15.577736
16.499744 -0.3998197 15.749622
16.873707 -1.5956159 16.18936
16.505125 -0.12057959 15.732073
19.024527 -0.6919561 16.121759
15.423348 -0.44687659 15.479332
15.145575 -0.25786248 15.589905
15.150604 -0.39113274 15.614143
15.351889 -0.79582638 15.691291
16.304991 -0.28954965 15.863512
16.733879 -0.44446018 16.023457
15.725221 -0.28572813 15.786085
16.442778 -0.97035867 15.973812
18.2523 -0.64043236 15.854265
16.891626 -0.29901713 15.923307
16.651073 -0.32533407 15.902348
15.742391 -0.20842934 15.729558
17.455088 -0.51272982 15.823226
16.639975 -0.21294469 15.846023
15.036921 -0.60270333 15.580586
17.687815 -0.72467393 15.819625
17.281393 -0.65011561 16.003347
17.334461 -0.68018675 15.945597
17.538872 -0.50540823 15.841448
16.241119 -0.21121459 15.794798
16.734638 -1.0439248 16.070631
15.655354 -0.6068899 15.738062
16.042889 -1.0060281 15.861594
19.616621 -0.50845236 16.234205
17.572216 -0.9606427 15.8977
16.820396 -0.53524637 15.925253
18.543705 -1.0038407 16.026192
16.443832 -0.54781806 15.838304
15.741621 -0.76011586 15.768605
15.965038 -0.61819208 15.778665
16.442894 -0.4998889 15.707026
15.65112 -0.6383422 15.532051
16.127094 -1.0395497 16.00518
16.250664 -0.5108484 15.686003
16.061893 -0.521047 15.663129
16.846483 -0.70744318 15.870205
17.164068 -0.78315938 15.803124
16.101328 -0.79057091 15.810977
16.130556 -0.59323817 15.771355
15.152619 -0.62275136 15.753434
16.343618 -0.20969501 15.803979
16.780977 -1.3708652 16.097897
15.348443 -0.20385049 15.684133
17.525343 -0.53896111 15.98871
19.444464 -0.49630293 16.225229
15.837274 -0.95926178 15.847376
15.046161 -0.95204806 15.73536
19.183434 -0.38780099 16.185673
16.045872 -0.59662187 15.789479
19.707058 -0.51580977 16.283527
17.655119 -0.98666197 15.905769
16.546585 -1.0075535 15.914721
16.526419 -0.30689099 15.891221
16.438683 -1.0039686 15.904601
16.765203 -0.33266145 15.929751
15.658264 -0.68752283 15.712933
15.515323 -1.1743832 15.943061
19.141129 -0.47530237 16.195047
17.620178 -0.61589533 15.973265
15.332906 -0.94300401 15.78162
15.043869 -0.95305824 15.811628
15.956025 -0.95271611 15.862417
19.536777 -0.21743302 16.235117
15.251845 -0.36765617 15.563663
14.94983 -0.92399269 15.730931
19.343046 -0.26983944 16.188034
15.151156 -1.0406239 15.810558
18.764709 -0.80863273 16.160404
16.042679 -0.19813941 15.719949
19.227856 -0.48267677 16.34498
17.241905 -0.1837012 16.09091
19.029356 -0.28299096 16.155312
16.839539 -1.0411363 16.095264
16.742935 -0.21531416 15.85618
18.261236 -0.91543287 16.009657
19.039507 -0.50411266 16.073317
18.105774 -0.31162357 15.964706
14.967441 -0.48661429 15.596618
16.076752 -0.28865299 15.58585
16.542873 -0.21397874 15.829938
19.631136 -0.50010496 16.153584
16.751308 -0.26997378 15.844982
17.243979 -0.21357486 15.923554
15.573655 -0.87408179 15.742252
14.809696 -0.94585598 15.626298
17.447884 -0.96939886 16.097811
16.227259 -0.60094637 15.79058
19.056725 -0.95402521 16.225817
18.836535 -0.27169675 16.116089
16.4471 -0.60444087 15.84769
18.064766 -0.3034113 15.831014
17.543217 -0.26761264 15.947729
16.824221 -0.39278504 15.784661
16.388508 -0.7826885 15.840767
18.534428 -0.28550768 15.999961
17.889887 -0.66895276 16.073671
16.439276 -1.0454187 16.039055
16.843693 -0.51544511 15.802061
16.723829 -0.62010038 15.873117
16.637341 -0.20114039 15.787424
16.843407 -0.21504866 15.869226
16.657011 -1.0342108 15.795398
15.44061 -0.96775258 15.853621
16.245659 -1.0124614 15.881329
16.7659 -1.0071456 15.847841
20.079039 -0.49721903 16.160604
19.958105 -0.48458904 16.152975
15.361125 -0.98762679 15.908464
17.449472 -0.26794016 15.938276
15.244594 -0.26758942 15.602827
16.246696 -1.0172343 15.93793
15.15395 -0.61271572 15.683538
16.801373 -0.85583371 15.972896
18.344139 -0.26661244 16.059742
19.245834 -0.39453563 16.132837
17.041298 -0.96864623 16.053799
15.147415 -0.95373398 15.81843
16.662409 -0.73487377 15.966698
17.65189 -0.72930402 15.827177
17.841457 -0.52154446 15.921796
15.649486 -0.50064534 15.593115
15.819862 -0.41354606 15.716544
17.141397 -0.21418345 15.911726
15.468378 -0.17861007 15.42463
18.157604 -0.696163 16.01466
16.810249 -0.67887431 15.801802
15.610126 -0.80266583 15.849405
16.941031 -1.0036607 15.970499
15.406622 -0.87275553 15.662421
15.149321 -0.59312105 15.586585
18.746357 -0.80029732 16.125475
17.734716 -0.95194781 16.070948
16.442991 -0.26425081 15.806978
14.952624 -0.86528492 15.809164
16.633305 -0.62712312 15.863029
16.250233 -0.22586092 15.888444
17.312672 -0.86118281 16.116182
20.06962 -0.518601 16.250696
18.052994 -0.70277256 16.014315
15.116667 -1.1682035 15.85957
17.542534 -0.52286559 15.891371
18.840294 -0.55594862 15.983703
16.041651 -0.2686305 15.753175
16.242687 -0.57191068 15.729613
18.049973 -0.78358966 15.911698
16.655045 -1.1396044 16.01124
18.243219 -0.51398134 15.973484
17.249445 -0.93609917 16.009937
19.246288 -0.50950944 16.103809
17.322872 -0.81303978 15.962857
19.102343 -0.42420149 16.137499
19.350061 -0.2860958 16.288948
15.16467 -0.95060956 15.750355
17.352295 -0.41309491 15.734785
19.035812 -0.57019085 16.068026
15.086381 -1.0130675 15.602385
16.121737 -0.23185578 15.624216
19.031862 -0.211638 16.155378
16.50724 -1.107007 15.939717
16.34688 -0.56802636 15.682982
16.045074 -0.57114869 15.647007
16.134773 -0.36393747 15.861843
19.450542 -0.49544793 16.139078
14.819134 -0.94326812 15.718352
15.360136 -0.27039105 15.617289
17.53912 -0.36611998 15.779279
17.028025 -0.27419466 15.81641
18.139328 -0.66435963 15.910584
16.243757 -0.95929927 15.888919
15.846672 -0.57729691 15.625242
18.700953 -0.42744514 16.160334
16.640102 -0.26947853 15.834322
15.252181 -0.29211372 15.483092
16.543043 -1.0094651 15.971002
16.234127 -0.27063632 15.725188
16.716892 -0.26374263 15.776999
15.839396 -1.0140067 15.834645
14.951764 -0.28071961 15.653374
15.240092 -0.2029137 15.608988
16.341282 -1.0136743 15.895592
15.940841 -1.0090023 15.849482
15.942373 -0.21243282 15.752831
16.6415 -0.56595767 15.771187
17.34169 -0.21366872 15.936498
16.944656 -0.21767518 15.883652
15.744581 -0.26399174 15.666198
15.745146 -0.96481413 15.885215
16.141142 -0.26144946 15.715409
16.528996 -0.39250317 15.813692
16.743061 -1.4529639 16.111637
15.750727 -0.5781523 15.611224
16.235226 -0.56815654 15.670261
17.848396 -0.26370239 15.807048
17.144901 -0.93170321 16.013695
17.327427 -0.94711673 16.034784
17.767147 -0.27631876 15.806973
16.143137 -0.57221824 15.711732
16.947159 -0.52105373 15.818473
16.83054 -1.0063143 15.962614
15.444973 -0.19992897 15.638093
15.642712 -0.2094878 15.716718
17.937531 -0.27325097 15.812772
16.139528 -0.52134919 15.723585
15.944694 -0.40086836 15.721269
17.756794 -0.78298146 15.879002
17.045012 -0.52176219 15.831742
15.351253 -0.95910257 15.841735
16.619795 -1.1589017 16.045225
15.930668 -0.84392589 16.020807
16.637363 -1.0117729 15.922309
15.020137 -1.1230578 15.620566
19.214771 -0.27688509 16.21213
16.452372 -1.1495073 15.997072
15.151948 -1.0158396 15.739508
18.733084 -0.27190053 16.033674
15.846355 -0.33252794 15.608562
15.544041 -0.26431555 15.645089
16.044695 -1.0184464 15.913746
17.496464 -0.26576301 15.881959
19.021038 -0.49517059 16.024166
15.84638 -0.96871549 15.896454
15.44913 -0.20456128 15.694179
14.820417 -0.26614729 15.519909
16.934488 -0.32890642 15.754788
16.431797 -0.41021684 15.783236
16.652893 -0.81170768 15.81596
18.942263 -0.55501181 15.991683
16.665283 -1.3123739 16.088614
18.040771 -0.56232578 15.886098
18.341135 -0.56012988 15.923309
16.437601 -1.5008004 16.103933
16.14694 -0.57115585 15.658151
15.039703 -0.26182494 15.471342
18.453403 -0.29042384 15.983217
19.347473 -0.20624912 16.201855
16.343616 -0.56868601 15.739141
17.946085 -0.27246115 16.001755
18.946299 -0.59611005 16.167797
15.872114 -0.53698993 15.513047
15.508159 -0.72574461 15.753111
15.348906 -1.0185577 15.767294
15.046538 -0.20706013 15.576687
15.863111 -0.24147525 15.830855
15.220734 -0.69117028 15.766236
17.957006 -0.19501477 15.956246
16.441586 -0.21366405 15.818048
15.645088 -0.26018113 15.651335
18.04867 -0.52095079 15.955954
18.244989 -0.26640326 16.048719
20.039984 -0.12858933 16.158716
18.940899 -0.27093554 16.185225
16.744518 -1.0021496 15.947594
17.836321 -0.27458391 15.908039
15.647862 -0.26791382 15.707986
15.645311 -1.0114061 15.808574
15.445809 -0.55808765 15.572756
20.209644 -0.58730704 16.182976
18.231979 -0.82332551 15.913207
18.444214 -0.2085427 16.080973
16.16597 -1.078053 15.813113
15.940787 -0.20571691 15.709414
16.339081 -1.0484244 16.031296
17.505219 -0.91331869 15.856283
16.324244 -0.67667294 15.817629
16.714935 -1.1511285 16.055187
15.03674 -0.60884339 15.657341
16.444759 -0.56872004 15.747609
16.254908 -0.55925751 15.864441
16.131496 -0.94622046 15.881353
16.089987 -0.99466985 16.023214
16.519312 -1.3453223 16.088715
17.043369 -0.56203109 15.816786
17.46348 -0.95572019 16.038731
16.142742 -0.21117695 15.779443
17.131413 -0.26782629 15.829243
14.829457 -0.28965837 15.63451
17.741726 -0.51781702 15.913066
16.268763 -0.79292393 15.71625
17.133226 -0.27010149 15.897482
17.252497 -0.20797679 15.993089
15.241033 -1.041343 15.901393
16.581291 -1.6173197 16.101694
19.665859 -0.17448515 16.183611
19.961983 -0.14898412 16.242668
18.010956 -0.97150904 15.911376
18.138494 -0.56850332 15.950348
18.100357 -0.40673599 16.081026
17.64167 -0.56329286 15.88349
16.135784 -0.69134831 15.781183
18.843613 -0.40859777 16.076977
16.855621 -0.26135761 15.855076
15.944165 -0.267333 15.745981
16.072598 -0.32716233 15.602105
17.642473 -0.27380657 15.961
16.661316 -0.66068959 15.784018
16.545374 -1.0371825 16.043402
18.865252 -0.59778649 16.146196
20.223339 -0.27679852 16.321123
17.047796 -0.26844275 15.882093
15.942718 -0.58044136 15.691028
15.332914 -0.24840558 15.50929
17.736908 -0.2638289 15.975002
18.253149 -0.27881923 15.95785
18.151991 -0.27290225 15.847323
15.188197 -0.28526855 15.738787
16.949841 -0.42327189 15.956215
17.684843 -0.44129032 16.039173
18.942215 -0.50054002 16.002275
18.747313 -0.28484845 16.119169
15.828847 -0.48550239 15.612008
18.452253 -0.26659054 16.071686
17.139454 -0.5598653 15.825539
19.129049 -0.50175416 16.088955
16.753805 -1.5599561 16.134871
17.176058 -0.44434571 15.942831
17.220732 -0.44248855 15.952496
16.540806 -0.27112445 15.824728
15.23558 -1.1102586 15.630193
17.356245 -0.82649177 16.00878
17.948799 -0.54685837 16.071482
16.672144 -0.39014804 15.821829
15.73869 -0.27155793 15.717067
15.634738 -0.22666438 15.806342
17.0446 -0.31073156 15.980793
16.145891 -1.0161686 15.921208
17.839016 -0.26680514 15.984864
17.94454 -0.5653882 15.926157
18.144743 -0.51428837 15.958447
18.746315 -0.564192 15.980336
16.068233 -0.72828019 15.787686
16.641239 -1.2474791 16.114803
16.945311 -0.27132979 15.868153
17.74592 -0.21531582 15.989971
18.346645 -0.57102895 15.974767
17.047249 -0.21662083 15.896843
14.746203 -0.31799018 15.614942
15.542074 -0.20852163 15.703647
18.357813 -0.76112866 16.05793
15.938204 -0.55878776 15.637736
17.005728 -0.80970764 15.793171
18.123764 -0.65225977 15.878631
15.949153 -0.97036684 15.91069
15.441275 -1.017733 15.773484
16.041128 -0.57092601 15.701941
15.734993 -0.63700867 15.594599
16.639786 -1.0086651 15.985957
15.885014 -0.29577202 15.812694
17.445484 -0.27226782 15.870226
18.544348 -0.56338423 16.002794
18.450216 -0.50906575 16.004683
17.34515 -0.26372033 15.921484
18.743891 -0.73766261 16.109806
18.551483 -0.86040682 16.107685
15.849826 -0.2596626 15.683109
15.447031 -0.58776116 15.628435
18.128096 -0.22033174 15.7644
18.837664 -0.56869584 16.04653
16.786818 -1.4269825 16.086294
18.249197 -0.40931019 16.013243
17.248087 -0.26854211 15.913
16.146088 -0.96917409 15.934739
15.173579 -0.35915637 15.536951
18.645601 -0.2088338 16.110058
16.340092 -0.20179828 15.752887
17.740194 -0.56335419 15.90014
16.239683 -0.6690532 15.800261
15.45265 -0.52185559 15.646947
17.640059 -0.52147758 15.895864
17.263025 -0.9093855 15.860391
15.053831 -0.43336022 15.564256
15.843356 -1.0239129 15.885915
16.178757 -0.35934022 15.685652
17.240421 -0.77001423 15.818787
17.776619 -0.32562044 15.798395
16.427628 -1.3130107 16.081554
16.970501 -1.2865154 16.151424
16.341417 -1.0122281 15.94751
15.315469 -1.0145905 15.64023
17.83606 -0.70886719 15.839374
16.230274 -0.23726837 15.619334
15.049623 -0.24631026 15.56389
18.540487 -0.76554471 15.990066
17.546089 -0.21311131 15.963283
16.444651 -1.0155116 15.96105
16.44422 -0.5274896 15.762959
17.339571 -0.96796119 16.084692
17.777334 -0.77578253 15.824232
18.34267 -0.51542664 15.991996
15.72748 -0.13281715 15.685005
17.946331 -0.52023697 15.934639
19.428593 -0.21035662 16.208555
16.338564 -0.96971661 15.957901
16.753351 -0.20036776 15.806432
16.466328 -1.1027319 15.800423
16.642962 -1.0555155 15.805827
16.732613 -0.6310516 15.95705
18.74394 -0.56329018 16.028969
18.443968 -0.80012578 15.979994
18.241455 -0.5677011 15.963552
16.34197 -0.26296175 15.734513
16.745972 -1.0086862 15.997176
15.082789 -0.59254432 15.770215
15.449636 -0.82661235 15.792916
16.252697 -0.19845289 15.73646
17.944052 -0.35521188 15.817125
17.425461 -0.35270077 15.751015
16.538849 -0.14111456 15.840296
15.448875 -0.67528522 15.708137
15.440664 -0.7706117 15.859542
17.34247 -0.52386773 15.862862
16.759037 -0.95076269 15.951118
15.64353 -1.077504 15.784703
16.140652 -0.19817282 15.732911
16.634626 -0.25971019 15.764954
16.049776 -0.25820526 15.703836
20.065674 -0.18943377 16.283051
18.943123 -0.20713589 16.142326
15.549805 -1.0300941 15.850286
15.648742 -0.58346754 15.655645
16.844904 -0.9708178 16.021013
15.745459 -0.57960868 15.66787
15.83069 -0.96444523 15.971587
19.20694 -0.3227151 15.970017
15.341489 -0.59154642 15.624996
15.245734 -0.59628087 15.605494
16.587599 -1.0728323 15.873013
15.749746 -1.0170016 15.819101
14.953345 -0.25263321 15.56004
15.846292 -0.5769248 15.680798
17.631485 -0.27771288 15.782106
15.046806 -1.1476407 15.626791
16.529425 -1.1699177 16.029697
19.144024 -0.21513309 16.172182
15.242975 -1.0964116 15.803493
16.041935 -0.21160953 15.765842
18.949781 -0.56646013 16.055923
14.833675 -0.20366497 15.411376
17.039997 -0.40201357 15.96942
15.131803 -0.49162686 15.52827
15.345493 -0.19431406 15.626961
15.04885 -0.52341795 15.607531
19.848989 -0.48936293 16.134573
16.708973 -0.97597063 16.07126
17.862162 -0.36826411 15.802464
19.148315 -0.27481869 16.158287
17.247217 -0.33392423 16.002804
17.663513 -0.65393996 16.050781
15.926971 -0.73249954 15.78053
17.145517 -0.20650849 15.848548
17.045649 -1.0098149 16.034943
15.545128 -0.51867872 15.649553
16.437346 -0.30311126 15.894382
18.836994 -0.50255615 16.05138
17.750076 -0.67499763 15.829894
15.893245 -0.70001483 15.802108
17.13089 -0.29754606 15.971693
16.847462 -0.38712031 15.844995
18.659672 -0.25877357 15.895305
15.686177 -0.34562775 15.658802
18.345182 -0.30965167 15.860682
15.634055 -0.95123225 15.823537
17.141504 -1.0095862 16.047264
15.032857 -1.0074074 15.721584
16.645445 -1.237348 16.071489
17.442169 -0.31017345 16.022434
18.933727 -0.39260635 16.102335
18.05731 -0.4025721 15.972928
19.853182 -0.34850845 16.160114
18.744675 -0.50621843 16.03726
16.424971 -0.23327421 15.896807
18.928167 -0.82287276 16.156363
16.242786 -0.52219093 15.742039
15.740992 -0.28855088 15.567656
17.177486 -0.71578425 15.954118
19.226284 -0.76303631 16.186531
18.12962 -0.42870313 16.019236
17.034536 -0.94021475 15.980293
16.039179 -0.95603043 15.870474
16.341784 -0.52676409 15.751525
16.235445 -1.0982763 15.908458
16.444973 -0.14013706 15.854588
16.616985 -0.72118998 15.851834
14.993311 -0.40178549 15.427519
18.731106 -0.35487303 15.982421
16.486395 -0.79442275 15.878436
17.430943 -0.39615136 15.913694
19.13929 -0.26951399 16.072287
16.220764 -0.13647427 15.827598
17.445293 -0.56052715 15.863742
17.339273 -0.56161129 15.850104
15.353479 -0.15592574 15.425348
15.247069 -0.65342742 15.495853
16.639191 -0.42293748 15.916389
17.219219 -0.63141131 15.937911
17.547432 -0.56433505 15.876214
17.345491 -0.55499989 15.805701
17.244635 -0.5575012 15.793607
16.840239 -0.94857794 15.952493
16.936781 -0.94713348 15.951211
18.463301 -0.75370079 16.048491
16.872154 -0.76945174 16.003984
16.540508 -0.9695878 15.985315
16.651138 -0.94891125 15.944578
16.74576 -0.96855712 16.016228
18.52405 -0.46170729 16.147284
16.246252 -0.97173172 15.949348
15.759808 -0.79070574 15.729535
16.713036 -1.4055792 16.110342
17.442623 -0.55796713 15.821898
15.54658 -1.009607 15.795348
16.872019 -0.93451607 15.887643
17.544001 -0.94289947 16.04281
17.546774 -0.55727041 15.828427
17.41444 -0.60603356 15.984127
16.942434 -0.97020173 16.039412
15.128746 -0.33161345 15.471403
18.556164 -0.36281225 15.970625
16.058731 -0.20759808 15.858549
17.459879 -0.83480543 15.971395
15.341012 -1.0901582 15.636164
17.588306 -0.76506531 15.80699
16.269321 -0.81689888 15.809924
16.498728 -0.76955885 16.00905
19.617132 -0.58918262 16.143614
17.242435 -0.96936178 16.07398
15.933825 -0.67395127 15.684327
19.622826 -0.22254805 16.244299
18.542095 -0.50054896 16.010517
16.150917 -0.13618577 15.821911
19.821869 -0.5053584 16.145458
16.378141 -0.72647756 15.932485
18.409639 -0.19307156 16.005852
16.917568 -0.27146235 15.802478
18.548948 -0.27209038 16.08235
17.960524 -0.27834618 15.927231
15.504175 -0.82644254 15.682276
18.353516 -0.24674685 15.970409
17.669939 -0.36484438 15.782464
16.750706 -1.127683 16.013338
15.627341 -0.77263689 15.753337
16.476274 -0.7023083 15.929003
15.069496 -0.38480484 15.698339
17.365099 -0.58389497 16.048733
20.302202 -0.53646779 16.171619
15.641981 -1.026013 15.860528
15.822074 -0.65779084 15.671227
16.740578 -0.42922789 15.91608
19.156807 -0.22187251 16.243145
15.4386 -0.59762335 15.693832
16.822598 -1.1219087 16.028057
19.443842 -0.2286102 16.271521
16.838411 -1.4628184 16.17872
15.35209 -0.30409208 15.753763
17.346197 -0.7710529 15.831321
17.105368 -0.9830153 16.128881
16.006821 -0.28785151 15.828466
15.677502 -0.43531486 15.792378
15.471027 -0.43414521 15.806977
16.168083 -0.87225264 15.797212
16.938992 -0.95201582 15.890562
15.548137 -0.5170272 15.593235
16.537392 -0.41805574 15.895253
19.343361 -0.50248921 16.121536
16.437029 -0.90281117 15.829938
15.298106 -0.32470247 15.483138
17.138464 -0.52043313 15.839395
17.249233 -0.56265336 15.837204
15.445295 -0.25778672 15.630269
16.541515 -0.5258342 15.774129
17.241245 -0.51715666 15.854256
18.256735 -0.5952335 16.064684
18.631962 -0.59092748 16.110292
17.86792 -0.82049656 15.984109
15.05127 -0.51284778 15.544694
17.342367 -0.31509119 15.983438
18.020596 -0.34083432 15.814418
16.447861 -0.25733256 15.757814
16.635111 -1.3561771 16.106543
17.031155 -0.13808335 15.921368
14.964516 -0.53804201 15.654504
16.041851 -0.5236938 15.712546
16.039007 -0.97003758 15.919243
17.443645 -0.20920433 15.877075
17.878935 -0.48031533 16.107946
15.70848 -0.85568249 15.869698
16.640251 -0.97009838 15.997677
15.46348 -0.81378114 15.868187
18.305912 -0.36580801 15.854835
15.360764 -0.75382996 15.822254
16.74052 -0.52080417 15.798452
18.528543 -0.69365788 16.195898
17.135357 -0.22867393 15.9798
18.942423 -0.50656343 16.061342
15.156736 -0.52515858 15.711533
16.969982 -1.4853207 16.175821
18.101839 -0.69758886 16.103277
15.92607 -0.65617007 15.579495
15.239085 -1.1356546 15.942475
15.056605 -0.96900195 15.886202
15.247148 -1.0882252 15.732111
15.442578 -0.45452201 15.811929
15.65275 -1.0963718 15.845362
18.628155 -0.32641232 15.925002
15.549674 -1.1012429 15.831479
16.533791 -0.73702765 15.951308
15.183649 -0.70298505 15.794209
15.240502 -0.93845952 15.665319
18.442793 -0.49561912 15.95222
15.138227 -0.51323354 15.601629
14.853651 -0.50696737 15.559788
15.358123 -0.91912496 15.681237
15.794601 -0.94860816 15.728549
17.254572 -0.78968769 15.899397
19.931219 -0.11912655 16.202974
19.321398 -0.40483364 16.31542
18.64871 -0.50873458 16.028166
15.228088 -0.50477833 15.54119
16.786386 -0.33963546 15.762887
15.746395 -0.3474665 15.546366
15.739703 -0.9523505 15.831845
15.28983 -0.36611971 15.486331
17.616592 -0.90628815 15.931293
17.725916 -0.54397523 15.978105
16.715925 -0.78053665 16.026867
15.53602 -0.65914184 15.625573
15.814783 -0.31942007 15.572436
16.710627 -0.69993448 15.974874
15.71752 -0.65585953 15.646602
15.631676 -0.66193557 15.648338
18.522196 -0.67384094 16.003811
16.650188 -0.62364674 15.940567
18.043449 -0.56820828 15.934694
18.048729 -0.88597125 15.894546
15.58342 -1.0836983 15.792093
17.753647 -0.82261097 15.979837
15.748919 -0.39436918 15.714777
18.633055 -0.56395417 16.012049
15.16319 -1.0118079 15.588933
18.335583 -0.78950775 15.937364
16.937716 -0.30598122 15.943417
16.959724 -0.50746459 15.954037
15.356376 -1.0525639 15.901265
16.95079 -1.5467123 16.172798
17.148378 -0.43614113 15.889559
15.335649 -0.59323853 15.705494
18.490881 -0.35145476 16.115133
17.933784 -0.79478234 15.88315
16.878994 -0.82248515 15.872022
16.225582 -0.29666421 15.854496
16.605026 -0.74667597 15.759328
19.549139 -0.21846442 16.281307
16.44022 -0.95494825 15.92625
17.027222 -0.73129356 16.03722
17.260462 -0.38449341 15.798345
19.666061 -0.40025139 16.113003
17.17514 -0.37903127 15.783337
17.35813 -0.37339601 15.818844
17.022566 -0.84476709 16.070366
15.545047 -0.58042598 15.645717
17.12068 -0.88065898 16.100367
17.542934 -0.38274366 16.043776
15.941527 -0.97661209 15.98951
17.523468 -0.39251199 15.814491
18.483231 -0.36616018 15.906204
19.438019 -0.44246161 16.095755
18.515974 -0.62282515 16.199091
16.188425 -0.38528714 15.819115
17.197819 -0.87812787 16.095957
19.839207 -0.28934893 16.202021
20.0144 -0.30735397 16.293591
15.245281 -0.66056293 15.584929
17.188652 -0.89522529 15.863691
19.0063 -0.27456647 16.206728
15.051991 -1.1179922 15.774331
17.844128 -0.79011756 15.893579
17.645405 -0.79896337 15.868105
16.706398 -0.90060192 15.800333
18.240522 -0.55591619 15.909542
19.943079 -0.42426243 16.106562
17.447308 -0.89781743 15.891939
15.643589 -0.31287107 15.797679
16.892702 -0.42274565 15.979237
16.246656 -0.40787518 15.82922
15.19638 -0.36306566 15.379095
19.157633 -0.28136927 16.220087
18.145576 -0.56151181 15.898598
16.526791 -0.63008243 15.866649
17.573357 -0.7757234 15.881276
17.370668 -0.84247351 15.849665
15.440987 -0.97953296 15.916521
15.446017 -0.40539378 15.600331
15.246593 -0.93988538 15.770632
16.95052 -1.3612015 16.156351
17.721193 -0.2739124 15.897744
19.54364 -0.28147197 16.273767
17.619267 -0.36528644 15.880936
18.142139 -0.91066259 16.045181
17.548759 -0.78945476 15.93497
18.326242 -0.4064877 15.935245
15.229415 -0.77760041 15.552701
17.741688 -0.72388512 15.877029
18.24679 -0.35947052 15.907956
16.775032 -0.8245883 15.964071
15.440489 -0.5087676 15.756157
16.809851 -0.93356818 15.780147
16.018341 -1.1213551 15.848303
16.524048 -0.87964827 15.966936
18.683802 -0.53679967 16.126198
19.895632 -0.57171285 16.227036
14.938392 -1.181107 15.827538
15.646254 -0.39001164 15.687851
17.733614 -0.37975806 15.868078
17.84663 -0.90245783 15.93351
15.243458 -1.0370432 15.81214
18.154232 -0.36704871 15.872754
18.322439 -0.352422 16.097067
17.778872 -0.92219186 15.999325
17.335833 -0.97645056 15.864457
15.947151 -1.0179546 15.898969
17.990936 -0.95430696 15.923475
18.148821 -0.7893694 15.943798
17.943741 -0.63487101 16.089464
17.77891 -0.38111418 16.060978
18.7054 -0.50399351 16.238235
15.551214 -0.57618493 15.71903
15.146806 -0.56299293 15.525784
17.250042 -0.99358684 16.149418
15.723462 -0.99003804 15.70901
16.316425 -1.1058333 15.896149
15.559527 -0.30426517 15.768087
15.643835 -0.96545494 15.871062
16.540461 -0.69208723 15.847145
17.93326 -0.36870503 15.88244
18.641722 -0.41495657 16.063688
18.345352 -0.51951563 16.099752
16.238747 -0.35747266 15.760705
15.834487 -0.51857418 15.762158
15.750781 -0.54672915 15.763756
15.906697 -0.5313645 15.759237
16.123375 -0.52060235 15.824517
16.950573 -0.60912734 15.89529
15.998917 -0.56758404 15.91608
16.82585 -0.61634767 15.895811
16.357449 -0.64560735 15.806017
16.469837 -0.59983402 15.947285
16.545267 -1.6121818 16.167309
17.946438 -0.37889203 16.059355
17.712973 -0.58765471 15.981081
19.644291 -0.27981406 16.230141
18.456039 -0.39629886 16.057152
17.064926 -0.53764254 15.95818
17.123598 -0.57332176 15.933163
16.453707 -1.5786692 16.137295
16.040258 -0.39914912 15.73965
19.822811 -0.44700918 16.210648
16.256704 -1.0837123 15.834041
18.248066 -0.52609283 16.047659
18.248131 -0.49461213 15.922385
15.459606 -0.15121755 15.782424
15.741676 -0.42715824 15.790846
16.170427 -1.109543 15.916275
20.072847 -0.56098223 16.265032
19.74136 -0.51068234 16.179367
16.832525 -1.1587768 16.093306
15.970106 -0.85529768 15.91275
15.749113 -1.0245677 15.875045
19.108305 -0.78415549 16.060389
16.236616 -0.80139327 15.927659
17.277239 -0.8609187 15.845791
19.640694 -0.23905155 16.133535
19.170956 -0.53503722 16.334396
19.55385 -0.26614025 16.206863
17.324997 -0.40869287 15.966599
17.336525 -0.40631315 15.897426
16.630537 -0.21044347 15.919821
18.64716 -0.83429348 16.031473
19.543634 -0.50539547 16.141037
17.217308 -0.70545989 15.771764
15.345498 -1.0328463 15.820051
18.324484 -0.9128294 15.950602
17.234207 -0.49885219 15.945523
15.443533 -0.087577537 15.515521
16.253759 -0.10933083 15.644633
17.023752 -0.58878994 15.896974
17.009304 -0.51729447 16.031878
17.251854 -0.85421181 15.998467
16.968153 -0.63091338 16.027946
17.157421 -0.48551691 15.94674
15.919927 -0.42064688 15.826296
17.04174 -0.88987201 15.873077
15.738626 -0.96017545 15.969972
16.310699 -0.94176036 15.805939
15.843789 -1.0127544 15.95684
16.223005 -1.0286728 16.014505
16.852644 -0.74894017 16.064955
16.134424 -0.99060476 15.784277
17.03997 -0.73773378 16.062325
18.169767 -0.77298522 16.022612
15.376034 -0.12035979 15.495759
17.136608 -0.54547054 16.074768
18.44565 -0.92545247 16.007233
15.635545 -0.54013461 15.76907
16.942514 -1.2363192 16.113575
17.048037 -0.41098934 15.851763
15.917116 -0.65822464 15.841751
16.278038 -0.66815883 15.898504
17.339163 -0.76714611 15.987126
17.839226 -0.86276567 15.897373
17.02471 -1.3973073 16.191191
17.946226 -0.88109303 15.916355
17.322292 -0.50732201 15.974303
17.940596 -0.66004241 15.874135
16.140631 -0.42417973 15.746263
17.868965 -0.83809382 16.122297
20.017033 -0.28357741 16.324587
17.738005 -0.44684422 15.746308
15.045285 -0.22470717 15.371267
17.754749 -0.39144593 15.951964
15.546011 -0.53799599 15.849401
20.069561 -0.43357548 16.225044
15.364101 -0.42242819 15.743576
15.44798 -0.723315 15.815111
17.871056 -0.39090171 15.883283
15.064907 -0.53647786 15.65978
19.446234 -0.26654297 16.248413
16.412733 -0.11492969 15.742756
16.986128 -0.64822912 15.836557
17.905346 -0.4540129 15.778947
15.25685 -0.99778086 15.655471
15.183213 -0.97930706 15.550952
15.386328 -0.85120988 15.831723
17.019587 -0.8716377 16.024454
15.362188 -0.8405599 15.802656
19.759428 -0.56512994 16.147833
17.84115 -0.56535316 15.910951
15.737405 -1.0918045 15.838003
17.644844 -0.95110714 16.059694
15.763991 -0.58886075 15.462502
18.030718 -0.66145396 15.852407
19.161383 -0.68017244 16.110907
15.50887 -1.0322347 15.920418
17.823713 -0.69988459 15.991437
15.417852 -0.6046676 15.831574
17.958317 -0.68750429 15.983997
16.078106 -0.39962587 15.840786
17.537647 -0.68345058 15.959623
18.53418 -0.69040841 16.048006
15.550822 -0.53357649 15.714891
20.263958 -0.56242722 16.169573
17.468426 -0.71447057 15.955072
16.133659 -0.67957985 15.717422
18.34742 -0.91835541 15.982606
17.933142 -0.67657965 15.916732
17.822966 -0.6042282 15.997384
15.98225 -0.28567767 15.830994
17.557989 -0.64121902 15.973501
18.103214 -0.61046672 16.055626
19.141245 -0.83281708 16.124294
20.066135 -0.53352463 16.144108
18.05974 -0.62409705 16.035322
18.549345 -0.58326143 16.087572
15.195089 -0.68525457 15.723672
15.277629 -0.85488474 15.609349
16.336296 -0.9479754 15.900602
19.165676 -0.42122212 16.066456
15.767193 -0.58911514 15.737403
18.366835 -0.87550807 16.160252
16.256104 -0.8617897 15.746196
18.934376 -0.5253877 16.165222
14.849645 -1.1048589 15.757784
15.650327 -0.55820704 15.591473
18.118677 -0.35600582 15.842713
18.430136 -0.53742063 16.077559
15.323451 -0.56101751 15.548256
16.548733 -0.91457176 15.837187
18.116884 -0.53247547 16.04747
18.739519 -0.57413352 16.115761
18.863558 -0.3876791 16.014122
19.547491 -0.57511032 16.133553
15.347308 -0.50966823 15.750673
17.364901 -0.57622707 15.95138
18.342966 -0.59137154 16.09379
17.847038 -0.41124806 15.971058
17.927696 -0.58995438 16.046843
17.438932 -0.54830164 15.98747
15.235282 -0.5787999 15.543085
17.633493 -0.27778363 15.873872
17.528866 -0.39186025 15.923088
15.256921 -0.52638531 15.607753
17.65143 -0.55405009 15.843354
16.723886 -1.2590255 15.873919
15.161668 -0.72287047 15.681109
17.740803 -0.55711079 15.855993
16.594696 -0.8159951 15.971458
19.830017 -0.53058368 16.116592
18.282946 -0.67232299 15.953678
16.306059 -0.67067534 15.72365
16.845551 -0.50962734 16.00243
19.015778 -0.37883842 16.048359
14.950464 -0.93812174 15.780889
19.065409 -0.53760844 16.15513
18.476902 -0.60882789 16.191133
15.14419 -0.69314045 15.513956
16.909883 -0.3800908 15.843708
18.978823 -0.33102387 16.024298
18.650854 -0.2804653 16.026737
15.24369 -0.87153584 15.816287
14.780001 -0.54546082 15.709053
18.925377 -0.84207863 16.240728
17.582438 -0.85809588 16.063751
17.607626 -0.71971172 15.977265
15.955099 -0.81058621 15.84964
17.944998 -0.55502945 15.877493
17.656788 -0.80484587 15.992507
16.288229 -0.88972259 16.033228
17.92894 -0.39404631 15.953768
17.735449 -0.85609657 16.077448
18.048098 -0.26917678 15.911363
18.415384 -0.89743161 15.956385
15.748578 -0.88255197 15.971091
16.077133 -0.84555775 16.072372
15.159185 -0.66960239 15.566965
18.342642 -0.40977466 16.025496
15.439198 -0.54338753 15.815425
18.540916 -0.34954351 15.890574
15.390977 -0.66428518 15.558118
16.699751 -0.13768239 15.983714
15.172069 -0.80160087 15.504107
17.547634 -0.62963355 15.808072
18.818569 -0.80580366 16.187365
17.968578 -0.52245361 15.799623
19.63059 -0.43247923 16.155205
16.055914 -0.53554606 15.779058
15.869824 -0.5949679 15.75021
18.242096 -0.84722477 15.945453
15.746735 -1.1357882 15.933717
18.555637 -0.51665092 16.108456
16.080887 -0.8321681 15.770375
18.685051 -0.80687529 16.158939
16.064533 -0.87451655 15.948756
15.841013 -0.81929755 15.894367
19.460499 -0.56071204 16.19495
15.945593 -0.13711208 15.842916
16.346079 -0.38466895 15.725952
19.255783 -0.7459721 16.093548
18.527643 -0.89059234 16.100653
18.028673 -0.67102891 15.918436
15.323817 -0.076179512 15.508704
18.744761 -0.41259781 16.064325
16.236635 -0.66425705 15.714876
16.736917 -0.40171424 15.81153
17.855459 -0.67730772 15.901184
19.562571 -0.51383799 16.254959
19.949549 -0.25288641 16.19383
15.642839 -0.51869678 15.664404
18.45153 -0.62352037 15.886638
18.415749 -0.9542641 15.935318
17.83305 -0.52345401 15.783676
15.742039 -0.52494627 15.680605
19.471767 -0.38792878 16.19384
18.541912 -0.4275358 16.037136
16.535767 -0.96107751 15.927137
17.848755 -0.56330454 15.864223
15.985022 -0.1413635 15.733898
16.00819 -0.87865168 15.882913
18.951889 -0.72841716 16.246605
15.953579 -0.52357918 15.699231
17.759737 -0.91418689 15.90543
16.325087 -0.86823767 15.959788
15.441057 -1.028147 15.834526
16.617153 -0.88166475 16.006491
18.118816 -0.85312355 15.913285
17.594017 -0.53527504 15.973855
18.145065 -0.50421125 15.90766
15.446918 -1.0544027 15.909471
18.556892 -0.50516176 16.229485
15.749318 -0.14069296 15.719373
17.838594 -0.50146866 15.87193
16.336279 -0.39097217 15.754957
17.890959 -0.48032445 15.791356
17.668875 -0.44304654 15.955306
15.255247 -0.61189908 15.683542
16.444031 -0.49835917 15.981811
15.430969 -0.52781314 15.907969
18.831362 -0.52685148 16.167479
