# .PCD v0.7 - Point Cloud Data file format
VERSION 0.7
FIELDS x y z
SIZE 4 4 4
TYPE F F F
COUNT 1 1 1
WIDTH 1192
HEIGHT 1
VIEWPOINT 0 0 0 1 0 0 0
POINTS 1192
DATA ascii
45.940598 26.941599 -62.563633
46.38298 26.864233 -62.437008
46.288666 26.369564 -62.528389
45.789124 26.213614 -62.367294
45.999989 26.261333 -62.505875
46.519344 26.256887 -62.346195
46.620163 26.2666 -62.283375
46.074795 26.185503 -62.370255
46.587975 28.470842 -62.14827
45.474876 27.75946 -62.320419
45.749401 26.232023 -62.465469
45.262512 29.054529 -62.211201
45.133789 28.970169 -62.26334
45.387207 28.703711 -62.206585
45.105835 27.781336 -62.405407
45.226807 27.716969 -62.379242
45.499191 27.656561 -62.323013
45.463562 27.487453 -62.328735
46.008057 27.262053 -62.454914
45.857544 26.741999 -62.551723
44.836891 29.255404 -62.396469
44.851845 29.150553 -62.386532
44.980202 29.133913 -62.355835
45.838478 28.527809 -62.412468
46.405525 28.445848 -62.248508
45.242897 28.253159 -62.37117
45.123817 28.224722 -62.414062
45.149269 27.765451 -62.440601
45.115944 27.597271 -62.476635
45.255287 27.473478 -62.429047
45.324692 27.351139 -62.433105
45.7076 26.720358 -62.618423
46.555885 26.666763 -62.378895
45.017715 29.7904 -62.242474
45.115921 29.741045 -62.208027
45.215103 29.687416 -62.169769
45.038406 29.544281 -62.258015
44.860733 29.493666 -62.326939
44.992668 29.415224 -62.314629
44.873062 29.316198 -62.351257
44.9319 29.181385 -62.341415
45.084732 28.824171 -62.335899
45.111519 28.725937 -62.317181
44.986282 28.366129 -62.424843
45.459976 28.104364 -62.301807
45.090042 27.921616 -62.43676
45.246925 27.659958 -62.407356
45.143387 27.640633 -62.444057
45.23555 27.534626 -62.432938
45.914738 27.486237 -62.480618
45.320271 27.429117 -62.40329
45.814236 26.529522 -62.628735
45.191399 30.044889 -62.157497
45.131737 29.636225 -62.221893
45.008476 29.572369 -62.271324
45.197136 29.537258 -62.209648
45.224785 29.160883 -62.243225
44.925591 29.104155 -62.348663
45.307915 29.058254 -62.225845
45.312645 28.955761 -62.238426
45.04406 28.684673 -62.361691
45.200729 28.660423 -62.334999
45.322792 28.613516 -62.278931
45.836037 28.571774 -62.369019
45.221012 28.505428 -62.321724
45.455864 28.468716 -62.24144
45.31049 28.142237 -62.339203
45.237843 27.855091 -62.394733
45.230011 27.750387 -62.403233
45.305885 27.718935 -62.374828
46.105644 26.279587 -62.471439
45.881084 26.182119 -62.435699
45.127136 29.913782 -62.189556
45.223053 29.824474 -62.157459
45.297325 29.778818 -62.134609
45.191319 29.040062 -62.270222
45.037323 28.884554 -62.340992
45.282928 28.885502 -62.259785
45.356598 28.450714 -62.282452
45.339874 28.017498 -62.333298
45.399078 27.926363 -62.3251
45.122589 27.836384 -62.42997
45.916153 27.789553 -62.422665
45.362762 27.721626 -62.348648
45.1315 27.50066 -62.445156
45.505974 27.420658 -62.335739
45.804932 27.312515 -62.538094
45.47995 27.214245 -62.365273
45.137642 30.717461 -62.128498
44.886543 30.339926 -62.254826
45.034737 30.290541 -62.211826
44.991524 30.245907 -62.233047
45.044502 30.196642 -62.220108
45.094856 30.152729 -62.210316
45.219807 30.103893 -62.150967
45.704353 30.101393 -62.085712
45.477425 30.063293 -62.072586
45.2248 29.716702 -62.219025
45.050972 29.681973 -62.277992
45.100822 29.269262 -62.301186
45.219135 29.248049 -62.255798
45.234966 28.702749 -62.292702
45.303474 28.690989 -62.298241
45.069466 28.659962 -62.374622
45.403557 28.635109 -62.244411
45.300537 28.557531 -62.306458
45.413719 28.532215 -62.26189
45.428921 28.339983 -62.273281
45.277168 28.344105 -62.435417
45.344261 27.851288 -62.360268
45.333218 27.685711 -62.393726
45.325829 27.640388 -62.3853
45.330399 27.564762 -62.39275
45.895565 26.451506 -62.630657
46.716213 26.259878 -62.256001
45.169491 30.336246 -62.159306
45.22649 29.929625 -62.174381
45.216751 29.854988 -62.17907
45.274765 29.272337 -62.238888
45.427536 28.958149 -62.22514
45.418098 28.932602 -62.217293
45.221294 28.869173 -62.305256
46.661789 28.530197 -62.127979
45.388828 28.06196 -62.341263
45.900696 28.003473 -62.455597
45.379135 27.901312 -62.367184
45.404179 27.629965 -62.354649
45.397491 27.541973 -62.380054
45.328812 27.468256 -62.419769
45.424427 27.475719 -62.386311
45.402878 27.397821 -62.408577
45.416378 27.346806 -62.382122
45.360863 31.036449 -62.020542
45.377281 30.854233 -62.035294
45.317345 29.961767 -62.158318
45.402683 27.824806 -62.35392
45.530155 27.564129 -62.335152
45.503487 27.462862 -62.367241
45.524071 30.749481 -62.027618
46.000183 30.031906 -62.200684
46.311035 29.19298 -62.202557
46.72998 28.420637 -62.139801
46.400276 26.651934 -62.441486
46.102028 30.237389 -61.945499
46.692177 28.810062 -62.095776
45.932655 26.296103 -62.544724
46.195023 29.732254 -62.175621
46.349686 29.445673 -62.155735
46.021683 28.498917 -62.359516
46.478714 27.937147 -62.277885
46.424332 27.907148 -62.300613
46.072037 27.430841 -62.475212
46.231018 26.659559 -62.504688
46.48909 26.371155 -62.446365
46.29052 30.235071 -61.891827
46.498234 29.697922 -62.077301
46.333923 28.746677 -62.226093
46.537346 28.455452 -62.196888
46.12796 28.223879 -62.361935
46.196659 27.943748 -62.372887
46.042839 27.73098 -62.435986
46.048286 26.413996 -62.584938
45.816757 28.452906 -62.40247
45.991623 26.687998 -62.542023
45.71619 26.634148 -62.652481
46.004391 26.518827 -62.57074
46.334297 26.283602 -62.383736
46.107708 30.317703 -61.938225
45.740253 26.214586 -62.510822
46.458397 30.225302 -61.832005
45.758327 29.821569 -62.296467
46.507038 29.787949 -62.057217
46.031494 28.238672 -62.387554
46.328629 27.710257 -62.345306
46.037182 27.240591 -62.485054
45.916061 27.03129 -62.547745
46.110401 26.947975 -62.520401
45.990734 26.60737 -62.556969
45.923512 26.602987 -62.596462
45.646225 26.36763 -62.706718
45.801052 26.2218 -62.477184
45.91666 27.69599 -62.456242
45.903225 27.300129 -62.512154
45.821987 27.01811 -62.579063
46.110626 26.71806 -62.521904
46.147449 26.443357 -62.539749
46.172588 30.006845 -61.912151
46.025146 26.731268 -62.547058
45.667496 30.021412 -62.271336
45.915821 26.225254 -62.453053
45.914585 26.499508 -62.600914
46.253033 26.262459 -62.310471
46.01754 26.993919 -62.492504
45.931503 26.980087 -62.525349
45.960152 28.529182 -62.366241
46.111801 27.727797 -62.418175
46.005367 26.221804 -62.415367
46.328865 26.942549 -62.429035
46.321484 26.650574 -62.473301
46.385738 26.436291 -62.459194
46.313873 28.241394 -62.285759
46.114944 26.510399 -62.537315
46.603313 29.503014 -62.082214
45.820137 28.701445 -62.366146
45.934055 30.249441 -61.952042
45.705887 30.231018 -62.026119
45.905441 28.772501 -62.32859
45.73214 28.274401 -62.441929
46.188271 27.267204 -62.39658
46.111233 26.683575 -62.505596
46.113895 26.604513 -62.518486
46.003384 26.256338 -62.386074
45.218033 31.657131 -61.895409
45.095901 31.496557 -61.96014
45.113102 31.383673 -61.981323
45.12994 31.290586 -61.992325
45.163651 31.182993 -61.974152
45.21431 30.951292 -61.98098
45.225906 30.891825 -61.987255
45.117447 30.745737 -62.040909
45.284622 30.617716 -61.998947
45.431778 30.563459 -61.957077
45.163467 30.547882 -62.048252
45.331314 30.398237 -62.008656
45.313744 30.300598 -62.053547
45.513504 30.141163 -61.977142
45.258316 30.133541 -62.065651
45.400955 30.072231 -62.020443
45.920975 29.928032 -62.15155
45.892288 29.441462 -62.215298
45.920376 29.095274 -62.265125
45.810204 28.996429 -62.3321
45.904495 28.904285 -62.280365
45.935013 28.524307 -62.31395
45.825882 28.351765 -62.364956
46.038712 28.341795 -62.303402
45.81435 27.963781 -62.443504
46.10207 27.75881 -62.369026
46.25856 27.555235 -62.321102
46.139042 27.262598 -62.409348
46.581009 27.269619 -62.246429
45.929192 27.264614 -62.477665
46.122761 26.968697 -62.453442
45.987438 26.767176 -62.509525
46.360672 26.757776 -62.390087
45.129692 31.010996 -62.088486
45.318649 30.921688 -62.00745
45.924381 27.786488 -62.460659
45.847996 27.500025 -62.524944
46.011494 27.114491 -62.499004
45.826832 26.992178 -62.55809
46.011112 26.936674 -62.544388
46.00499 26.803316 -62.528801
46.210457 26.810804 -62.467754
45.90958 26.689709 -62.572315
46.206123 26.71714 -62.48904
45.822544 26.69647 -62.595303
45.81926 26.604994 -62.609104
46.218178 26.508924 -62.502777
46.114288 26.229614 -62.379665
45.487743 30.637861 -62.000954
45.642609 30.364853 -62.057915
46.078739 30.015221 -61.940552
45.700233 29.998489 -62.097061
45.707977 29.664732 -62.308193
45.766327 28.293043 -62.438412
46.221775 26.973194 -62.419029
46.207569 26.692923 -62.468876
46.22052 26.437277 -62.518402
46.216682 26.219971 -62.336784
46.009251 27.987383 -62.380733
46.035049 27.781189 -62.417046
46.115822 27.512751 -62.428558
46.121216 27.307362 -62.446335
46.29517 26.687212 -62.440445
46.309357 26.612741 -62.4557
46.303116 26.22036 -62.306477
45.297272 31.618135 -61.951271
45.696022 30.188095 -62.048283
46.116837 27.803366 -62.389309
46.122074 27.597969 -62.404999
46.410908 26.725588 -62.419487
46.209705 26.608406 -62.489677
46.298424 26.514904 -62.47599
46.316395 26.432066 -62.490959
46.122093 27.68898 -62.385658
46.305347 27.214985 -62.40419
46.310894 26.719469 -62.447754
46.395073 26.228977 -62.272503
46.209999 27.686029 -62.360466
46.203785 27.485893 -62.369812
46.213261 27.308636 -62.41404
46.319973 27.299395 -62.379059
46.220856 27.189743 -62.411232
46.115791 27.193005 -62.448734
46.116302 27.102734 -62.464901
46.294144 26.969975 -62.398449
46.407463 26.612251 -62.421974
46.511311 26.233463 -62.231789
46.421082 26.261354 -62.245182
46.554298 28.557899 -62.120415
46.002686 28.485626 -62.323906
46.113651 27.97385 -62.355022
46.112843 27.462814 -62.40921
46.214977 27.400295 -62.397018
46.378395 27.250092 -62.329685
46.214546 27.012596 -62.451004
46.42057 26.753637 -62.367706
46.416107 26.689749 -62.390869
46.497368 26.277487 -62.247917
46.010696 30.113031 -62.095608
46.381329 28.858912 -62.128838
46.215351 27.972538 -62.314678
46.296673 27.599224 -62.353279
46.30872 26.802214 -62.437279
46.067924 30.186314 -61.857868
46.159966 29.964746 -62.058342
46.162407 29.948542 -62.053951
46.382988 29.146614 -62.07653
46.483086 29.115168 -62.042812
46.404224 26.8132 -62.400368
46.206463 26.889503 -62.453667
46.595089 26.407537 -62.357212
46.513096 26.972622 -62.319569
46.615318 26.21833 -62.190571
46.118004 26.91696 -62.482979
46.512985 26.60471 -62.380611
45.431313 31.056284 -61.975529
45.598488 29.999344 -62.124065
46.115067 28.477615 -62.298626
46.218124 27.595137 -62.372017
46.403896 27.307665 -62.342422
46.402065 27.217224 -62.367741
46.505047 26.925615 -62.36356
46.504936 26.685503 -62.371586
46.593918 26.613209 -62.357548
46.808815 26.228714 -62.124611
46.711746 26.232162 -62.165478
45.330688 31.373539 -62.0163
45.805023 29.893353 -62.27034
46.395557 29.002663 -62.164795
46.712315 26.309217 -62.218651
45.685757 30.018888 -62.182514
46.384777 28.739393 -62.201355
46.595547 26.895344 -62.325188
46.521069 26.806925 -62.360928
45.989693 30.078861 -61.991409
46.290703 29.791779 -62.128296
46.4142 29.517292 -62.114994
45.852219 29.035425 -62.353832
46.097824 28.302242 -62.344185
46.010113 30.306366 -61.953186
45.154427 31.325253 -62.066254
45.640369 30.267 -62.080765
46.415844 30.297935 -61.817844
45.838463 30.00761 -62.03426
46.410564 27.394365 -62.328121
44.967091 31.425295 -62.109379
45.231937 31.120853 -62.039463
45.318111 30.820759 -62.045174
45.418709 30.611311 -62.028603
45.500763 30.275146 -62.035191
45.819271 29.659611 -62.269787
46.51738 27.18261 -62.312939
44.942009 31.719936 -62.074821
45.224411 31.414915 -62.010818
45.122711 31.223732 -62.053886
45.775444 28.888372 -62.375591
46.00135 28.678471 -62.322227
45.918205 28.480806 -62.373604
45.03389 31.734577 -62.084068
45.112919 31.571669 -62.05265
45.20369 31.267733 -62.072327
45.313004 30.968195 -62.061703
45.487259 30.487436 -62.051208
45.408905 30.346668 -62.067101
45.628372 30.401974 -62.012897
45.490555 30.185658 -62.08366
45.421951 30.085766 -62.11977
45.731216 29.88595 -62.291847
46.317402 29.733244 -62.130333
46.019444 29.008627 -62.300976
46.212898 27.803982 -62.35564
46.517704 27.227171 -62.321617
46.607441 27.016926 -62.313484
45.344406 28.424633 -62.328671
45.20425 31.020037 -62.084087
45.40057 30.757992 -62.041061
45.324493 30.641775 -62.059258
46.594334 30.318291 -61.754665
45.604107 30.020275 -62.036705
46.503262 30.228395 -61.82259
45.901615 28.697506 -62.340656
46.109085 28.51614 -62.320801
46.19902 28.476545 -62.276932
46.494003 28.495625 -62.193947
45.812275 30.323654 -62.035255
45.333473 31.730707 -61.987019
45.404022 29.982948 -62.120857
45.747936 29.110233 -62.38633
46.221371 28.726854 -62.270256
46.211094 28.524755 -62.284176
46.311508 27.946392 -62.327839
45.72226 26.892853 -62.624584
44.811691 31.293943 -62.174942
45.422775 31.35248 -61.945778
45.207432 31.348597 -62.018063
45.410271 31.095285 -61.98576
44.970993 30.683466 -62.189194
45.316498 30.258314 -62.123192
45.504044 30.13463 -62.060928
45.900085 30.315325 -62.003544
46.317581 30.300117 -61.860016
45.910461 30.00448 -62.059971
46.408192 30.021811 -61.894855
45.935555 29.815525 -62.243866
46.012733 29.80991 -62.214378
45.911926 29.088039 -62.321224
46.417809 29.222178 -62.153683
46.214359 29.017418 -62.233009
46.507343 29.01054 -62.132164
46.323544 28.803377 -62.215668
46.019531 28.593561 -62.331188
46.423355 28.297564 -62.229725
46.016788 28.384796 -62.360508
46.30949 28.400866 -62.249992
46.212944 28.195484 -62.30582
46.310001 27.804892 -62.321079
46.322018 27.686888 -62.322727
46.583664 27.733255 -62.232868
45.118038 31.548515 -62.034111
45.038082 31.129749 -62.110241
44.978939 31.265999 -62.116871
45.387318 30.918884 -62.016094
44.953365 30.788548 -62.18457
45.00787 30.439754 -62.198795
45.121578 30.534613 -62.150967
45.318779 29.857224 -62.164021
45.314667 30.049471 -62.139656
45.33337 29.786362 -62.163269
46.217121 30.309862 -61.891895
45.788151 30.005732 -62.095829
45.921108 29.668865 -62.245045
46.605301 29.778669 -62.022861
46.004211 29.089348 -62.279716
46.508255 29.522675 -62.080383
45.913738 28.809315 -62.351078
46.213913 28.793636 -62.244438
46.312214 28.505968 -62.251949
46.118336 28.013035 -62.366821
46.213146 28.094959 -62.319595
46.318157 27.992765 -62.306904
46.416958 27.727533 -62.299603
46.515285 27.402798 -62.296722
46.614002 28.230293 -62.216091
45.228306 31.642462 -62.014164
44.878487 31.083597 -62.237736
45.285713 31.280182 -62.066875
45.350533 31.434011 -62.028816
45.129097 31.680254 -62.082664
45.367744 30.279219 -62.140892
45.216621 30.372761 -62.190769
45.07209 30.444687 -62.2355
45.353523 29.878561 -62.195866
45.156502 30.275009 -62.22533
45.824394 30.09395 -62.051136
45.704292 30.204884 -62.113667
46.026848 30.225981 -61.992512
46.102692 30.012337 -61.986935
46.18232 30.223568 -61.95145
46.52282 30.377371 -61.820423
46.103462 28.274525 -62.203854
46.215157 28.306612 -62.157852
46.230217 28.341194 -62.198318
46.183174 28.515221 -62.135181
46.194038 28.575638 -62.122337
46.028206 28.615728 -62.17691
46.267952 27.947887 -62.20377
46.412666 27.982548 -62.148716
46.222725 28.256458 -62.167286
46.214973 28.64905 -62.189983
46.229805 30.038387 -62.10247
46.449409 27.702902 -62.181595
46.394783 27.850925 -62.175404
46.286205 27.857965 -62.243652
46.49781 27.937031 -62.127117
45.911282 29.589739 -62.264923
45.804367 29.601141 -62.301357
46.214169 29.804792 -62.147549
46.019459 29.887772 -62.188866
46.107391 30.014721 -62.177086
46.209396 30.021053 -62.134064
46.538765 27.29879 -62.225754
46.512154 27.362909 -62.220825
46.422226 27.475147 -62.291641
46.419888 27.573473 -62.234852
46.104465 28.732868 -62.308895
45.932522 28.88681 -62.334511
46.128487 28.955067 -62.289505
45.931728 29.014118 -62.33717
46.119968 29.026579 -62.266399
45.809242 29.104172 -62.353836
46.226021 29.237185 -62.221455
46.002422 28.709234 -62.360027
46.485443 28.735195 -62.176956
45.317463 29.597677 -62.167793
45.189964 29.663986 -62.232456
45.151817 29.729111 -62.239277
45.036644 29.925718 -62.260452
45.104942 29.987082 -62.226368
45.182236 30.062616 -62.1936
44.949974 30.073656 -62.277248
45.021996 30.134634 -62.241966
44.878685 30.195084 -62.287926
45.103848 30.203651 -62.182358
44.93795 30.284374 -62.259617
45.325001 30.338928 -62.097279
45.34145 30.571056 -62.082359
45.278786 30.737394 -62.085369
45.029526 30.76256 -62.196518
45.242584 30.836121 -62.089455
45.000717 30.838276 -62.187141
44.928551 30.963835 -62.195877
44.951378 31.167812 -62.168751
45.028954 31.270908 -62.131424
46.604225 27.222435 -62.291111
46.512665 27.506851 -62.286579
46.418175 27.688103 -62.289753
46.405628 27.793987 -62.290813
46.50478 30.314976 -61.779034
44.771812 31.281443 -62.225746
46.51173 27.729723 -62.266624
46.424091 28.007021 -62.260326
45.795227 28.600134 -62.407036
46.413158 28.519123 -62.217121
46.111309 28.793932 -62.281242
46.021008 28.812939 -62.312397
46.022369 28.896364 -62.293461
46.306831 29.013906 -62.199799
46.011639 29.67746 -62.207558
46.113766 29.792725 -62.179924
45.799004 29.974171 -62.242382
46.51255 26.905745 -62.344151
46.428585 27.769463 -62.220203
46.312347 27.97401 -62.284107
45.482792 29.622171 -62.099422
45.415272 29.673332 -62.117279
45.517681 29.797379 -62.036827
45.415676 29.915857 -62.095417
45.153362 30.022062 -62.145126
46.189007 28.828508 -62.217155
45.207325 30.18165 -62.13504
45.400249 30.35597 -62.003517
46.119568 29.101917 -62.241295
45.188087 30.51639 -62.083191
45.603924 30.615137 -61.898605
45.020245 30.676847 -62.101349
44.964092 30.795319 -62.112183
44.873638 30.972498 -62.120697
45.071331 31.059793 -62.034668
45.031902 31.147701 -62.034435
44.739071 31.23461 -62.126808
45.29417 31.381311 -61.912426
44.874493 31.485767 -62.050053
45.383961 31.499174 -61.916912
46.279442 30.422688 -61.796513
46.088615 30.416912 -61.867908
46.597443 27.798386 -62.223614
46.304615 28.101229 -62.290165
46.207523 28.394699 -62.289135
46.676575 28.616501 -62.097252
46.106281 28.765657 -62.259945
46.10957 28.972309 -62.244766
46.110428 28.885683 -62.263924
45.79755 29.042456 -62.333012
45.372864 29.812481 -62.117161
45.477112 29.98588 -62.054985
45.667114 29.997911 -62.000767
45.329563 30.026562 -62.098183
45.402786 30.127251 -62.081268
45.117233 30.368137 -62.165646
45.905933 29.884308 -62.229374
45.321693 30.71558 -62.043068
45.234051 30.936958 -62.056541
45.00106 30.920843 -62.132347
45.211636 30.995001 -62.008507
45.205933 31.29652 -61.989574
45.154739 31.432457 -62.042675
45.282608 31.698851 -61.933575
46.589798 27.604046 -62.242744
46.585102 27.700916 -62.228764
46.506939 28.00276 -62.22834
46.406387 28.09231 -62.250568
46.412182 28.18952 -62.231007
46.317692 28.19335 -62.267887
46.211292 28.26071 -62.275612
46.308426 28.308197 -62.264687
45.926613 28.974087 -62.304565
45.99472 29.047842 -62.260921
45.49118 29.824728 -62.103279
45.918636 29.467474 -62.255806
45.408554 30.000036 -62.055103
45.310692 30.134678 -62.136894
45.309753 30.237032 -62.100403
45.412815 30.235704 -62.047546
45.220535 30.265141 -62.092243
45.491108 30.338823 -62.004974
45.315838 30.421419 -62.07827
45.131004 30.440702 -62.141026
45.537556 30.468479 -61.969398
46.131668 30.038769 -62.083576
45.23177 30.628714 -62.094425
45.203632 30.796923 -62.033085
45.131664 30.856966 -62.098648
44.838886 30.988403 -62.164391
45.327347 31.005569 -61.977978
45.027302 31.097399 -62.083263
45.058369 31.290319 -62.049637
45.017414 31.379992 -62.052448
45.200962 31.694414 -61.96476
46.388737 30.059441 -61.795761
46.302402 28.48171 -62.231018
46.009876 28.766382 -62.294712
46.019638 28.971573 -62.282745
46.307774 28.977615 -62.173519
45.898769 30.039019 -62.146572
46.379425 30.08403 -61.932384
45.237133 30.446398 -62.10355
45.32032 30.503256 -62.037571
45.412827 30.523401 -62.021584
45.210007 30.734842 -62.07476
45.110497 30.923994 -62.074711
45.010979 31.01388 -62.104542
46.140457 30.427557 -61.811916
46.564262 27.975687 -62.188656
46.59354 28.109655 -62.190815
46.515202 28.098694 -62.212173
46.506527 28.18399 -62.201862
46.399036 28.281725 -62.210087
46.39278 28.592806 -62.194836
46.213802 28.776403 -62.216469
46.311317 29.091295 -62.171963
46.120857 29.350183 -62.167423
46.010983 29.846973 -62.155647
45.697495 30.092001 -62.011951
46.282482 30.077372 -61.837414
45.868027 30.141928 -61.951359
45.52438 30.241264 -61.992939
45.5121 30.270592 -61.969936
45.41206 30.43125 -62.031029
45.818283 26.913202 -62.571468
45.420158 30.711313 -61.986755
45.619576 30.706457 -61.915039
45.585838 30.787245 -61.899853
45.390537 30.792862 -61.959789
45.298931 30.889582 -61.980083
45.199749 31.09223 -61.994915
45.87479 30.425135 -61.908806
46.405396 28.389074 -62.208946
46.520786 28.382029 -62.173679
46.401882 28.476618 -62.194939
46.37619 28.5474 -62.180092
46.311218 28.56657 -62.202923
46.305401 28.760685 -62.187355
46.210735 28.973202 -62.212288
46.201279 29.09507 -62.209618
46.108883 29.386568 -62.206371
46.601036 30.149738 -61.739933
46.204395 30.085514 -61.996498
45.826221 30.259567 -61.975918
46.018242 30.320742 -61.894505
45.501053 30.420338 -61.97184
45.633228 30.496572 -61.919395
45.540768 30.664326 -61.914764
45.293404 30.681656 -61.993046
45.322865 30.792868 -61.986816
45.538509 30.929234 -61.884869
45.583614 31.097656 -61.838432
45.328793 31.158983 -61.928844
45.527241 31.168392 -61.852264
45.345993 31.485769 -61.898972
45.108761 31.669664 -61.948898
46.516159 30.372459 -61.757706
45.718018 30.365995 -62.036686
46.591724 28.179583 -62.156361
46.609669 28.283869 -62.156322
46.520016 28.591795 -62.163189
46.401775 28.774736 -62.15126
46.409527 28.793129 -62.176018
46.589035 29.022245 -62.106747
46.600368 29.573923 -62.021465
46.200092 29.595913 -62.170155
45.938076 30.051046 -61.97707
45.839771 30.175879 -62.007797
45.514088 30.723518 -61.961132
45.479374 30.784779 -61.942394
45.348244 31.097368 -61.950947
45.318745 31.126671 -62.023315
45.403069 31.218214 -61.942959
45.22086 31.511671 -61.964451
45.024921 31.542042 -62.056927
45.091503 31.641014 -62.015537
45.056614 31.712008 -62.028576
46.615856 30.377672 -61.721001
46.590279 28.403048 -62.157322
46.505283 28.484394 -62.153988
46.517708 28.754169 -62.120308
46.223125 29.049778 -62.176167
46.196846 29.765297 -62.118507
46.502518 29.868973 -62.0228
46.116684 29.883659 -62.144302
45.906952 29.965576 -62.21579
46.303822 30.022966 -61.932961
45.919827 30.089067 -62.001987
46.21056 30.044075 -62.051125
45.984894 30.26672 -61.935989
45.523972 30.929186 -61.944241
45.407867 31.026279 -61.979759
45.395527 31.10326 -61.950573
45.224983 31.219227 -62.000565
45.317673 31.277008 -61.942993
45.185085 31.611971 -61.952801
45.139759 31.691105 -61.986664
46.695286 30.378101 -61.703743
46.602943 28.507206 -62.148075
46.611126 28.9121 -62.08205
46.412628 29.091562 -62.140678
46.498413 29.476767 -62.04208
46.318336 29.89361 -62.080898
46.111206 29.979237 -62.129681
46.11071 30.174566 -61.90826
46.100197 30.346891 -61.869053
45.915211 30.373026 -61.966137
46.41267 30.372976 -61.787872
45.495155 31.132965 -61.899364
45.317909 31.187643 -61.983761
45.909225 26.884119 -62.549839
45.417801 31.317831 -61.906158
45.38456 31.420904 -61.90781
45.301727 31.592123 -61.907024
45.160805 31.623447 -61.958828
45.402897 31.652254 -61.872669
45.836483 30.415766 -61.961926
46.607365 28.697729 -62.112843
46.590866 28.808329 -62.119778
46.40641 28.977158 -62.129299
46.500168 28.985352 -62.102177
46.398247 29.478062 -62.089298
46.308163 29.685555 -62.093586
46.612595 29.752979 -61.967548
46.186501 29.847403 -62.088699
46.208618 29.878326 -62.120197
46.024986 29.965061 -62.167622
46.209641 29.982618 -62.091721
46.104527 30.081333 -61.951839
46.317375 30.106394 -61.948055
46.110245 30.26013 -61.892513
46.401279 30.27108 -61.780052
46.109463 30.367416 -61.898956
46.21619 30.373304 -61.855152
45.493004 31.501478 -61.87175
45.426422 31.578617 -61.864071
45.420742 31.695652 -61.876255
46.412052 30.422832 -61.753464
46.180706 30.426516 -61.830837
46.007019 30.373434 -61.924412
46.404907 29.877296 -62.048187
46.314304 29.976295 -62.062466
46.095631 30.046951 -61.917435
46.419853 30.075735 -61.842266
46.406517 30.056019 -61.982403
46.306637 30.178228 -61.84473
46.308376 30.049927 -62.010284
46.204224 30.186707 -61.873661
46.315807 30.367426 -61.82489
46.390129 29.983984 -62.031185
46.517799 30.071276 -61.752865
46.509232 30.08951 -61.886631
46.309727 30.078203 -61.88073
46.466885 30.13409 -61.744148
46.404667 30.183737 -61.809441
46.304424 26.896425 -62.425678
46.51445 30.080032 -61.821121
46.506248 30.16581 -61.767345
46.428867 30.353159 -61.735828
46.389431 30.409197 -61.735607
46.632328 30.16573 -61.671833
46.501785 30.260065 -61.745583
45.659256 26.828409 -62.662663
46.496498 30.347183 -61.70295
46.708546 30.442442 -61.636478
46.52449 30.413044 -61.671787
46.601967 30.357405 -61.664089
46.615028 30.090185 -61.764675
46.710197 30.138016 -61.651562
46.616425 30.416904 -61.648045
46.506161 30.445591 -61.725086
46.612129 30.256844 -61.694542
46.713154 30.409346 -61.60331
46.823174 30.440163 -61.580532
45.262321 29.109495 -62.237522
45.13237 29.13603 -62.29562
46.613312 30.440416 -61.691311
46.714607 30.087854 -61.746834
46.729069 26.273075 -62.152138
46.342758 30.04718 -62.056545
46.032883 30.02035 -62.112156
46.602062 26.800579 -62.331322
46.327194 30.020882 -62.084068
46.121723 26.808638 -62.494743
45.93261 26.822168 -62.566097
46.021282 26.89077 -62.516647
45.824898 26.799637 -62.596634
46.222416 26.930172 -62.471561
46.500893 27.631701 -62.176617
46.576714 27.747532 -62.202602
45.336361 28.353174 -62.327545
46.50481 27.757097 -62.228336
46.351902 27.772226 -62.255188
46.426113 28.219627 -62.245102
46.503487 28.294146 -62.199139
46.360237 28.218916 -62.126717
46.305805 28.298887 -62.240005
46.218697 28.301514 -62.301785
46.015606 28.263424 -62.347565
46.47438 28.252539 -62.188595
46.134354 28.277851 -62.293499
46.60323 28.595972 -62.13084
46.314079 28.600445 -62.228081
46.087818 27.947372 -62.404823
45.936012 28.33643 -62.344868
46.493744 27.980179 -62.218708
46.411087 28.678038 -62.178459
46.215073 28.014971 -62.339104
46.205738 28.527866 -62.240517
46.215202 28.586029 -62.261974
46.027966 28.006319 -62.409489
45.926331 28.600998 -62.374599
46.512817 28.684204 -62.138416
46.083527 28.590773 -62.273682
46.119469 28.598145 -62.298122
46.595341 28.972521 -62.084068
46.417618 27.977539 -62.251568
46.322891 28.679636 -62.208275
46.107719 28.68816 -62.284401
45.76033 28.78809 -62.431065
46.62011 28.035526 -62.217083
46.620052 27.898542 -62.269016
46.218468 28.685392 -62.243454
46.391373 29.054924 -62.104179
46.121769 29.063841 -62.211929
46.507431 27.802603 -62.246746
46.297272 29.055168 -62.145092
46.21402 28.890783 -62.228092
46.50964 28.794285 -62.153168
46.500092 29.105209 -62.104877
45.935898 29.645092 -62.193428
46.50148 29.227247 -62.118164
46.498837 29.399853 -62.079376
46.590878 28.706625 -62.146877
46.393845 29.808691 -62.083439
45.932747 29.767595 -62.210545
46.569901 29.181183 -62.113258
45.591553 29.928488 -62.027466
46.505783 29.678823 -62.028683
45.799915 30.06352 -62.012791
46.109856 29.768763 -62.14703
46.240482 29.504755 -62.174995
45.884979 30.006702 -62.016594
46.003326 29.479803 -62.232346
45.716106 29.465458 -62.329258
46.613651 29.489479 -62.00663
46.319195 29.474689 -62.109108
46.205563 29.47649 -62.150948
46.10865 29.47751 -62.187428
45.92223 29.520573 -62.278378
46.319675 29.593464 -62.118534
46.000721 29.347155 -62.212715
46.006527 30.060547 -61.941917
45.810989 29.48637 -62.299076
46.046585 29.521198 -62.243412
46.297291 29.508848 -62.161438
46.149628 29.516647 -62.217239
46.115944 29.596064 -62.191578
45.572323 30.365299 -62.004009
45.815948 29.562893 -62.262539
45.791588 29.531492 -62.325409
46.336483 29.364851 -62.086048
46.327633 30.014174 -61.860172
46.512749 30.023523 -61.852516
46.246086 29.411091 -62.093224
46.211422 30.019077 -61.955582
46.02494 30.0159 -62.042179
45.707424 30.38353 -61.982121
45.744225 29.561283 -62.330734
46.618923 29.327326 -62.003181
46.23177 30.36174 -61.803791
46.208378 30.072069 -61.863556
46.206573 30.080269 -61.917469
45.921291 30.355886 -61.923386
45.59581 30.304327 -61.937176
45.929283 29.847202 -62.173
46.332504 30.35066 -61.771954
46.718338 30.35191 -61.614697
46.810123 30.42289 -61.563232
46.323975 30.117706 -61.803814
46.009098 30.417116 -61.861458
45.789886 30.335476 -61.988068
46.217117 30.145802 -61.829887
46.222748 30.411436 -61.793892
46.326077 30.425386 -61.755646
46.312359 30.260565 -61.821068
46.015877 30.17878 -61.959114
46.210865 30.266693 -61.855602
45.907032 30.17889 -61.989109
45.804279 28.401718 -62.428665
46.01313 29.174086 -62.251953
45.952896 26.811197 -62.510868
46.112843 27.013729 -62.482735
45.791363 29.215328 -62.343925
45.428131 27.165703 -62.397381
46.703979 28.187433 -62.172779
46.519108 28.198948 -62.223652
46.220287 28.227962 -62.320297
45.983612 29.67561 -62.161465
46.316101 27.007778 -62.410908
45.901428 27.077784 -62.497803
46.610325 26.922302 -62.334938
46.402569 26.958168 -62.407177
46.522743 27.015413 -62.340275
46.411484 27.009508 -62.378571
46.406212 26.895016 -62.380119
46.384155 26.971581 -62.372829
46.598904 27.112738 -62.301327
46.403919 27.098595 -62.370884
46.211784 27.107132 -62.435421
46.518574 27.097002 -62.327667
46.134903 27.046068 -62.427078
46.309429 27.102942 -62.397022
45.711075 29.410334 -62.335514
45.850624 29.788994 -62.269245
46.399281 29.59585 -62.08733
46.514221 29.59976 -62.066975
46.391701 29.674278 -62.073639
46.61348 29.713663 -62.046783
46.339111 28.955912 -62.215057
46.019451 29.756689 -62.185009
46.608204 29.671562 -61.988991
46.21246 29.679508 -62.134407
45.509293 27.257378 -62.374821
46.493984 29.770012 -62.011196
46.300449 29.774683 -62.076492
46.402126 29.754618 -62.030537
46.404583 28.889759 -62.16338
46.012581 27.184786 -62.48912
45.829163 29.394375 -62.304531
46.399601 26.316603 -62.459763
46.304417 27.189798 -62.379166
45.84737 27.194216 -62.522915
46.340149 27.148134 -62.420013
46.510029 28.898701 -62.130428
46.099915 26.329786 -62.561516
45.417618 27.048029 -62.425217
45.423264 27.198025 -62.408688
46.515385 29.327385 -62.04718
46.319534 28.818747 -62.142044
46.216183 29.357872 -62.127899
45.524101 29.757191 -62.092415
46.442337 29.357786 -62.036049
46.318432 28.880058 -62.190018
46.509933 27.431345 -62.308598
46.21035 27.440502 -62.418026
45.940681 27.602913 -62.467136
46.582123 27.421902 -62.294418
46.30864 27.452351 -62.371712
46.612312 27.508881 -62.253731
46.405624 27.606546 -62.306835
46.599312 27.399147 -62.265011
46.215969 27.511118 -62.390118
45.417202 27.271385 -62.397903
46.489784 27.542093 -62.197796
46.424995 27.512775 -62.317482
46.306057 27.516937 -62.362911
46.511238 27.595833 -62.271919
45.50811 27.188429 -62.390602
46.018677 27.471548 -62.443211
46.303112 27.382095 -62.360481
46.117626 27.405819 -62.430145
46.593544 27.467213 -62.226944
46.307819 27.465576 -62.340343
46.479832 27.472136 -62.282455
46.023235 29.563677 -62.194622
45.515015 27.141918 -62.377899
46.313244 26.330194 -62.486271
46.512241 26.712645 -62.381626
45.996872 29.723343 -62.258724
46.015076 29.597811 -62.227116
45.848259 27.372894 -62.527191
46.11121 29.688057 -62.171196
46.081905 29.622341 -62.138836
46.40662 27.899729 -62.274143
45.852478 27.23597 -62.554707
46.083565 28.401243 -62.187988
45.414757 28.750565 -62.254246
46.218731 27.223358 -62.430035
46.103325 27.237053 -62.461861
46.01226 27.764126 -62.398338
46.593662 27.30323 -62.280098
46.117149 28.393841 -62.315552
46.513256 27.307497 -62.306599
46.22419 28.442524 -62.133442
46.165894 26.29241 -62.488342
45.92202 27.078598 -62.52919
45.782906 26.737186 -62.61887
46.013145 27.39674 -62.463509
45.757797 28.311373 -62.454304
45.745041 26.80603 -62.631832
45.834087 27.082863 -62.556732
45.817196 28.275116 -62.44873
45.821774 28.628946 -62.347843
46.567333 26.352877 -62.410473
46.583332 26.731035 -62.352097
46.318264 29.543556 -62.071518
45.805946 30.369663 -61.99876
46.311375 29.633766 -62.045166
46.286751 29.858149 -62.049011
45.62376 30.084723 -61.959152
45.608841 30.209675 -62.000675
46.217178 26.401371 -62.505707
46.213322 26.32741 -62.51968
46.409527 29.82826 -62.025322
46.202019 29.547131 -62.130714
46.009403 26.316618 -62.586903
45.911598 26.348759 -62.622456
46.311783 27.899014 -62.308426
46.20998 29.638317 -62.099243
45.807396 26.331648 -62.646465
45.736732 26.314869 -62.676872
45.784729 26.397663 -62.647682
46.589645 29.242805 -62.052097
45.742554 29.252699 -62.346294
46.590519 29.28895 -62.086189
45.336365 27.778889 -62.331276
46.115177 28.198017 -62.334042
45.918056 28.096815 -62.421448
45.137772 28.783787 -62.317493
46.013073 27.506184 -62.454155
45.925049 28.403765 -62.38028
45.204609 28.744137 -62.323727
45.507404 29.72031 -62.069031
44.953812 29.449192 -62.303814
46.120564 29.266745 -62.200066
45.383484 31.600607 -61.930828
46.50898 29.267502 -62.062096
44.95047 31.524799 -62.055878
46.111794 29.840872 -62.119026
46.11554 28.095362 -62.357018
45.87429 28.310003 -62.429863
45.571072 30.651415 -61.991379
45.422951 28.827681 -62.231449
46.597645 29.082455 -62.079147
46.004353 26.49597 -62.544857
46.601215 29.167803 -62.051247
44.994873 29.336634 -62.31826
45.648613 30.116497 -62.115429
45.516434 27.342739 -62.362972
45.961327 26.492821 -62.561829
46.410831 27.191082 -62.342236
46.615253 29.570702 -61.981304
46.575573 27.164991 -62.300266
46.545742 29.547937 -61.995644
45.296371 27.938881 -62.390747
46.302067 29.173552 -62.158802
46.015285 27.303711 -62.47559
46.01746 28.292896 -62.36552
46.401367 28.051315 -62.194923
46.416378 29.57095 -62.04686
45.570606 27.363071 -62.345592
45.391113 28.986559 -62.175869
45.503845 29.938248 -62.064629
46.301392 29.259594 -62.137993
44.87851 31.409185 -62.094536
46.410175 29.182409 -62.111652
45.005699 31.052605 -62.157753
45.213783 29.337214 -62.261719
46.211235 29.181543 -62.189941
45.335365 29.326838 -62.199753
45.329727 29.182281 -62.188763
46.020874 27.680597 -62.426762
46.092903 28.092861 -62.319492
46.219063 28.171452 -62.183769
46.309944 28.128571 -62.157677
46.107227 29.182552 -62.228046
46.40641 29.278027 -62.089512
46.211201 29.266241 -62.166718
46.12101 29.571587 -62.157829
45.921921 28.050737 -62.380501
46.015968 29.266167 -62.240257
45.908829 29.272665 -62.27494
45.837921 29.276449 -62.301285
45.798615 28.180338 -62.44619
45.916302 27.38467 -62.495289
45.383835 29.437304 -62.187332
44.93589 31.591253 -62.027592
44.982925 29.239813 -62.314651
45.851929 26.196482 -62.4105
45.387871 28.214136 -62.292973
46.175858 26.480545 -62.492897
46.464027 26.485958 -62.389385
46.323902 26.199562 -62.263702
46.372395 26.186092 -62.252552
45.815285 27.91153 -62.478123
45.832409 27.708326 -62.484043
45.3965 28.278637 -62.309128
45.387455 27.763149 -62.372246
46.031109 29.38423 -62.231216
46.586212 27.90744 -62.199482
45.802628 29.747557 -62.257706
45.846516 28.119184 -62.442429
45.294514 27.913059 -62.370209
45.482342 29.425695 -62.09584
46.307274 26.484287 -62.436695
46.210007 29.309504 -62.19326
46.015881 29.293112 -62.273369
46.412113 29.311317 -62.124409
45.918526 29.311516 -62.300106
46.303688 29.316675 -62.159374
45.391537 27.976042 -62.351612
45.38945 27.67111 -62.389633
45.815983 29.315525 -62.33757
46.505829 27.887794 -62.236095
46.496613 27.686155 -62.262344
46.011318 27.582003 -62.445232
46.012482 26.991899 -62.516739
46.111992 29.297781 -62.235027
45.741615 29.32947 -62.355835
45.754936 28.413288 -62.451336
46.502613 29.305681 -62.102608
46.318756 28.038044 -62.262119
46.234932 27.729902 -62.368393
46.210903 27.774748 -62.324356
46.219097 29.378492 -62.170429
46.208126 27.153444 -62.454144
46.017418 27.889669 -62.407227
46.596951 29.358299 -62.03484
45.914906 29.38199 -62.280281
45.911057 27.191376 -62.52573
46.411724 29.370775 -62.104134
46.362778 27.147648 -62.403046
46.303417 29.395321 -62.137554
46.01709 28.186293 -62.370525
45.918324 27.979677 -62.417896
45.864716 28.267776 -62.396992
45.925488 27.880693 -62.43264
46.498901 26.319372 -62.418373
45.304352 29.400726 -62.184021
45.150322 29.442268 -62.241047
45.398113 27.432564 -62.367214
45.336411 27.747488 -62.378986
45.136414 28.596251 -62.302292
45.841839 29.630463 -62.235989
45.116432 27.447496 -62.486671
45.108513 28.346004 -62.400414
45.026627 28.395262 -62.405483
45.836636 27.802244 -62.480843
45.787632 27.592821 -62.512733
45.910988 27.513441 -62.495102
45.228127 29.427 -62.224644
45.931664 29.182938 -62.285698
46.112495 27.896502 -62.375813
45.317188 31.393921 -61.962708
46.217609 27.89278 -62.33395
44.993465 27.86071 -62.476536
45.913475 29.544252 -62.234859
45.71426 29.97921 -62.282757
45.922928 28.20307 -62.409225
46.030975 28.096437 -62.376606
46.499317 29.185938 -62.087364
46.119362 28.324003 -62.287231
46.035072 28.568521 -62.293114
45.28141 28.199221 -62.365181
45.12278 28.179008 -62.421471
45.861633 27.730715 -62.509247
45.809032 28.072289 -62.423382
45.9174 26.384823 -62.605698
46.40279 26.411383 -62.439404
46.492977 26.373789 -62.422905
46.014191 26.396416 -62.570518
46.136639 26.451927 -62.505947
46.439716 26.455959 -62.402874
46.309395 26.40094 -62.473579
46.108593 26.402571 -62.545902
