# .PCD v0.7 - Point Cloud Data file format
VERSION 0.7
FIELDS x y z
SIZE 4 4 4
TYPE F F F
COUNT 1 1 1
WIDTH 1613
HEIGHT 1
VIEWPOINT 0 0 0 1 0 0 0
POINTS 1613
DATA ascii
51.755886 74.036469 58.563267
51.429909 70.866882 58.482922
50.727898 70.560318 58.543266
50.834248 70.250336 58.579807
50.222359 73.252144 58.707115
50.327549 71.004509 58.451065
51.733456 70.867821 58.466335
49.03883 70.868309 58.520748
49.724915 70.750252 58.566662
51.833084 70.465965 58.498508
49.133526 70.434875 58.617245
51.828773 70.34256 58.542572
49.84201 70.148972 58.595795
51.402802 72.941902 58.793861
48.835602 70.99118 58.484161
50.116989 71.001221 58.452
48.839066 70.891808 58.478279
51.531048 71.007111 58.424622
51.529366 70.777649 58.468754
48.936722 70.461853 58.571922
50.913288 70.478409 58.520061
48.743614 70.910942 58.478062
51.732643 73.086388 58.736229
51.023079 74.320755 58.582699
49.952183 74.980942 58.462048
49.716782 75.215332 58.407524
52.129757 68.332245 58.824203
52.720932 73.94252 58.091473
50.815495 74.704491 58.665039
49.538395 73.365585 58.215851
50.921268 74.70089 58.417503
50.725014 76.131668 58.209621
52.024662 69.712204 58.616745
50.731617 69.089325 58.738335
51.809719 72.949478 58.788155
49.311951 69.302567 58.727013
49.420162 68.785622 58.818359
50.832279 68.029808 58.911289
50.043873 71.209496 58.411961
49.927925 70.243355 58.602074
49.232624 70.146622 58.605377
50.632923 70.159882 58.561485
50.626537 70.023682 58.632759
49.329895 69.622154 58.689911
49.427017 69.310341 58.722076
50.733677 69.408752 58.706932
49.522713 68.785583 58.813263
48.226166 68.236916 58.890507
49.536293 68.48217 58.853931
50.279488 71.174149 58.367844
49.127396 69.613457 58.695553
50.631783 70.250031 58.587433
49.922688 70.023651 58.646412
50.035564 69.717018 58.685474
49.034126 68.029221 58.945068
49.435783 70.959602 58.535217
49.727833 69.393463 58.73008
48.428692 68.989639 58.779991
48.633289 68.150673 58.905663
50.235321 71.059647 58.513908
48.927868 71.091721 58.483971
50.430206 70.529594 58.587128
49.691799 67.694626 59.107403
49.036541 70.224968 58.692616
49.240593 69.490417 58.731899
48.401897 71.158829 58.502201
48.556267 70.554672 58.577568
48.594379 70.457703 58.593605
48.830639 69.621521 58.700428
47.730469 68.458031 58.875847
47.767151 68.322601 58.889114
50.125034 69.714859 58.683254
50.332127 69.17794 58.763638
49.627724 74.66996 58.517086
49.12484 71.08567 58.479034
49.235241 71.000389 58.474873
50.526112 71.086983 58.459373
49.734486 73.495384 58.156525
49.528545 70.999466 58.476482
50.828793 71.400215 58.417137
50.929962 71.094437 58.452312
48.437233 69.518066 58.731293
48.539955 69.404076 58.748489
51.22427 69.492393 58.695999
50.745461 72.306061 58.377213
48.649143 69.277328 58.783745
50.027718 69.182091 58.768349
49.825375 70.96151 58.520275
49.827858 70.867409 58.51548
48.756756 69.81102 58.701073
48.822948 69.386932 58.747608
49.047005 68.543449 58.929756
49.727615 71.085579 58.476543
51.328793 70.33934 58.567005
50.131493 69.496239 58.720898
48.827541 69.175117 58.775547
50.036972 71.280785 58.472649
50.03199 70.966194 58.514057
48.829811 70.118561 58.667377
48.945816 69.899315 58.713448
49.625488 72.215347 58.370399
50.829235 71.712822 58.374947
50.838039 71.624001 58.367645
49.731411 70.244377 58.602833
48.319408 70.15905 58.619087
48.32967 70.01667 58.637447
48.438396 69.910309 58.650658
51.231991 69.710335 58.655708
48.532326 69.3181 58.752266
48.727272 68.771835 58.828911
48.759365 68.456985 58.871162
50.237934 68.026932 58.928448
49.93388 71.309891 58.424179
48.542374 71.10437 58.476063
48.714176 70.377846 58.559597
50.029194 70.555923 58.555729
48.739792 70.236176 58.617954
48.722988 70.126205 58.654583
47.764954 68.68132 58.826809
47.830189 68.373207 58.882954
49.137638 68.549698 58.864147
50.628517 68.34037 58.881214
49.634689 70.271179 58.448681
49.822918 71.999748 58.41507
48.244118 70.438927 58.586643
48.254147 70.28334 58.619934
48.347061 69.837395 58.649399
49.63406 71.184616 58.479836
49.634819 71.007805 58.47036
49.040874 71.290169 58.434811
49.235149 70.556801 58.558792
49.238789 70.236092 58.606609
49.32848 69.811844 58.696709
51.332703 74.692146 58.457874
48.738197 70.459663 58.564491
48.832783 70.019066 58.650574
50.130638 70.251732 58.598301
49.541225 67.697044 59.031994
52.003242 71.764328 58.214722
48.617458 70.990646 58.490376
48.730118 70.418709 58.605801
50.434498 69.245186 58.825043
50.746193 74.857559 58.50042
52.04171 69.218185 58.773033
49.335651 70.241692 58.611065
49.435448 70.991211 58.468861
49.932217 71.935287 58.34343
50.168041 75.081963 58.427162
48.235516 71.428513 58.409107
49.73716 71.303146 58.427147
52.232204 72.28479 58.368996
50.934292 76.235207 58.209373
51.350037 74.174004 58.662216
48.847095 71.801559 58.403126
49.649231 74.747093 58.436337
48.948765 71.306969 58.437752
49.03363 71.178871 58.474987
51.221535 74.660103 58.528721
49.236393 71.614349 58.395119
50.732693 71.403976 58.419193
49.919373 75.366928 58.43824
48.729408 71.304604 58.432484
48.824142 71.076653 58.480713
48.533859 71.992401 58.370972
48.634708 71.70163 58.394295
48.712955 71.529747 58.404858
48.739391 71.405052 58.441307
50.236671 71.28231 58.467545
52.331097 69.086487 58.687698
53.60907 69.608452 58.498253
49.827915 70.21804 58.651173
49.028507 71.607491 58.39571
48.933163 72.024231 58.356331
49.838211 74.733635 58.504021
51.535324 71.223534 58.339005
52.043839 75.53315 57.80962
51.117771 68.942406 58.836552
48.390499 68.727676 58.856636
48.763256 68.282776 58.954067
48.753471 68.558029 58.86731
49.533211 71.374054 58.49762
50.931728 71.472855 58.469807
51.728634 68.119881 58.888062
49.82959 70.43396 58.602158
49.729713 70.844597 58.576767
48.855179 70.058357 58.605389
50.332268 71.091843 58.464474
52.031208 69.490265 58.666138
52.02887 69.590973 58.664394
49.125896 69.810371 58.691719
51.932339 69.803604 58.627041
50.526012 69.99585 58.677078
51.826992 70.527626 58.549862
50.332428 70.750847 58.546036
48.764954 71.293884 58.480198
48.724934 71.490509 58.448189
48.633331 71.796432 58.419178
48.627121 71.935341 58.364861
50.027973 71.913574 58.392498
49.223282 69.837463 58.647427
52.411854 71.065468 58.429741
50.92844 71.154526 58.502621
52.307652 71.684364 58.36483
52.226078 72.110214 58.381546
52.632095 68.933846 58.410931
49.839863 69.397202 58.728348
52.438408 70.549156 58.476574
52.329216 71.199333 58.388439
49.344353 71.588669 58.459251
51.728733 74.731049 58.452087
49.43454 71.064636 58.539043
50.133717 71.28244 58.468327
52.508781 72.633301 58.31382
49.607719 72.548485 58.202522
50.426823 68.023773 58.926559
48.82719 68.784386 58.825993
48.614029 69.924484 58.651253
48.561657 70.071312 58.607143
49.933105 70.153152 58.592041
48.533253 70.240135 58.628941
49.117271 71.623711 58.394619
50.522675 71.622681 58.376301
49.034637 71.714981 58.395557
50.206352 73.49382 58.157494
48.916542 68.546036 58.860794
48.754688 69.399879 58.728237
48.62619 69.858711 58.648067
51.326115 70.556564 58.525784
51.933678 68.122955 58.88205
49.837505 68.548622 58.852612
50.42979 68.871407 58.803051
48.842831 69.839394 58.652275
50.733257 70.78743 58.499561
48.639603 70.9226 58.493851
49.921951 71.618729 58.385818
48.4305 71.687752 58.336082
52.028015 69.175087 58.705029
48.83165 71.621078 58.39143
51.033485 76.116295 58.257473
51.654125 75.168884 58.454082
48.428837 69.425117 58.692642
49.923485 69.431366 58.605907
50.131672 68.403625 58.957928
48.667564 68.86013 58.894329
48.735668 69.655853 58.75552
51.322567 70.869324 58.486328
49.828766 71.008499 58.469578
48.393166 73.051682 58.216934
52.136417 69.467705 58.719479
52.028454 69.684219 58.674976
49.127571 70.20871 58.688099
51.933079 70.338829 58.541252
51.829399 71.063599 58.467091
48.931683 71.283905 58.488243
49.631897 71.404289 58.435749
48.837196 71.594475 58.458252
50.534138 69.772423 58.735153
49.982582 74.12606 58.199108
52.337132 68.826904 58.78783
52.131104 70.317711 58.595024
52.030151 70.743752 58.501217
49.130272 71.389351 58.500042
49.014999 71.592545 58.450802
49.026459 71.905876 58.414352
52.445782 68.240555 58.661137
51.826931 72.0093 58.370365
48.827057 69.414436 58.662052
49.126572 69.304459 58.738651
49.725948 69.616623 58.674938
51.727242 70.243347 58.548187
50.320278 70.472771 58.54689
51.727703 70.438271 58.549995
51.724583 70.555992 58.507236
50.124756 71.310249 58.419647
50.431648 72.054001 58.244431
52.328827 69.493683 58.643635
52.325443 69.782181 58.676998
51.531635 70.528885 58.560814
52.128429 70.744057 58.499649
52.748917 69.630432 58.199295
49.528721 69.086754 58.767658
52.231152 69.177719 58.694084
49.426826 69.392464 58.738167
52.234352 69.394638 58.648716
50.829082 69.405182 58.707226
52.130562 69.492668 58.658131
50.809586 69.615509 58.643627
49.432659 69.626968 58.690701
52.12722 69.716751 58.612469
50.700218 70.149208 58.555588
52.130737 70.249458 58.530838
50.626949 70.456062 58.52726
52.022812 70.56076 58.49366
49.221851 70.670883 58.512821
50.623631 70.772713 58.49881
52.026569 70.865875 58.453125
50.608753 71.000595 58.452377
49.13443 70.983154 58.471504
50.5144 71.220322 58.386257
49.126266 71.299042 58.437649
50.528343 71.406448 58.423347
50.424664 72.16246 58.2924
48.036869 68.346176 58.891651
48.446358 67.83918 58.951496
51.733036 69.808945 58.629852
51.62846 71.628189 58.341709
50.835419 71.936806 58.331512
50.034477 73.364166 58.725349
50.131252 72.209351 58.359524
51.330193 69.180595 58.736134
51.92849 70.437538 58.541645
51.92971 70.774269 58.456089
51.035149 69.404289 58.699627
51.029934 69.710556 58.66048
51.0182 70.47953 58.524826
52.335514 70.754204 58.437202
50.239002 70.774963 58.509304
52.327187 70.867836 58.433388
52.330799 71.077614 58.390041
50.826283 72.155342 58.280399
51.532337 73.25872 58.66851
50.831959 67.771339 59.0037
51.649651 75.605026 57.8512
49.922596 69.623428 58.67205
51.927876 69.618401 58.61692
50.567638 69.752907 58.566017
50.550133 70.037918 58.511345
49.782677 70.775131 58.402611
51.822277 70.789574 58.370453
49.743099 70.893349 58.420753
51.839798 71.006348 58.407055
49.746971 71.060936 58.357403
51.833641 71.109146 58.325844
51.829147 71.306885 58.370689
49.708641 71.357086 58.328918
51.804039 71.390366 58.280571
51.755154 72.053658 58.19088
51.725395 72.162537 58.247326
50.320942 72.238205 58.176212
52.61058 69.467743 58.690308
52.424873 69.684532 58.665997
52.423512 69.802666 58.601898
52.32711 70.647446 58.475838
52.325233 70.742012 58.487511
49.536671 71.932739 58.349892
50.938251 72.156548 58.271454
50.832489 73.257072 58.687618
50.819748 70.025665 58.625206
50.828857 70.784721 58.489651
52.124332 71.0672 58.460857
50.726826 71.093781 58.46067
49.335228 71.281174 58.491116
50.660477 73.281105 58.610435
50.228287 70.307487 58.647655
49.53046 69.779076 58.77227
52.233864 69.893196 58.623875
52.227413 70.119743 58.563995
52.235088 70.621864 58.55257
52.239742 71.059334 58.454819
49.437096 71.383072 58.510529
50.824181 71.771736 58.43177
50.832092 71.989456 58.392384
50.82819 73.15126 58.733105
52.229958 72.004219 58.359756
48.43211 68.597176 58.8148
49.639732 71.381317 58.48901
52.59462 69.687309 58.645256
52.590309 70.32753 58.591267
49.822926 70.841125 58.577183
49.825375 71.150887 58.53474
52.629021 71.672295 58.356541
52.622368 71.811172 58.295116
49.835224 71.908806 58.400387
52.628128 73.296295 58.721287
51.224037 72.95462 58.802879
52.624607 72.008347 58.33942
51.127823 70.867485 58.489944
49.528397 71.463081 58.504192
52.914997 70.299438 58.569981
52.92778 70.724625 58.461796
50.230465 70.840172 58.557392
52.932198 70.880035 58.387627
52.939255 71.041451 58.430256
52.920795 71.366402 58.387234
50.153469 71.459679 58.483982
51.536831 71.935318 58.311813
49.530533 70.85054 58.582088
50.830456 75.591797 58.382248
48.761013 73.263069 58.190971
52.328793 73.186005 58.632732
52.530254 69.806633 58.593029
52.53553 70.345779 58.508171
49.833725 70.312836 58.665207
52.532242 70.992149 58.379803
51.221661 73.249268 58.670635
52.131126 69.522858 58.754116
51.321815 69.937706 58.603905
52.635658 70.777176 58.409691
52.022961 71.084068 58.412159
52.536678 69.90255 58.597061
51.929138 70.238106 58.543266
50.527988 70.559883 58.547882
51.228245 71.327423 58.388538
52.036621 70.23732 58.535992
50.633907 71.072166 58.497421
50.627655 73.161415 58.746479
51.869549 72.837662 58.826225
52.035744 74.738342 58.442986
51.729305 73.184471 58.6479
51.228699 71.090256 58.444443
48.749035 73.098076 58.179287
52.422226 70.879524 58.425556
51.029057 71.466522 58.464874
51.132401 73.367699 58.711548
52.217319 70.530891 58.538548
52.227844 70.874519 58.440926
52.730499 69.263954 58.271873
51.625858 70.30999 58.604736
52.42379 70.338181 58.509209
52.427456 71.085892 58.388031
52.421005 71.296822 58.342751
51.432133 70.558388 58.520752
52.721558 70.652222 58.450623
52.831821 71.523964 58.277161
49.678097 73.713409 58.692909
53.01844 73.247795 58.635708
52.038048 71.002075 58.396648
52.03772 71.304123 58.364594
48.757893 73.642334 58.095955
50.418774 70.93383 58.567417
52.431877 70.245605 58.514442
51.137695 70.789841 58.484108
52.593494 72.419281 58.249249
52.659725 73.633011 57.611572
52.742077 67.9291 58.834805
52.52103 73.143105 58.671482
48.752533 69.26136 58.864933
51.223728 70.778381 58.479397
49.909332 72.068649 58.291016
49.537453 72.298759 58.375355
52.029972 71.397224 58.370419
50.733665 73.160278 58.740742
49.035419 74.156921 57.99213
51.128353 70.226288 58.716286
51.099373 70.361076 58.71833
52.401985 70.409752 58.661575
51.106331 70.508087 58.697224
52.410469 70.540565 58.619503
51.142956 71.24527 58.553185
51.145882 71.412262 58.587452
52.486702 71.761101 58.463055
48.533428 69.879135 58.719181
51.202911 73.026871 58.807262
51.162296 72.008652 58.502369
50.025185 71.790604 58.464878
50.116032 72.099022 58.426838
52.227867 70.645439 58.48333
49.631783 71.145653 58.539482
49.629837 71.283531 58.485073
49.638504 71.778122 58.476009
49.639889 71.914383 58.40789
52.329063 72.136902 58.285675
52.116051 70.616676 58.550747
49.526157 70.625717 58.635555
52.125187 70.722755 58.570415
49.543434 71.243332 58.562687
49.538464 71.993034 58.4249
52.532581 68.380424 58.503323
50.985695 67.730522 59.167068
51.931526 70.614365 58.555923
49.374592 70.764862 58.659241
49.440613 71.464729 58.513451
52.035759 71.552185 58.448578
49.445137 71.769409 58.496693
48.839882 74.279457 57.964123
52.125778 73.055931 58.810547
52.014 72.061798 58.471371
53.222401 70.468079 58.409988
49.927876 70.314781 58.653221
50.027851 71.678757 58.440937
51.933563 70.552414 58.499233
51.936543 70.866928 58.456909
52.547958 68.699707 58.459221
48.634926 72.138664 58.318768
51.232487 70.460457 58.511589
51.928093 67.764717 59.088169
49.637306 72.004936 58.418579
52.462383 72.964722 57.785564
49.84169 73.243378 58.794601
50.232483 71.686127 58.43148
51.432205 67.866875 59.109558
51.640236 73.047882 58.795158
51.539639 71.98764 58.479031
53.08675 73.15213 58.561142
50.725437 71.558838 58.497959
52.641727 69.18222 58.297901
50.240421 71.152679 58.523006
50.257191 71.246826 58.552425
50.236713 72.012787 58.400661
50.267628 70.505432 58.711121
50.23312 70.625526 58.628586
51.522675 71.041451 58.573036
50.264698 71.063889 58.630703
50.226124 71.374725 58.577847
50.896534 71.662277 58.533939
50.2328 71.80056 58.465614
51.828678 67.861198 59.01054
51.886024 70.45694 58.709194
50.638283 70.491272 58.765163
51.888344 70.595985 58.683895
50.638161 70.619087 58.728497
50.637733 70.775871 58.724384
51.894753 71.016357 58.607243
51.89756 71.16983 58.604351
50.636086 71.195213 58.657917
51.267799 71.32518 58.61602
51.269691 71.92186 58.548405
51.949436 69.221489 58.612671
51.908218 71.921844 58.531479
49.923477 74.037796 58.162098
52.164124 75.925453 58.229103
49.539631 74.965927 57.952011
48.072319 70.839012 58.485653
51.046116 70.725182 58.596897
51.038677 71.783646 58.44936
52.227951 72.196098 58.403912
50.545242 71.56897 58.495312
50.52655 71.691116 58.42038
51.731632 71.777718 58.414448
49.793713 74.243019 58.162811
49.042316 73.612038 58.100327
51.214638 73.132889 58.834763
49.22834 70.165169 58.485466
49.635727 70.160568 58.470131
51.451103 67.743279 59.123539
50.322289 71.461617 58.490425
49.737164 71.689713 58.458553
49.533306 73.038513 58.785622
50.125763 73.501228 58.153988
52.219486 72.893257 58.174644
49.928242 71.694977 58.44249
50.523937 71.790756 58.434566
49.843658 73.083221 58.755844
52.204338 73.261009 58.571239
50.789299 67.726151 59.088161
51.532936 72.192047 58.340115
53.232033 69.800552 58.504292
50.344025 70.699364 58.488522
50.223698 73.082138 58.770813
49.243317 73.111992 58.787941
49.922691 73.069099 58.784073
50.663551 75.818298 58.39225
48.237648 71.324036 58.435326
51.232029 68.028015 58.909649
51.3027 74.641685 58.529861
51.939102 68.623627 58.842743
51.927124 68.837181 58.799301
49.534046 67.80143 58.988712
50.096294 74.215904 58.679382
50.229103 73.551918 58.74194
52.027672 68.087776 58.929382
49.757065 68.182396 59.01992
51.433929 74.729759 58.458141
51.637501 74.72995 58.566608
48.227585 69.054764 58.780239
49.142128 68.93325 58.903488
49.126785 69.255348 58.855083
50.232586 69.460815 58.766014
49.343334 74.648628 58.582863
52.41534 69.639885 58.331497
50.036667 69.245857 58.828453
48.837021 69.280685 58.79113
48.863216 69.363464 58.805256
49.911381 72.308952 58.367638
48.827084 68.860306 58.894077
48.77713 69.12162 58.868416
48.746925 69.362679 58.803482
49.334064 69.477005 58.803703
49.926468 71.152534 58.529964
48.759144 71.979294 58.296089
50.810028 68.393578 58.921661
49.625435 68.388672 58.970203
49.008282 68.939857 58.903744
48.381634 69.219978 58.896488
49.423588 69.78611 58.759777
49.431206 70.09671 58.725155
49.832069 74.677368 58.497925
52.609497 74.663452 57.996078
49.542206 68.930771 58.87822
48.161186 69.90963 58.753681
50.440247 70.306725 58.641769
49.738159 74.669891 58.508499
52.74157 74.94339 57.518414
49.905613 68.494507 58.964661
49.239475 68.927063 58.893795
50.913162 69.374588 58.817272
50.83535 69.858025 58.732433
51.339588 70.411232 58.632771
49.361134 74.663857 58.699837
51.625366 68.334511 58.852459
48.805275 70.21991 58.676689
48.735771 70.523521 58.640083
48.727783 70.632874 58.590698
49.422691 68.947037 58.886375
48.630714 70.342728 58.633163
48.60955 70.426331 58.623184
49.735893 70.650841 58.560925
48.552036 70.726372 58.614735
50.725735 68.341576 58.879704
51.231258 69.173409 58.736065
48.851715 69.897301 58.713634
48.84663 70.007057 58.711754
48.738228 70.968834 58.532299
48.739845 71.074341 58.541855
49.923641 70.777008 58.510849
51.034855 71.092163 58.447468
48.732361 71.171867 58.496391
48.637276 71.263245 58.501945
49.829891 71.310127 58.429276
48.632957 71.404579 58.445164
48.923527 69.709724 58.755447
48.727764 70.757767 58.584328
53.804523 68.962296 58.656399
49.238285 69.899948 58.713715
49.235699 70.225578 58.667091
50.325989 70.247276 58.592136
49.13678 70.74144 58.577007
50.249992 70.606247 58.446396
48.632957 69.362389 58.799366
47.870945 70.493324 58.594311
48.950695 70.821129 58.583057
50.133362 70.84285 58.561676
50.134548 71.152237 58.527428
48.931259 71.177864 58.484596
48.923378 71.398605 58.43018
50.029579 71.403625 58.430557
50.422123 71.847481 58.329994
52.452847 72.436485 58.240051
48.544334 69.36071 58.80489
48.478916 69.584366 58.761845
48.4426 69.855286 58.729446
48.944016 70.113945 58.655178
48.354527 70.494743 58.623131
48.338203 70.636375 58.578678
48.860931 71.051453 58.527546
48.814018 71.174973 58.484924
48.24094 71.298065 58.506813
48.247181 71.443497 58.462532
48.731213 71.707115 58.398304
48.161655 71.842529 58.417885
49.322147 71.894753 58.424046
48.142246 71.972015 58.387463
49.238731 70.009277 58.717831
49.333622 70.301659 58.669556
48.65081 70.77507 58.595974
49.225719 71.073219 58.546669
48.613121 71.349113 58.518215
48.526318 71.612564 58.470821
52.224556 70.463699 58.47961
52.409477 72.213692 58.2495
48.718037 72.569817 58.277882
48.841629 69.579941 58.756065
48.731453 70.875099 58.536934
53.217834 69.928101 58.492088
49.536003 73.938271 58.065327
49.334129 72.558914 58.270077
49.821129 68.09449 59.006226
49.63813 69.462379 58.784809
50.53904 71.159218 58.508991
49.33979 71.377739 58.506367
49.149418 73.093216 58.780025
50.214321 70.694946 58.500214
51.833782 70.876732 58.383701
51.833309 71.084236 58.416103
51.747711 72.210785 58.263508
49.287807 73.340889 58.711967
53.114132 69.090027 58.633591
48.632236 71.95153 58.283333
49.621914 67.688347 59.031872
52.630825 74.845917 57.484894
50.625214 73.169609 58.677284
50.430298 69.401611 58.716358
50.431793 70.248863 58.589584
50.740948 73.255943 58.682255
50.120872 74.231003 58.596962
51.234306 75.356224 58.486485
50.334496 74.53376 58.574196
50.520508 68.928818 58.85614
50.434658 70.0009 58.679497
50.013512 74.526405 58.558937
51.224827 74.713081 58.566788
51.034138 69.089676 58.736572
51.021557 69.278603 58.666241
50.523792 69.71032 58.671165
51.535152 70.472801 58.509098
51.525764 71.308434 58.382954
50.330975 71.301445 58.417507
51.320278 74.86261 58.35046
52.134262 70.771988 58.443012
50.629105 69.683525 58.708279
51.726604 70.215729 58.588425
51.628696 72.176437 58.428368
50.23563 74.945145 58.509579
50.431641 73.092651 58.743156
51.041794 69.243729 58.808628
50.326656 70.625153 58.607483
50.210209 73.058006 58.879158
49.830654 73.544998 58.094341
48.66045 72.578339 58.221352
51.730099 69.710754 58.6366
51.630718 70.12043 58.596294
50.198997 72.640694 58.32851
49.840023 74.688675 58.428505
48.071476 73.42205 58.132713
51.531837 70.099243 58.664383
50.431751 70.609566 58.612034
50.214409 74.334305 58.618309
50.257946 73.334885 58.832951
52.735233 74.646118 57.523426
51.331676 70.25029 58.563919
51.329636 70.776367 58.476067
51.935005 74.739754 58.447559
51.930706 72.193008 58.321125
52.06131 68.390907 58.882492
50.427761 73.345329 58.771828
50.03392 71.181831 58.473816
53.021214 70.297676 58.18
50.143509 74.732277 58.49057
51.330345 74.748131 58.410522
52.311333 72.685959 58.307934
49.937916 67.705566 59.116829
50.427994 74.743706 58.433273
51.630405 74.750298 58.398979
51.553585 74.122406 58.551174
51.936459 70.216782 58.586662
50.9272 70.248009 58.578197
52.029621 70.336014 58.53793
51.234608 74.749763 58.411541
52.310833 68.633629 58.836605
49.315456 69.680496 58.754776
48.31477 73.445557 58.124817
49.243507 72.855118 58.30201
51.80336 73.482262 58.71925
52.640022 74.312309 57.603767
50.236149 68.792046 58.789566
51.509834 70.70195 58.598507
50.537621 72.113083 58.422062
52.458714 68.166191 58.541245
49.621254 69.015556 58.760216
50.620743 69.09156 58.746891
51.712139 69.081772 58.714874
51.829845 70.245461 58.548698
51.929024 70.467461 58.489861
50.434727 71.30864 58.413536
48.744026 71.214386 58.435062
49.959682 72.948395 58.834175
49.433231 72.152977 58.310081
52.473858 68.718033 58.587364
52.308979 72.978966 58.219036
52.281147 73.187431 58.785057
52.451416 68.104179 58.548134
48.942657 69.80497 58.686256
51.130707 70.244072 58.572594
49.026524 70.150024 58.612457
49.036568 70.561806 58.56963
49.120941 71.191185 58.426441
50.94556 73.261169 58.605988
50.650921 75.477821 58.394329
50.231297 74.214233 58.20433
51.722347 74.321991 58.584175
51.50378 73.273468 58.592949
50.51252 67.940788 58.914707
52.128956 67.767296 59.069515
50.033237 69.402649 58.724075
49.531075 69.609741 58.685669
51.732227 70.534935 58.552425
51.827 71.373474 58.428711
48.62756 71.304031 58.443325
48.624973 71.542244 58.42091
48.646919 71.626305 58.398045
48.728542 72.039406 58.307301
49.135094 69.927361 58.647018
50.430092 71.018913 58.454403
50.833462 74.736603 58.425865
51.830017 70.121063 58.592148
49.630692 73.93927 58.069828
50.645439 73.33802 58.730759
50.521053 72.958755 58.805904
49.73814 67.697388 59.029602
49.037582 69.813141 58.638424
49.466114 74.040955 58.556564
50.73114 74.689819 58.466713
50.926186 68.563385 58.829617
48.511536 70.010719 58.649845
48.558723 70.365723 58.574547
49.329147 72.150215 58.308727
49.327423 72.599281 58.220505
52.019321 74.712181 58.525661
49.225803 72.773888 58.217854
52.33503 71.055939 58.442287
51.03054 75.40612 58.482544
53.113659 71.131447 58.441559
50.604969 73.157677 58.869766
51.726879 69.496918 58.674255
51.127869 73.226364 58.76704
52.350895 72.834854 57.722263
52.435837 68.410233 58.507168
52.747433 72.904526 58.740879
49.034126 71.490952 58.438103
52.329498 71.53614 58.302097
51.641987 74.846184 58.485352
50.634205 75.099136 57.842552
48.547676 69.912231 58.674866
48.611698 70.308022 58.689072
49.136482 72.564819 58.267689
53.320419 70.35614 58.440475
51.444607 74.657631 58.521107
51.230045 73.174927 58.666676
51.831375 67.92926 58.863251
48.454773 71.412346 58.434978
48.450279 71.496834 58.461441
48.446434 71.635239 58.440411
52.81918 69.712334 58.578285
50.934357 74.690895 58.463326
49.738037 70.771309 58.508862
51.439087 74.700829 58.532104
51.032017 71.630714 58.363846
51.0331 71.260193 58.523987
50.927395 71.236366 58.518692
51.131325 72.162277 58.273586
52.473557 74.014107 57.645771
52.428581 72.814743 57.829941
52.807392 73.003319 58.667988
50.877983 71.202469 58.370296
52.357273 74.0979 58.585423
49.719929 72.781982 58.237881
51.492756 75.525986 58.359524
52.627739 71.21627 58.333511
49.937866 74.697044 58.428009
49.523724 71.138466 58.548145
48.538548 71.644218 58.450367
49.132645 71.907036 58.41872
48.620235 72.03537 58.355736
52.721733 68.640816 58.373383
49.809704 71.230431 58.417999
51.836407 71.18338 58.345394
52.0327 69.152298 58.75914
49.930847 68.798103 58.813259
49.235977 70.748886 58.577354
49.135235 72.78688 58.216984
48.920471 73.623726 58.199181
49.436447 73.603363 58.157692
49.63731 74.033852 58.605976
49.545479 73.770203 58.79715
50.327225 68.550346 58.845066
49.041157 69.61483 58.689495
48.223728 70.94838 58.501598
48.224087 71.088127 58.486046
48.230652 71.204773 58.447998
48.290283 71.572411 58.409016
48.834999 73.523552 58.090916
50.638245 71.145988 58.516548
48.522354 69.065605 58.798294
48.64315 70.242714 58.623978
48.742928 70.779579 58.52058
48.838161 71.307106 58.432774
48.832539 71.391968 58.441639
48.925247 72.14283 58.306
50.315796 74.563187 58.516163
51.530258 74.751938 58.396931
50.125225 70.001137 58.683849
51.825001 70.628967 58.557861
48.83852 71.482269 58.452164
50.423313 71.680923 58.424355
49.631142 72.77951 58.224678
49.139366 73.498482 58.157497
49.62534 73.500671 58.151512
52.940525 70.364288 58.444374
49.328693 72.848381 58.299732
49.042305 72.771706 58.222878
49.523582 72.7826 58.228321
49.333714 73.501755 58.15694
49.818298 74.2146 58.614449
50.724785 72.987053 58.780331
49.031738 72.216766 58.378574
49.324646 72.785011 58.222141
49.915813 72.771233 58.23597
49.929527 73.598701 58.152905
52.435646 69.598412 58.290253
50.523926 70.311844 58.638866
50.633636 70.869583 58.505478
52.229977 68.778221 58.730858
49.532631 73.497871 58.160969
48.839539 72.562302 58.271858
51.837616 70.870369 58.462933
49.170483 67.719284 59.068615
49.726685 72.820625 58.398369
49.433392 72.775948 58.224049
52.035515 71.530403 58.325176
49.733925 73.536736 58.09967
51.478146 75.116951 58.420902
52.270481 73.176605 58.173405
47.731461 68.252693 58.835621
49.002483 71.751694 58.476608
48.925804 71.380554 58.516941
51.128963 69.401855 58.698086
51.924202 68.530937 58.838787
51.926418 68.64756 58.797867
50.021465 72.826637 58.37941
49.714863 73.574501 58.264374
49.909389 73.618019 58.117214
52.632732 68.190193 58.532032
52.370457 72.682785 58.314972
49.33522 71.056427 58.54047
49.333271 70.836815 58.588005
49.723343 73.596138 58.14883
49.230309 73.609505 58.167004
52.922359 68.088547 58.524761
52.827312 68.183311 58.532425
52.646755 72.843628 57.749409
52.625591 72.959366 57.768078
50.83691 68.558601 58.83213
49.627243 72.840988 58.28529
49.653088 73.558525 58.268024
49.627533 73.596214 58.154663
49.143703 73.60936 58.173771
52.356194 74.609741 57.963017
52.361053 69.519241 58.575867
52.624893 73.081284 58.663624
51.73687 73.1203 58.792755
48.70723 71.567207 58.459732
52.232883 69.078705 58.693771
52.033997 68.933685 58.79776
49.531693 73.594185 58.158302
49.060295 73.570641 58.032005
52.731293 68.180115 58.535427
52.225445 69.493156 58.651215
49.734215 69.791901 58.754108
50.630344 69.231682 58.816811
52.424454 68.298416 58.865921
52.353081 68.080757 58.929039
52.252644 73.83802 58.642029
52.533443 73.826225 57.669891
52.551857 72.855667 57.815517
53.459297 69.129181 58.674404
52.525627 68.115715 58.838146
53.297501 72.016403 58.232353
49.445358 69.251381 58.839821
51.929546 69.178413 58.714512
49.329292 68.941574 58.887283
49.433105 73.095154 58.182697
52.527035 73.991844 57.645424
52.548458 68.187027 58.685505
51.008965 74.425522 58.603458
49.90789 73.558281 58.246841
52.835121 71.465408 58.013561
50.930851 74.638908 58.540581
50.03059 72.789803 58.223564
50.815453 74.440598 58.622055
49.830647 73.685249 58.155346
52.450783 68.720253 58.461494
49.903549 72.632362 58.329994
52.456306 68.789665 58.462185
49.94294 74.105492 58.589138
49.877083 73.957733 58.767998
52.440353 68.286652 58.549206
49.978935 72.831207 58.425121
49.324379 73.450943 58.209511
49.919891 73.498672 58.157959
48.299591 71.985069 58.323849
51.648033 73.462723 58.72168
51.040722 72.080467 58.226078
52.029594 71.857819 58.270023
49.225967 73.497971 58.150337
49.829197 72.778259 58.23727
49.807766 73.569923 58.271442
49.831779 73.498734 58.15519
52.611027 73.183189 58.689884
52.829773 68.394142 58.489788
49.644276 70.309807 58.670353
50.543602 74.66053 58.551018
50.29134 73.757126 58.178734
51.255207 73.66243 58.674351
52.297993 73.472687 58.677921
52.835453 69.058105 58.335144
52.728802 69.680573 58.276215
49.741669 71.055252 58.52808
49.628872 70.098976 58.725288
49.131126 72.118752 58.370407
51.315117 74.208603 58.551369
52.838856 69.586899 58.240978
51.426895 71.616096 58.350819
49.729088 71.154602 58.550236
52.43774 69.595222 58.648441
52.433815 69.398422 58.638271
49.285805 74.494453 58.608498
52.221592 73.185501 58.628677
52.0406 72.152748 58.245853
51.418556 73.047272 58.780804
50.690208 71.951759 58.469193
49.601158 71.731499 58.580963
50.640675 71.778709 58.4436
52.73246 71.814354 58.380543
51.638695 71.59034 58.486862
50.002129 71.26059 58.572392
50.000633 71.165573 58.634739
52.525963 71.036407 58.518745
52.554649 71.142242 58.494846
51.449181 70.807137 58.60965
52.522354 70.920547 58.514763
51.425133 70.708153 58.627117
50.369225 70.513123 58.701843
52.409996 70.590279 58.581982
50.718105 69.859184 58.742889
52.241489 69.850349 58.687321
52.240238 69.77462 58.677586
51.113731 69.421913 58.833065
50.035667 69.116356 58.924274
50.52895 69.038765 58.87175
53.038414 69.201492 58.721275
49.99099 68.829208 58.980251
51.99807 69.013985 58.84227
50.964256 68.802612 58.931896
50.91787 68.61322 58.96566
51.908211 68.703148 58.864384
50.349106 72.708359 58.362011
49.722778 72.694817 58.39695
50.860989 73.038887 58.796333
51.943539 73.053185 58.805042
52.9529 72.672943 58.31234
52.995068 68.565598 58.359276
52.929195 70.543777 58.433491
52.94125 70.456795 58.437546
52.225388 69.711662 58.607803
52.727589 69.589928 58.624454
50.535831 74.523735 58.563736
48.203323 70.125832 58.713467
52.734612 72.963593 57.74506
52.633667 72.127975 58.280781
52.526089 71.710472 58.295673
52.24477 70.770851 58.440414
49.8302 68.935776 58.873417
49.045761 69.998772 58.710388
49.33762 73.587799 58.176468
51.941761 72.155113 58.24604
52.422863 71.832245 58.261799
50.73061 71.318703 58.403584
50.233215 71.006233 58.458286
50.746727 70.477478 58.512466
50.630421 68.561707 58.835285
52.528442 68.549454 58.752396
52.534206 68.33358 58.807335
51.423294 72.154381 58.267815
50.127308 71.401802 58.433861
52.123089 71.406746 58.359692
49.032925 71.280174 58.493443
51.334595 68.026543 58.900284
52.228413 68.938263 58.799431
52.530029 68.360817 58.693745
51.430534 68.025185 58.895161
51.996246 73.270889 58.582073
50.825336 72.225243 58.275265
49.724892 72.239944 58.31218
51.528519 71.095818 58.433792
52.129673 69.405464 58.655815
51.927429 68.550591 58.789696
51.389233 73.954163 58.602741
49.921432 73.178009 58.197872
52.041176 68.499992 58.913242
52.143787 73.237434 58.721313
52.907341 71.737671 58.223675
52.729027 71.271317 58.397346
52.507416 70.216042 58.569675
49.428741 69.469376 58.805977
52.035496 68.033058 58.867268
51.853424 73.828224 58.610577
52.126667 70.55542 58.491096
52.929665 69.825089 58.566227
52.933468 69.59967 58.57325
52.826832 69.401596 58.613186
51.832249 69.18174 58.711956
50.341118 73.694855 58.661556
52.527889 72.2183 58.312664
52.835545 70.23851 58.482147
52.823708 70.332001 58.474518
52.812031 70.128273 58.52528
52.827805 70.02607 58.523518
52.723362 69.611191 58.587559
52.728291 69.715385 58.572121
52.62735 69.314659 58.632053
52.840687 72.081642 57.931221
52.039158 70.777718 58.450096
52.032608 70.65213 58.496323
53.019123 70.456268 58.438946
53.040359 70.577095 58.3853
52.855812 69.888588 58.59325
49.723961 69.243271 58.83659
51.465317 72.940498 58.721653
50.427013 74.657883 58.576275
53.039375 69.93441 58.144024
52.24165 72.200371 58.309052
53.016388 71.511726 58.273464
52.430645 70.990013 58.391159
52.330624 70.559601 58.471935
52.722889 70.460297 58.45092
52.226852 70.334526 58.524807
51.427269 69.410011 58.691113
51.429508 69.177444 58.732349
52.233761 68.646446 58.770447
50.832592 75.125259 57.762299
52.915981 70.483429 58.19099
48.135712 71.220146 58.444946
52.522697 70.867188 58.418247
49.213127 69.204033 58.688137
49.932877 72.84581 58.285484
50.304504 74.794624 57.979256
52.707199 71.053932 58.446312
51.23138 71.202049 58.362259
49.332256 70.526863 58.627102
52.239944 70.232124 58.518829
49.135799 69.482109 58.80558
51.739891 68.027008 58.882877
51.726635 72.181175 58.42128
49.439651 70.424347 58.688011
49.0284 73.618492 58.156895
51.324505 68.470154 58.798542
50.87228 72.258675 58.442448
49.927582 72.656898 58.281349
49.717934 72.959465 58.87915
49.991623 75.417595 58.544071
52.140068 67.998795 58.922207
51.129478 74.74263 58.417873
50.73526 72.153198 58.270874
50.527222 71.323669 58.414776
49.388432 70.0625 58.596615
49.426861 70.149696 58.594494
49.240963 69.009598 58.761673
50.121323 68.774933 58.801277
52.018555 68.55407 58.788017
49.530235 72.948441 58.816631
49.223812 73.619522 58.089035
51.537834 67.941307 58.851151
49.505714 72.065125 58.283474
51.530144 71.963402 58.221336
50.409054 71.18512 58.388958
50.928429 71.320419 58.394455
52.436722 71.222816 58.307285
51.327518 70.998878 58.409569
50.401237 71.106422 58.372395
50.366325 70.886887 58.421841
51.826675 70.560371 58.501465
50.239574 70.153519 58.573437
52.241955 70.16246 58.516163
52.131004 69.92337 58.568996
51.04652 68.785423 58.767776
52.022289 68.778641 58.738125
50.991951 68.465202 58.812851
50.926994 68.035973 58.782452
49.804989 73.652985 58.290096
49.837456 73.633896 58.114937
49.422764 74.416519 58.566624
51.598442 72.344925 58.247833
52.551529 72.341064 57.828411
52.531681 71.083969 58.371948
50.136566 67.945534 58.922569
50.136177 72.849831 58.278725
52.73151 72.219383 58.312096
52.943779 69.156952 58.282745
51.726963 68.467728 58.78381
53.234062 69.690208 58.527073
51.815834 75.526367 57.699486
51.333466 72.582405 58.8778
52.368195 72.568008 58.775265
52.32449 72.107956 58.378193
51.216511 71.77713 58.424553
52.925404 69.898758 58.568531
50.917107 69.25605 58.805077
49.853725 69.018341 58.893131
49.81749 68.501564 58.976479
50.701221 68.167656 58.999462
52.629631 68.011238 58.839966
51.521591 67.754311 59.103088
48.536964 70.449226 58.611153
52.143684 71.842186 58.269173
52.336906 70.235123 58.517952
52.320877 69.931366 58.56282
51.521805 68.02491 58.894142
50.244427 72.929199 58.835468
50.220402 72.856064 58.378944
49.629917 73.630142 58.10709
52.638348 69.595665 58.62941
51.750477 75.5317 57.624912
52.84169 69.90049 58.214272
52.719559 73.0597 57.762966
52.130066 71.733154 58.258617
50.029984 71.30291 58.424866
52.933636 70.971237 58.351265
52.827442 70.446762 58.447178
52.828293 70.346191 58.442039
52.334908 70.14946 58.508396
51.233231 69.623642 58.633553
52.569599 68.879578 58.613869
52.438168 68.459656 58.757229
50.971294 72.459175 58.850212
53.107952 69.360367 58.286766
50.775749 71.644432 58.499382
52.332958 71.782501 58.400883
49.768459 71.563461 58.524128
49.72644 71.482468 58.501923
49.72039 71.39109 58.577805
49.735115 71.260185 58.557217
50.736122 71.243195 58.531712
49.663994 71.070808 58.629227
50.5158 70.626305 58.608166
50.550346 70.477364 58.683819
50.529106 70.373138 58.691315
52.5368 70.298973 58.578053
50.426266 70.083466 58.702988
52.423355 70.211823 58.587383
50.423943 69.872437 58.767212
52.332729 69.697083 58.662052
53.201809 69.129219 58.637424
50.113071 68.201477 59.008972
53.035 68.422791 58.785248
50.079124 73.514755 58.08773
51.540504 73.815536 58.646584
49.161423 68.72979 58.703255
52.809978 69.614922 58.575527
52.722912 69.30262 58.62838
52.130455 74.755905 58.380085
51.927959 71.008606 58.411957
52.832027 70.55468 58.437187
52.234158 69.929558 58.565323
52.635868 69.605217 58.588955
52.528488 69.392822 58.633617
52.7388 67.987755 58.54002
49.843006 71.791336 58.473564
49.728886 71.007576 58.603611
52.627068 70.551765 58.450146
50.309097 68.710381 58.907547
52.135712 68.555511 58.775661
52.687923 72.921036 57.807278
52.431858 71.495857 58.339989
49.410393 71.237709 58.570549
49.261662 70.392906 58.697239
52.038715 69.46489 58.718948
50.527569 69.253685 58.819252
49.887852 72.792496 58.879776
50.300968 74.129822 58.178299
52.013115 74.55835 58.518085
51.729671 74.687485 58.448086
52.645027 74.465096 58.006245
50.749855 71.204468 58.368965
51.327293 74.706932 58.406727
50.127369 71.090637 58.469547
51.731617 71.305939 58.362389
51.134647 70.990295 58.436852
52.114201 70.895988 58.373764
51.618637 70.772675 58.464447
51.325878 69.625824 58.634991
50.808449 69.319672 58.688381
50.715424 68.777122 58.763226
52.539551 68.468315 58.75703
51.433662 67.937325 58.883064
50.730141 72.527847 58.842812
48.929863 69.000137 58.769512
52.733284 71.055458 57.994293
49.533699 72.461609 58.264328
50.81897 74.703934 58.423828
50.646656 71.836113 58.306446
51.664524 71.929352 58.200665
51.606533 71.578888 58.242779
51.523098 71.145256 58.329563
50.499611 70.976608 58.444027
51.502041 71.0252 58.334465
51.975857 70.909668 58.334579
51.955471 70.806885 58.358578
51.446758 70.614098 58.413326
50.350502 70.139503 58.57402
52.341091 70.274727 58.452312
51.332115 70.142441 58.535721
51.720119 69.493065 58.577602
52.191956 69.53212 58.560108
51.162502 69.292168 58.648548
50.031063 68.47187 58.845184
51.921944 68.465096 58.773365
49.133362 72.153511 58.303291
49.829807 73.594795 58.148041
49.139317 73.616013 58.097984
49.122841 73.623558 58.043148
51.137321 74.708351 58.412056
51.731461 74.749725 58.395977
51.427265 70.786011 58.479244
53.142487 69.392876 58.579212
53.137455 69.183723 58.622692
53.028606 68.769485 58.681232
52.925846 68.550385 58.720806
52.925228 68.239128 58.764542
53.636574 68.03112 58.811413
50.471897 75.309448 58.463604
52.230656 74.754349 58.379879
50.969418 71.248238 58.339146
51.621689 74.693832 58.446861
52.721115 69.816788 58.576469
49.616318 69.019974 58.901421
50.548683 75.353134 58.433475
51.53046 74.239868 58.566376
51.440987 74.241905 58.53299
51.856384 74.440376 58.603851
50.778061 74.49485 58.630135
50.818291 70.889328 58.42625
51.83139 70.771759 58.455147
51.734123 70.464371 58.491787
52.016827 69.517006 58.578304
52.544197 69.610909 58.587105
51.933437 69.32692 58.648136
50.436176 69.091751 58.750027
50.935112 68.976143 58.726269
52.337646 68.961952 58.672367
51.338753 68.771057 58.758259
51.328827 68.560318 58.811935
51.358147 68.673653 58.746231
52.247246 68.245956 58.811779
52.255119 68.358559 58.739178
52.221985 68.153389 58.794502
50.13921 72.88665 58.24556
50.128284 73.648827 58.294685
49.555805 73.667793 58.039661
51.032879 71.219421 58.368099
52.016506 70.850533 58.334888
51.95488 70.445686 58.388382
51.305977 69.83712 58.585812
51.847397 69.956017 58.481716
49.827782 69.627808 58.672626
50.813583 69.705711 58.578579
51.804001 69.759453 58.517776
49.841393 69.556328 58.656937
51.782089 69.657028 58.528404
50.773239 69.510002 58.614883
52.731785 69.519928 58.56646
52.704697 69.410881 58.50198
50.654488 69.004829 58.68589
51.65538 69.074615 58.625172
50.656395 68.919754 58.709236
52.599693 68.995674 58.575493
49.640373 68.784088 58.810375
51.613754 68.88385 58.66246
52.627968 68.923042 58.624321
50.619965 68.663506 58.751011
51.13311 68.675209 58.720139
51.630787 68.781029 58.740025
51.5308 68.450966 58.770386
52.535172 68.462692 58.652145
52.457287 68.343071 58.672215
50.142609 73.035301 58.823463
49.442654 73.077362 58.646194
49.42577 73.66951 58.159828
50.15295 73.690971 58.139843
49.451347 73.616684 58.011379
49.439365 74.43943 58.031883
50.129742 74.450089 57.988457
52.326679 70.988701 58.389221
51.635616 70.462975 58.50465
52.636715 70.459274 58.460457
50.842739 70.107529 58.684681
52.027687 70.155045 58.52824
52.734901 69.650314 58.636417
52.434097 69.619469 58.596348
51.833775 69.397926 58.673931
52.431137 68.54261 58.762871
51.831455 67.902489 58.934086
48.54694 71.00161 58.489731
51.539059 74.428665 58.527225
51.456932 74.127777 58.561317
50.102268 73.511711 58.285275
51.82832 74.751556 58.394527
52.634396 73.611488 58.091431
49.447369 70.617905 58.627235
49.840977 72.966942 58.772068
52.290844 74.524742 58.50695
52.736385 72.094963 57.941612
52.628342 68.743896 58.391312
52.737263 71.578865 57.968449
51.334976 74.909546 58.454807
51.424232 70.47348 58.515732
52.844078 70.514503 58.148159
51.222107 74.853264 58.385918
52.132629 69.620529 58.607944
50.929501 69.093582 58.744743
52.824284 68.556297 58.746689
52.721588 68.546387 58.745583
52.21487 74.506462 58.478733
52.828609 74.026833 57.596897
50.4258 73.249321 58.692245
52.127361 68.014915 58.869255
51.111568 72.936615 58.788807
52.176369 72.994965 58.749321
49.643482 70.713959 58.67873
52.663685 70.630455 58.532558
51.596058 70.422989 58.633327
50.489449 69.99028 58.776646
51.441753 69.912727 58.71397
52.373219 69.548531 58.712666
50.26017 69.148277 58.902771
50.256214 69.033531 58.894051
53.161915 68.783607 58.749969
53.111012 68.601418 58.78878
53.006386 68.316391 58.851921
50.923424 67.772415 58.999531
50.229561 74.005852 58.765533
50.941048 74.005653 58.628822
53.108025 72.338158 58.235523
49.246059 71.207977 58.418915
52.816322 73.110054 58.610645
50.092632 70.219734 58.717762
53.174313 70.459373 58.431503
50.019157 69.902084 58.76321
53.136288 70.250092 58.477837
51.045467 69.87532 58.7281
53.0121 70.021301 58.517277
53.069988 70.093193 58.513969
52.937992 69.384125 58.609951
52.94714 69.487251 58.603172
52.633022 68.237885 58.79475
50.30508 67.862709 58.870323
49.796669 73.780495 58.230595
49.526974 74.470993 57.98188
52.014057 74.213081 58.572113
53.031048 71.992439 57.922733
53.023865 73.259445 58.536736
50.325695 70.305885 58.647762
52.330997 70.458122 58.477413
53.228775 70.082924 58.472946
52.227997 69.8563 58.549614
53.02269 69.393921 58.597317
52.937214 68.985008 58.647163
52.847801 68.454781 58.737343
52.750671 68.230164 58.785686
52.03894 68.467033 58.772575
50.811169 73.007645 58.945133
53.005913 73.164238 58.592056
52.320538 70.2314 58.572834
49.925037 68.397636 58.958031
51.649223 74.637886 58.544342
51.333229 73.066566 58.740788
52.322407 73.092819 58.668655
49.716438 70.408424 58.686234
50.65712 70.104324 58.68914
52.703857 70.202034 58.545509
52.61932 69.794884 58.581741
52.521755 69.71225 58.585243
52.511662 69.575981 58.649639
52.43544 69.1735 58.686916
50.300251 68.501854 58.960468
52.128513 67.908264 58.928688
51.11771 67.775124 59.001976
50.931259 72.54911 58.826195
49.254959 74.432236 58.090626
49.235371 74.468224 57.962749
50.580708 74.391838 58.141724
52.58144 74.048859 58.659664
51.944664 74.64753 58.521313
51.227165 67.907196 58.939861
52.831154 70.637779 58.452034
51.420212 69.091492 58.727642
51.556782 73.674957 58.649345
52.72781 72.116974 58.291203
49.911087 73.001816 58.750504
49.531979 73.622383 58.097057
50.957283 75.690445 57.593685
52.886044 71.943726 57.865334
52.031479 74.862839 58.384579
51.640373 73.277359 58.582592
52.739563 73.301033 58.552544
52.518127 70.466934 58.466888
51.428413 70.164452 58.557262
52.426182 70.139008 58.512959
50.140114 72.750717 58.281872
51.430042 72.216621 58.275139
52.515308 72.315598 58.246597
52.646442 70.140472 58.503567
51.336807 69.092911 58.724281
52.84457 69.772896 58.273876
51.025913 74.540977 58.622341
52.126919 74.562103 58.531853
51.047009 74.644745 58.544521
51.742085 73.032059 58.78487
51.425308 71.542068 58.457314
52.033798 69.772171 58.682335
53.042152 69.809708 58.577763
53.059559 69.903313 58.593002
53.030724 69.699478 58.562119
50.779873 68.81604 58.941704
50.928333 74.05307 58.583923
53.067043 73.092613 58.65247
53.357388 70.05867 58.467545
53.329735 70.129967 58.44976
53.284756 69.771904 58.524914
53.213333 69.480873 58.574242
52.932705 68.452873 58.735756
49.333519 73.62146 58.090809
51.119583 73.944466 58.733334
53.010895 73.211876 58.551304
51.728737 72.196411 58.323158
48.670387 74.450485 57.975166
50.017994 73.59407 58.15057
50.047447 73.635597 58.104141
53.650539 68.636162 58.699352
52.799629 72.217743 58.24559
51.829327 68.027672 58.882313
50.113785 72.838593 58.409569
51.73011 74.655502 58.509636
51.437355 73.068871 58.727764
49.531044 74.03437 58.072849
53.133923 71.30687 58.307178
49.803822 69.877678 58.762722
50.634731 69.039192 58.890289
51.737392 74.704018 58.390091
51.649227 74.199722 58.58189
53.3307 71.844704 58.204151
53.247944 71.53656 58.244789
52.334599 67.940247 58.844067
50.337097 72.981018 58.773918
50.933132 75.15377 58.459881
51.930935 74.7509 58.381165
51.853207 74.238586 58.565411
53.21957 70.551781 58.051033
48.648743 71.168053 58.446888
53.117912 72.145981 58.260239
53.024563 71.826614 58.221348
52.932556 71.533554 58.272224
52.921921 71.30159 58.310322
51.724854 68.557983 58.794422
53.227795 68.688202 58.678596
53.161285 68.460388 58.7351
51.131947 68.023048 58.907188
48.771046 74.020027 58.066494
52.033531 68.235474 58.829922
52.930153 70.109772 58.15963
51.824768 74.685257 58.4305
52.728127 71.517273 58.28112
52.63781 71.300186 58.333591
53.539246 69.070404 58.573132
50.222435 72.991592 58.772373
50.209732 72.870766 58.248039
50.256046 73.622238 58.234524
50.235317 73.596565 58.153156
49.433105 73.619354 58.098049
53.217762 70.237457 58.443676
52.028835 74.754662 58.38884
50.948353 74.860115 58.396038
51.543789 72.224289 58.255318
51.515144 72.07988 58.252739
52.439121 71.735985 58.252541
51.33786 71.298378 58.379841
52.32571 71.304115 58.353931
50.062614 73.049301 58.861656
49.204952 73.117294 58.708542
49.98679 73.017632 58.706684
49.665806 73.680237 58.26123
49.234184 73.67717 58.179588
49.628567 74.441101 58.026154
50.697346 73.995552 58.643311
51.330101 73.28167 58.6147
51.531807 69.084465 58.712921
52.219746 67.9347 58.836845
49.137398 73.309052 58.139271
50.631516 74.736877 58.42963
52.919758 68.431358 58.412064
50.328339 72.344673 58.328373
49.332626 72.435448 58.331448
51.322166 72.166687 58.266575
48.536648 71.833229 58.35379
50.12109 72.933365 58.820148
50.130596 72.956932 58.77383
52.847324 68.076843 58.454281
52.822643 73.176025 58.592213
51.224304 73.800064 58.685329
53.534172 68.693466 58.712639
51.624969 74.705711 58.400734
50.733376 73.074974 58.74926
49.632 72.440659 58.318317
52.610287 71.929596 58.338764
50.874516 72.304901 58.331989
51.030334 74.741081 58.417271
50.821835 73.596413 58.675617
52.128689 74.703941 58.376606
51.656113 72.539627 58.827168
51.825996 74.691605 58.383671
53.028194 70.861595 58.381424
53.146637 70.975731 58.344345
53.321461 70.331673 58.494644
52.338303 69.96373 58.293522
53.120132 68.744415 58.378922
50.633736 72.52459 58.846256
53.016182 69.492332 58.598701
48.770546 73.402237 58.139935
52.645027 72.213997 58.311272
51.600739 74.103035 58.62965
50.238949 72.133644 58.436974
53.028847 71.090714 58.33839
52.92075 70.769089 58.394009
52.326393 67.903938 58.919006
49.420849 72.587959 58.217113
52.528656 70.238617 58.498852
51.455387 73.311691 58.571655
52.005806 75.535431 57.684517
50.213367 72.837326 58.281452
51.408798 71.319481 58.392094
53.345211 70.917953 58.336937
53.334869 71.015266 58.338367
49.845047 69.243324 58.835629
52.327114 69.303558 58.64151
