# .PCD v0.7 - Point Cloud Data file format
VERSION 0.7
FIELDS x y z
SIZE 4 4 4
TYPE F F F
COUNT 1 1 1
WIDTH 1130
HEIGHT 1
VIEWPOINT 0 0 0 1 0 0 0
POINTS 1130
DATA ascii
13.624616 27.55732 -9.322916
13.1428 27.592102 -9.2683039
12.870828 27.676279 -9.2792292
11.453719 27.488199 -9.1706381
10.754288 27.620575 -9.3544083
14.095381 26.019529 -9.1874561
14.13324 26.047256 -9.1878233
13.883144 25.704063 -9.1492205
12.356718 27.555826 -9.2414436
14.804211 26.14237 -9.3050222
14.368788 25.603085 -9.4933844
10.467595 27.518467 -9.2689133
10.988211 27.74682 -9.4249983
14.246199 26.600143 -9.3376951
10.873007 27.572109 -9.3933859
13.544573 27.4753 -9.3283482
11.722245 27.452784 -9.1833496
11.052274 27.622383 -9.3600578
10.864326 27.627956 -9.3767385
11.161424 27.662287 -9.3751173
13.020413 27.572836 -9.2821522
14.091228 25.866613 -9.5274935
13.982625 25.908106 -9.5611515
13.948561 25.001772 -9.0015736
13.609231 27.401854 -9.2525225
14.059082 25.105511 -9.4338799
14.828365 26.227097 -9.236062
14.368523 25.978235 -9.2260494
14.039834 26.546608 -9.656436
14.69251 25.191154 -9.0512877
14.922777 26.534857 -9.3157473
14.544257 25.190042 -9.0315495
14.866254 26.058975 -9.2592535
14.612153 26.496515 -9.3598547
14.349599 25.336216 -9.0744143
14.737593 25.701334 -9.1584702
14.622491 25.719416 -9.1487427
14.80266 25.964462 -9.1999187
14.420673 25.831436 -9.1342697
14.952734 25.229107 -9.0862474
14.832054 25.217344 -9.0898266
14.738018 25.29915 -9.0744371
14.741545 26.069668 -9.2460775
14.854183 26.152952 -9.2616453
14.146722 25.617727 -9.1201172
14.630827 26.402403 -9.3558083
14.565675 25.977741 -9.2501907
14.268841 25.982571 -9.2278414
14.655479 25.223946 -9.0754566
14.84443 25.318211 -9.0926037
14.813242 25.767172 -9.1935024
14.654087 25.956785 -9.2434301
14.650164 26.073456 -9.2492094
14.758438 26.271093 -9.2871513
14.56002 25.234114 -9.0860643
14.353477 25.224695 -9.0712547
14.341572 25.366737 -9.1250658
14.450124 25.970434 -9.2458239
14.143186 25.259588 -9.4444027
10.793217 27.345345 -9.1753016
14.257319 27.091574 -9.4057579
10.718519 27.334476 -9.1778059
10.945881 27.631634 -9.185216
14.247716 25.542198 -9.120369
12.358774 27.639219 -9.4122076
14.170506 25.201767 -9.0122004
10.639508 27.589024 -9.210084
15.116995 26.555908 -9.3494549
14.351997 26.274166 -9.2838573
14.459272 25.629646 -9.4981318
10.451346 27.490761 -9.2166796
10.776525 27.914103 -9.2863026
12.646964 27.830954 -9.3983374
14.731985 26.97563 -9.3861704
13.550883 27.624241 -9.4327888
10.562819 27.807281 -9.282259
10.274269 27.80735 -9.2628059
13.251373 27.640017 -9.4160795
11.145126 27.487085 -9.2536526
14.453189 26.482645 -9.2922163
14.540503 26.468805 -9.2939062
14.545791 26.902201 -9.3900003
14.735753 27.195601 -9.398572
14.407027 26.334126 -9.2338886
14.341283 26.257481 -9.2429562
14.558311 27.482103 -9.3472385
14.368765 26.641748 -9.2980347
14.615267 26.670696 -9.289196
14.914995 27.167295 -9.3949137
14.451599 26.033918 -9.1897116
14.6407 27.189606 -9.4097843
14.649509 26.882715 -9.3457403
14.735192 26.592379 -9.297533
14.148332 27.479094 -9.3296995
14.853225 27.174574 -9.4027376
14.550491 26.877081 -9.3459949
14.65828 26.56881 -9.3060799
14.734937 26.25491 -9.2591801
14.658213 26.112852 -9.1958914
14.547379 26.045612 -9.1909094
14.447826 25.724257 -9.1335869
14.534418 25.320848 -9.0797672
14.439983 25.202621 -9.0282564
14.645131 26.484953 -9.303299
14.364136 26.385073 -9.2898436
14.536135 26.265135 -9.2400723
14.620489 26.045683 -9.1944323
14.453746 25.950294 -9.1870747
14.532717 25.738607 -9.1351175
14.434332 25.324511 -9.0712347
14.439323 25.235792 -9.075201
14.351655 25.203857 -9.0291243
14.637309 26.252155 -9.2421722
14.461653 26.258392 -9.2456026
14.447924 26.067669 -9.2411747
14.35643 26.07196 -9.2382689
14.55097 25.948071 -9.1886673
14.364212 25.953201 -9.1868439
14.26342 25.726828 -9.1341629
14.369249 26.565359 -9.3013182
14.356827 26.46376 -9.2887144
14.450617 26.381067 -9.2922459
14.758999 27.417751 -9.3310652
14.549365 27.180099 -9.4072065
14.640992 27.429905 -9.3358088
14.475561 27.032301 -9.7352581
14.255323 25.293003 -9.3891697
14.445437 27.484873 -9.3407001
14.932439 26.838072 -9.4019547
13.334739 27.63413 -9.4269209
14.162477 25.930166 -9.5428734
14.652223 26.992203 -9.3896332
14.281418 26.262049 -9.2349768
14.354473 25.425545 -9.0735064
14.34408 26.779428 -9.6996927
14.654818 25.521202 -9.1423187
14.44994 26.598217 -9.3497944
14.550187 26.574827 -9.2892351
12.549722 27.630594 -9.4214945
14.378105 25.733311 -9.1387987
10.516346 27.653246 -9.3502254
12.253761 27.730228 -9.3729944
14.943542 26.70805 -9.3825541
10.848571 27.837557 -9.3484173
13.955486 27.478537 -9.3380022
12.72051 27.636568 -9.4134674
14.138927 25.424412 -9.0740318
11.950848 27.514301 -9.3211565
10.861447 27.490793 -9.282362
14.446705 26.761333 -9.7064724
14.746141 26.39534 -9.3036032
12.070256 27.624973 -9.399889
12.060623 27.7887 -9.3146763
14.362358 26.044346 -9.1790991
14.643605 25.950552 -9.1908312
14.263796 26.573582 -9.299675
14.249613 25.948767 -9.1900558
14.143597 25.327168 -9.0636883
14.075796 25.926655 -9.1569872
14.652804 26.424122 -9.631072
11.452538 27.511698 -9.3040295
13.4732 27.490343 -9.2249765
14.353759 25.321987 -9.4372749
14.557872 26.592093 -9.3528824
14.743767 25.435608 -9.139019
14.280204 25.099855 -9.3682594
10.952499 27.516953 -9.288022
11.672012 27.906595 -9.2501106
14.537682 26.727501 -9.6814842
14.150209 26.339205 -9.235014
14.408665 26.387936 -9.6626406
14.182713 25.113571 -9.3583984
14.966995 27.012819 -9.4436102
14.17758 27.166615 -9.4021587
14.543588 25.543119 -9.1402502
14.157993 25.944164 -9.1793556
14.555171 26.756037 -9.7172499
14.265681 25.178671 -9.3738146
12.931416 27.898605 -9.3103018
13.451958 27.919783 -9.3157482
14.849741 27.007399 -9.41992
14.162297 26.117311 -9.5474443
14.150465 25.180574 -9.381712
14.246653 26.162868 -9.2416878
14.448643 26.520548 -9.6105289
14.257863 25.375383 -9.3963318
14.057181 25.492273 -9.0581846
11.890952 27.82885 -9.2144089
14.257393 25.804247 -9.4935369
11.852084 27.507565 -9.3188915
14.350738 26.462111 -9.6584406
14.442515 25.319735 -9.4374943
14.33884 26.160028 -9.2357931
14.344551 25.408617 -9.4267807
14.397993 26.381599 -9.6650925
13.646638 27.484257 -9.3303127
14.362249 25.840443 -9.55023
14.124518 26.635872 -9.2918396
14.83744 26.46011 -9.6863565
14.253511 25.4027 -9.4355726
12.336981 27.791828 -9.3173962
14.449486 26.425568 -9.6203156
14.151597 25.38204 -9.4283257
11.466787 27.911716 -9.2755356
14.158079 26.01486 -9.54846
10.815766 27.660536 -9.2085161
14.356509 25.592524 -9.4543371
14.260128 25.501469 -9.435173
14.3565 26.434139 -9.6246672
14.439957 26.186304 -9.3000221
14.189412 26.479137 -9.6886206
14.362405 26.233929 -9.5951185
11.222952 27.723188 -9.2309341
14.255589 26.852867 -9.7010946
14.269103 25.884634 -9.5015974
14.249135 25.429426 -9.0761919
14.44651 26.857601 -9.7167492
14.15496 26.76935 -9.6953106
14.647411 26.763672 -9.7234764
14.263586 26.235168 -9.5941057
14.444391 25.902046 -9.5123243
14.164344 25.79734 -9.4941816
14.267792 25.764721 -9.164711
14.236706 26.055891 -9.2261333
14.762695 26.456532 -9.66576
14.624332 25.127621 -9.0822163
11.383715 27.66206 -9.2038593
14.357359 25.131636 -9.069602
14.546545 25.583328 -9.1904039
15.115957 26.086369 -9.2678881
14.037313 25.129953 -9.0279732
14.137513 25.629122 -9.4723225
14.032907 25.635612 -9.1415319
14.634763 26.383238 -9.6699543
14.359649 25.894447 -9.5146475
13.992957 25.869944 -9.1669731
14.063311 26.776501 -9.6967258
14.539549 26.512045 -9.6198282
14.544287 26.33148 -9.6208906
14.086378 25.032871 -8.9859934
14.452301 26.449612 -9.6530619
14.131933 26.324789 -9.6091566
14.442171 26.015289 -9.5476255
14.161108 26.238739 -9.5976257
14.276414 26.462917 -9.6546154
14.232254 25.596365 -9.5083704
13.55347 27.535591 -9.4506111
14.533695 25.512968 -9.0839214
14.74802 25.636805 -9.1527872
14.343564 25.646074 -9.1306725
14.538395 25.637854 -9.1314497
14.021976 25.288122 -9.0161333
14.55743 25.139269 -9.078145
14.140066 25.859703 -9.1546011
13.964289 25.553148 -9.1285601
14.259905 25.657076 -9.1301699
14.326128 25.491463 -9.0849113
14.740048 26.775776 -9.3662548
14.542294 26.54607 -9.6619711
14.557116 26.454306 -9.663435
14.261412 26.428963 -9.6160994
14.547417 26.11692 -9.5710611
10.460513 27.617746 -9.3433704
14.355441 25.846983 -9.1798763
14.172414 26.563148 -9.6422768
14.449745 25.502533 -9.0798073
14.448913 25.426001 -9.0799408
14.257558 25.936193 -9.5424614
14.231708 26.523973 -9.6204958
14.573618 25.83024 -9.1286125
14.346131 26.853428 -9.7061424
14.443102 25.804491 -9.5026045
14.64551 25.411434 -9.0921593
14.267618 25.490335 -9.0699301
14.341976 25.364555 -9.4046402
14.355155 26.54215 -9.6556845
14.351011 26.325998 -9.6053238
12.651043 27.731426 -9.393527
13.977333 26.245073 -9.6407986
14.435501 26.244013 -9.5994129
14.452864 26.115517 -9.560688
14.83497 26.38611 -9.3037443
14.051204 25.473705 -9.0998135
14.403828 25.048889 -9.3499451
14.26442 25.590958 -9.4523897
14.117317 25.523939 -9.0749741
14.362793 25.450848 -9.1211491
14.076088 26.248167 -9.6147079
14.059538 26.445223 -9.6716299
14.539465 25.420321 -9.0868092
14.828157 25.544081 -9.1215305
14.254348 27.05901 -9.7203655
14.455573 25.141117 -9.0789156
10.75527 27.19207 -9.2684813
14.248569 26.123573 -9.5602655
14.261167 26.33073 -9.6011648
12.27176 27.213163 -9.2350988
14.358074 25.665419 -9.4567165
13.954911 26.577532 -9.7603817
14.631617 25.539223 -9.5065718
10.552292 27.997795 -9.3441887
12.393861 27.348722 -9.22542
14.255667 25.854391 -9.177969
14.046678 25.935926 -9.5525169
11.750327 27.830164 -9.3729343
14.138261 26.569265 -9.2786455
14.032099 26.319517 -9.6899719
14.445101 25.117319 -9.0216265
14.539371 26.233068 -9.6065655
14.345482 25.120173 -9.020813
11.537267 27.983524 -9.3332005
14.156508 26.354486 -9.6590147
14.936975 26.760986 -9.3894224
11.737714 27.48337 -9.273592
13.329842 27.51347 -9.4581795
14.343142 26.210464 -9.3112364
10.756784 27.843279 -9.3432312
13.160138 27.639771 -9.431963
14.256181 27.214771 -9.4617052
14.340643 25.97962 -9.5137367
14.552295 25.112505 -9.0319204
14.251556 26.013903 -9.5454454
14.351517 26.120239 -9.5616579
13.028096 27.830276 -9.3426666
14.761848 25.537971 -9.1465902
14.642293 26.636074 -9.6841297
14.355433 25.704967 -9.4864025
14.550533 25.74819 -9.1884861
14.641781 25.760782 -9.1864376
14.456418 25.752697 -9.1817217
14.714718 25.768703 -9.190794
14.808516 26.376566 -9.6663828
14.336904 25.065351 -9.371129
14.562482 25.855425 -9.1876411
14.618345 25.335085 -9.1342335
14.353775 25.53919 -9.1158409
14.44437 25.595148 -9.4550571
14.639645 27.10285 -9.3993177
14.453558 25.706955 -9.4917345
10.254278 27.72406 -9.2664671
14.449404 25.448359 -9.1339388
14.823895 27.107733 -9.3852634
14.535051 26.374973 -9.293334
14.346737 26.327137 -9.2516232
14.26157 26.379803 -9.2945852
14.091578 27.09306 -9.3488607
14.539072 27.025099 -9.7310333
10.758628 27.709448 -9.2803516
14.456347 27.072001 -9.7618065
15.047154 27.362862 -9.4059792
13.953493 27.399603 -9.338975
14.649384 26.781151 -9.3509398
14.460618 26.650492 -9.2992325
14.629759 26.231016 -9.6109953
14.738234 27.397234 -9.4428158
14.53488 26.813154 -9.4029007
10.387061 27.651091 -9.2066774
12.251189 27.704153 -9.3444529
14.534005 26.99032 -9.7659941
14.921901 25.260183 -9.2023554
13.150116 27.701981 -9.3774643
14.747275 26.131451 -9.6107473
14.642424 25.106804 -9.0407753
11.350736 27.707577 -9.3071251
14.816319 25.093914 -9.0439739
10.849746 27.711191 -9.2850924
14.454656 25.847176 -9.1787663
14.265291 26.865885 -9.3538322
14.272219 26.998335 -9.4012012
11.186141 27.584457 -9.1893635
12.452054 27.829811 -9.3898964
14.555564 26.961338 -9.7352047
13.246504 27.516558 -9.4532061
14.744793 26.703815 -9.3598623
14.2656 26.498114 -9.3421612
10.473501 27.737856 -9.3400145
13.906933 27.215601 -9.2951317
13.983006 26.466314 -9.6672544
12.128439 27.563896 -9.2468853
13.253445 27.692959 -9.5090113
10.65094 27.712292 -9.2711868
13.353951 27.33959 -9.3349848
14.550942 27.561531 -9.4794092
14.253876 25.684151 -9.444459
14.449757 26.78764 -9.3504658
12.55372 27.515776 -9.4143343
10.657176 27.921576 -9.3300734
14.08495 26.151653 -9.6011543
12.929077 27.611223 -9.535202
13.90405 27.236456 -9.2812967
14.448257 26.2003 -9.568716
10.546312 27.510935 -9.2712755
12.049338 27.39661 -9.3397236
13.879334 27.3563 -9.2595539
11.26658 27.447931 -9.1713133
12.074732 27.438248 -9.1919699
13.944724 26.014112 -9.5807438
14.95825 27.299469 -9.4721346
13.443918 27.333021 -9.3334818
14.824411 25.50696 -9.0895662
14.855792 25.465048 -9.1495428
14.068791 26.783735 -9.7922058
11.851961 27.709736 -9.3282328
14.256285 26.793034 -9.3635283
14.266946 26.208084 -9.5641384
14.640519 25.436113 -9.1356535
14.153181 25.725273 -9.1222067
14.655341 27.428339 -9.4229717
12.44698 27.739885 -9.3849001
14.303469 27.508827 -9.5190792
14.72242 27.114103 -9.4595757
14.648304 25.325165 -9.0852757
13.66642 27.549648 -9.4564333
13.335585 27.695578 -9.3788919
14.379953 25.284941 -9.0238914
12.850255 27.611277 -9.3640537
13.165623 27.334351 -9.1654234
14.931612 25.820684 -9.1814976
14.642683 26.906906 -9.772933
12.947084 27.711325 -9.3683558
14.921465 25.497854 -9.1731911
14.603075 25.603077 -9.0744324
12.932759 27.619804 -9.4301796
14.565126 25.309265 -9.4449358
14.350511 26.78389 -9.3537617
10.750412 27.740583 -9.3534422
13.846405 27.339388 -9.3507328
14.16213 26.797176 -9.3489056
14.73633 25.843662 -9.1882029
14.63483 26.820786 -9.4055729
14.051925 27.213627 -9.3569069
12.14959 27.637897 -9.3854923
14.647118 26.389629 -9.3027792
13.945164 27.334326 -9.3468208
14.147733 27.333864 -9.3582239
14.635625 26.45648 -9.6688919
14.630819 26.132832 -9.6135998
14.251032 26.475048 -9.2961664
14.630639 25.797037 -9.5154238
11.049076 27.710058 -9.3040276
14.350694 25.930038 -9.5403461
11.746584 27.394867 -9.3326387
15.000089 27.406511 -9.3785858
14.656694 26.844183 -9.7421455
13.960323 27.54994 -9.4676971
14.804277 25.667301 -9.164361
14.355429 26.801401 -9.3940344
14.828094 25.877508 -9.1958065
13.745807 25.304554 -9.1195412
12.449935 27.515331 -9.4291258
10.343895 27.508099 -9.2727737
14.135943 26.198479 -9.562499
10.837408 27.908091 -9.2698488
14.647609 27.322197 -9.3641539
13.231657 27.639629 -9.5257444
14.446867 26.160069 -9.601841
14.336242 25.192841 -9.3884611
14.922604 26.375311 -9.3189602
14.539791 27.008842 -9.3932781
14.883684 26.317984 -9.3059301
14.335602 27.323647 -9.3597116
13.549466 27.39233 -9.3326521
14.535269 25.708876 -9.4956903
14.861061 26.498037 -9.3322229
14.946966 27.494335 -9.3468523
10.635641 27.505341 -9.2769299
14.449833 26.9552 -9.7313948
15.022087 26.801565 -9.4026585
11.052303 27.729008 -9.1996403
10.64595 27.616983 -9.2663107
14.814634 27.424948 -9.3340912
11.044225 27.510307 -9.2944517
10.442736 27.921564 -9.2548523
14.438084 25.857124 -9.5491943
14.360182 25.797628 -9.4990854
14.723689 26.948074 -9.750598
11.861774 27.527563 -9.4122877
14.757209 26.918833 -9.356679
10.967722 27.649918 -9.3728161
14.049669 27.326015 -9.3517685
10.957747 27.793842 -9.2945061
13.990211 27.080452 -9.3156719
14.939564 27.11475 -9.4540663
13.147058 27.521791 -9.4794626
13.342196 27.691139 -9.5264444
14.279912 25.242727 -9.0620413
15.033932 27.301357 -9.4605961
14.739505 25.220711 -9.0812626
12.638096 27.622236 -9.4349585
14.633669 27.231768 -9.4506588
12.046414 27.707697 -9.3380184
14.44574 25.488947 -9.4436312
13.053391 27.700989 -9.3748493
12.930443 27.580782 -9.4777822
12.349382 27.396128 -9.3525867
14.537919 27.071035 -9.7708778
14.76849 25.352566 -9.1495161
13.540124 27.735603 -9.4292488
11.348549 27.489141 -9.2563133
10.841628 27.813784 -9.2880859
13.843609 27.733082 -9.4408274
10.550862 27.706947 -9.2649078
14.445171 27.001028 -9.4029837
12.347809 27.732197 -9.3789873
12.827114 27.542046 -9.4454594
14.348991 27.314739 -9.4415989
14.050861 25.700714 -9.5026159
10.659963 27.17988 -9.1849937
14.723683 27.313129 -9.3726463
13.440001 27.693556 -9.3795033
11.453438 27.802847 -9.3165932
10.936795 27.615625 -9.2865572
11.179244 27.674225 -9.1966486
13.790254 25.573387 -9.1374559
11.246386 27.606888 -9.3012199
14.346821 26.955446 -9.7231693
10.943809 27.555408 -9.3984861
14.544588 25.804893 -9.5130148
13.267413 27.69602 -9.3721495
12.148438 27.614397 -9.3369055
15.053539 27.28742 -9.3954439
13.948697 27.712013 -9.3888302
14.353829 26.643229 -9.6673393
12.16301 27.807545 -9.3186951
12.305936 27.290054 -9.2116613
12.646634 27.381012 -9.31248
13.242717 27.308565 -9.2380552
13.738839 27.476572 -9.3199453
13.746738 27.332491 -9.3410988
12.748293 27.380383 -9.3139153
10.94209 27.734875 -9.2129602
11.521424 27.706741 -9.2104473
14.265845 26.761818 -9.698842
12.960945 27.49535 -9.2898817
13.146661 27.284592 -9.1902456
11.147128 27.614759 -9.2963619
12.648808 27.697124 -9.3650656
10.400703 27.579437 -9.226572
13.434347 27.658291 -9.4227676
13.740594 27.630713 -9.4422178
14.163896 26.73173 -9.6605492
11.143168 27.806652 -9.3052158
14.086605 26.017639 -9.5413408
11.341425 27.508364 -9.2978945
11.663134 27.799704 -9.3165102
14.254131 26.824089 -9.6640511
13.452776 27.57531 -9.5237741
13.748902 27.727821 -9.4367895
11.726472 27.652807 -9.3877869
12.851426 27.381077 -9.3139133
15.019902 26.120167 -9.2925367
14.643757 26.187544 -9.2960434
14.455812 25.917629 -9.541378
11.760473 27.79686 -9.3048897
11.812395 27.910015 -9.2839193
13.853967 27.706944 -9.3842535
13.848219 27.493694 -9.3260508
14.147352 27.405777 -9.3414135
12.643794 27.796198 -9.3477612
10.476163 27.958969 -9.1972103
10.462543 27.788712 -9.2693415
12.250287 27.824986 -9.3806477
12.749673 27.396856 -9.3583136
11.038803 27.838388 -9.3459949
13.457449 27.484837 -9.3127251
11.356463 27.58746 -9.2035522
10.466331 27.832006 -9.1785927
10.553104 27.488253 -9.1302004
12.548912 27.392141 -9.3540163
12.73891 27.699924 -9.3635969
13.857193 27.646788 -9.4581718
11.257079 27.796236 -9.3079176
12.450909 27.609474 -9.3440342
12.848082 27.802202 -9.3407288
12.845265 27.706972 -9.3666658
12.171954 27.205473 -9.2341824
14.24213 27.40382 -9.4183321
11.363106 27.796719 -9.3016281
11.945584 27.69953 -9.3362036
11.34811 27.614391 -9.3121386
13.315619 27.628559 -9.5357618
14.339977 26.995972 -9.4049377
13.439312 27.725182 -9.4238605
14.048178 27.647057 -9.4467163
13.444695 27.510571 -9.3678236
11.062036 27.800728 -9.2940254
11.636392 27.484417 -9.2577467
10.55419 27.592945 -9.2744284
12.847492 27.511042 -9.3459949
10.749024 27.573988 -9.2384148
13.741869 27.516739 -9.3823233
10.855603 27.383083 -9.2453728
11.55258 27.833309 -9.3566217
11.555487 27.810987 -9.3152161
15.078999 26.156836 -9.2790709
14.074529 25.628477 -9.4931765
11.439203 27.484753 -9.2640285
13.349563 27.394115 -9.3837757
10.658634 27.830267 -9.3322124
12.44807 27.380062 -9.3030958
14.039333 25.841055 -9.5520658
12.141292 27.381607 -9.292841
11.538916 27.502638 -9.2431536
12.45258 27.696512 -9.3572645
13.547674 27.396069 -9.3954201
14.838033 27.121817 -9.4710112
14.736736 27.104794 -9.3964949
11.850562 27.831774 -9.3677349
14.452601 26.988539 -9.7671566
12.342705 27.708176 -9.3473225
12.039265 27.484392 -9.2799902
14.450686 26.154825 -9.2404442
14.248478 26.038006 -9.1880226
12.843457 27.72694 -9.3986692
11.848258 27.636948 -9.398159
11.646896 27.832075 -9.3628178
12.94447 28.005571 -9.3034096
14.247114 27.329119 -9.4374981
13.143579 27.332037 -9.323679
14.908143 26.530083 -9.3484325
14.742568 27.516506 -9.3441229
11.358702 27.614616 -9.4038105
14.265515 25.243876 -9.0257406
13.347422 27.605419 -9.3776255
14.481245 25.540045 -9.4936638
12.147379 27.393641 -9.3471651
12.590455 27.654995 -9.28197
14.536712 26.190748 -9.5716505
14.529828 27.426027 -9.4318676
14.455904 25.396925 -9.4350224
13.84479 27.396154 -9.3401098
14.665048 26.957672 -9.7879353
13.150728 27.383379 -9.32409
11.543366 27.618046 -9.3204155
14.830113 26.697258 -9.3787727
12.544093 27.701689 -9.3582163
11.254135 27.708374 -9.3061209
11.445172 27.709152 -9.3200741
14.249201 27.489471 -9.3385668
11.746011 27.386919 -9.2785959
14.539479 25.931034 -9.5518379
11.456629 27.606535 -9.3175411
14.33754 25.279434 -9.3981295
12.444076 27.477753 -9.2702942
11.856252 27.4827 -9.2716856
14.337002 27.488575 -9.3418512
12.152137 27.826664 -9.3772926
14.460247 27.329947 -9.3671932
14.358747 26.207682 -9.5642414
12.146965 27.737537 -9.3716183
14.150015 27.329563 -9.4369316
15.037956 26.926239 -9.4303713
13.64373 27.749598 -9.5248289
11.949486 27.613071 -9.331398
12.155978 27.488134 -9.2791538
12.650871 27.613041 -9.3535328
11.753448 27.60762 -9.3240442
10.364874 27.708302 -9.2621622
12.551239 27.59901 -9.2735806
13.242479 27.390678 -9.3796768
14.258142 25.139881 -9.0640879
14.821383 25.231871 -9.1987133
14.436205 26.111544 -9.1916113
10.754006 27.924475 -9.3364639
12.350093 27.830437 -9.3847532
12.249317 27.482243 -9.291584
14.728074 26.789915 -9.4011889
14.539532 26.337963 -9.2447491
10.663181 27.918282 -9.2631721
14.54204 27.139446 -9.4492559
12.34954 27.607355 -9.3419867
11.749703 27.717529 -9.3320484
11.856269 27.744152 -9.3648405
14.358472 26.695866 -9.3479614
12.052616 27.381233 -9.2900696
11.259107 27.878742 -9.2575073
12.855971 27.638212 -9.4304743
13.954351 27.69278 -9.3043528
13.045416 27.335457 -9.3252907
14.257981 26.968098 -9.7250547
11.840433 27.803045 -9.2985773
10.43297 27.615744 -9.2526836
13.542389 27.81893 -9.3434439
10.952051 27.703339 -9.2960167
14.355289 27.21389 -9.4464693
11.154112 27.70668 -9.3031807
13.143394 27.507277 -9.3614159
14.641376 25.837015 -9.560277
14.535277 26.850677 -9.7172327
13.148016 27.393723 -9.3790665
14.077333 25.340996 -9.0745955
14.952715 27.296663 -9.3987875
14.651961 26.35083 -9.2467537
15.214127 26.78583 -9.4500895
14.256398 27.11915 -9.4440575
14.725479 26.466755 -9.3070917
12.545835 27.828777 -9.3964148
14.457212 27.317854 -9.4446173
14.452175 26.691635 -9.3444862
14.446747 26.641493 -9.671628
13.244671 27.609997 -9.3741531
12.521692 27.766294 -9.260046
10.653708 28.008017 -9.3316565
14.611826 25.488131 -9.0778675
14.674455 27.088667 -9.4569683
12.365316 27.657421 -9.2574415
14.253171 27.071102 -9.7527599
11.658622 27.611242 -9.3194933
12.550491 27.610935 -9.3509407
13.950018 27.504036 -9.3832922
14.537427 27.520847 -9.378932
13.654104 27.395226 -9.4008512
14.341114 27.606142 -9.3802462
12.446434 27.514977 -9.3394575
15.158229 27.278355 -9.3921375
14.348052 27.518045 -9.3926716
13.046256 27.618879 -9.4197674
13.74509 27.804283 -9.3714142
11.635189 27.76572 -9.2323494
11.846338 27.612158 -9.3277035
14.56859 25.060749 -9.4089184
12.051475 27.615358 -9.3339109
14.046336 27.517344 -9.3882751
14.763088 26.172516 -9.2559032
13.559497 27.598846 -9.3126183
14.250978 25.707174 -9.4883509
12.552587 27.733377 -9.3847246
15.230981 27.305342 -9.3915749
13.045465 27.518892 -9.4593706
14.265581 26.813244 -9.3899069
12.347456 27.381624 -9.2997236
14.543806 27.431427 -9.3412437
13.845097 27.52322 -9.3747816
14.536067 25.616518 -9.4990311
15.091633 26.260714 -9.3036079
13.539164 27.344696 -9.2455635
14.442704 27.512001 -9.3959856
14.173407 25.226234 -9.0526104
14.632225 25.606203 -9.4977436
11.849477 27.336222 -9.2898016
14.151648 25.708241 -9.4818153
12.748176 27.61084 -9.3558083
11.543279 27.709969 -9.3151817
11.144994 27.429747 -9.1673937
13.055376 27.61042 -9.3671179
13.04656 27.394365 -9.3746204
11.447087 27.830429 -9.36028
10.462098 27.718107 -9.2646189
10.852468 27.612341 -9.2831059
10.550655 27.893583 -9.2628937
14.539256 26.691158 -9.3510742
14.447348 25.545187 -9.1282177
12.823108 27.909061 -9.3351412
13.443217 27.606152 -9.3736038
14.825685 26.858482 -9.4115305
13.04794 27.381693 -9.3180647
14.14351 27.624311 -9.4604368
13.650404 27.51672 -9.3781614
13.150361 27.830248 -9.4159994
10.549672 27.390913 -9.2170219
12.147991 27.712177 -9.3450031
11.648684 27.703981 -9.3302326
14.65323 26.693634 -9.3455391
14.731453 25.95433 -9.2154846
14.258592 26.281057 -9.2811089
14.542313 26.010973 -9.5578451
12.245355 27.394062 -9.3477783
14.840127 26.767082 -9.3767176
10.749542 27.610622 -9.2700729
11.752136 27.336203 -9.2883472
14.251247 26.142069 -9.6008568
11.963226 27.476244 -9.2744122
14.903975 26.467146 -9.2944183
14.521959 25.832523 -9.5493269
14.352148 26.518574 -9.3431025
12.945699 27.379608 -9.3187914
11.352459 27.918669 -9.3611259
11.960291 27.201481 -9.2145977
13.972588 26.261366 -9.6618681
14.356215 26.595518 -9.3379297
13.646891 27.727741 -9.4430771
15.151883 26.894262 -9.4288197
11.250764 27.516108 -9.3052416
10.741138 27.801161 -9.2826691
13.986704 26.097637 -9.6327267
14.353635 25.491131 -9.4378529
14.645363 25.630331 -9.1434269
12.748118 27.48444 -9.2699604
12.147594 27.332457 -9.301856
13.653871 27.638218 -9.4630909
14.920658 27.517834 -9.4271679
12.452312 27.391296 -9.3481932
13.050529 27.513239 -9.3538094
11.828565 27.596672 -9.2284698
10.628286 27.77564 -9.2012739
12.150896 27.916954 -9.3119125
13.95626 27.729992 -9.4371605
13.952421 27.62776 -9.4833298
13.255877 27.336962 -9.3328085
14.54751 26.781082 -9.3451433
11.344916 27.396456 -9.1232262
13.543001 27.703461 -9.3845968
12.742748 27.823284 -9.396266
14.343197 27.038376 -9.4399977
14.64721 26.551964 -9.6766348
13.650887 27.391235 -9.3342552
14.769814 25.093849 -9.0488195
14.153128 27.059114 -9.7462902
14.426944 25.661413 -9.1850061
14.727689 25.665142 -9.1872597
12.544667 27.276979 -9.2134447
14.252862 25.123884 -9.0212641
14.441175 25.667925 -9.4600592
10.947126 27.839102 -9.3410387
12.372362 27.629511 -9.4874039
14.355577 26.153299 -9.6143875
14.246597 27.514668 -9.3829918
14.932092 27.375814 -9.3682556
14.443565 27.131607 -9.4501171
14.445407 26.904047 -9.3933735
14.639438 26.15745 -9.2421579
14.350691 27.044306 -9.7339802
12.650578 27.396803 -9.3538389
14.636778 27.070684 -9.7725344
14.73641 26.921026 -9.415638
14.854791 26.585197 -9.3552942
14.648161 25.852571 -9.1983318
14.350748 25.756824 -9.1758442
14.84607 27.309439 -9.4583759
14.353981 27.09721 -9.4105062
13.644537 27.610523 -9.38237
14.338858 26.82505 -9.6631775
14.743497 26.589823 -9.3551855
12.69028 27.337288 -9.2256746
14.441925 26.812677 -9.4008961
14.536571 27.221605 -9.4387703
14.639681 25.914007 -9.5602398
11.650238 27.392597 -9.3370638
14.54018 26.641834 -9.6773815
14.320374 26.98138 -9.7624111
15.114704 26.46283 -9.346446
14.250392 25.318066 -9.0653238
13.550698 27.604702 -9.3834438
12.250103 27.825682 -9.3089085
12.457028 27.80633 -9.3290148
14.34766 26.905834 -9.3958502
14.142219 27.601774 -9.382535
11.741718 27.510931 -9.3171635
10.640391 27.819284 -9.2775087
14.735551 27.306906 -9.4543867
14.642736 26.903057 -9.4054775
13.94709 27.605207 -9.3874235
12.945224 27.513073 -9.3514738
14.360548 27.117403 -9.4571924
14.435607 27.188894 -9.4045029
11.551702 27.508856 -9.3137455
14.539423 25.350435 -9.133831
14.052826 27.470722 -9.3408203
14.547246 27.321392 -9.3720217
14.921864 26.924318 -9.4277401
14.76318 27.49122 -9.4173231
11.653022 27.498543 -9.3136683
14.647521 26.594151 -9.3484402
11.048323 27.62187 -9.2970686
13.851171 27.610802 -9.3849115
13.246161 27.385328 -9.3244448
13.74565 27.606218 -9.3823605
11.249027 27.503973 -9.2557192
14.956919 26.592472 -9.3644381
14.13856 26.9536 -9.7056551
14.393324 27.646082 -9.439291
14.146169 25.103762 -8.9926805
14.645465 27.316845 -9.4436226
13.050856 27.47599 -9.2878761
14.528445 25.409115 -9.4495325
14.34045 27.413284 -9.4178963
11.946365 27.784815 -9.3308029
14.642521 26.291471 -9.2976217
14.742912 25.410803 -9.0919447
14.275575 26.994822 -9.7504597
11.949655 27.835493 -9.3725471
10.363015 27.812004 -9.2581177
14.54778 26.424767 -9.6300049
13.658276 27.706537 -9.3817902
14.4561 27.611679 -9.3879261
14.822868 27.543413 -9.3481855
14.255846 26.900629 -9.3970852
14.844152 26.534126 -9.7035189
14.552979 26.173115 -9.2501602
12.248873 27.614201 -9.341074
13.248665 27.509735 -9.3634253
11.740341 27.618225 -9.2262983
14.25975 25.971077 -9.5074892
14.044046 27.33094 -9.4295082
13.95292 27.33551 -9.4232445
12.552903 27.511215 -9.3409367
14.349827 26.029318 -9.5454817
14.810084 26.843655 -9.3511963
11.243866 27.563236 -9.2021904
14.047813 27.402712 -9.4066305
12.221371 27.681309 -9.2485781
14.034832 26.674946 -9.7154541
12.243248 27.344938 -9.2099934
14.156755 27.220999 -9.4586639
12.558585 27.336086 -9.1485119
13.772596 27.332611 -9.1823349
14.633716 27.03824 -9.7271318
13.445799 27.79352 -9.3543301
12.952214 27.740095 -9.4016333
13.548033 27.512959 -9.3704567
14.940243 26.169331 -9.2464342
12.051117 27.513733 -9.3225899
14.248042 27.318689 -9.3554449
14.089907 26.964516 -9.3316135
14.547548 25.44153 -9.1360197
13.997027 26.012152 -9.1680508
14.826714 27.591047 -9.2233419
14.191256 26.981825 -9.7509928
14.543846 26.141676 -9.6086254
15.259076 26.680992 -9.4490004
14.1525 26.149092 -9.6066504
13.745278 27.39883 -9.3944702
14.543556 27.306034 -9.4429922
11.14755 27.736544 -9.3518696
11.74692 27.739582 -9.3653994
11.257384 27.740721 -9.3506174
13.253646 27.736012 -9.4181833
13.348568 27.734451 -9.428894
13.747924 27.834244 -9.4361877
11.456018 27.721748 -9.3587084
10.52387 27.734808 -9.329814
13.041836 27.734362 -9.40839
12.750255 27.511272 -9.3400688
14.636105 25.804342 -9.1374102
10.64712 27.391706 -9.2265177
11.350712 27.73835 -9.3627157
10.848667 27.724382 -9.3322678
13.654195 27.852087 -9.3485699
10.568965 27.590395 -9.2210369
12.04891 27.730333 -9.3718939
10.941412 27.733961 -9.3499746
13.845325 27.397772 -9.3984613
14.430876 26.799704 -9.66675
12.345946 27.330711 -9.302989
11.65189 27.334219 -9.2828817
10.379866 27.570749 -9.2153378
14.05759 27.607603 -9.3851252
14.546282 26.28618 -9.2998285
14.246055 26.743618 -9.6655684
11.555519 27.720329 -9.3641405
12.045287 27.335781 -9.294878
11.655334 27.743082 -9.3588858
13.145422 27.728973 -9.4155941
14.443335 26.281681 -9.2939816
14.647285 27.501972 -9.414031
10.971387 27.40605 -9.161644
14.145584 26.691347 -9.6982107
10.660478 27.726084 -9.3328543
14.625848 25.71715 -9.5210352
12.749977 27.728655 -9.3886929
11.05005 27.7188 -9.3522224
10.860933 27.617378 -9.2227755
14.84199 27.518867 -9.3937521
12.145602 27.514109 -9.32792
14.453545 26.334936 -9.6117449
15.029413 26.453978 -9.3151627
14.047549 27.406151 -9.3412924
14.451352 27.408131 -9.3512201
14.239202 27.394552 -9.3385983
12.547155 27.380878 -9.3064194
12.247488 27.514069 -9.3280811
14.147627 25.50695 -9.5233746
11.711219 27.233271 -9.2235613
13.848454 27.827557 -9.4357042
11.701159 27.298346 -9.2029667
13.446422 27.39002 -9.3923473
13.771038 27.309546 -9.2301903
13.951606 27.404596 -9.4019547
11.951089 27.383183 -9.2881336
11.646416 27.384451 -9.2762575
11.848969 27.380239 -9.2835379
13.751248 27.399685 -9.3322868
14.582039 26.663586 -9.2962313
12.250751 27.379856 -9.2986135
10.345547 27.622013 -9.2617407
14.141563 27.399199 -9.4082375
14.001075 26.996508 -9.7940254
14.630504 25.666088 -9.1976585
13.972104 27.042406 -9.805048
12.840916 27.479147 -9.3046608
14.243296 27.597679 -9.3953657
14.450359 26.876823 -9.3546562
14.447915 25.639425 -9.1311865
14.544638 27.098829 -9.4034901
11.561758 27.921722 -9.2631903
12.339671 27.495392 -9.283061
10.840328 27.482218 -9.2344904
14.538144 26.65897 -9.72083
14.560266 26.064667 -9.2462997
10.357307 27.496021 -9.21453
10.652206 27.496103 -9.2238121
10.755719 27.49094 -9.2408342
10.943976 27.497547 -9.2318745
10.55349 27.50568 -9.2290955
12.67283 27.599268 -9.2723475
12.75205 27.630941 -9.2495708
14.439952 26.682911 -9.7121029
14.262269 26.544245 -9.651413
12.482798 27.57379 -9.2726955
11.051515 27.487246 -9.241189
13.348104 27.490149 -9.3141251
14.342413 27.077045 -9.7578554
10.861963 27.401512 -9.1623697
10.740326 27.51704 -9.285862
12.250928 27.337692 -9.3043385
12.750147 27.703506 -9.2689276
13.65088 27.832596 -9.438571
12.977254 27.602617 -9.289691
13.481714 27.659575 -9.2825823
14.239897 26.687119 -9.7403355
14.662004 26.680819 -9.7234402
11.95375 27.739105 -9.3673859
10.64213 27.480171 -9.1196156
13.746007 27.697086 -9.3740625
11.823707 27.173365 -9.2601814
13.337372 27.82444 -9.4168625
14.445526 27.426003 -9.4200907
14.360328 27.416113 -9.3437614
14.337716 26.734537 -9.6735916
12.731801 27.320429 -9.231041
14.941439 26.373518 -9.691123
12.267734 27.506874 -9.4143286
12.06725 27.303127 -9.2098789
13.151052 27.475554 -9.3238001
14.152714 26.423418 -9.6219587
14.270222 27.596556 -9.2902012
14.635925 27.585117 -9.3091145
14.744553 27.587147 -9.3057632
14.443279 27.594734 -9.2966824
14.339068 27.595591 -9.287076
11.948489 27.388981 -9.3384886
14.441303 26.728247 -9.6807375
12.987646 27.230734 -9.2347403
14.563333 27.583744 -9.3135185
11.2461 27.599758 -9.3783064
12.75507 27.918066 -9.3275137
13.371931 27.926462 -9.3559313
13.473135 27.578735 -9.2633314
14.455038 26.539309 -9.654314
12.450196 27.330353 -9.3085327
14.071836 27.308939 -9.2755213
12.650719 27.514135 -9.3408031
14.640699 26.332514 -9.6187391
13.143814 27.615807 -9.3711624
14.418471 27.025351 -9.4567089
13.957447 26.389269 -9.6064568
12.353262 27.507612 -9.3337078
14.456203 27.117846 -9.4072456
11.453934 27.388977 -9.2664604
14.446752 26.569601 -9.2970724
11.552496 27.38352 -9.2745123
12.485679 27.62673 -9.5040121
13.253803 27.803307 -9.3578539
14.460128 27.217682 -9.4449854
12.748103 27.784637 -9.3529129
12.975424 27.776585 -9.3691607
13.320283 27.779919 -9.3656416
14.369732 26.871756 -9.349474
13.172112 27.798096 -9.3612251
13.246748 27.830126 -9.4195976
13.871961 27.803202 -9.3795214
13.915837 27.802048 -9.3940573
13.64469 27.332439 -9.3399181
13.551779 27.835783 -9.4354239
12.943701 27.614622 -9.3623533
14.152632 27.095905 -9.3832359
13.351967 27.515226 -9.3657665
13.448979 27.83485 -9.4312572
11.150205 27.505983 -9.2935095
12.539982 27.479202 -9.2805319
12.633519 27.484291 -9.2855978
12.947489 27.33326 -9.3236027
14.458449 27.54067 -9.5693073
14.226327 27.624159 -9.4683628
12.888522 27.563829 -9.3004379
14.523662 27.658091 -9.4562378
11.787008 27.396147 -9.1983051
11.469597 27.654951 -9.3793192
11.634354 27.582882 -9.2534838
11.810112 27.657574 -9.4830818
12.678622 27.478714 -9.174304
9.9921322 27.774054 -9.167058
13.256001 27.469715 -9.3234463
13.752903 25.64323 -9.1720543
13.807004 25.631485 -9.1209602
11.659776 27.623486 -9.4044933
11.560923 27.64497 -9.369463
11.483511 27.410456 -9.184391
12.421858 27.642864 -9.4142437
11.095116 27.823303 -9.1804914
14.632659 27.511106 -9.3583021
14.974575 25.232517 -9.0335331
12.555508 27.899437 -9.316555
13.022533 27.341047 -9.2299862
12.266614 27.622795 -9.4229383
14.457843 27.3645 -9.2832489
9.854332 27.55887 -9.267005
13.25697 27.374029 -9.2474384
14.387968 27.352104 -9.2654524
9.4745426 27.407789 -9.1542253
9.6671638 27.541372 -9.1905079
9.6396742 27.403444 -9.1516514
9.5786152 27.457169 -9.1935949
10.109728 27.771812 -9.2404871
9.7872972 27.65321 -9.2028599
9.7582855 27.644817 -9.1805649
11.069479 27.36755 -9.1497726
10.027605 27.808477 -9.2238979
11.944448 27.614994 -9.3921804
12.519955 27.81834 -9.3385487
12.088189 27.582912 -9.259532
11.29648 27.397305 -9.1726627
11.90603 27.925125 -9.2963676
12.649458 27.927986 -9.2861233
9.9820604 27.728287 -9.2587185
13.967777 25.702053 -9.0980844
13.255573 27.908907 -9.3453751
10.221874 27.675186 -9.3199291
9.8176384 27.705229 -9.2257004
10.298036 27.652517 -9.3659716
