# .PCD v0.7 - Point Cloud Data file format
VERSION 0.7
FIELDS x y z
SIZE 4 4 4
TYPE F F F
COUNT 1 1 1
WIDTH 933
HEIGHT 1
VIEWPOINT 0 0 0 1 0 0 0
POINTS 933
DATA ascii
14.397392 4.1793985 8.8310814
14.268815 3.6227288 8.8690662
14.083532 4.3778195 8.6953087
14.119846 4.8160377 8.6209488
13.742905 2.4846406 8.622385
14.018159 3.0717514 8.6475592
13.813757 4.8587036 8.1766796
13.910038 1.5177643 8.9348888
13.905981 5.4297729 8.13167
13.975915 2.7284832 8.8873463
13.762434 1.7118521 8.8394299
14.151608 5.3204408 8.4295778
14.110126 5.0353651 8.4322472
14.125 5.0975714 8.4245672
14.015008 5.2866216 8.3052263
14.196476 2.9493744 8.873414
13.771193 5.0215778 8.2139549
14.010778 5.1347723 8.3748407
14.174994 5.4478722 8.2421999
13.922729 5.0784888 8.3067417
14.02962 5.2397633 8.3615599
13.966216 4.7590251 8.3945236
14.155578 5.1661716 8.4845085
14.247392 4.3162656 8.517024
14.238043 4.0195379 8.7468338
13.787489 5.0907292 8.225709
13.897799 5.1735053 8.2787952
14.230421 2.589494 8.9788675
13.946596 5.3892426 8.2788696
13.927936 5.3343658 8.2642317
14.045123 5.3336816 8.3471327
13.919724 5.2707553 8.2747955
13.852334 4.5455995 8.3752518
14.025097 4.2471757 8.5574007
14.201977 5.2759523 8.2554836
14.413091 1.8244934 9.3304605
14.196917 4.6946135 8.6409988
14.390306 5.2499919 8.59305
14.117509 5.1699576 8.4264126
14.038408 2.7069123 8.8459177
14.071887 4.4853525 8.6115408
14.24418 5.2868218 8.548646
13.833395 5.2421875 8.2260437
14.112906 4.0373216 8.6530046
14.14001 4.3334718 8.4443588
14.138073 4.2804608 8.6622591
14.223326 3.1059983 8.7192688
14.235456 1.706297 9.0100784
14.141372 2.2806504 8.8337812
14.124504 3.8760793 8.7185345
14.024281 5.018671 8.3960371
14.134601 2.0347369 8.8746815
14.018902 5.0475674 8.3504705
13.905743 5.0616884 8.2652712
14.068718 2.1959209 8.7945766
14.157276 5.3950686 8.2537136
14.109993 2.1479349 9.0682068
14.138613 2.8912385 8.9329195
13.931136 1.4635282 8.8100281
14.135391 2.2005177 8.8400526
13.855041 4.7730074 8.334609
14.069776 2.6080725 8.97647
14.113621 1.9130031 9.1478643
14.071705 2.6497931 8.95648
13.939048 2.2032351 8.7130518
13.846395 2.1907046 8.6473398
14.127944 2.2454891 9.0525351
14.027688 2.2679746 8.765502
14.049187 2.1083853 8.8079548
14.038419 1.6976993 8.876874
14.134897 2.004004 9.0707064
14.039245 1.453216 8.923151
13.954109 1.7283283 8.7880669
13.954357 1.2980202 8.9073973
14.337315 1.7422975 9.0543156
13.866493 1.5865235 8.7519875
14.122571 2.1604536 9.0582228
14.030677 1.8669488 8.8389511
14.147826 4.8781118 8.3654366
14.332717 2.366158 9.1874886
14.202559 2.8013356 8.7904768
14.153045 5.2678108 8.2833595
14.0973 1.6626973 9.1235561
14.137135 2.5095544 8.7867537
13.924997 2.5186398 8.6536961
14.14024 2.4312427 8.7981348
14.252046 1.8785522 8.9882698
13.845218 1.9483622 8.7273273
14.138001 5.0453591 8.3189468
13.884478 2.6096029 8.7603712
13.902576 5.3234591 8.2980967
14.235431 2.7717307 9.0113182
14.02028 1.6194915 8.882823
13.636646 2.5415609 8.4622278
14.411604 5.0683451 8.5269156
14.234886 4.1286321 8.7031584
13.766303 2.1273904 8.7824154
14.024172 1.6611893 9.0211601
13.933288 4.9965868 8.3473282
14.416288 1.8692557 9.3275871
13.518295 2.0501041 8.4241648
13.706804 2.176882 8.5440922
13.860849 1.8828881 8.7369661
13.712311 5.1358361 8.2086143
14.32091 2.891551 8.9784384
14.125832 2.5545506 9.0086956
13.827546 5.0956674 8.2836885
14.028488 4.2915239 8.5317364
14.270947 1.4806144 9.0459003
13.809728 1.6736857 8.8330364
14.262769 3.0015452 8.7966909
14.010729 2.399575 8.6927128
14.132699 1.7182623 8.9177294
14.139724 1.6895176 8.9489813
14.121162 2.3712635 8.7901402
14.1115 4.6695633 8.5993567
14.002104 5.1459403 8.3628702
13.931871 4.6846604 8.4197149
14.188599 3.9193459 8.7928381
13.825646 5.111105 8.2206526
14.161552 1.7220474 9.1976595
14.008021 2.2345724 8.7024965
13.943776 4.3446074 8.5494699
13.948561 4.7460852 8.4437017
13.929478 1.7093055 8.825819
13.929827 4.2040391 8.5058298
14.033192 2.8560493 8.8668737
13.948649 3.9164422 8.6709719
13.932283 5.2358685 8.3688993
13.831919 2.0358679 8.6927128
13.357652 2.0597539 8.4033089
13.48218 1.9130834 8.4906883
13.519289 2.187609 8.4588509
13.894848 2.1803803 8.9310904
13.997128 5.1086063 8.2881565
14.437012 5.3821187 8.5684566
14.310568 5.1324272 8.3580828
14.04283 4.0195074 8.6811867
14.133604 2.0904326 9.0616655
13.876635 1.7777432 8.7706213
13.738474 1.7338492 8.6546173
14.026151 4.7871346 8.3587313
13.63985 1.713782 8.5809536
14.155001 5.1119332 8.4763756
14.200731 3.9822502 8.7891827
13.928541 4.4989052 8.5598106
14.200939 5.2656379 8.3170357
13.946692 3.8637667 8.6723089
14.065889 1.8234844 9.0931244
13.860041 4.6693859 8.3978405
14.315691 3.855408 8.8963251
13.696249 1.2479875 8.775157
13.822766 3.644501 8.6304369
14.063487 4.1632128 8.6583471
13.75398 2.4682267 8.5566998
14.139569 2.2422714 8.9138365
13.71762 1.3326387 8.7104139
13.855866 2.9118676 8.5373859
14.082058 1.2199274 9.0388813
14.017581 3.0159802 8.6348639
14.052781 3.2030699 8.8564863
14.128954 3.9645779 8.6951485
14.048161 5.2964916 8.2368135
14.127659 4.7999454 8.4054842
14.037658 4.504446 8.3467398
14.043608 4.6685572 8.566659
13.896729 1.7045325 8.9871845
13.629937 2.1896749 8.4845695
14.044603 1.5372403 8.8931971
13.59994 1.3826829 8.6127129
14.051684 4.8145823 8.5360689
13.975797 4.0128112 8.63099
14.136564 1.5555006 8.9714241
13.957796 2.0650589 8.9473114
14.08016 4.2465739 8.6510639
13.922773 2.1239367 8.9681892
13.956766 2.1055295 8.7565126
13.851821 2.3534081 8.6459303
13.84402 2.3141429 8.8837442
13.562556 1.53004 8.5243502
13.946586 4.649714 8.5042248
14.035711 3.9457018 8.6858797
13.935699 1.4722997 8.862566
13.93868 4.5995641 8.4130001
13.50696 2.0900929 8.4317722
14.129889 1.466697 8.9843063
13.955922 1.5469749 8.8389521
14.193225 4.7400689 8.6007814
14.098812 3.9677136 8.7735624
13.944974 4.2788587 8.5154305
13.849923 5.0178809 8.2902203
14.260256 4.191659 8.7589846
13.74424 2.3821805 8.5915194
13.767673 2.2904506 8.4735203
14.064364 4.5859103 8.5899391
14.084601 1.880018 9.0987434
14.3424 3.0695171 8.8439589
14.273046 1.8283905 9.22719
14.108501 1.5062473 9.1856575
14.084449 3.7026651 8.804678
13.717941 2.1078589 8.5461254
14.343308 4.194797 8.8456955
13.91362 1.9381845 8.9676151
13.944613 2.4924171 8.8168278
13.698582 1.8917656 8.6010246
14.12464 1.5271475 8.972436
14.04755 3.3838911 8.7607841
13.943789 3.6906712 8.723279
13.93263 4.7215738 8.2646255
14.006673 4.8414645 8.4214468
14.040875 2.0297182 8.9247522
14.072925 2.4308074 8.8201561
13.748664 2.2698014 8.6061201
14.321085 1.864413 9.0462189
13.739118 1.8452988 8.6649055
14.239838 2.432831 8.8955746
13.736325 5.4253697 8.1540575
13.764451 1.4126871 8.7771664
14.038782 1.3669897 8.9387312
14.068871 2.3974867 8.9513397
13.760178 1.6887578 8.7090511
13.97961 2.6011763 8.642993
14.139627 4.4807639 8.4242506
14.197823 1.5500735 9.0051603
14.332778 2.4017413 8.9453144
13.841298 1.729473 8.7331944
13.934511 2.8441765 8.5822001
14.154252 2.8108339 8.9921436
14.308574 1.2603296 9.2996397
13.943385 1.3792467 8.8731155
13.643462 1.7112671 8.6483278
14.355948 1.982843 9.2315931
13.910029 2.3546054 8.9233274
13.850911 1.7061393 8.7714281
14.137274 3.4557378 8.8555746
14.016133 1.7567859 8.7731476
13.91889 5.4073591 8.1018457
14.065882 3.4763346 8.8255539
14.240248 1.3908086 9.0780411
14.045439 3.7216518 8.656888
14.252732 2.395396 9.1022091
14.021233 2.3295524 8.9332275
14.141125 1.3471094 9.0220089
14.127659 3.173913 8.8301086
14.0364 2.5032601 8.9734535
14.161816 3.1424334 8.6796665
13.940346 1.857152 8.7929707
13.84313 2.4490955 8.8484287
13.930628 1.9199502 8.7641659
14.261399 1.5485619 9.136939
14.036349 4.0659828 8.5604534
14.20765 4.6687207 8.4289322
13.908849 2.0342369 8.8662176
13.91657 2.4157131 8.7010174
13.848559 1.3863758 8.8070107
13.892284 2.4289279 8.8625107
14.061183 2.4932861 8.7394209
13.936789 1.5301377 8.8650837
14.146652 4.489531 8.6667175
13.943497 2.9434516 8.5788517
13.825945 1.5454746 8.8073301
13.835262 2.5104594 8.6084547
13.854188 5.0383382 8.1614819
13.885105 2.3932528 8.859231
14.362505 1.8441371 9.2157125
14.141087 2.3896644 9.027442
13.729733 2.4347436 8.5841465
14.080113 2.0639451 8.9694395
13.834292 1.6400288 8.7650433
14.252391 1.4298857 9.1700449
14.146688 1.8724722 8.9176092
13.845036 2.6430614 8.5596704
14.072515 3.5387776 8.7272377
13.845736 4.7538471 8.389102
13.648976 1.6572435 8.6546612
14.079722 2.9970245 8.7672739
14.045255 4.8762431 8.4089069
14.04109 1.535462 8.9253407
14.249016 4.8082108 8.4177675
14.547533 3.6615465 9.074214
13.842094 4.9158239 8.3183832
13.893693 5.1158156 8.2813082
14.029998 1.9670792 8.8099337
14.129115 3.0469546 8.900034
14.344496 2.0053911 9.1834755
14.128628 4.7911696 8.3626871
14.305304 5.2946 8.452363
14.156141 4.2329297 8.5895939
14.471655 2.454422 9.0188198
13.839549 4.9835386 8.3421955
14.316883 4.4803839 8.7892857
13.861109 4.2491164 8.307271
13.937826 4.846786 8.2280054
14.051157 1.7551903 9.0804882
13.729465 1.2997532 8.7756643
14.362327 2.3537178 9.1098871
13.97996 1.4446105 8.9362345
14.133678 4.2870317 8.5663986
14.339449 2.3127279 9.2005033
14.044023 4.9113135 8.5181398
14.237177 4.283669 8.5487709
14.003098 1.3758996 8.959444
14.142598 4.5263233 8.4279451
14.148096 2.9293149 8.7098751
13.753532 5.2786932 8.1737461
13.922341 4.5522156 8.4032469
14.017523 4.5953684 8.4676743
14.032173 4.7089891 8.4537811
14.118114 2.5512817 8.9603319
13.906599 4.5178776 8.2568684
14.156932 1.3807504 9.0149174
14.175382 2.3586702 8.9688635
14.25579 2.0154314 8.9884243
13.842192 4.5930438 8.36308
14.33213 1.9901679 9.0296907
14.131085 3.3731024 8.7951899
14.058522 2.6293209 8.6988659
13.892093 1.8455199 8.8092222
14.241806 2.607486 8.8323231
14.323224 2.3856082 8.9261866
14.375207 4.1146636 8.8932295
13.733264 1.9881351 8.6644297
14.231028 3.3694484 8.8382988
14.078218 2.0172503 8.8695936
14.040092 5.5728283 8.1762562
14.089945 1.4260672 8.9150934
14.271513 4.8257494 8.4889288
14.065897 3.039757 8.8701534
14.018293 3.5132399 8.8153496
14.134937 2.3054357 9.0207691
13.945266 3.5181108 8.6833048
14.020121 3.3199677 8.7163563
14.074919 2.3054302 9.015048
13.94795 4.9174104 8.3861732
13.643949 1.896157 8.6055593
14.147465 1.7885808 8.9218302
14.007466 2.360343 8.6267366
13.832822 1.3775491 8.8538752
13.613697 1.9902172 8.5559435
14.112671 3.5416522 8.8059206
14.021002 2.9533374 8.5351696
13.850468 4.8631124 8.3318729
14.102196 4.9246311 8.5392761
14.236952 2.6476896 8.9727583
14.1108 1.9781685 8.8655062
14.176608 4.2356939 8.7140026
14.336286 3.0553164 9.043189
14.245296 3.0622082 8.9573555
14.117179 2.6499875 8.9609947
13.912758 4.8512497 8.361577
14.336267 1.3089079 9.1565838
14.110986 1.9729025 9.0161018
13.973099 2.7270753 8.7997417
14.127932 3.8010917 8.7060261
14.138413 2.8356042 8.7081251
14.156816 2.6182506 8.7767744
14.04612 4.5463395 8.3872604
13.936009 4.4565191 8.4496946
14.137251 1.2063665 9.0392714
14.021996 4.1074352 8.6282988
14.200012 3.5971489 8.8498859
14.145622 4.6072369 8.4064322
14.124401 2.245893 8.9745884
13.762111 1.9327602 8.6854858
13.946653 3.7822776 8.5850639
14.161909 2.7320609 8.921258
14.234509 1.5278749 9.0574083
14.038635 2.3793399 8.8290749
14.429068 4.507658 8.7344446
14.39845 4.1635742 8.7006388
14.125316 1.5794772 9.1694775
13.920019 3.7721052 8.6657286
14.338966 1.4555601 9.1330309
14.123924 4.5178118 8.5574942
13.800797 2.7772563 8.7817631
14.33176 1.3560187 9.0381155
13.989515 4.6439853 8.3158579
14.092355 3.8204961 8.7919817
13.729095 2.5625873 8.5112038
13.653444 2.3374853 8.5099297
14.126316 4.0465941 8.7404909
14.321336 2.2178285 8.8492775
14.131487 1.2812399 9.1438637
14.23933 2.0295796 8.9427729
14.431996 4.6485267 8.7735243
13.821395 5.1661196 8.2538061
14.45383 4.7278633 8.838192
13.874627 1.953737 8.7148314
13.934995 2.3354063 8.6927414
14.119762 1.6129347 9.1140709
13.915053 3.8772597 8.5934076
13.880033 4.4924402 8.4077387
14.122259 2.4775209 9.008419
14.018487 3.4598398 8.7426367
13.94219 4.1252975 8.5838642
14.143176 1.3180549 8.9900427
13.704319 1.7899016 8.6311626
14.407532 1.515478 9.1838961
14.442203 4.6637959 8.8149233
14.13727 2.3361678 8.8172903
14.358009 4.6824503 8.706955
13.93275 5.2644315 8.1636124
13.530948 2.1209919 8.4880219
13.841228 1.7815425 8.7687206
14.591431 1.5638638 9.2491837
14.311283 1.9176292 9.2978983
14.42363 3.7126877 8.989212
14.028586 1.5066602 9.1165304
14.126043 4.102005 8.7003698
13.726748 2.5031629 8.5420361
14.026716 4.7363219 8.5517139
14.15179 2.6092489 8.7889833
14.051643 4.525466 8.4890814
14.321938 4.0532761 8.6296787
14.415015 1.8309339 9.245451
14.352705 1.1876574 9.2437325
14.480906 5.1155033 8.49195
13.971977 1.2944078 8.8538361
14.213046 3.7841494 8.8235493
14.364116 4.3471413 8.7938528
13.853737 5.2087994 8.2966204
14.014904 1.7165418 8.846652
14.328231 2.3609858 8.9454308
13.997065 2.9097013 8.7772551
14.273267 2.0395789 9.0803442
14.026093 2.8236482 8.6792679
14.176302 1.7009326 9.0300369
14.533604 4.5745044 8.9122639
14.151871 4.5759592 8.4195995
14.145091 4.1533155 8.4781685
14.436107 4.8996887 8.7229376
13.867357 2.6950276 8.5837488
14.030558 3.3654656 8.7996006
14.546482 4.6390533 8.8749132
14.345929 1.5090541 9.1269751
14.090587 1.9097533 8.9701118
14.040938 1.3259473 8.9491024
14.538806 1.7257453 9.1555176
13.942236 4.3429193 8.4677572
14.061252 1.7639009 8.9060163
14.348137 4.5110521 8.744319
14.533593 4.6847787 8.8131657
13.928283 4.5321984 8.4879951
13.836717 2.1022387 8.6815891
14.045388 4.386621 8.5329494
14.161428 1.7641309 8.9652729
14.30917 1.3468238 9.1403294
14.138361 4.5062456 8.6275082
14.259897 4.4465666 8.5006657
14.20424 5.1218705 8.3466702
14.079916 2.6060514 8.7389755
14.060709 4.1946783 8.5805311
14.505854 4.5465045 8.8563051
14.20512 2.398068 8.8409328
13.839389 1.3017377 8.8407087
14.067767 3.7525105 8.6573191
14.397395 3.8926115 8.865633
14.046421 4.9983106 8.4794788
14.334098 4.1525412 8.6035328
14.232914 3.1816893 8.7254744
14.332597 2.9053748 9.0833559
14.039253 3.3070846 8.7997103
13.859161 2.4555247 8.6294508
13.687916 1.8244989 8.6214647
14.05725 3.0093777 8.8895874
14.049072 3.8777573 8.6797571
14.220123 3.3874125 8.9031134
14.313883 1.7675674 9.269043
14.027555 2.1338129 9.0247049
14.27265 4.5095167 8.720726
14.125054 2.4963806 8.9686394
14.029552 2.2672954 8.7137394
14.283252 3.8426766 8.9122763
14.339837 2.1731908 9.0011473
13.58329 1.7766069 8.6042728
13.74701 2.0419211 8.6277695
14.335099 3.4640248 8.9615736
13.960141 5.1689382 8.3845787
13.619532 2.4734607 8.4453268
13.777344 4.072989 8.4906893
14.186817 2.3770545 8.7547722
14.120974 4.8850265 8.5685749
14.132769 3.7827098 8.7697687
14.419333 4.1370111 8.9018002
13.955543 4.8521247 8.4568949
13.935889 4.7093053 8.3624249
14.348366 4.9498267 8.6619663
14.469136 1.1168402 9.254653
14.244738 2.5460713 8.8178768
14.1375 3.2186751 8.8429022
14.206526 2.4837074 9.0402374
13.95614 1.789322 8.7973194
14.413517 2.2502687 9.2865438
13.942899 1.7337857 8.9828243
13.752184 1.4536355 8.752697
14.129202 3.3687954 8.8573856
13.976264 4.4177742 8.557992
14.320511 4.1078806 8.6296682
14.130445 5.0503058 8.515399
13.647659 1.9571317 8.6030493
14.025995 3.8488708 8.7060623
14.118354 2.3083611 9.0426693
14.344958 1.790428 9.0664015
14.239864 5.1775975 8.3430433
14.039047 3.7012086 8.7278738
14.127904 4.347096 8.6699028
14.365452 3.1885977 8.9718943
14.012254 2.7515419 8.6631098
13.347032 1.9817415 8.4060812
13.988628 4.446137 8.5457888
14.430892 4.7102475 8.6897879
14.008803 5.1004839 8.438014
14.228534 3.3101747 8.8550367
13.97567 1.6078824 9.0678425
13.919981 2.7588513 8.5956287
14.240572 3.2748992 8.9105949
13.933331 1.6270618 8.8288403
14.332546 2.6748052 8.884181
14.152896 4.1953835 8.6435719
13.743429 1.6360151 8.7076607
14.149061 1.2903159 9.0351086
14.145522 1.7324544 9.0369635
14.203618 3.150846 8.8952198
14.262886 1.7391628 9.2276487
14.133289 3.2771575 8.8496103
13.952375 4.941627 8.3523712
14.331175 4.5523353 8.6807156
14.146107 3.126611 8.8954859
14.105161 4.366292 8.5790272
14.022731 5.0815501 8.3843632
14.12475 2.9800377 8.8817806
14.278408 4.1634755 8.7322502
14.344413 1.7624481 9.08743
14.279205 1.5797566 9.078373
14.263464 2.4523356 8.8766603
14.2155 2.690623 8.8024063
14.145806 5.2182736 8.2920742
14.072041 4.638587 8.6419811
13.993141 4.4988942 8.5439701
14.078524 3.2132654 8.7652245
13.923929 2.7736554 8.5795813
13.878929 4.8533659 8.423914
14.340657 3.1257455 9.036027
13.740103 2.7772911 8.4605942
13.848262 1.6613989 9.0015316
14.051831 1.5822989 9.1256266
14.134943 1.6641619 9.1680994
14.229298 2.1003277 9.0704832
14.490988 2.1120088 9.2598467
14.192883 1.7814497 8.9754448
13.871541 4.4287076 8.4966412
13.937086 1.9796193 8.9421062
14.134546 2.81861 8.9391041
14.335599 1.7294575 9.077157
14.236257 2.9858627 8.9245777
13.748228 3.0497785 8.4115448
14.298011 1.9451979 9.1741829
14.380437 1.9267952 9.150198
14.026277 1.8402741 8.8841152
14.227855 1.3588027 9.105051
14.157096 4.7311921 8.6234436
14.456102 3.9549317 8.8875837
14.106186 2.974591 8.9082928
14.068319 2.8204174 8.8856535
14.521765 4.8703699 8.7627306
13.916613 2.4311469 8.9313364
14.053316 2.7124531 8.6485863
14.156148 4.2337084 8.4796515
14.3583 2.1382837 9.240778
13.290318 1.8011837 8.3401136
13.436764 1.8914751 8.4075985
13.929732 1.9255842 9.0015631
14.31011 1.5513831 9.0772009
14.116624 4.1133323 8.5136566
14.059655 4.9466929 8.427722
14.202482 4.9493871 8.5833492
14.317766 2.0538197 9.1740999
14.250269 3.2176216 8.9221983
14.308907 2.4170301 9.1564426
14.353951 4.2962327 8.7872934
14.053015 5.2006631 8.2351112
14.28434 2.3628457 9.0469112
14.202189 4.2011619 8.5262814
14.02766 2.349077 8.762042
14.123527 1.7385293 9.1256838
14.408304 2.3517034 9.0065174
14.023232 4.7735271 8.4338694
13.843502 4.2808518 8.2846498
14.222261 3.2391591 8.8476152
13.742151 1.9617015 8.6112661
14.390408 4.1704493 8.6512413
14.208327 3.1359043 8.9619427
14.40683 3.7941332 8.8957176
14.257832 1.7399991 8.8988218
14.151189 3.457022 8.8277073
14.241453 1.8047338 8.985177
14.033365 2.6783738 8.6793499
14.347384 3.930928 8.8844299
13.900633 2.2815254 8.6227684
13.950564 2.5259249 8.6313658
14.226703 4.1020818 8.7493429
14.03581 4.8735852 8.3091984
14.339179 5.0780401 8.4784126
13.929449 1.7903302 8.8242655
13.951193 1.9563659 8.7709494
14.129627 2.0582161 9.0888681
13.903214 4.2782273 8.4465065
14.519277 4.9262309 8.7697706
14.161188 4.2889924 8.4740543
14.020031 4.9295034 8.4390688
14.407148 1.6408993 9.115799
13.855929 4.7216201 8.3478928
14.100909 4.9297261 8.4372282
14.206517 4.9344044 8.5160179
14.327474 2.0322726 9.0080185
14.04295 1.9374876 8.8481159
13.933295 2.5930023 8.6629372
14.153036 1.6225787 8.9649677
13.937446 5.6594825 8.1063404
14.040951 2.0447242 8.8103065
13.942978 5.008615 8.212225
14.62241 2.1688118 9.1819916
14.230317 2.3542769 8.8834467
14.581602 5.2090302 8.5714645
14.246944 5.1857295 8.3891592
14.194478 4.559361 8.4399033
14.361366 1.2167403 9.3101692
14.224701 1.9712064 9.1187248
14.241247 2.9230556 8.9307022
14.213528 1.2952268 9.0773621
14.053708 3.788327 8.7303448
13.930076 2.1776958 8.7357531
14.252951 2.1878061 8.944356
14.16579 2.1643536 8.8923912
13.831336 2.1802053 8.6682625
14.136835 2.7071393 8.9756641
13.627451 2.2656748 8.4631529
14.169938 1.4810199 8.9781084
14.115322 4.7799253 8.5788746
14.425074 4.3491583 8.8518801
14.235476 2.5716889 8.8446341
14.274187 2.2390966 8.9595652
14.432769 2.9688733 9.1401577
13.913087 1.9983846 8.7385015
13.451304 2.3908055 8.371377
13.95549 4.2335668 8.3658972
13.946856 3.7246132 8.5876026
14.255354 4.8493004 8.5712843
14.048321 3.8828018 8.6015654
14.333104 2.9611881 9.0631886
13.836475 4.9322944 8.2828226
13.911518 5.0931177 8.1830044
13.844384 4.4443288 8.414813
13.760023 4.9250488 8.2331753
14.399666 1.5855681 9.153223
14.214401 3.6956198 8.8277035
14.005971 5.1431565 8.231842
14.225749 1.8376324 9.119585
13.920063 1.6614496 8.7549276
14.35152 1.8188111 9.2819157
13.974554 4.1165981 8.4162436
13.932131 4.5767989 8.4875422
14.155497 3.644418 8.798317
14.419085 4.5197339 8.7885294
14.365672 1.8414664 9.0971041
14.136775 4.2018981 8.6913948
14.02549 2.183326 8.7882662
14.044493 4.7026043 8.3349352
14.035607 4.4249496 8.5110312
14.151962 5.112329 8.3156652
13.841558 1.7426094 8.9281454
14.434937 4.7562714 8.7605505
14.152307 4.4184675 8.4563789
14.20916 2.4933255 8.9920826
14.37642 4.0957403 8.8062439
13.806882 1.6246271 8.7876577
14.379995 4.2155986 8.6186056
14.028993 2.9567211 8.8611965
14.21963 4.955339 8.3912878
13.603685 2.4849069 8.3931093
13.942352 4.2329431 8.5674458
14.051311 4.969461 8.2971649
14.262944 3.7844727 8.8157864
14.124181 4.9291596 8.3389139
14.061843 2.4385507 8.742939
13.944464 2.4386201 8.6779175
14.228338 3.534807 8.8714247
14.254429 3.1781843 8.9725466
13.835247 4.1314578 8.4342403
14.406917 4.1978383 8.6432533
13.80293 4.1669726 8.5190868
14.095317 1.5327463 9.0499706
14.039307 1.7774091 8.8480444
14.44016 3.8519368 8.98631
14.066683 2.0694757 8.7695446
14.018426 4.4338112 8.4690437
14.150702 3.9590139 8.7421036
14.532683 1.3533674 9.2492619
14.125799 4.4381623 8.6468449
14.310928 4.4002123 8.7809515
13.864004 2.5786011 8.6173687
13.972776 3.5497389 8.6463041
14.028329 5.0507607 8.2719297
14.487822 3.7885938 9.0917711
14.234568 1.6266264 9.0251312
14.159666 3.3326643 8.629818
14.520375 2.5597706 9.0446167
13.919594 5.076407 8.4054317
14.205018 4.9861641 8.3643942
13.932184 4.9799676 8.4179592
13.917386 4.9543519 8.1862345
14.292016 3.03405 9.0338545
14.120809 3.3226004 8.7802248
14.030075 4.7529621 8.5111542
14.024604 4.2330389 8.4871664
14.029449 4.1338749 8.5705948
14.347261 2.6094713 8.903266
14.276952 4.9967251 8.6043453
14.408881 2.5905139 8.9595289
14.327316 2.5934212 8.9061241
14.261102 3.4531574 8.9024506
14.342682 2.4454157 8.9341192
14.133787 3.1984167 8.8878708
14.432991 3.206588 9.0909624
14.432468 3.9066434 8.955142
13.914732 5.3473201 8.1482449
14.102593 4.5918474 8.6064062
14.013462 2.9272497 8.61936
14.439301 3.0451162 9.1284828
14.117731 4.6838427 8.3858891
13.840265 2.7789009 8.5356064
13.991627 2.6698813 8.7002659
14.049426 2.7833054 8.6497412
14.235055 2.7627361 8.8042612
14.135973 3.6113195 8.8091984
13.977494 4.8929348 8.4849072
14.156245 3.0193887 8.9468899
13.884171 5.0581322 8.3960972
14.239456 3.9389586 8.7609701
14.156292 4.8341098 8.5946379
14.184509 3.9500349 8.6360388
14.188666 3.9317884 8.6408939
14.008495 5.1765966 8.2290792
14.481768 4.8212605 8.7501631
14.13949 4.8527021 8.5088873
14.038754 3.960875 8.6094589
14.308894 4.8294368 8.6164665
14.546344 2.1523094 9.1296444
13.93237 3.6065271 8.6969938
14.393975 2.210278 9.0376225
13.759409 4.7640266 8.2732086
13.89786 5.50103 8.2283039
14.009087 4.6733246 8.4458733
13.767876 4.6793394 8.2975626
14.262512 5.3539419 8.498457
13.910619 2.1392267 8.8312025
14.081639 2.1250553 8.9554348
14.251328 2.2086308 8.91994
14.158919 4.6109252 8.5362968
14.451457 1.9243752 9.2123051
14.387575 1.6613514 9.236804
13.874312 4.2539587 8.5299253
14.006191 3.5027122 8.690382
14.131187 4.7199197 8.4845591
14.116448 4.7774711 8.4802656
14.348627 3.8824215 8.7699089
14.323737 4.2924323 8.6802397
14.238897 4.7806578 8.5387993
14.214928 5.0380297 8.3430405
14.213906 4.2489676 8.7017078
14.171843 4.633707 8.4910059
14.334462 4.782815 8.606432
14.282943 4.5057092 8.7783747
14.132386 3.3238547 8.939805
14.025208 4.3347592 8.649354
14.021172 5.3955998 8.1714611
14.060251 2.6039283 8.869956
14.036499 5.1474495 8.471158
13.997827 1.5110581 9.0131168
14.082069 1.9542406 8.99716
14.04382 2.9846666 8.6134491
14.029192 1.4788312 8.8718624
14.345772 3.0780075 8.8161125
14.368119 4.0345125 8.8709908
14.312609 2.2506955 9.0243483
13.644981 1.9705354 8.5246572
14.462005 4.195199 8.9028883
14.337678 1.683283 9.3205767
14.070166 2.5790207 8.9476919
14.01083 1.9186519 9.0063782
13.439039 1.9568605 8.4082251
14.352687 3.8527246 8.9008341
14.217037 1.9586502 8.9399529
14.32381 1.9794102 8.9901896
13.479236 2.005595 8.4895678
14.079396 5.5184245 8.2161293
14.134703 2.6460643 8.7954741
13.896091 4.2794533 8.2962732
14.157615 1.9535594 8.9195242
14.087227 4.3134503 8.6400852
14.20181 4.9137306 8.6319065
14.243967 1.9166365 9.094841
14.217743 5.1106257 8.4786062
14.343652 2.1190469 8.9710035
13.872988 2.8255043 8.5478144
14.139721 1.8463446 9.0779314
14.409571 1.7047117 9.3380365
14.345072 1.7380103 9.3109446
14.08489 4.3634777 8.7474155
14.516017 1.7587335 9.4209633
14.243089 2.5127316 8.9068174
13.825367 2.7506349 8.531724
14.322348 2.5177946 9.002758
14.064328 1.7707905 9.147398
14.346154 5.1044655 8.5997295
14.529099 4.7507348 8.8497915
14.224485 4.5915275 8.618577
14.327292 3.4429586 8.9849834
14.076569 1.5751318 9.0735569
14.313547 2.1876552 8.9620237
14.322331 2.2666831 8.9684715
14.452743 2.2151308 9.0586252
14.3665 4.325181 8.6367064
14.210388 4.6985388 8.5501986
14.430975 2.1817009 9.1785603
14.344536 3.1929436 9.0333757
14.266479 4.3737097 8.688385
13.282261 1.8828102 8.3309946
14.252412 5.2728796 8.5286283
14.284076 4.5607114 8.7634964
14.196886 2.1547077 8.830658
14.197456 5.0618877 8.3956633
14.426844 5.0856862 8.5671034
14.375389 4.3965387 8.7558899
14.267917 3.726624 8.8229313
14.407783 4.5956554 8.6969185
14.437037 4.5770612 8.8191614
14.389594 4.1100674 8.7971134
14.209238 3.8930686 8.7946291
13.967058 2.7262321 8.7520847
14.409891 4.0304422 8.8744383
14.251077 2.6158764 9.0383854
14.349041 5.0167718 8.6296377
14.339095 4.621182 8.6927128
14.505782 4.6199832 8.7786932
14.373349 4.4028673 8.7639351
14.130885 4.4184537 8.5814438
14.256836 2.3766181 9.1462107
14.20235 4.4610181 8.7978487
14.341427 3.8077114 8.8828974
14.419624 1.9642467 9.0731173
14.070078 2.1507871 8.9145966
14.261029 4.7209101 8.6152601
14.343453 2.6544409 8.9259882
14.18506 4.6521273 8.5577526
14.226979 5.0327911 8.5353746
13.861985 2.147994 8.7776995
14.296834 4.0664864 8.7865982
14.374298 5.1381226 8.5546751
14.551641 2.3093169 9.1225977
14.341567 3.6118307 8.9496803
14.41447 3.7806098 8.9635086
14.421259 4.837851 8.7923384
14.289504 3.8218422 8.9683628
14.429806 2.6767852 8.9531298
14.399199 2.2326291 9.2370348
14.230584 2.12078 8.9236078
13.931442 4.3686848 8.3459568
14.139281 2.7898147 8.7206764
14.132613 2.0964386 8.8649626
14.299698 2.0683458 9.1955881
14.236143 2.8442636 8.7829514
14.14157 2.1483586 8.8387604
14.339184 2.2523034 9.2061234
14.357577 2.8316 9.1663122
14.330687 2.0903568 8.9981623
13.289707 1.8548354 8.321701
14.419024 4.9274368 8.7623262
14.182408 5.3484497 8.3068247
13.956852 2.365104 8.6811523
13.757933 2.0958214 8.620018
14.358619 4.2480793 8.8321676
14.321535 1.1965257 9.1489744
13.855588 1.1643677 8.9114056
14.259058 2.0834002 9.187746
14.058969 2.7121301 8.9369917
14.2966 2.1946993 9.2019653
14.366094 3.7768068 8.9316835
14.235117 2.2214839 9.1672859
14.279866 4.4319568 8.6944237
14.352665 4.5922542 8.7340784
14.34188 3.6682353 8.9656038
14.218698 2.2477865 9.0654297
14.186068 2.7072504 9.0900459
13.685781 1.5578293 8.6769848
14.047069 4.8079953 8.5707703
13.602024 2.2635455 8.4792557
13.75626 2.3005331 8.503562
13.570433 2.5108714 8.418437
13.750759 4.5088968 8.2757998
14.2391 1.9337879 8.9680548
14.43442 2.2989926 9.2552471
14.317753 1.9419621 9.0266914
13.895603 2.829211 8.4628725
14.257487 2.5539882 9.129385
14.131185 2.6258442 8.8957901
14.133548 3.7044477 8.791028
13.743941 4.9719095 8.1222334
13.815548 2.2749603 8.6481028
13.877064 5.6842947 8.0805645
13.903112 5.4321051 8.1136789
13.496078 1.9274964 8.4478102
13.963691 2.242348 8.8792839
13.953664 5.5915046 8.1101599
14.336699 2.2554197 9.1415367
14.41578 2.2308779 9.1721315
14.029964 2.8501117 8.6407433
14.048085 2.2310293 9.0106382
14.562119 3.5163486 9.1798029
13.67895 2.0912526 8.6258364
14.617549 3.5525861 9.2242022
14.2286 2.9186954 8.7730875
14.233487 2.1672046 9.1574335
14.3267 2.9025071 8.9244652
13.841867 2.135571 8.6520138
14.025522 3.589843 8.7360601
14.271663 2.0849998 9.012022
14.313959 2.1081352 9.0490656
14.222015 2.2752624 8.8918486
13.899175 2.2629905 8.6857786
13.857189 2.2333777 8.6967745
14.049326 2.1506972 8.787694
13.963209 2.6474895 8.8125019
