# .PCD v0.7 - Point Cloud Data file format
VERSION 0.7
FIELDS x y z
SIZE 4 4 4
TYPE F F F
COUNT 1 1 1
WIDTH 511
HEIGHT 1
VIEWPOINT 0 0 0 1 0 0 0
POINTS 511
DATA ascii
37.814579 68.738823 4.0134349
37.882874 68.558449 3.8685372
38.049995 69.153 3.985744
38.156322 68.504944 3.7346318
38.236183 68.534187 3.6486926
38.573265 68.542534 3.1429529
38.648174 68.585533 3.0873098
38.857018 68.642525 3.0587761
38.959759 68.499779 2.8525288
38.650719 68.98967 3.2981045
38.729042 69.149155 3.3130646
38.454845 68.529106 3.2090943
38.72419 68.982841 3.2513087
38.65588 68.859665 3.2273858
38.670769 68.930916 3.2483869
38.775963 69.001762 3.2042005
38.246418 68.758553 3.777277
38.122658 68.759949 3.8652446
38.353107 68.754318 3.7121031
38.726265 68.714149 3.1130681
38.087086 68.923004 3.9268486
38.237461 69.561424 3.8009222
38.705643 68.61969 3.4637251
38.564392 68.716103 3.2157733
38.37532 68.685364 3.3323131
38.273258 68.694923 3.7032549
38.268578 68.482155 3.5821371
38.66156 68.696335 3.1446171
38.266582 68.688797 3.4000452
38.380474 68.703552 3.6212018
38.548542 68.696167 3.516259
38.288616 69.232262 3.923337
38.535645 68.918373 3.6465387
38.379044 68.862198 3.7004428
38.449001 68.915703 3.6943996
38.738949 68.596092 3.4034109
38.737572 68.977417 3.5277524
38.560955 68.752586 3.5065231
38.448643 69.256874 3.8415649
38.036121 69.219231 4.0615683
38.276287 69.354012 3.7268071
38.271111 68.866684 3.7657886
38.132378 69.402954 4.2068653
37.954788 69.308731 4.1964493
38.49078 68.581093 3.1857684
38.063225 69.617744 4.2512197
38.159386 69.023827 3.67132
38.457375 68.911606 3.6415908
38.555153 68.797668 3.5491202
38.739346 69.613121 3.5209537
38.559219 69.082642 3.6851058
38.139664 69.079277 3.9558046
38.657871 68.81263 3.2333183
38.380932 68.572586 3.2525911
38.451565 68.853165 3.3511407
38.174843 68.614464 3.6375098
38.237156 68.595482 3.5922019
38.191498 68.495537 3.647476
38.461975 69.95031 3.8896849
38.353424 69.566513 4.0314445
38.377068 69.082207 3.7992897
38.56382 68.651115 3.48018
38.823357 68.704605 3.048835
38.777817 68.844917 3.1366937
38.591381 68.858429 3.2642083
38.4813 69.559158 3.9713275
38.244102 69.243263 3.9117351
38.162342 69.566841 4.1300588
38.567104 68.855583 3.5324888
38.16465 69.510704 4.0841417
38.735531 69.16893 3.3040934
38.060547 68.63575 3.724067
38.475456 68.923561 3.3738322
38.568985 68.58638 3.4422846
38.294422 69.451195 3.8032601
38.155445 69.070435 3.8748152
38.25906 69.782166 3.8741271
38.55489 68.910728 3.5725043
38.353828 68.585922 3.56253
38.164551 69.360245 3.7993464
38.585888 70.023788 3.8763239
38.483208 69.180679 3.4674122
38.020706 69.52784 3.8745985
38.177277 68.911209 3.5729134
38.065857 68.918617 3.8635235
38.301037 68.912033 3.7710166
38.535667 69.335335 3.5449533
38.23967 69.128937 3.5768881
38.445606 69.473412 3.9524429
38.175331 68.594307 3.6744399
38.462372 69.756577 3.745369
37.948502 69.778946 4.0897169
38.157658 69.575844 3.9052894
37.86998 69.512474 4.0161991
38.080559 69.296371 4.0433745
38.554287 69.607399 3.6266172
37.977516 69.456863 3.9367049
38.559769 69.454796 3.6223149
38.07695 69.772804 3.9894407
37.864483 69.455315 3.9966304
38.449516 68.740349 3.5687802
38.177044 68.91497 3.7949488
38.557777 69.787682 3.7105546
38.688023 69.183525 3.3358943
38.079533 68.948097 3.9049022
38.139629 69.470001 4.143456
38.462437 69.075348 3.4527531
38.177536 68.961098 3.8527985
38.674606 68.705086 3.4490306
38.050163 69.337891 4.0959415
38.924847 68.611771 2.9521971
37.988045 69.239388 4.1577578
38.563377 69.172112 3.4141128
38.282162 69.474861 4.0518899
38.064911 69.408211 3.8627532
38.779659 69.570221 3.8161645
38.447674 68.576813 3.5126884
38.45602 69.848297 3.8720531
38.074207 68.857918 3.8213618
38.640888 69.054634 3.3466098
38.844894 69.565819 3.7915444
38.769112 68.637497 3.0451837
38.838455 69.755951 3.5027385
38.073757 69.558769 4.2069225
38.784809 69.522911 3.7765794
38.652973 69.895805 3.729517
38.289177 69.519371 4.0874434
38.475967 68.640549 3.2195451
38.446671 68.600006 3.2483256
38.653175 69.012405 3.283432
38.359608 69.454628 4.000083
38.424137 68.994888 3.4571767
38.643497 68.602455 3.1428564
38.558823 68.622391 3.1800127
38.676598 68.640007 3.1359568
38.260574 68.590698 3.3899724
38.568001 68.580826 3.19751
38.531036 69.238426 3.7742815
38.176872 69.241028 3.988502
38.86277 68.682076 2.9853508
38.766369 68.593086 3.0250881
38.109287 68.760605 3.6682229
38.750172 69.87397 3.6413891
38.167316 68.986534 3.6184855
38.576916 68.487717 3.4110086
38.362854 68.762306 3.3797174
37.967232 68.538132 3.7498586
38.556633 68.947029 3.6199746
38.460529 69.534096 3.9897647
38.355621 68.493698 3.538487
38.473598 68.698067 3.2660327
38.63525 69.099258 3.3794081
38.051441 69.572876 3.9744809
38.634972 69.791069 3.6548061
38.2659 69.183937 3.8999953
37.86478 69.709686 4.0821266
38.158871 69.132927 3.694802
38.455673 68.958374 3.6784627
38.474228 68.541527 3.518434
38.16745 69.187042 3.9673295
38.264084 69.39801 3.7138879
37.949825 69.581978 3.958493
38.365494 68.633499 3.3087411
38.559692 69.137627 3.424752
38.365753 69.067856 3.5950592
38.470882 69.354195 3.5951774
37.998787 68.785194 3.6150661
38.013256 68.805733 3.8260705
38.260216 68.746811 3.686301
38.791256 68.539864 2.9956474
38.330154 68.639221 3.5471411
38.666286 69.836891 3.6764917
38.207405 68.780937 3.6790314
38.184021 68.857857 3.8116057
38.090469 68.574287 3.6488559
38.001049 69.403351 4.1951919
38.64896 70.004959 3.82622
38.884544 69.554726 3.3551731
38.561676 69.519768 3.6170762
38.76366 69.6838 3.5368855
38.060913 69.530434 4.2320471
37.974648 68.585869 3.5223033
38.023632 69.572556 3.9283245
38.801781 68.744942 3.0834832
38.468998 69.513435 3.6699183
38.445457 69.529022 3.6447144
38.383835 69.303421 3.9064944
38.363663 69.767708 3.8191793
38.085297 68.588364 3.7234716
38.175983 69.567268 3.8087535
38.267273 69.573181 3.8372362
38.264103 69.451363 3.9837878
38.072327 68.759918 3.8029637
38.565643 69.887535 3.7924485
38.178555 69.786583 3.9524486
38.063625 69.506958 3.926924
38.244511 69.567017 4.0794311
38.733551 69.555611 3.4738472
38.050747 69.096931 4.0700402
38.642845 69.514755 3.5565298
38.264919 69.335701 3.9617608
38.75074 69.506691 3.4721806
38.666519 69.357063 3.4707294
38.175934 69.671951 4.2071366
38.350895 69.133141 3.5668864
37.976112 69.666428 4.0591507
37.882107 69.569069 4.0005193
38.07354 69.132111 3.7514849
38.39838 69.006989 3.4517019
38.340481 69.727753 4.0903497
38.344475 68.752541 3.5684025
38.3834 69.082985 3.5121942
38.065552 68.537567 3.6730936
38.035114 68.677231 3.5133107
38.881676 69.511429 3.3299589
38.162457 68.700371 3.7573068
38.637547 68.746445 3.4619985
38.386009 69.515427 3.6646397
38.096989 68.68129 3.8002748
38.4561 68.700554 3.5868917
38.167492 69.298363 3.7592437
38.366077 68.741096 3.6241739
38.168278 68.745758 3.7475832
37.991184 68.853546 3.9539254
38.374092 68.810883 3.6620917
38.271786 68.807869 3.7138007
38.728165 69.949638 3.6657388
38.065441 69.281425 4.1227794
38.166359 69.401367 3.7843986
38.461311 69.078735 3.7510221
38.458477 68.802856 3.608707
37.977627 68.482124 3.7138538
38.077904 68.812737 3.8330681
38.357105 68.546776 3.276835
38.467987 69.575226 3.7147224
38.385017 68.68351 3.5616591
38.18375 68.692963 3.6888132
38.546162 68.572792 3.1486533
37.942093 69.144882 4.1377435
38.566116 70.054688 3.8339484
38.982147 69.797737 3.4275022
38.051079 69.24041 4.0702338
38.574814 68.867149 3.5779681
38.537174 68.537575 3.4573851
38.086479 68.677963 3.779618
38.051888 69.031349 3.9650555
38.110645 69.660202 4.1920624
37.957481 68.640419 3.7913463
38.672607 68.529861 3.0742285
38.460777 69.611031 4.0080175
38.213448 69.731781 4.068222
38.804886 69.758713 3.5354183
38.174473 69.011375 3.6035569
38.268024 69.303024 3.9859679
38.078205 69.290321 3.8115416
38.264317 69.035393 3.836103
38.268421 68.427452 3.5603297
38.289745 68.582069 3.5970287
38.540058 68.50824 3.404284
38.373898 69.287704 3.6173508
38.563519 69.453171 3.5602489
37.961624 69.290535 3.8866239
37.958328 69.239998 3.8253639
37.959194 68.961922 4.0633602
38.679371 69.450226 3.4810326
38.189346 68.431992 3.5924921
38.20266 68.864876 3.7585731
38.076004 69.448135 3.8693898
38.089165 68.73748 3.858356
38.646309 68.801651 3.4951973
38.260883 69.670227 3.8772886
38.396534 68.900864 3.6684506
38.375076 69.343742 3.8978777
38.525784 69.317818 3.8080716
38.076153 68.965683 3.6875989
38.357388 69.619682 4.0517116
38.075157 69.360443 3.8493929
38.544037 69.589325 3.9574251
38.752804 69.61869 3.8295784
38.268478 69.67469 4.1593223
37.961159 69.365128 3.9226785
38.036625 68.937279 3.6114955
38.079056 69.092056 3.7218449
38.163345 68.80587 3.7839582
38.100883 69.036133 3.6401577
38.048084 69.459793 4.1959019
38.685646 68.958817 3.2286546
38.257561 69.443863 3.7624879
38.263844 69.395378 4.0051041
38.494419 69.395294 3.8891683
38.088272 69.396645 4.1475925
38.262493 69.0793 3.589057
38.151432 69.458702 3.8333194
38.549156 69.383232 3.868108
38.16811 69.398621 4.0828428
38.37151 68.98349 3.4749415
38.466751 69.418777 3.6501932
38.401653 68.923447 3.7257133
38.562668 68.775009 3.2263207
38.460377 68.794922 3.3139505
38.55114 69.582466 3.6625926
38.576015 69.173264 3.467767
38.659115 69.61412 3.8875606
38.672592 68.78875 3.1758916
38.561279 69.733238 3.7127368
38.473709 69.237701 3.5192342
38.768471 68.826035 3.1119769
38.653683 69.736168 3.6552744
38.376572 68.856728 3.4060938
38.370758 69.828552 3.7087533
38.656387 69.608612 3.5755458
38.077148 69.203049 3.7897596
38.399277 69.564789 4.0610919
37.971054 69.406311 3.8748505
38.619804 69.566986 3.6065898
38.345955 69.563461 3.9654639
38.45911 69.818573 3.6564252
38.058769 68.798195 3.5457137
38.356476 68.429245 3.4968858
38.586201 69.660851 3.9596043
38.484116 69.618004 3.693341
38.355492 69.611214 3.7682648
37.98074 69.792931 4.1443291
38.641804 69.671898 3.9247985
38.273724 68.966103 3.7927041
38.26717 69.083618 3.8780751
38.499554 69.673935 4.0067372
38.178551 69.599075 3.8773401
38.063026 69.625854 4.004034
38.697662 68.524986 3.3872392
38.771019 69.962097 3.6830411
38.18272 69.030922 3.8133805
38.569321 69.013901 3.3403215
38.314487 69.1577 3.7659776
38.739483 69.528069 3.7864311
38.667515 69.971298 3.7713072
38.1124 68.430321 3.6192157
38.17305 69.622681 4.1866446
38.37595 69.025734 3.7660182
38.364712 69.399551 3.9552817
38.165943 69.027512 3.8990488
38.198986 69.229088 3.9109683
38.368965 69.680344 4.0921264
38.270363 69.602608 3.8115644
38.367855 69.579826 3.7758343
38.277786 69.623795 4.1214833
38.170509 69.635071 3.9471729
37.858772 69.599518 4.0511832
38.07098 69.791405 4.0735774
38.162003 69.510605 3.8645732
38.914215 69.607224 3.3805025
38.24575 68.856354 3.4891403
38.264233 68.588974 3.3342743
38.571568 69.452469 3.8800478
38.767578 69.468872 3.7720635
38.259987 69.802078 3.743387
38.164124 69.075172 3.652925
38.359833 69.452705 3.6966529
38.178062 69.663078 3.9198871
38.4739 69.460289 3.6287384
38.176483 69.799561 3.7840021
38.35091 68.852768 3.6265929
38.371952 69.826637 3.8642716
38.28299 69.48761 4.003644
38.366928 69.810608 3.6877358
38.368187 68.913055 3.4466465
38.364105 69.51297 3.7326918
38.552746 69.567787 3.9033437
38.276768 69.00975 3.5284195
38.453548 69.803932 3.6477897
38.369865 69.6744 3.8021343
38.542187 69.509224 3.9297624
38.636105 69.350967 3.7875941
38.462212 69.674866 3.7402546
38.265739 69.829613 3.9256346
38.553219 69.391876 3.8835549
38.361961 68.521179 3.5075014
38.970898 69.609566 3.6713088
37.971245 69.517769 3.9920399
38.212486 69.242836 3.7335839
38.383339 69.236664 3.629432
38.473011 68.479378 3.4720645
38.356594 69.360573 3.6704283
37.897121 69.651176 4.0832987
38.742531 69.071701 3.2411048
37.769924 69.658997 4.0838761
38.718773 69.125931 3.6050141
38.560856 69.119759 3.683166
37.874363 69.338844 3.8916204
37.914055 68.675255 3.8439701
38.391541 69.225403 3.5657983
38.366165 69.119682 3.7978356
38.079903 69.224869 3.7756836
38.265854 69.238487 3.6583281
38.267059 69.287117 3.6910176
38.735592 69.08181 3.5807726
38.448528 69.125244 3.7420268
38.269859 69.131134 3.8522477
38.549328 69.229385 3.4641781
38.645462 69.233543 3.3917198
38.465748 69.293831 3.554992
38.163757 69.233238 3.722044
37.921715 69.315804 3.8124456
38.342575 69.399704 3.6639199
38.500031 69.326584 3.512136
37.886288 69.285881 3.8445141
37.872932 69.165695 4.243082
38.078323 69.365234 3.7882142
38.327389 69.56813 3.7343936
38.078423 69.61145 3.9423733
38.174389 69.344673 3.7121031
38.565544 69.302704 3.485163
38.554668 69.394463 3.5245073
38.547226 69.668465 3.6898193
38.064468 69.659225 4.0005598
38.195427 69.307884 4.0537548
38.363178 69.201744 3.5977471
37.955875 69.584274 4.0388594
38.175011 69.724243 3.9600403
38.35775 69.404762 3.7132502
38.091625 69.816704 4.0332012
38.561852 69.819397 3.7341728
38.167324 69.832726 3.9967005
37.845013 68.60099 3.9322224
38.6474 70.125916 3.8415887
37.898453 69.327812 4.2942543
38.566906 69.949989 3.8270454
38.640816 69.675545 3.6150753
38.279175 69.506233 3.7890773
38.277355 69.41568 3.7656198
38.266495 69.212883 3.6698828
38.052174 69.038277 3.7397745
38.262844 69.136574 3.6279149
38.457958 69.185242 3.5286069
38.47047 69.128769 3.4917107
38.181965 69.190155 3.7169511
38.152157 69.415146 3.8451533
38.124451 68.922997 3.9564888
38.078773 69.354149 4.1688223
38.27002 69.247101 3.7193313
38.170036 69.468346 3.8846946
38.261162 68.989555 3.5591269
37.961559 69.414574 3.9494176
38.238369 69.025528 3.6075029
37.976597 68.802864 3.9334164
37.934494 69.01091 4.078578
38.759262 69.829391 3.6167035
38.662098 69.397713 3.4653683
38.364937 68.808372 3.4301949
38.562828 68.972427 3.3611922
37.981689 69.176834 4.0987196
38.450825 69.382164 3.5894513
38.564617 68.927353 3.3186603
38.24472 68.904884 3.5270627
38.577858 69.07637 3.3750222
38.735355 69.445137 3.4621413
38.541382 69.349823 3.4795837
38.442322 69.024521 3.4314349
37.982021 69.597069 4.0000639
38.172417 68.703201 3.5304494
37.852943 69.815002 4.1834688
38.700977 68.915573 3.5413344
38.382374 69.23925 3.8684256
38.550423 69.124512 3.7263303
38.266502 68.843529 3.6879294
38.070614 68.868561 3.9152215
38.692013 68.416878 3.3595455
38.366684 69.183945 3.8364847
38.468414 68.685722 3.5130379
38.056583 68.691078 3.7659361
38.179321 68.645798 3.7001007
38.450272 68.51944 3.4514914
38.263596 68.531509 3.5752304
38.172283 68.47419 3.5869119
38.46162 68.641853 3.5403922
38.252346 68.689484 3.6471334
38.182518 69.107986 3.8962836
38.480412 68.868454 3.6327217
38.161331 68.523598 3.6295252
37.871525 69.508972 3.9765933
37.954166 68.639137 3.8385456
38.374741 68.648438 3.5888557
38.262676 68.4804 3.5180681
37.966923 68.749222 3.8525102
38.274658 69.283211 3.9142807
38.47221 69.020592 3.707006
37.951637 68.701744 3.8345735
37.978661 68.596703 3.7639468
38.196621 68.419029 3.5290246
38.376808 68.967545 3.7216349
38.266594 69.049782 3.8084528
38.036133 69.176971 3.7589614
38.290436 68.652603 3.6478295
38.55579 69.027962 3.6595166
38.385185 69.035728 3.6975491
38.091221 69.078224 3.8440073
38.350613 69.280449 3.8704424
37.868694 68.917686 3.6643388
37.932629 69.35955 3.8392897
38.634975 68.517059 3.3572268
38.64764 68.960449 3.5682614
38.472523 69.054352 3.679821
38.642281 69.243172 3.7107046
38.649666 69.121269 3.6362767
38.670406 69.082123 3.6237595
38.640785 69.033897 3.6074855
38.657036 68.860809 3.5299244
38.564228 69.170868 3.7121031
38.656006 68.648293 3.424819
38.673824 68.47802 3.3691652
38.761433 69.023926 3.5346122
