# .PCD v0.7 - Point Cloud Data file format
VERSION 0.7
FIELDS x y z
SIZE 4 4 4
TYPE F F F
COUNT 1 1 1
WIDTH 1069
HEIGHT 1
VIEWPOINT 0 0 0 1 0 0 0
POINTS 1069
DATA ascii
31.97855 16.810104 -44.809601
29.661182 16.753632 -44.593365
32.065681 16.993587 -44.83268
31.393152 17.002821 -44.559139
32.662113 16.967747 -44.603207
31.838408 17.022278 -44.561523
31.821012 16.868811 -44.563103
32.609219 16.985537 -44.593849
32.255444 16.981909 -44.586361
31.722811 17.075714 -44.921944
31.520296 17.001184 -44.823204
30.010487 16.777666 -44.617886
31.132757 17.09717 -44.780354
31.871212 16.877161 -44.590664
33.191921 16.904999 -44.621861
32.94796 17.028889 -44.574406
31.465544 16.952026 -44.54776
31.928108 17.028074 -44.857044
31.018965 17.031393 -44.808079
30.497 16.803925 -44.556816
30.115271 16.829948 -44.73819
34.076916 16.861485 -44.719616
33.294796 16.921091 -44.890102
33.185139 16.664581 -44.749935
33.093899 16.945 -44.964973
32.598167 16.866243 -44.908321
32.89558 16.570837 -44.633289
33.992332 16.868414 -44.824306
29.90274 16.852505 -44.576557
29.114685 15.519226 -44.432575
33.294926 16.589058 -44.637966
32.683361 16.861792 -44.908241
33.711163 17.041101 -44.968899
32.795891 16.887388 -44.784355
32.300911 16.89432 -44.75539
33.396221 16.89319 -44.799271
32.293552 16.908575 -44.868019
33.486435 16.885895 -44.802467
33.791245 16.88006 -44.807217
33.690437 16.837782 -44.717918
32.595486 16.889559 -44.764778
33.716633 16.792362 -44.881287
33.695999 16.798553 -44.655369
33.686417 16.883524 -44.810684
32.50153 16.86932 -44.910381
34.486206 16.469528 -44.715008
32.38863 16.792759 -44.632133
33.483215 16.70853 -44.666317
33.500824 16.810886 -44.648716
33.489388 16.957167 -45.003677
33.588264 16.895689 -44.792545
32.398075 16.90703 -44.860386
29.819948 16.762062 -44.591145
29.18259 16.687136 -44.477066
33.601536 16.590219 -44.648357
30.355886 16.672232 -44.507229
29.877748 16.671389 -44.500908
29.500906 16.67189 -44.48201
29.039455 15.591429 -44.225449
29.695637 16.885241 -44.674557
29.420088 16.674006 -44.465229
34.205509 16.650404 -44.622787
29.365318 16.73587 -44.435677
30.79796 16.489588 -44.597424
29.815937 16.670425 -44.497986
32.794914 16.638449 -44.576462
33.07769 16.680874 -44.611397
29.046097 16.735744 -44.458984
29.608009 16.586376 -44.514629
33.412155 16.645584 -44.578884
29.913092 16.868525 -44.8172
33.503395 16.647167 -44.575378
33.702358 16.655088 -44.5886
31.345119 16.696892 -44.540394
30.288683 16.876944 -44.51524
31.593868 17.009029 -45.022236
33.980339 16.642735 -44.643848
32.931023 16.909735 -44.574974
30.503172 16.974409 -44.758087
33.907665 16.825974 -44.707653
29.065987 15.469609 -44.271137
33.101658 17.080561 -44.828018
32.197598 16.894444 -44.76334
29.797161 16.625854 -44.563732
32.395405 16.889771 -44.767948
32.801346 16.560631 -44.656326
32.710606 16.583857 -44.63369
32.79282 16.746193 -44.712635
33.69009 16.965034 -45.009521
32.397823 16.904211 -44.658283
29.591866 16.503119 -44.53931
32.890739 16.585215 -44.781757
29.353756 16.411692 -44.560127
29.292782 16.137815 -44.551163
29.27037 16.026735 -44.559921
32.074039 16.587305 -44.780045
28.997076 16.583324 -44.477448
32.386456 16.606491 -44.606281
31.39562 17.008205 -45.009216
32.184803 16.649174 -44.724533
29.353842 16.971708 -44.896702
29.303368 16.254168 -44.536491
29.222498 16.153238 -44.539928
28.893158 15.416917 -44.288429
29.064003 16.039762 -43.982502
29.083235 16.386589 -44.541431
28.793186 16.100733 -43.921619
28.800825 16.558418 -44.479153
29.122261 16.221201 -44.510452
29.086817 16.478262 -44.502991
31.192606 16.433527 -44.68766
30.296711 16.761881 -44.634377
29.015793 16.619694 -44.515152
29.479271 16.990389 -44.858353
30.687832 16.867924 -44.859272
31.902237 16.66465 -44.732349
29.414558 16.694391 -44.513371
30.294538 16.536896 -44.61491
29.78021 16.868422 -44.859192
28.920441 16.189224 -43.909317
30.195042 17.010422 -44.960636
30.220409 16.804083 -44.789593
31.391964 16.491287 -44.630527
28.991074 16.189756 -44.552261
29.029333 16.289371 -44.519848
31.105152 16.673513 -44.681763
29.90196 16.965954 -44.901714
28.994415 16.190628 -43.934734
30.295296 16.490812 -44.57328
30.293516 16.388235 -44.590347
29.107807 16.69767 -44.495625
30.290464 16.621689 -44.585438
29.795971 17.022255 -44.934471
29.900543 17.008179 -44.93174
29.8923 16.587461 -44.532982
30.201471 16.616879 -44.586353
30.29649 16.896576 -44.574352
29.984888 16.578808 -44.535851
32.489304 16.666862 -44.731518
31.292902 16.713558 -44.621445
29.998322 16.617931 -44.569572
30.594494 16.955778 -44.910061
29.292086 16.954594 -44.760788
29.898262 16.800102 -44.524105
29.262545 16.643034 -44.513256
29.609795 16.980207 -44.883324
29.611515 16.792761 -44.500179
29.2365 16.244488 -43.943592
29.502855 16.922453 -44.76479
29.514511 16.681282 -44.516499
29.50568 16.59066 -44.532104
30.502972 16.52212 -44.638054
33.095833 16.660364 -44.75745
30.585972 16.81497 -44.562382
29.803888 16.815851 -44.523483
30.382677 16.581654 -44.551495
31.690044 16.894138 -44.74181
29.289555 16.326075 -43.937195
29.245947 15.537971 -44.652321
30.498215 16.493433 -44.584118
29.897245 16.623852 -44.557423
30.496723 17.006426 -44.971081
30.092096 16.514482 -44.608887
29.989462 17.003359 -44.937855
30.384546 16.533766 -44.631336
31.691584 16.615988 -44.655148
31.495529 16.488245 -44.635754
30.204084 16.531303 -44.62487
30.192379 16.844675 -44.600609
30.685005 16.752619 -44.639587
31.694956 16.435787 -44.70546
31.584862 16.791359 -44.603279
32.899071 16.803959 -44.638428
31.570353 16.877495 -44.564163
31.192677 16.585461 -44.585575
32.494091 16.798895 -44.629025
31.194445 16.81419 -44.58567
31.793737 16.902693 -44.632309
31.193359 16.715481 -44.613594
31.694632 17.015347 -45.027996
29.597736 16.606279 -44.552391
29.598389 16.70816 -44.52565
30.404293 16.489166 -44.580112
30.895153 16.616758 -44.620235
31.496733 16.904846 -44.847267
30.995478 16.489208 -44.608002
33.692142 16.621569 -44.697048
30.991285 16.714643 -44.602291
30.490818 16.852861 -44.606403
31.990627 16.487186 -44.639599
32.091339 16.487679 -44.65049
31.396267 16.622005 -44.639809
33.723946 16.456114 -44.750629
30.796549 16.746687 -44.649345
33.699871 16.740849 -44.746532
30.795122 16.393061 -44.619061
30.792173 16.615259 -44.615265
33.687103 16.709124 -44.674252
30.385448 16.804264 -44.550877
31.782114 16.906321 -44.847
31.895712 16.845892 -44.654083
31.393074 16.710938 -44.623486
30.494318 16.392969 -44.596016
30.998178 16.390116 -44.630779
32.495857 16.846796 -44.680248
30.993958 16.845652 -44.622406
30.690647 16.392464 -44.61203
30.692158 16.853323 -44.619213
33.4702 16.810564 -44.825142
30.497049 16.917564 -44.809189
30.39712 16.84795 -44.605377
31.296455 16.843737 -44.634403
31.094534 16.401299 -44.635082
31.494265 16.845135 -44.640617
31.391804 16.404768 -44.650684
31.397921 16.850761 -44.638046
34.25256 16.528831 -44.737431
34.247128 16.87973 -44.888523
32.699009 16.885431 -44.775166
34.545444 16.491503 -44.715919
32.993267 16.842949 -44.704903
34.638596 16.500999 -44.748806
34.631516 16.63991 -44.722828
33.089165 16.841574 -44.70546
34.826988 16.506489 -44.721638
33.387394 16.49227 -44.670883
33.397362 16.842323 -44.714333
31.797359 16.851227 -44.652016
33.482796 16.842409 -44.712406
32.02602 16.931566 -44.709167
32.304268 16.649523 -44.730793
33.798588 16.906748 -44.897346
32.297218 16.848595 -44.671917
34.064842 16.810305 -44.800346
31.597492 16.893265 -44.745056
34.685036 16.331671 -44.766655
34.700832 16.469091 -44.760548
34.673672 16.626038 -44.735607
34.985271 16.590237 -44.690121
34.959515 16.746059 -44.690182
33.793484 16.806374 -44.655483
32.20203 16.905798 -44.650253
33.896919 16.485416 -44.682266
34.829437 16.386583 -44.717411
34.791851 16.577608 -44.688705
33.192848 16.708549 -44.674652
34.789337 16.700342 -44.702034
34.006931 16.847441 -44.720753
34.202324 16.580687 -44.675823
34.170692 16.804592 -44.66721
32.791828 16.492081 -44.664951
34.316586 16.616131 -44.648331
34.203667 16.886574 -44.640598
34.712532 16.435266 -44.727367
33.592377 16.492363 -44.676731
35.134773 16.592709 -44.689224
35.093025 16.742218 -44.668839
33.38258 16.906538 -44.670937
34.378334 16.295851 -44.691917
33.68866 16.533258 -44.73793
31.993477 16.892902 -44.754082
34.987457 16.25371 -44.841106
34.902431 16.536779 -44.729473
34.87788 16.726318 -44.719303
34.583366 16.27408 -44.780037
32.898216 16.74584 -44.724083
35.157364 16.668697 -44.732086
28.926586 16.549311 -44.486694
31.625315 16.588013 -44.738586
35.013042 16.441774 -44.716503
32.892105 16.483181 -44.668919
29.042761 16.423288 -44.49807
29.817984 16.89641 -44.711395
34.535744 16.719027 -44.639378
33.000866 16.938313 -44.749447
31.784441 16.964642 -44.711521
31.689833 16.750248 -44.669254
29.511452 16.514963 -44.539803
30.202602 16.748299 -44.642872
30.386597 16.750837 -44.632778
30.494598 16.75312 -44.640636
32.894081 16.909594 -44.658825
31.898878 16.74811 -44.678341
32.298306 17.046387 -44.939629
29.992861 16.489752 -44.546352
34.604988 16.344658 -44.650227
33.396965 16.530186 -44.728104
29.803654 16.938108 -44.798351
30.999214 16.745247 -44.662937
34.934231 16.356403 -44.727859
32.790852 16.662457 -44.738708
29.090582 15.614754 -44.30162
30.271492 16.818197 -44.738537
31.300943 16.432238 -44.68964
29.790989 16.714876 -44.537693
32.59478 16.713139 -44.661366
32.793293 16.711611 -44.667263
33.09288 16.486929 -44.666695
34.663685 16.69873 -44.688007
33.971634 16.450966 -44.757481
33.474995 16.875418 -44.943661
34.307495 16.615614 -44.729946
31.389189 16.435699 -44.699314
32.985573 16.912043 -44.66563
33.687679 16.679367 -44.762154
29.296473 16.508474 -44.529018
33.392124 16.623011 -44.706135
34.487099 16.29693 -44.77216
34.368099 16.865108 -44.712051
32.095627 16.712084 -44.647671
31.883871 16.433189 -44.71043
31.797909 16.435804 -44.709949
30.583981 16.666138 -44.671112
30.391304 16.714151 -44.570511
32.986393 16.810062 -44.645847
33.072643 16.552055 -44.797218
32.49226 16.708933 -44.662613
33.603912 16.682909 -44.774239
32.592464 16.523787 -44.708504
31.490639 16.43261 -44.69936
30.103128 16.6241 -44.578236
32.092316 16.903788 -44.858452
34.438229 16.592447 -44.729954
29.997961 16.705732 -44.541969
30.798786 16.710703 -44.593735
30.697977 16.706919 -44.582508
30.890375 16.713152 -44.596661
34.463203 16.569567 -44.662174
31.194387 16.39724 -44.640842
32.896088 16.709454 -44.666336
30.000128 16.846376 -44.590515
29.211367 16.603745 -44.494274
29.091036 16.578409 -44.496471
32.293484 17.015881 -45.052975
34.525391 16.39436 -44.739372
32.092018 16.852468 -44.657658
30.691107 16.621817 -44.608543
30.091938 16.83791 -44.586227
29.99382 16.889086 -44.692974
29.901817 16.708342 -44.537521
33.49234 16.580618 -44.643337
33.786789 16.846788 -44.715042
32.595463 16.748899 -44.705589
30.992403 16.90003 -44.603134
33.797184 16.520121 -44.738884
34.183804 16.81658 -44.710533
31.597956 16.847576 -44.64455
28.959122 16.046665 -44.01622
33.885567 16.705641 -44.686108
31.495178 16.707067 -44.628933
32.299057 16.707624 -44.659519
32.894638 16.843596 -44.694786
30.286755 16.847494 -44.601086
29.815359 16.856144 -44.579323
30.906891 16.657652 -44.67765
31.893816 16.714304 -44.646259
33.795345 16.697104 -44.675968
29.14344 16.341173 -44.508381
32.192078 16.844152 -44.667873
30.394093 17.003305 -44.965668
31.693556 16.847914 -44.646946
30.499329 16.620079 -44.601143
32.396072 16.714077 -44.660812
32.497005 17.012794 -45.066196
31.007776 16.647526 -44.703758
31.598499 16.442396 -44.698521
30.594116 16.745359 -44.644711
32.389458 16.849848 -44.673676
31.786964 16.709301 -44.641895
33.998665 16.70075 -44.678329
29.539373 16.615498 -44.543476
31.197184 16.904402 -44.615074
30.594547 16.492682 -44.583855
34.506069 16.272833 -44.711681
29.125231 16.193953 -43.951382
32.789654 16.843914 -44.695229
31.211891 16.661711 -44.707073
30.371136 17.003071 -44.741383
32.402912 16.658663 -44.724644
31.993658 16.71574 -44.647106
29.16468 16.461191 -44.505886
33.782509 16.582333 -44.648521
33.191681 16.618053 -44.70142
32.693794 16.846365 -44.689529
33.090794 16.528593 -44.730114
31.393911 16.75197 -44.656326
32.706535 16.83145 -44.818066
31.096504 16.750538 -44.655281
31.598783 16.713324 -44.635777
34.575714 16.680979 -44.702778
34.453712 16.721079 -44.691456
29.051489 15.463402 -44.375824
29.003813 16.124681 -43.978958
34.786499 16.30834 -44.745388
32.165028 16.605907 -44.760582
32.895084 16.669737 -44.743797
31.096788 16.438334 -44.687046
34.692188 16.564659 -44.699127
34.725182 16.290216 -44.711987
31.898109 16.398863 -44.670998
32.79184 16.528296 -44.71991
29.992344 16.808874 -44.527218
31.703199 16.66868 -44.703754
31.19348 16.484104 -44.619728
31.188965 16.748495 -44.655895
29.058592 16.075018 -43.968582
34.387474 16.981363 -44.61512
33.093853 16.626171 -44.705643
31.599712 16.753769 -44.663601
34.074883 16.508047 -44.747799
30.591419 16.849272 -44.609131
33.978981 16.582279 -44.644726
31.096678 16.851952 -44.624119
31.597908 16.403244 -44.657646
31.101875 16.89616 -44.729351
34.314743 16.847414 -44.738537
30.99477 16.61762 -44.625568
28.892262 16.085407 -43.941265
33.288216 16.623552 -44.699818
30.292704 16.70829 -44.559052
32.693851 16.526085 -44.715027
33.190147 16.752495 -44.739269
31.088717 16.721363 -44.608395
29.703224 16.708 -44.52504
34.598061 16.292952 -44.720497
34.813042 16.226362 -44.761623
33.693974 16.904161 -44.90834
31.292881 16.525679 -44.657265
30.197817 16.710913 -44.557858
30.594881 16.71533 -44.580681
31.797829 16.402273 -44.667397
31.093365 16.908947 -44.821983
32.585728 16.825079 -44.81955
30.901005 16.482683 -44.607262
31.579363 17.019653 -44.583035
30.592714 16.614256 -44.609039
32.360043 16.560843 -44.763176
32.19323 16.71726 -44.654831
33.78334 16.450525 -44.771111
29.304972 16.382977 -44.545151
29.459557 16.413651 -44.564087
31.996861 17.017128 -45.041237
33.286278 16.526911 -44.732033
29.195148 16.041348 -44.580627
32.985115 16.572933 -44.782574
29.095699 16.114569 -44.584461
34.095745 16.404966 -44.706921
34.181812 16.496716 -44.702694
31.793985 17.017244 -45.032406
33.496029 16.490648 -44.675678
31.498713 16.749035 -44.658108
32.593475 16.84411 -44.684059
33.190903 17.014648 -45.08131
33.977051 16.409805 -44.713558
34.578815 16.356823 -44.706554
33.693249 16.390543 -44.695652
33.589085 16.386425 -44.701683
32.38089 16.811865 -44.815189
32.494274 16.824545 -44.809223
33.400261 16.811865 -44.64547
35.081326 16.29525 -44.743423
33.393726 16.71254 -44.670784
35.027637 16.306633 -44.74192
34.367161 16.492928 -44.70546
29.05986 16.01442 -44.029095
33.898048 16.397751 -44.712215
34.281891 16.478991 -44.703751
31.886547 16.894438 -44.750443
33.286331 16.801374 -44.647602
33.794514 16.484968 -44.671932
32.396164 16.525949 -44.703239
31.593321 16.491167 -44.639042
33.586002 16.963161 -45.00383
33.594513 16.826502 -44.712505
31.283268 16.756979 -44.654274
28.715897 15.881884 -44.369431
34.39196 16.401419 -44.72242
34.429771 16.309307 -44.743099
31.19136 16.618229 -44.631824
33.885891 16.531258 -44.748409
32.494034 16.52833 -44.70293
31.297251 16.617783 -44.637199
34.099125 16.490959 -44.69738
31.389923 16.660755 -44.697708
31.495815 16.523235 -44.663033
32.89138 16.527365 -44.721779
31.395432 16.520302 -44.661434
32.789089 16.618067 -44.698055
34.203659 16.642206 -44.711933
32.495308 16.620899 -44.688194
31.100719 16.530359 -44.65416
33.967117 16.541655 -44.722694
31.296846 16.649895 -44.693878
34.100143 16.615824 -44.704746
31.490637 16.395975 -44.657211
31.198231 16.526381 -44.656567
32.991215 16.625254 -44.703938
31.594957 16.524439 -44.664906
33.006359 16.485865 -44.67244
33.594593 16.518618 -44.732838
31.001341 16.585291 -44.576569
33.187912 16.838598 -44.707874
31.897217 16.52396 -44.679001
30.191212 16.489628 -44.564648
34.261299 16.398178 -44.708752
32.995056 16.662903 -44.744324
32.990829 16.527361 -44.727386
34.531952 16.033108 -44.835621
34.38942 16.585312 -44.677986
32.994347 16.711529 -44.668701
34.494926 16.617682 -44.705742
31.590603 16.679308 -44.702999
32.991196 16.749933 -44.72419
34.399708 16.681011 -44.690899
31.491161 16.623987 -44.647015
34.310719 16.775562 -44.661278
31.797934 16.522511 -44.672775
33.100838 16.712139 -44.674423
31.995745 16.621897 -44.665081
33.289783 16.842594 -44.714161
31.595676 16.621635 -44.65123
31.695368 16.526995 -44.669418
34.513466 16.804129 -44.668739
33.796059 16.756363 -44.769482
33.796791 16.614025 -44.716221
33.078285 17.029154 -44.613533
31.68782 16.90431 -44.634613
33.094524 16.904715 -44.674782
34.549599 16.823349 -44.673611
33.100006 16.808828 -44.640259
31.696529 16.711624 -44.638557
31.793411 16.61898 -44.658192
33.198299 16.524321 -44.726925
34.57444 16.685495 -44.622746
31.593941 16.901211 -44.62648
33.088158 16.5658 -44.650269
32.395744 16.751535 -44.696163
32.392693 16.624727 -44.681725
32.594284 16.900436 -44.653732
33.981503 16.792986 -44.651619
32.595276 16.621847 -44.688591
32.594528 16.488693 -44.666752
31.298847 16.963268 -44.686863
32.695286 16.712919 -44.66703
34.096523 16.787418 -44.658245
34.18499 16.378931 -44.706577
32.689465 16.619537 -44.695694
32.001022 16.752979 -44.679211
33.793171 16.814711 -44.843277
31.825958 16.678457 -44.727722
33.294201 16.708879 -44.67104
30.494247 16.672441 -44.666721
31.988321 16.528093 -44.682404
33.885391 16.637598 -44.692505
31.202715 16.934122 -44.689266
31.196899 16.848141 -44.632839
32.696426 16.745123 -44.71146
31.988678 16.656765 -44.720589
34.222267 16.540157 -44.721813
33.390633 16.745024 -44.735306
33.989529 16.641247 -44.701324
30.675964 16.817932 -44.74876
33.494797 16.622032 -44.716549
32.090466 16.521366 -44.684986
32.090603 16.661531 -44.713573
32.495983 16.750154 -44.697086
31.803946 16.7467 -44.674168
31.893419 16.618637 -44.660748
32.875404 16.81937 -44.823547
32.891369 16.622252 -44.69627
32.193188 16.525181 -44.689022
33.587234 16.709759 -44.673409
32.190853 16.621656 -44.673096
33.591408 16.621553 -44.701576
33.287113 16.750858 -44.739532
30.993736 16.522238 -44.651546
32.400272 16.861229 -44.9021
31.491804 16.662615 -44.69025
33.588043 16.749624 -44.745689
32.692299 16.668848 -44.733181
30.698303 16.538225 -44.644314
33.495068 16.741167 -44.737484
30.794287 16.532557 -44.641228
32.193806 16.752468 -44.69006
30.793545 16.851595 -44.617744
30.487949 16.713482 -44.569149
29.816525 16.922256 -44.898441
31.096865 16.617176 -44.628159
32.498699 16.891582 -44.764633
31.989082 16.5788 -44.757755
33.778606 16.385748 -44.699249
33.878181 16.689262 -44.784832
32.293736 16.6213 -44.678623
30.896425 16.399809 -44.626373
30.891733 16.521433 -44.64661
30.394693 16.614712 -44.596207
32.303513 16.527039 -44.695965
32.294472 16.744669 -44.693123
30.896059 16.755966 -44.648159
32.599808 16.667572 -44.725147
33.087368 16.749699 -44.726803
30.60523 16.529894 -44.63842
32.092392 16.622993 -44.667191
32.091923 16.751593 -44.678085
30.599318 16.390751 -44.605015
30.098219 17.013058 -44.953224
35.170784 16.653681 -44.730728
34.371693 16.504953 -44.746597
33.9813 16.492672 -44.693565
31.519815 16.645844 -44.580299
31.188648 16.642317 -44.549789
33.385372 16.865631 -44.940739
33.595978 16.800339 -44.656437
33.884743 16.584625 -44.645512
30.795853 16.577717 -44.562359
33.183735 16.811117 -44.649765
33.694965 16.487263 -44.670399
33.698605 16.582874 -44.655853
33.891655 16.753088 -44.757324
32.688915 16.487997 -44.666142
33.881168 16.80822 -44.650967
34.841236 16.763456 -44.64151
34.293533 16.699625 -44.677521
30.682028 16.665159 -44.669945
31.112453 16.637955 -44.514019
32.104404 16.820122 -44.807194
34.089859 16.585657 -44.673119
31.09503 16.90436 -44.607475
32.085991 16.955841 -44.719788
31.894848 16.903238 -44.640144
31.995287 16.85129 -44.65955
32.788952 16.862619 -44.924877
30.769207 16.675442 -44.663437
33.781029 16.649645 -44.848728
33.300373 16.660248 -44.754066
30.007072 16.653908 -44.654259
30.195734 16.896662 -44.567799
31.695965 16.492641 -44.641342
32.090111 16.903954 -44.643612
31.103729 16.961145 -44.672379
30.150442 16.996857 -44.579926
30.69556 16.803524 -44.56834
32.595085 16.796083 -44.636795
33.087814 16.885328 -44.609501
31.204233 17.028667 -44.583408
33.191395 16.89924 -44.665585
32.169785 17.020922 -44.593815
31.692711 16.79534 -44.615215
32.307613 16.554272 -44.618778
31.294468 16.48769 -44.624599
33.202923 16.999374 -44.848415
32.691574 16.904299 -44.664738
31.779596 16.804642 -44.616985
32.301308 16.484118 -44.655197
32.106361 16.864025 -44.889702
30.200823 16.678415 -44.660805
31.678499 16.559742 -44.741959
31.99791 16.90624 -44.644871
31.493553 16.803604 -44.595913
31.095001 16.493277 -44.613815
32.492092 16.574512 -44.630653
32.494633 16.478426 -44.664654
33.091286 16.886072 -44.787426
31.519634 16.940987 -44.696609
30.493666 16.906843 -44.591957
31.84663 17.090979 -44.723507
30.866467 17.023993 -44.577232
32.842113 16.987444 -44.615513
31.894974 16.800499 -44.611824
33.886944 16.667891 -44.607746
33.73418 16.862709 -44.636578
32.796577 16.795811 -44.641682
32.983479 16.857677 -44.910488
31.186405 16.907326 -44.825066
33.397217 16.585707 -44.640072
31.390259 16.90288 -44.619507
32.396751 16.483765 -44.665401
34.052982 16.865652 -44.641838
32.190544 16.484612 -44.649883
30.694765 16.892458 -44.718922
31.968781 17.09466 -44.90044
31.005928 16.946819 -44.695663
32.982433 16.581879 -44.645756
32.200043 16.953693 -44.708714
32.637856 16.658995 -44.590286
33.183002 16.574015 -44.645054
31.595354 17.058096 -44.901737
33.457901 17.01495 -44.921963
32.512943 16.947718 -44.754345
30.828501 17.045519 -44.822994
30.894352 16.846874 -44.618263
31.886198 16.488224 -44.643074
33.093746 16.946896 -44.748024
32.094799 16.798391 -44.617714
31.773787 17.008114 -44.827221
30.797966 16.904737 -44.600235
33.387436 16.966904 -44.832611
34.33374 16.692989 -44.641529
34.062336 16.330288 -44.678329
31.704342 16.874504 -44.883862
31.297272 16.893711 -44.730492
31.492517 16.909166 -44.623394
31.797865 16.490719 -44.643074
31.29143 16.908413 -44.624237
32.19437 17.043968 -44.932507
32.794601 16.906857 -44.669353
32.288746 16.89403 -44.640507
30.700237 16.899813 -44.585667
30.594448 16.904018 -44.596737
31.700275 16.943338 -44.696949
30.287271 16.665863 -44.512146
30.348835 17.001301 -44.595104
32.085655 17.067217 -44.903759
30.189045 16.806847 -44.538208
30.183359 16.581507 -44.540619
30.297264 16.808535 -44.544777
30.987045 16.878399 -44.556141
30.196224 16.872023 -44.517342
30.602417 16.970119 -44.516197
31.484705 17.037037 -44.573906
30.096193 16.574184 -44.545197
30.993668 16.801527 -44.578293
32.769104 17.046099 -44.66713
30.487041 16.576624 -44.559006
31.38032 16.569292 -44.597382
32.295319 16.792208 -44.636433
30.276827 16.946964 -44.660011
29.195557 15.980497 -44.568722
31.205938 17.055782 -44.890244
29.20602 16.055475 -44.547588
31.917442 17.000345 -44.593449
29.981565 16.871984 -44.511692
31.282152 17.02907 -44.56123
31.284136 16.807959 -44.591064
31.270628 16.874868 -44.571136
31.599964 16.672466 -44.445122
29.892061 16.876638 -44.512775
30.71874 16.954687 -44.502842
32.496376 16.908607 -44.655354
31.503517 16.572975 -44.5844
30.593552 16.577225 -44.566227
30.689192 16.584602 -44.562569
31.092718 16.806339 -44.582222
30.69241 16.492931 -44.593666
29.695333 16.614157 -44.553688
29.69898 16.803629 -44.512569
30.896936 16.56443 -44.573296
30.091877 16.705242 -44.548458
31.387814 16.97949 -44.789246
29.299732 16.385952 -43.920425
30.39356 16.91081 -44.582722
29.250443 15.684902 -44.30957
30.893122 16.901587 -44.598759
30.796499 16.800457 -44.572292
30.293644 16.576883 -44.552605
32.501476 16.907797 -44.862228
31.494928 17.037401 -44.917999
30.093542 16.815901 -44.537167
31.891056 16.90521 -44.861942
30.990061 16.906384 -44.827202
29.036869 15.440176 -44.235291
29.702833 16.876278 -44.500721
30.063145 16.955376 -44.66647
29.498653 16.802208 -44.486874
29.49654 16.911148 -44.534813
29.699131 16.668226 -44.500969
29.78957 16.581612 -44.516731
28.98167 16.728064 -44.455536
28.992781 16.332268 -43.910583
28.796335 15.799846 -44.587959
29.047939 16.338102 -43.90403
29.121468 16.995846 -44.704426
31.396688 16.946342 -44.679108
31.197996 16.993797 -44.788929
31.395588 17.009922 -44.858494
31.085152 16.568821 -44.579422
29.216866 16.950008 -44.709675
29.285337 16.682379 -44.477436
29.255091 16.595875 -44.504192
29.191086 16.7362 -44.489616
30.491585 16.89727 -44.704288
29.205635 16.301447 -43.926712
29.311886 16.673798 -44.500824
29.071962 15.495523 -44.312851
30.891357 16.802349 -44.58062
32.204487 17.004278 -44.841705
29.989231 16.894053 -44.55489
32.589718 16.905632 -44.867451
30.077616 16.869137 -44.524162
29.178888 16.953888 -44.643349
30.095564 16.964285 -44.899807
30.795237 16.947874 -44.705971
29.078587 15.721438 -44.641254
30.495131 16.949175 -44.680576
29.218113 15.436986 -44.278172
31.874533 16.832125 -44.817902
32.898586 16.886465 -44.779728
30.106012 16.883665 -44.701145
31.192804 16.89834 -44.72921
30.410189 16.928789 -44.672379
33.497078 16.908169 -44.67691
30.907358 16.936361 -44.682907
30.297394 16.924421 -44.79398
32.603085 16.962446 -44.740059
33.383812 16.955873 -44.771004
31.989071 16.905212 -44.857727
32.68716 16.905529 -44.882206
31.302473 16.658817 -44.530304
31.907021 17.061272 -44.89883
32.78886 16.994905 -44.844452
33.492588 16.531956 -44.73605
31.623222 17.09156 -44.778091
33.146606 17.061016 -44.980347
30.838303 17.029085 -44.583771
32.281872 16.877335 -44.598015
32.006626 16.57799 -44.60878
33.267872 16.929302 -44.61507
32.961281 17.044655 -44.963356
31.053621 17.041533 -44.822933
33.400703 16.656271 -44.75927
30.112955 16.670942 -44.509689
30.69503 17.049355 -44.884575
32.988579 16.912642 -44.886078
33.29467 16.95479 -44.993713
29.997631 16.669874 -44.504372
30.519304 17.026541 -44.893456
30.202707 16.658264 -44.509075
31.293961 16.566925 -44.590973
29.183949 15.658797 -44.584217
29.182423 15.726609 -44.660599
30.284433 16.976669 -44.906769
31.399508 16.906185 -44.833302
31.387375 16.808908 -44.595348
29.89307 16.898975 -44.557346
29.693575 16.907591 -44.552067
29.594547 16.958067 -44.623413
30.089201 16.900078 -44.566002
29.794331 16.975054 -44.886501
32.190479 16.906256 -44.858459
32.175041 16.805204 -44.629162
33.190578 16.888844 -44.792576
32.900772 16.945093 -44.740696
33.294662 16.886787 -44.785137
32.994541 16.891541 -44.790035
32.395168 16.926476 -44.727402
33.18486 16.942055 -44.755306
32.890457 16.910231 -44.88113
33.0914 16.910383 -44.884159
32.787708 16.947781 -44.740784
33.403934 16.918882 -44.894897
32.797409 16.910959 -44.881512
29.726753 16.756163 -44.466999
33.135746 17.059374 -44.975815
33.582207 16.917057 -44.901558
30.846384 16.657526 -44.528313
34.017204 16.748539 -44.732586
34.092674 16.916569 -44.918537
29.838324 16.763538 -44.467491
33.188873 16.915361 -44.890644
30.579472 16.663681 -44.514812
32.312706 16.94334 -44.72084
33.098957 16.815599 -44.820042
33.262722 16.942537 -44.751957
32.884781 16.983538 -44.851612
30.890938 16.949081 -44.911167
30.394033 16.894505 -44.701942
32.094814 16.893919 -44.754219
32.819901 16.810001 -44.829685
30.50313 16.654959 -44.531139
33.480087 16.909653 -44.900467
33.494217 16.677004 -44.776299
32.961353 16.770466 -44.49987
33.488209 16.579231 -44.85294
33.476917 16.646679 -44.899017
32.208321 16.873755 -44.910652
31.88588 16.873129 -44.893307
30.896065 16.908394 -44.820007
31.785589 16.87295 -44.883575
31.503033 16.810413 -44.78487
31.48978 16.869055 -44.872395
31.591908 16.87886 -44.889317
30.682339 16.948286 -44.922752
31.594385 16.904976 -44.842899
33.301765 16.862961 -44.930969
33.273411 16.82336 -44.840607
30.598221 16.889109 -44.715611
32.001026 16.877369 -44.903057
30.39971 16.960747 -44.909676
31.486755 16.893137 -44.743805
31.798887 16.895561 -44.743042
31.296789 16.902042 -44.839577
30.894985 16.893652 -44.719181
32.100029 16.581202 -44.615898
30.573145 16.865198 -44.8484
31.084356 17.065996 -44.892723
30.194061 16.964241 -44.90099
31.779963 16.588551 -44.598732
31.880764 16.580214 -44.610535
30.700476 16.904446 -44.810894
30.993151 16.895807 -44.720299
30.497923 16.945944 -44.909782
30.400599 16.912704 -44.809982
29.890421 16.900515 -44.694321
30.80463 16.914022 -44.821171
29.90806 16.915047 -44.794323
31.40027 16.890911 -44.739445
30.104267 16.868547 -44.828869
32.587006 16.576696 -44.631306
29.990126 16.919355 -44.773354
29.991835 16.965656 -44.901367
29.794724 16.90514 -44.555336
30.291512 16.893822 -44.703022
29.114597 16.944723 -44.655243
30.389729 16.86552 -44.521832
30.197763 16.897842 -44.703163
30.394558 16.75757 -44.474922
31.416252 16.872408 -44.890434
30.190855 16.91324 -44.802212
30.795109 16.897415 -44.724712
33.286072 16.899063 -44.669083
33.702049 16.974628 -44.795597
31.904112 16.679626 -44.572857
33.427975 16.865095 -44.634739
29.269283 16.894831 -44.539341
31.095604 16.877266 -44.855247
30.502008 16.881018 -44.540047
29.492569 16.916857 -44.671429
29.211601 16.874821 -44.559036
29.226303 16.922298 -44.650974
29.885685 16.946581 -44.658569
29.216042 16.899986 -44.555958
32.181229 16.83202 -44.805996
31.194641 16.876678 -44.870689
32.312218 16.862162 -44.904209
29.4368 16.900105 -44.830124
31.600424 16.592112 -44.594475
29.596989 16.670593 -44.491554
34.126663 16.905754 -44.730663
30.29792 16.869024 -44.835899
33.898415 16.865797 -44.877052
34.059856 16.880888 -44.8577
33.58197 16.867701 -44.933426
30.461855 16.872307 -44.853436
30.867802 16.877558 -44.558968
31.271809 16.568312 -44.724609
34.143814 16.948635 -44.831066
33.192001 16.875532 -44.932465
34.21357 16.964169 -44.720352
31.281271 17.004925 -44.832497
30.988161 16.870821 -44.865223
33.899372 16.921415 -44.906948
34.298943 16.945391 -44.996685
32.135548 16.645805 -44.590256
30.769741 16.670267 -44.507854
30.189766 16.94758 -44.669903
29.789536 16.970781 -44.732231
29.434563 16.993156 -44.680069
29.449455 17.008589 -44.73988
30.892717 16.985327 -44.794399
30.568691 16.967022 -44.736233
30.590515 16.917648 -44.805927
30.100641 16.747414 -44.632236
30.412668 16.820683 -44.441338
29.486856 16.949167 -44.637119
29.484203 16.892828 -44.593235
29.408543 16.665253 -44.600563
29.36887 16.456337 -44.607151
30.07361 16.971498 -44.739117
29.983259 16.947433 -44.659847
29.927525 16.773834 -44.613991
31.696789 16.904364 -44.852188
29.890806 16.984962 -44.77417
30.09725 16.919996 -44.799049
29.805393 16.972975 -44.666912
29.633692 17.010305 -44.911663
30.812305 16.882475 -44.549664
32.289146 16.813583 -44.795074
31.027269 16.593365 -44.704483
29.696699 16.947569 -44.649025
30.567284 16.937006 -44.662956
30.26145 16.654467 -44.698444
29.984171 16.870384 -44.822304
30.595352 16.80452 -44.785675
34.086964 16.675753 -44.638065
29.944992 16.84598 -44.754463
32.729935 16.878292 -44.608948
32.212242 16.89143 -44.578751
32.199749 16.589149 -44.607006
31.713043 16.594036 -44.590565
32.950001 16.833099 -44.547352
32.501148 16.829689 -44.49263
30.378757 16.686527 -44.690437
32.67841 16.986301 -44.845493
32.618275 16.961824 -44.824776
33.978527 16.922945 -44.917187
34.301224 16.780771 -44.560093
29.21983 16.390104 -44.633835
29.129246 16.332977 -44.643475
33.992954 16.854267 -44.890278
31.986088 16.794334 -44.628647
29.233263 17.014549 -44.579845
32.642551 17.100826 -44.769642
32.705574 16.810055 -44.640202
32.794258 17.05221 -44.920582
32.39666 17.039488 -44.920425
32.514591 17.015905 -44.842537
33.59383 16.650539 -44.588333
31.599823 16.96044 -44.681046
31.678156 16.996593 -44.814098
33.84063 16.763981 -44.595024
30.398449 16.83987 -44.753296
32.463203 16.874086 -44.609486
32.819271 16.862009 -44.617859
32.301697 17.025967 -44.832787
29.599415 16.87454 -44.490906
32.22599 17.065767 -44.784245
32.042458 16.874855 -44.593781
32.557201 16.868187 -44.605625
31.915821 16.94018 -44.680038
31.790907 17.121222 -44.874588
32.018845 17.015018 -44.763264
30.942392 16.539637 -44.489475
33.805901 17.023417 -44.947647
31.811678 17.078278 -44.851723
31.209539 16.866362 -44.565994
32.407604 17.014811 -44.823307
30.685223 16.876383 -44.543213
30.620514 16.870771 -44.541985
31.090544 16.869053 -44.568272
31.005856 17.070206 -44.875278
30.773882 16.952072 -44.74612
29.701973 16.984432 -44.885666
32.342178 16.574623 -44.749367
29.5772 16.88587 -44.821194
29.607321 16.880514 -44.594566
29.700369 16.949553 -44.776211
30.396025 16.864838 -44.844131
32.65807 16.66437 -44.589066
32.43568 16.661207 -44.584106
29.613897 16.926025 -44.668606
29.608501 16.911373 -44.533924
33.199921 16.826075 -44.829407
33.587337 16.839474 -44.858749
30.888412 16.878263 -44.858913
30.19161 16.872915 -44.828949
33.718521 16.992641 -44.83601
30.779926 16.866245 -44.861259
33.876656 16.429792 -44.762218
30.682619 16.954603 -44.747231
30.237429 16.975859 -44.780704
29.420614 16.974855 -44.566704
30.001581 16.979496 -44.751881
30.329882 16.969004 -44.744453
29.600939 16.995928 -44.708271
29.696501 16.865932 -44.565502
29.861206 16.734051 -44.479832
30.211008 16.75106 -44.417603
30.775766 16.722118 -44.472965
30.971567 16.777323 -44.483044
29.976633 16.847353 -44.42535
30.70936 16.955175 -44.645058
31.369648 16.850439 -44.791325
32.970383 16.839161 -44.852188
29.698584 16.958975 -44.729729
33.27335 16.740818 -44.570126
31.544262 16.62294 -44.512173
31.539318 16.729063 -44.508747
32.69241 16.556801 -44.789349
33.855213 16.799597 -44.839828
