# .PCD v0.7 - Point Cloud Data file format
VERSION 0.7
FIELDS x y z
SIZE 4 4 4
TYPE F F F
COUNT 1 1 1
WIDTH 1560
HEIGHT 1
VIEWPOINT 0 0 0 1 0 0 0
POINTS 1560
DATA ascii
27.719246 9.4168978 -26.749191
27.830198 9.9027872 -26.40591
27.833733 9.1340857 -26.447741
27.438372 13.300222 -26.339407
27.617472 13.070645 -26.168486
27.594412 13.15307 -26.115032
27.517014 9.8980951 -26.446667
27.735567 14.998388 -26.043324
27.756376 10.50519 -26.568485
27.376297 9.9235325 -26.454126
28.291229 8.1508493 -26.801884
27.543434 12.126554 -26.198145
27.651598 11.836916 -26.295656
27.477489 10.590002 -26.351183
27.120241 11.963845 -26.446373
27.741573 9.2233925 -26.873301
28.522987 14.040979 -26.322926
28.18786 12.358768 -26.168991
27.663383 8.4733391 -26.623795
28.228283 8.4162197 -26.728596
28.412779 10.062582 -26.679504
27.196436 12.513266 -26.38184
27.921875 14.154825 -26.104536
27.634081 15.496342 -26.305145
26.772356 14.367636 -26.441618
28.211964 13.07474 -26.160109
28.010098 8.2033186 -26.518854
28.133459 9.2797699 -26.447001
27.644939 15.520141 -26.022564
28.328703 15.456683 -26.232647
27.622574 14.497343 -26.142967
28.509884 9.4880686 -26.68236
27.84144 10.650954 -26.592964
28.232109 12.164894 -26.500982
28.323408 9.4989595 -26.676397
27.948957 9.629364 -26.685488
27.375332 12.592182 -26.469727
28.104744 14.042035 -26.053581
28.029404 9.4847813 -26.669106
28.129639 16.11558 -26.225187
28.547358 13.872323 -26.458881
28.232306 9.4908228 -26.665989
28.682585 11.791752 -26.513775
27.549391 11.834896 -26.505512
28.327065 10.342614 -26.604517
27.942619 9.657589 -26.543167
27.855577 14.999103 -26.216908
27.820469 14.463324 -26.069122
27.214281 15.619482 -26.338732
27.823391 9.7164392 -26.477154
27.810194 16.166111 -25.951847
27.329924 15.631252 -26.363625
27.937607 9.5385885 -26.587662
27.819584 10.339773 -26.627867
28.396553 14.1898 -26.339897
27.833191 14.356188 -26.318209
27.718962 11.697831 -26.539015
28.030441 16.164129 -26.147276
27.311861 11.848919 -26.527185
27.841927 16.098858 -26.242533
27.835325 13.700954 -26.313635
28.135489 9.2095327 -26.407791
27.446989 9.7074862 -26.519928
28.223167 9.5769281 -26.645594
27.457939 10.572233 -26.425892
27.528557 9.7295637 -26.453119
28.138411 12.476604 -26.476942
28.022635 8.9631586 -26.49111
28.0264 9.7120609 -26.465488
28.221512 15.445098 -26.003201
27.936159 10.715182 -26.489126
28.223835 10.74989 -26.338926
28.227518 11.916713 -26.239794
27.36879 9.5808134 -26.478285
27.731611 9.58776 -26.643612
27.542236 13.709371 -26.086245
28.226826 13.475913 -26.301785
27.662018 14.531841 -26.03244
28.034029 9.5849543 -26.644457
28.129747 10.648961 -26.587431
27.740265 14.134626 -26.301332
27.154783 14.32548 -26.329136
27.356003 10.196601 -26.388916
28.226744 14.685176 -26.052717
28.124458 12.55776 -26.217424
27.620819 9.7062607 -26.477808
28.642355 10.333369 -26.623507
27.923531 9.7110863 -26.457468
28.21694 10.940244 -26.474174
28.035677 10.922381 -26.489946
27.549292 15.651813 -26.275951
27.816448 12.459582 -26.23472
28.334709 14.171049 -26.105534
27.85239 8.2449112 -26.784397
27.655132 15.99001 -26.260275
27.719315 12.613699 -26.377571
27.663317 13.054232 -26.359348
28.128529 13.873609 -26.145147
28.126442 11.368982 -26.483681
28.425577 9.7143564 -26.649128
28.043884 13.867558 -26.390148
28.01967 11.159565 -26.285746
28.138401 9.6975241 -26.663664
27.707588 13.49628 -26.3176
27.941696 11.33743 -26.360632
27.659771 11.345415 -26.50251
27.92627 8.5020008 -26.700054
27.84532 15.219321 -26.268139
27.995146 12.854965 -26.166544
27.75783 13.012159 -26.469648
28.305027 12.696154 -26.202238
27.827902 13.464206 -26.315702
28.354891 10.91346 -26.618214
27.378193 15.151783 -26.363943
27.349022 13.102849 -26.349236
27.811611 14.193593 -26.146534
27.266001 11.856687 -26.540888
27.845743 13.292281 -26.364523
27.411455 11.769958 -26.507265
28.215218 14.955437 -26.308315
27.90464 12.918262 -26.515356
28.313133 14.502924 -26.078444
27.655428 10.091929 -26.363224
28.128536 14.694584 -26.053734
28.222689 11.912353 -26.467356
28.22757 13.960143 -26.356222
28.442467 11.364763 -26.484968
28.311714 13.720084 -26.295755
28.311031 11.365767 -26.486639
28.211929 11.371175 -26.505178
27.922035 16.057329 -26.116589
28.528135 8.108511 -26.812986
28.028738 13.430344 -26.388393
27.493631 11.606513 -26.313694
28.046549 8.5267982 -26.75703
28.414555 15.189476 -26.249237
28.034679 15.24754 -26.292755
27.736885 11.606825 -26.300615
28.02388 8.4239073 -26.738329
27.265228 10.113872 -26.482803
27.838978 9.1204128 -26.63936
27.493101 14.838391 -26.357403
28.033009 15.546341 -26.001926
27.924849 11.607781 -26.294586
28.399147 14.739631 -26.054068
27.927792 9.0476007 -26.460867
27.336153 8.9544249 -26.527555
27.571569 14.689968 -26.120819
27.927485 13.917514 -26.113234
28.144417 13.727491 -26.290846
27.831388 15.541834 -26.01178
27.907124 8.8734007 -26.747807
28.210579 14.202011 -26.120996
27.405161 9.7665319 -26.584839
27.831066 10.896456 -26.357153
27.518751 8.5515013 -26.777822
27.912785 12.767382 -26.196581
28.086187 8.2571115 -26.761915
27.735172 15.209646 -26.046446
27.926235 13.6489 -26.16642
27.935516 10.87361 -26.350914
27.721027 15.671407 -26.029863
28.22098 12.759141 -26.3972
27.825724 9.5717278 -26.651793
27.761482 10.217077 -26.671375
28.122303 10.335957 -26.607784
27.652031 10.874565 -26.371435
27.233273 9.2741194 -26.699261
27.627562 13.107248 -26.415972
27.813129 13.257641 -26.449682
27.635433 12.432499 -26.438404
27.534691 14.186414 -26.14683
27.334946 10.848099 -26.650293
28.127354 10.964248 -26.324524
28.504257 12.114018 -26.471891
27.758051 12.129169 -26.455164
28.114969 9.2224245 -26.595459
27.725952 9.256937 -26.472626
28.230618 12.402151 -26.493694
27.934898 10.639204 -26.591005
27.493279 12.398117 -26.509445
27.943285 8.1856356 -26.727062
27.640133 9.4490347 -26.618437
27.476713 11.067995 -26.404659
27.918247 13.813126 -26.264219
28.047672 12.796031 -26.446438
27.802916 12.989245 -26.243614
28.12104 8.2784338 -26.459015
28.018036 9.0773468 -26.449299
27.754915 14.357936 -26.360641
28.239925 11.367411 -26.280334
27.622927 10.510558 -26.550991
28.01593 9.4099035 -26.492281
27.829384 8.6358299 -26.507488
27.825628 10.295383 -26.554329
28.690569 12.386642 -26.468401
27.477087 11.614857 -26.344212
27.839199 13.430916 -26.412287
27.930676 12.365255 -26.237234
27.821526 11.301185 -26.318996
28.030497 9.7583561 -26.591944
27.736906 8.8861589 -26.524147
27.353065 8.6415882 -26.582266
28.122597 13.110504 -26.177521
28.029491 13.748768 -26.366455
28.530071 11.660644 -26.363428
27.726923 11.900136 -26.450504
28.041862 13.645715 -26.405296
27.839409 8.1925583 -26.743429
28.331955 12.482147 -26.467073
28.30629 14.158935 -26.294636
27.635778 15.343045 -26.06558
27.920818 13.029483 -26.239916
27.650867 10.837525 -26.346533
27.730623 15.854544 -25.987993
28.127062 8.4511395 -26.406448
27.634983 9.754755 -26.365419
28.03021 14.369514 -26.090061
27.643631 8.6912127 -26.650295
27.737549 11.146292 -26.488602
27.647064 9.4319649 -26.457762
27.406628 13.576255 -26.240366
28.433897 14.887384 -26.27096
28.005547 11.101886 -26.347607
28.383261 11.192556 -26.418158
27.82526 13.293908 -26.172541
28.122246 11.412573 -26.298868
27.27669 12.176892 -26.568254
28.006992 9.1405897 -26.429438
27.538065 13.178449 -26.33987
27.639235 12.369436 -26.505905
27.612896 15.002533 -26.069773
27.726179 9.2667856 -26.681902
27.504114 10.975871 -26.260267
27.926905 15.351445 -26.034834
28.490158 14.867121 -26.312159
27.521103 10.713418 -26.659891
28.452394 8.9886951 -26.746347
28.030106 8.5965061 -26.443333
27.600372 14.100247 -26.186476
28.509926 8.4199352 -26.715321
28.524118 12.021885 -26.493473
27.746723 15.258622 -26.076481
27.80847 11.240534 -26.47477
27.617805 8.6034222 -26.512526
27.734432 8.60466 -26.491066
27.638735 12.987163 -26.214127
27.45437 10.045178 -26.543999
27.697102 13.666453 -26.394726
27.934799 9.2694254 -26.678709
27.921005 14.936172 -26.32321
28.209291 8.3668385 -26.669621
27.919893 8.3837214 -26.689842
28.129248 11.548011 -26.564156
28.636105 12.287459 -26.47827
28.131161 9.1769571 -26.699081
28.122185 8.2876396 -26.706278
28.223175 14.730575 -26.095108
27.331692 11.322722 -26.393911
28.205376 16.082302 -25.988796
27.444183 8.2956924 -26.616241
27.312716 8.3125887 -26.575474
27.747444 12.234235 -26.23321
28.124626 8.8195496 -26.671825
27.922503 9.929698 -26.504499
27.416424 12.406616 -26.53933
28.028538 14.733528 -26.113373
27.836349 14.991042 -26.049675
27.289482 15.386804 -26.290443
28.443504 11.150671 -26.262049
27.907721 8.6481638 -26.51812
28.312489 9.5749073 -26.642544
28.058685 14.008043 -26.407703
27.836601 11.946635 -26.523674
27.308701 13.015862 -26.29104
27.538532 12.093117 -26.394281
28.054058 12.077823 -26.383921
27.896755 9.237236 -26.421999
27.742247 12.225721 -26.421064
27.928534 15.954069 -25.946753
28.323912 14.720732 -26.305141
27.850988 8.343153 -26.536085
27.67746 14.384809 -26.17057
28.74015 9.8528519 -26.677174
27.176844 9.2321758 -26.68664
27.237209 12.030537 -26.360176
28.25773 9.7105608 -26.410006
27.574295 8.8743734 -26.531546
28.667379 12.064934 -26.497807
27.443176 9.0679359 -26.596317
27.61635 10.283422 -26.346485
27.552059 10.780191 -26.381157
27.740606 10.877901 -26.356836
28.026459 8.8185558 -26.68012
28.230526 12.207865 -26.217009
27.621279 14.58358 -26.349909
28.220123 11.949022 -26.49798
27.920633 11.93197 -26.510509
27.463221 15.014699 -26.356476
28.51623 11.934982 -26.495049
27.868176 16.014336 -25.924536
28.702225 10.264949 -26.622143
28.234283 14.85545 -26.336693
28.421465 12.129368 -26.364843
27.927917 8.9452477 -26.703154
27.62191 13.532292 -26.179377
27.8256 14.506304 -26.105352
27.655401 14.944764 -26.32416
27.501925 9.2546101 -26.484804
28.0497 12.54593 -26.198999
28.005224 10.094986 -26.347593
27.612049 12.672929 -26.24304
28.53113 11.561052 -26.47337
28.027824 8.0640621 -26.48226
27.608517 14.449251 -26.270824
28.041618 11.770844 -26.422319
28.04011 14.315218 -26.22731
27.356812 14.820023 -26.345472
28.037872 16.076387 -25.961535
27.925037 14.078364 -26.391459
28.429058 12.064563 -26.532343
27.93379 12.228949 -26.226889
27.933512 10.369971 -26.291557
27.63368 13.117812 -26.21574
28.027655 8.5072765 -26.705091
28.383375 9.6532688 -26.641922
27.831482 14.594139 -26.328783
28.014347 10.068133 -26.560606
27.526657 10.101725 -26.65559
27.927782 10.065665 -26.566229
27.910175 15.284348 -26.055887
27.33601 14.582552 -26.371431
28.007427 11.259128 -26.460724
28.412449 9.3575153 -26.640326
27.463997 9.7594318 -26.663256
28.412952 11.831045 -26.245836
27.472891 15.9876 -26.257683
27.833412 9.0017433 -26.618742
28.423391 13.633218 -26.378426
27.528297 13.250165 -26.315769
27.634886 15.270875 -26.097029
27.731531 12.137564 -26.262566
28.021166 14.458307 -26.072748
28.114243 15.865326 -25.95682
27.934057 12.264899 -26.253637
28.116886 10.88361 -26.33637
28.111576 12.757454 -26.198542
27.657959 14.954754 -26.259338
28.264982 13.263472 -26.213152
28.247276 8.7641926 -26.751417
27.644478 12.102077 -26.206232
27.739271 8.9137726 -26.652531
27.299261 11.305796 -26.634899
28.418934 13.199599 -26.162582
27.718842 11.32432 -26.388033
27.412313 14.590167 -26.334501
27.814152 13.571087 -26.236645
27.640095 11.527425 -26.46822
28.2258 15.726354 -26.280611
27.637766 8.3485537 -26.545115
28.407791 12.426858 -26.411177
28.302689 11.667901 -26.462502
28.140465 15.033672 -26.301392
27.929235 15.848161 -25.985228
28.425611 14.932781 -26.295559
28.03063 11.69529 -26.245739
28.315397 11.913171 -26.444128
27.777222 12.113078 -26.170422
27.830608 11.370781 -26.304064
27.831999 11.054191 -26.51922
28.134146 12.087591 -26.377926
27.567476 10.941747 -26.372442
28.170284 9.8115168 -26.69911
28.134743 9.9265347 -26.66259
28.314869 15.199833 -26.232668
27.290989 11.417941 -26.617607
27.632328 12.22647 -26.249029
28.509727 14.999556 -26.238417
27.549772 14.376356 -26.138405
28.208157 9.9749346 -26.590828
27.513517 13.140403 -26.467804
27.722935 8.3348236 -26.54553
27.933613 10.348425 -26.387577
28.220802 12.50135 -26.239655
28.211666 10.648566 -26.579607
27.432224 14.477345 -26.366699
27.640131 13.241343 -26.333181
27.539827 13.310757 -26.197615
27.919998 12.972844 -26.397383
27.285225 11.93028 -26.54183
27.632393 11.682486 -26.241919
27.488739 14.161892 -26.395897
27.60388 13.841159 -26.345078
27.742201 15.111078 -26.301966
28.02997 10.321595 -26.38769
27.811155 9.233634 -26.414
27.774988 11.136974 -26.295326
28.12196 9.7637348 -26.56789
28.140076 14.179656 -26.355946
28.398136 13.930075 -26.282238
27.539707 12.178293 -26.337988
28.405497 8.5102291 -26.756914
27.925743 12.03473 -26.487717
27.176771 9.6255007 -26.696167
28.301523 9.8781471 -26.389702
28.214163 14.451392 -26.268499
28.316624 12.80453 -26.22814
27.748156 10.714531 -26.492861
27.637007 8.7264509 -26.748211
28.114454 15.65891 -26.233572
27.488396 13.517525 -26.415314
28.429806 11.161814 -26.426128
27.314405 12.122231 -26.519945
27.348864 13.518897 -26.27668
27.9216 11.246666 -26.462816
27.845085 14.93671 -26.333714
28.027504 11.599789 -26.280443
28.435659 10.893945 -26.6227
27.83322 15.844276 -26.189686
27.927137 9.2681599 -26.45537
28.42148 12.418089 -26.308723
27.734613 12.50892 -26.261864
27.636438 12.257235 -26.275518
27.606047 12.97866 -26.095888
28.133204 14.184755 -26.110174
27.293333 10.055329 -26.601992
27.007324 13.330814 -26.235758
28.227306 8.231576 -26.776451
28.517189 11.197704 -26.588182
28.503201 15.558182 -26.237442
27.37319 15.032578 -26.35854
28.079042 9.8660965 -26.533157
28.557573 9.9108706 -26.378946
28.128206 14.815835 -26.299944
27.833588 10.975368 -26.337013
28.212177 9.4485922 -26.624876
27.819021 8.9478292 -26.48164
28.222677 14.58241 -26.29088
27.51932 14.994163 -26.30126
27.656574 8.9868698 -26.652592
27.730787 13.148756 -26.33913
28.341698 14.978745 -26.238678
27.754606 14.58851 -26.330723
27.739098 10.821555 -26.346558
27.572042 13.363641 -26.174864
27.621983 10.119248 -26.654621
28.518923 9.570652 -26.641354
28.334419 15.834652 -26.13735
27.611004 15.715002 -26.255728
27.628166 14.277212 -26.146399
27.924129 11.993853 -26.42972
28.05258 14.560886 -26.027821
27.876909 10.379601 -26.335508
28.324533 10.66135 -26.577894
28.314209 9.2639551 -26.675766
27.829082 10.51726 -26.554111
27.333225 15.299613 -26.296366
28.019907 10.680075 -26.494886
27.63994 10.97602 -26.358692
27.917683 10.240224 -26.40951
27.515797 14.569047 -26.045074
27.527082 11.802743 -26.298615
28.030384 15.892621 -25.99507
27.881187 8.7959385 -26.74774
27.871098 9.5608864 -26.386078
27.729906 11.651455 -26.337257
28.03013 14.189738 -26.352991
28.00835 13.745178 -26.127748
28.157234 8.7889452 -26.612101
28.121887 9.602704 -26.418844
27.569965 13.446595 -26.372015
27.435453 12.390063 -26.355764
27.735456 10.980487 -26.344625
28.445574 14.450515 -26.045012
28.314884 13.514709 -26.358562
28.076401 14.859773 -26.343281
28.031408 15.77669 -25.984745
27.374376 11.326818 -26.578392
28.020231 9.9878244 -26.379488
27.741768 10.753153 -26.655205
28.334398 8.1971407 -26.732151
27.938391 13.108195 -26.420099
28.318275 12.493524 -26.234156
27.334599 13.447072 -26.453712
27.404301 8.9906578 -26.773289
28.327276 14.067933 -26.373018
28.118349 15.126881 -26.272285
28.145832 15.328376 -25.989309
28.311176 12.749652 -26.250233
28.691526 8.2732286 -26.75708
28.302134 14.860284 -26.324968
28.348286 12.131638 -26.362028
27.819866 9.5826168 -26.440582
27.743395 13.007066 -26.208591
27.293547 12.401194 -26.319622
27.728893 9.99543 -26.397968
27.724049 15.459667 -26.039278
27.643082 11.524685 -26.559311
28.336233 14.475834 -26.040382
28.329767 15.064261 -26.03561
28.534809 10.016454 -26.402761
27.638037 14.605201 -26.120863
28.305193 14.634826 -26.336704
27.841751 8.8780804 -26.511026
27.299908 12.508968 -26.519932
28.13332 10.94739 -26.46722
28.447565 14.821579 -26.332836
28.56217 11.07152 -26.41193
27.620609 14.177011 -26.163603
27.73278 15.556003 -26.061611
27.542894 13.632624 -26.419695
27.727505 9.8919334 -26.41885
27.959517 11.163777 -26.289684
27.821983 12.583945 -26.231726
27.640182 10.736098 -26.371864
27.427807 8.7129707 -26.757952
27.582701 12.761931 -26.121716
28.143732 8.365901 -26.685217
28.127823 11.828835 -26.270704
27.507534 11.445941 -26.523808
27.818874 12.236896 -26.237122
27.622398 11.602836 -26.306408
27.838013 13.101774 -26.435959
28.120871 14.719286 -26.32955
27.536236 14.320094 -26.247145
27.851297 12.903098 -26.420319
27.56402 10.686928 -26.532669
27.734278 11.72704 -26.302555
28.126295 9.5791121 -26.643745
27.322016 12.032007 -26.434673
28.214165 15.836872 -26.179512
28.232653 9.7102499 -26.669981
27.654869 13.19053 -26.425194
27.92396 14.994863 -26.24123
27.526327 13.881645 -26.38489
28.427353 11.256246 -26.27948
27.929346 13.200171 -26.391768
27.926836 12.577128 -26.230989
28.220346 9.2680531 -26.662962
28.413843 14.458845 -26.244181
27.730087 12.158169 -26.532423
28.505432 11.589703 -26.230574
28.324003 10.508932 -26.553539
27.627237 11.71353 -26.316786
27.625086 8.9617224 -26.504375
27.833509 14.447495 -26.260315
27.73963 12.564868 -26.20575
27.621508 15.418647 -26.186701
27.783562 12.018179 -26.582417
27.361422 9.8288422 -26.479462
27.909662 15.008347 -26.0394
27.645761 14.455891 -26.063654
28.651011 11.56604 -26.502157
28.421556 9.2554932 -26.673019
27.816952 13.428975 -26.172033
28.029638 10.974133 -26.332815
27.144175 12.039334 -26.521616
27.184502 11.686428 -26.48357
27.367626 13.541654 -26.4503
28.459097 13.981669 -26.400532
27.334606 11.628628 -26.576902
28.534748 11.171787 -26.215788
27.634071 13.360021 -26.216017
27.838297 13.171056 -26.338892
28.23197 10.56006 -26.602133
28.025166 13.016435 -26.440744
27.641069 11.074258 -26.334496
27.63036 14.687037 -26.369307
27.915735 11.294743 -26.309591
27.381805 8.7876539 -26.658092
27.43265 15.420014 -26.298042
28.217775 9.8897581 -26.397903
27.137306 12.409581 -26.526003
27.535727 12.135706 -26.287472
28.233755 10.868242 -26.573694
27.541721 13.423164 -26.203457
28.319511 11.948924 -26.512672
27.843418 15.790712 -26.085527
27.250023 10.033614 -26.517368
27.75399 15.941438 -26.222559
28.30917 11.73231 -26.262987
28.15284 9.6298399 -26.691462
27.447161 13.102489 -26.46224
27.431921 10.813592 -26.395237
27.934219 14.052728 -26.33263
27.614826 13.433002 -26.202559
27.923899 12.893849 -26.204536
27.918856 8.8470802 -26.513615
28.316498 15.542412 -25.979445
27.914677 16.076843 -25.976799
28.216274 9.6650114 -26.618013
28.232153 13.869094 -26.374081
27.837502 12.501495 -26.264896
28.208517 12.454961 -26.203718
27.598322 13.540167 -26.436359
27.725861 12.903898 -26.220795
27.933641 12.84668 -26.361238
27.53393 11.293043 -26.359753
27.933983 15.022344 -26.311317
28.139786 9.5653715 -26.546581
27.412369 11.476371 -26.586052
27.546688 9.6565695 -26.448252
28.415335 13.20461 -26.373075
27.933302 12.797148 -26.222073
28.138414 13.323888 -26.413279
27.432333 11.000815 -26.39674
28.130491 14.871033 -26.330116
28.112955 11.606045 -26.275026
28.124172 14.995592 -26.237759
28.025723 11.29493 -26.308926
27.41658 13.433224 -26.19709
28.038307 15.256631 -26.113064
27.914677 13.16495 -26.343233
27.717466 9.1671362 -26.49695
27.542067 12.512521 -26.311716
28.317904 15.031281 -26.293795
28.02684 15.005218 -26.253485
27.736233 11.513796 -26.31847
27.836439 12.536381 -26.207891
27.570532 10.900672 -26.537365
28.228182 9.1718864 -26.690266
27.514214 15.087607 -26.334909
28.221832 13.291317 -26.350988
27.5466 14.441287 -26.163483
28.309645 15.277481 -26.034651
28.331234 8.4159985 -26.729198
28.327192 8.3624125 -26.684078
27.368277 10.565153 -26.640713
27.561756 15.847754 -26.290775
28.115774 11.732357 -26.276585
28.505394 11.346928 -26.509665
27.185627 9.509491 -26.719255
27.81518 12.137338 -26.258287
28.724686 12.005523 -26.481293
27.326756 8.3017817 -26.744604
27.928686 10.164245 -26.525177
28.541252 10.232495 -26.613152
27.66073 15.83811 -25.974567
27.411453 13.100298 -26.221424
27.730766 9.9919691 -26.592617
27.731297 9.5023813 -26.453577
28.154524 10.923694 -26.628292
28.236618 10.994291 -26.592585
28.030649 14.721549 -26.319069
27.132654 10.841922 -26.672134
27.733595 8.7811308 -26.628819
27.927359 13.519074 -26.156128
27.919113 12.924367 -26.333652
27.832853 15.039251 -26.063341
28.319221 9.8211966 -26.39957
28.324314 14.683732 -26.038994
27.206736 9.3065472 -26.698053
28.20413 10.856557 -26.301775
28.315533 13.278651 -26.139633
27.925623 8.2898178 -26.714499
28.12775 10.02068 -26.629183
27.502386 8.0287294 -26.821108
28.232878 14.712258 -26.321241
27.122416 12.615281 -26.425653
27.416052 10.49938 -26.389389
28.770746 11.436288 -26.41374
28.201065 9.8246441 -26.52965
28.123623 8.3870125 -26.433926
28.045555 13.784279 -26.245972
27.65889 8.1790771 -26.744734
27.406404 10.98202 -26.644913
27.56901 12.641275 -26.461746
27.422844 12.078234 -26.302666
28.136026 12.518728 -26.389038
27.82283 11.607777 -26.294918
27.740328 14.881334 -26.284246
28.425106 15.014883 -26.272644
28.391056 11.225744 -26.589163
28.122744 11.284212 -26.298977
27.631908 15.991018 -26.019985
27.835352 8.3898964 -26.474667
27.741632 15.773802 -26.022749
28.037437 13.698875 -26.29208
27.649923 14.920972 -26.095308
27.624403 9.3574419 -26.639963
28.405334 8.2108288 -26.785702
27.629091 11.495838 -26.328203
28.124783 8.1610336 -26.664701
27.529152 14.513589 -26.157902
27.548601 13.619152 -26.314028
28.303223 13.411789 -26.300686
27.534422 13.520191 -26.187225
28.13382 15.567736 -26.03653
27.612951 12.746171 -26.38344
27.923492 14.699169 -26.358467
28.122032 11.694493 -26.238937
27.552402 8.8923302 -26.65502
28.209736 10.350934 -26.362656
27.993637 9.0051003 -26.624352
28.038181 9.2371359 -26.391563
28.581343 10.074789 -26.66715
27.499968 11.652782 -26.357309
28.412762 9.5786819 -26.652061
28.443342 14.733535 -26.322159
28.229248 8.5410748 -26.747105
28.235027 15.286693 -26.0236
27.827166 10.317299 -26.39258
27.740944 12.455733 -26.23057
27.667233 14.625829 -26.018097
27.402308 12.609448 -26.339518
27.913242 10.784672 -26.613972
27.742668 14.702604 -26.350653
28.030853 11.951568 -26.280447
27.817604 10.833879 -26.332502
28.0079 10.836549 -26.319386
28.328699 13.538602 -26.409546
27.718502 10.264761 -26.430929
28.391523 13.556475 -26.392906
28.253902 12.16333 -26.261276
27.409826 11.745017 -26.365318
27.930168 9.4458256 -26.617785
27.438629 8.0027847 -26.63232
27.620716 8.7596331 -26.614286
28.32243 14.589547 -26.285292
27.921757 10.846379 -26.324179
27.230127 15.668716 -26.307245
27.834822 10.970165 -26.55896
27.637131 11.190801 -26.34819
27.421247 12.177092 -26.518026
28.334532 10.33996 -26.360855
27.925316 8.2751179 -26.641878
27.921844 14.906835 -26.272192
27.732141 8.2858925 -26.721745
27.732399 9.4467506 -26.621185
27.92514 9.9873362 -26.389912
27.929251 8.3290977 -26.537363
27.700235 11.273705 -26.2575
27.917833 10.920584 -26.492565
28.223879 9.4756784 -26.381933
27.836657 8.6875029 -26.658007
28.019199 8.9045515 -26.644442
27.732372 14.588998 -26.10301
27.934998 13.865973 -26.392416
28.015797 8.1927652 -26.738447
28.405132 10.264658 -26.634623
28.406717 11.671436 -26.39439
28.180073 14.577037 -26.215017
28.028963 13.194776 -26.393925
28.029253 9.8833199 -26.389507
28.500656 11.026078 -26.606342
28.126854 9.8204985 -26.416677
27.658714 11.100536 -26.361259
28.403666 12.042214 -26.490509
28.492229 15.012913 -26.006296
28.199072 9.7333231 -26.558193
27.244003 12.23947 -26.423206
28.125418 12.975155 -26.399889
27.733883 8.1091003 -26.548681
28.211475 13.352962 -26.158276
28.048889 9.2650747 -26.668039
27.924049 15.714262 -26.154177
27.736195 14.367215 -26.117094
28.006496 9.4474659 -26.401699
28.043215 11.027207 -26.367252
28.030128 12.258232 -26.253029
27.936169 8.1085835 -26.536085
28.224293 11.504306 -26.284567
27.727884 15.307085 -26.215755
28.185287 11.170771 -26.264601
28.022411 13.557571 -26.23012
27.273758 14.467749 -26.347939
27.945633 10.79872 -26.387306
27.824642 11.914445 -26.268515
28.599937 12.057075 -26.48221
27.208771 8.1091375 -26.639637
27.36622 12.245005 -26.461411
28.126677 13.542025 -26.144037
28.296396 15.759846 -25.963137
27.891327 13.990758 -26.437487
28.013159 15.859486 -25.969963
28.632214 8.2738457 -26.638206
28.327085 9.6479807 -26.617199
27.6462 11.288458 -26.499882
27.923645 14.765991 -26.054333
27.931002 13.653072 -26.39052
27.724421 9.4443302 -26.43762
28.131264 12.842178 -26.355978
28.124109 9.9780664 -26.582783
27.450302 10.239999 -26.622185
27.821487 13.21469 -26.193928
27.939848 9.8916416 -26.613646
27.462635 12.952472 -26.351767
28.2344 15.58502 -26.011265
27.83861 15.442518 -26.26844
28.772005 11.162599 -26.576744
27.729212 12.802827 -26.229948
27.815891 13.326527 -26.192043
28.426268 14.488767 -26.095736
28.335241 13.492537 -26.412138
27.256413 11.630738 -26.614693
27.928642 11.27385 -26.522888
28.304466 11.940259 -26.288822
27.735411 10.764306 -26.358072
27.916195 10.437338 -26.377531
28.024982 14.242986 -26.26626
28.723602 11.93946 -26.466837
28.037525 10.874058 -26.580324
28.510986 9.1800299 -26.702265
27.929806 8.8174829 -26.675297
28.709427 9.5812988 -26.665932
27.435194 9.5566654 -26.596895
28.051998 12.703051 -26.332069
27.921215 13.696688 -26.315996
28.328794 11.63368 -26.32482
27.92613 11.068711 -26.316574
27.476641 11.44629 -26.574926
28.178497 13.404014 -26.094406
27.819159 9.4475756 -26.420324
27.815203 11.158335 -26.296062
27.913712 11.028239 -26.462357
27.298674 12.566204 -26.290483
28.035385 13.331596 -26.181261
27.750048 13.194584 -26.195383
27.349176 13.829992 -26.367636
28.199049 11.588728 -26.398046
28.387701 14.682342 -26.269064
28.032553 11.144876 -26.495277
27.560244 11.832418 -26.185858
28.445717 8.2730694 -26.702862
27.412369 13.004024 -26.244007
27.929838 13.555593 -26.244017
27.932932 15.823926 -26.168657
28.097904 9.4468584 -26.381784
28.339582 11.860427 -26.273396
27.935104 8.6071596 -26.464226
27.817715 12.888833 -26.208809
27.925167 13.208108 -26.176313
27.381559 14.117644 -26.171799
27.830654 8.7178316 -26.69718
27.644699 16.168768 -25.950588
28.228199 13.339159 -26.417475
27.67112 16.133625 -26.145044
27.805264 10.174717 -26.528069
28.025835 10.528601 -26.353428
28.119297 8.9177351 -26.40852
27.356977 14.187672 -26.40592
28.03027 12.860775 -26.359209
27.514954 8.1588554 -26.78989
27.449171 8.1342955 -26.572954
28.221876 14.899498 -26.258524
28.042839 8.6331263 -26.726143
27.609299 12.488926 -26.268902
27.838978 11.067648 -26.323689
27.809162 9.989809 -26.394922
27.743618 11.068052 -26.332754
27.91643 9.4611797 -26.418495
27.642876 8.0945482 -26.574511
27.246305 11.963142 -26.375015
28.122454 15.84297 -26.185276
27.927605 9.1216431 -26.644524
27.221115 14.834741 -26.373938
28.311865 12.222885 -26.42127
28.124437 13.549875 -26.420277
27.648998 12.167569 -26.141985
28.126696 12.356524 -26.228182
27.805143 14.826969 -26.381041
28.105316 11.001262 -26.45727
28.101 13.33947 -26.193697
28.036493 15.44189 -26.249489
27.735905 13.34586 -26.199459
28.036259 8.0835924 -26.535326
28.002586 12.418772 -26.494591
27.73711 16.143671 -26.137726
28.011948 10.020017 -26.394838
27.630768 13.000566 -26.305693
28.292658 11.550281 -26.556984
28.035007 13.546989 -26.420004
27.742989 10.745653 -26.549139
28.493345 10.714992 -26.540892
27.652689 8.3028774 -26.701675
28.231188 9.986515 -26.355556
27.835354 12.802687 -26.227365
27.916672 13.338736 -26.197712
27.929314 11.686615 -26.461973
28.13278 14.595514 -26.069731
27.924648 13.511211 -26.361338
27.558611 11.051636 -26.484091
28.431442 10.210213 -26.337015
27.447424 11.726534 -26.572908
27.356493 9.6356106 -26.667091
27.934885 8.9968691 -26.622978
28.026518 13.378695 -26.338348
28.333139 14.176323 -26.339613
27.105055 11.959406 -26.55073
28.028301 14.509338 -26.08732
28.125872 9.2622986 -26.673317
27.469213 11.320993 -26.380373
27.60442 14.374979 -26.347902
27.827251 8.1078072 -26.548218
27.916914 12.562572 -26.461842
28.136257 14.668074 -26.150173
28.626711 12.186895 -26.375719
28.412966 12.563835 -26.188416
27.541935 11.082807 -26.361719
28.390377 13.769871 -26.385208
27.544046 13.087604 -26.222229
27.726425 14.899518 -26.081747
27.429798 11.07712 -26.525417
27.835829 14.172381 -26.37628
27.534533 11.514479 -26.574747
28.309692 8.7259789 -26.704893
27.43026 10.303456 -26.583633
28.028534 14.69584 -26.065178
28.144705 11.148916 -26.292381
27.920439 11.150597 -26.490517
28.134478 15.129853 -26.18264
27.610083 11.931149 -26.543926
27.32338 10.243163 -26.573849
27.835802 10.657959 -26.364706
28.013739 12.889382 -26.198206
28.519386 14.724118 -26.291328
28.037962 13.385676 -26.134575
27.400051 13.219438 -26.242764
27.58672 16.039846 -26.112806
28.441092 13.456337 -26.430889
27.309059 13.608482 -26.36739
27.431852 11.893048 -26.41231
27.506897 10.257274 -26.619513
28.310837 12.106509 -26.516266
28.020834 11.86577 -26.386959
27.846859 15.836444 -25.984674
27.930431 15.394753 -26.163239
28.022263 12.370718 -26.239357
28.017851 13.829727 -26.020645
27.712681 15.535931 -26.019791
27.642887 8.0333538 -26.688688
27.635447 11.77392 -26.429077
28.090607 10.697211 -26.492647
28.015789 11.512366 -26.214724
28.02734 15.158567 -26.160872
27.972837 13.13964 -26.146242
28.140381 12.488489 -26.24062
27.354399 13.221564 -26.243553
28.037813 10.871061 -26.342098
28.387417 12.553274 -26.161108
28.433924 8.5045576 -26.709663
27.380913 13.563879 -26.455528
28.731728 11.605907 -26.505512
27.860649 16.160843 -26.173765
27.679255 13.398202 -26.103502
27.923223 13.427036 -26.168369
28.11083 10.649102 -26.347933
27.814018 8.009696 -26.579685
28.498615 11.175527 -26.537348
27.467607 12.862679 -26.357843
28.611448 13.556482 -26.439476
27.417261 11.896902 -26.497364
27.38784 10.773719 -26.659327
27.736235 9.232048 -26.629873
27.418249 12.010712 -26.404305
27.257353 11.547631 -26.380846
27.554665 14.46634 -26.111885
27.624086 10.828979 -26.598682
27.7276 14.76395 -26.300159
28.172422 10.810207 -26.369669
27.648815 11.427015 -26.323542
28.210838 12.930542 -26.329189
27.643126 8.1422319 -26.641272
28.222626 12.830278 -26.359064
28.29216 13.361797 -26.186073
27.843468 8.472805 -26.657553
27.833092 9.4444284 -26.61414
28.129438 8.1952991 -26.736189
28.104439 9.1575918 -26.399645
28.24995 11.553921 -26.552921
28.094227 9.7660332 -26.357479
27.404703 9.6031809 -26.471123
27.741024 13.511757 -26.365482
27.737148 11.681681 -26.257774
27.508101 11.440364 -26.584972
27.745523 12.031851 -26.48818
28.13047 12.449395 -26.429264
28.213102 15.162083 -26.30438
28.246956 14.987454 -26.259169
27.82996 15.011402 -26.315876
28.547094 12.155765 -26.296883
28.426216 11.583903 -26.49099
27.249704 10.365973 -26.469629
27.845165 9.7668304 -26.388592
27.549864 12.790175 -26.263454
28.101093 8.9536743 -26.481577
28.027308 11.654813 -26.305151
27.514008 11.434859 -26.368526
27.905212 16.105881 -26.234137
27.25329 12.680189 -26.263372
27.827896 8.7826395 -26.620951
28.140003 8.0608149 -26.459442
27.737179 8.5208635 -26.707926
27.630394 9.4044514 -26.487762
28.135258 11.093558 -26.576197
27.736296 9.0476503 -26.479662
28.322029 13.162581 -26.284552
27.755943 8.947278 -26.713549
27.928644 14.599399 -26.300961
28.309635 12.519604 -26.193214
27.735865 13.750333 -26.155474
27.343878 11.183922 -26.623672
28.016804 8.7564669 -26.609631
27.85288 13.316647 -26.420988
28.125645 12.350329 -26.454662
27.527386 9.8486862 -26.57152
27.634579 15.031695 -26.088886
27.549589 12.988775 -26.224216
28.121319 10.96171 -26.548824
27.825588 15.284781 -26.107824
28.231091 12.687756 -26.191387
28.132568 11.502981 -26.524324
27.842522 14.817439 -26.322927
27.254988 11.254459 -26.647268
28.030325 11.723134 -26.51255
27.927666 9.7137375 -26.663038
27.364298 16.060789 -26.288666
27.928253 12.325067 -26.400909
28.317471 14.903853 -26.261826
28.03615 15.309611 -26.009518
28.44215 13.018098 -26.428806
28.03297 13.300748 -26.159018
28.125397 13.828289 -26.322159
28.222328 10.114904 -26.380661
27.917173 13.307355 -26.175081
28.104692 12.935205 -26.318516
27.739832 10.65632 -26.567255
28.034697 11.27735 -26.513136
28.2306 15.220548 -26.245014
27.825716 9.7117615 -26.671335
28.028387 10.208232 -26.586658
27.818487 10.759566 -26.349577
27.83288 11.693726 -26.267736
28.59934 11.353378 -26.544462
27.593618 12.431028 -26.350292
27.422112 12.912901 -26.24382
27.741844 11.594667 -26.50053
27.431597 14.092836 -26.24522
27.729692 13.265477 -26.287046
27.948269 14.249236 -26.2659
28.028839 15.356457 -26.024729
27.927227 15.449268 -26.243788
27.365877 12.872309 -26.45808
27.944828 11.497526 -26.513168
27.622074 9.9981079 -26.388372
27.924713 12.145636 -26.250185
28.221394 11.052842 -26.522942
27.859133 10.586371 -26.383478
28.332237 15.12878 -26.267118
28.225519 13.20649 -26.389477
27.841431 15.184988 -26.169306
27.848576 10.746868 -26.620127
27.820127 13.537598 -26.166355
27.535189 9.6658649 -26.608627
27.846077 11.858679 -26.363646
28.103767 15.457089 -26.008169
27.845627 9.0737829 -26.74194
28.026073 14.079004 -26.2362
28.259687 11.237344 -26.587955
28.201269 8.6944246 -26.638229
27.842808 13.540461 -26.42346
27.72794 8.1926889 -26.734991
28.400387 12.544348 -26.360588
27.396774 12.881893 -26.191463
28.597715 8.180068 -26.787571
27.70488 10.439468 -26.313519
28.020031 15.578001 -26.042488
27.934589 11.905 -26.263491
27.820133 10.248757 -26.651785
27.825449 9.6760178 -26.410892
27.75799 12.582288 -26.45598
28.700943 10.781477 -26.439627
27.906368 13.25489 -26.309196
28.203108 10.419832 -26.46767
28.030603 14.911484 -26.261927
28.123205 11.148643 -26.482618
27.228367 8.6434603 -26.579977
27.643421 12.004703 -26.255613
27.897585 8.7733383 -26.632689
28.44591 13.322845 -26.403271
27.93169 8.4520082 -26.647978
27.214508 8.3528786 -26.617821
28.125252 11.307962 -26.570383
27.434677 8.9465179 -26.541241
28.233225 11.603936 -26.275074
28.226238 12.664614 -26.422741
27.929623 15.033556 -26.065128
27.497595 10.154686 -26.521908
27.940828 8.9533825 -26.480892
28.225594 8.9526606 -26.700083
27.740036 15.775092 -26.299137
28.029045 13.426475 -26.1688
28.309746 9.8965864 -26.623652
27.924358 14.943752 -26.11694
27.733231 14.496531 -26.114832
27.725367 13.298933 -26.18681
27.737392 15.898787 -26.015944
27.988306 16.034895 -26.081005
28.249058 12.360861 -26.231268
27.310743 12.366628 -26.511389
27.470171 9.6202402 -26.409275
28.336767 8.6281281 -26.671986
27.83181 8.2863541 -26.708899
28.327045 11.00728 -26.590332
27.416786 10.3429 -26.422611
28.247591 10.61266 -26.316463
28.124016 14.902628 -26.047121
28.199873 9.5258331 -26.580452
28.406633 11.197884 -26.553183
27.519175 11.372998 -26.332521
28.416517 15.840972 -26.160177
28.198786 12.854956 -26.155878
27.615301 9.0365877 -26.513851
28.008938 10.176543 -26.518942
28.110838 15.887249 -25.987141
28.131079 9.0854483 -26.72826
27.200233 13.228875 -26.287701
27.923546 9.9843035 -26.583687
27.916857 15.544472 -26.003578
28.315042 8.2347097 -26.776064
27.946249 9.2993507 -26.37611
28.223835 10.026835 -26.403326
28.147327 16.0126 -26.086115
28.410875 12.564738 -26.446003
27.921238 15.896394 -26.013472
28.128443 14.553695 -26.036142
28.451517 13.111622 -26.398056
27.522026 8.9128666 -26.441778
27.199846 11.538546 -26.611771
28.133625 13.204441 -26.396849
28.01091 11.821971 -26.272997
28.018267 15.462637 -26.116089
28.127007 15.010191 -26.025314
27.513565 11.909603 -26.432171
28.331375 10.877044 -26.585613
27.919989 9.2959309 -26.583714
27.556686 14.973495 -26.332108
27.736086 15.853955 -26.187132
27.423672 11.826825 -26.32275
27.625078 13.313716 -26.186935
27.727295 11.555637 -26.44174
27.654007 11.286911 -26.332556
27.840313 14.118726 -26.412037
27.604462 13.920827 -26.017855
28.21909 10.083869 -26.498709
27.735376 11.421218 -26.552351
27.741138 15.685193 -26.265715
28.034012 15.009635 -26.033804
28.032005 8.2906284 -26.481577
28.020262 13.522699 -26.153547
28.10442 15.553288 -25.985142
27.421947 12.673766 -26.247971
27.833767 16.119816 -26.010139
28.133158 9.7248096 -26.449226
27.939407 14.416347 -26.150267
27.343096 9.275568 -26.499338
28.034233 12.571414 -26.449772
27.532625 14.111526 -26.234468
28.226704 13.547585 -26.404419
27.838924 10.624025 -26.329512
28.011145 9.5551424 -26.370529
27.636003 12.631058 -26.155758
28.025457 15.041331 -26.301062
28.145662 14.539012 -26.232313
27.618109 9.590724 -26.461468
27.935261 10.659937 -26.357334
27.573479 15.124222 -26.163479
27.901299 8.5539694 -26.752851
27.839775 11.192512 -26.556921
28.303528 16.058569 -25.960989
28.227695 15.530795 -25.992611
28.329514 11.607566 -26.486681
28.12801 12.667655 -26.42589
28.637814 10.457385 -26.598059
27.547606 8.1166534 -26.572266
28.033438 11.072632 -26.315418
28.111616 13.282221 -26.226854
27.845936 8.4635639 -26.441973
27.833012 7.9612064 -26.742775
27.459387 9.2486897 -26.752548
28.057968 15.220262 -26.227686
27.916019 10.457045 -26.635618
27.845829 14.443424 -26.154863
27.472395 10.775118 -26.375484
28.136288 14.497511 -26.086868
28.121328 12.900273 -26.191273
28.298895 10.546975 -26.331043
27.726213 8.8086834 -26.666491
27.514 11.585841 -26.554832
28.29929 15.705605 -26.278702
27.928183 10.973476 -26.334652
27.726349 15.041457 -26.292933
28.035717 13.109804 -26.421703
28.226591 11.0717 -26.305645
27.851885 14.707211 -26.337479
28.028322 10.761855 -26.339567
27.939835 10.749294 -26.34263
28.028858 10.923621 -26.262308
28.029858 8.2814779 -26.710178
27.992188 9.7905254 -26.379549
28.118057 9.1427774 -26.646725
27.909933 13.553705 -26.421286
28.525799 11.599374 -26.290483
27.932364 10.569499 -26.382856
28.141041 14.85622 -26.206865
27.833963 15.886847 -26.005537
28.136719 9.544281 -26.368971
28.155691 10.050923 -26.420168
27.553349 15.736082 -26.179388
28.233313 8.4875565 -26.777674
28.116657 10.748232 -26.33386
28.122843 15.341031 -26.026306
28.130589 11.996225 -26.420845
27.874334 9.6260185 -26.692287
27.916641 15.581759 -26.023783
27.942896 9.7450075 -26.369913
28.223488 10.200936 -26.350809
27.329252 12.984811 -26.258297
28.384869 11.013309 -26.437149
28.32572 13.20608 -26.398666
27.738556 11.361542 -26.49276
28.240465 9.9477139 -26.43009
28.229322 11.819338 -26.261217
28.202007 14.255696 -26.057375
27.332123 12.280115 -26.326458
27.63513 11.988976 -26.41375
28.421482 14.366605 -26.270407
28.114283 14.825728 -26.055523
28.319641 13.116448 -26.41707
27.933649 11.69255 -26.254545
27.939209 13.482576 -26.304502
28.302952 9.784853 -26.352779
27.731869 11.275551 -26.324568
28.410641 8.9538431 -26.692717
27.783499 8.6249323 -26.332996
27.440649 8.5296564 -26.731947
28.035862 12.261859 -26.48082
28.434742 11.542118 -26.555305
28.223856 9.8045712 -26.419926
28.567804 8.2462425 -26.711641
28.109509 11.062343 -26.30924
27.331226 10.650836 -26.666904
28.241129 9.1328669 -26.527105
28.223698 8.2032509 -26.735638
27.637077 11.693692 -26.550081
27.507004 11.651183 -26.569899
27.407845 14.810912 -26.372229
27.844658 13.026942 -26.443602
27.615797 11.662874 -26.551008
28.014387 13.026688 -26.27416
28.037199 9.1612549 -26.692329
27.948704 11.654561 -26.331308
27.923243 11.193417 -26.325949
28.422613 10.469548 -26.622507
27.637312 12.249648 -26.497736
28.03109 14.90668 -26.04624
28.40934 10.168455 -26.652584
28.020813 9.6706419 -26.406273
27.747597 15.707458 -26.304964
28.426332 15.696373 -26.264446
27.744709 8.415369 -26.728531
27.830942 13.51487 -26.365227
27.630398 14.026571 -26.023741
27.600218 8.4335442 -26.775642
27.945509 11.105151 -26.3403
27.640779 12.043598 -26.294239
27.410795 10.60146 -26.664677
27.338615 12.684988 -26.27911
28.034197 8.320693 -26.757338
27.856207 14.889761 -26.286369
27.845825 8.4150152 -26.737034
27.83791 12.216734 -26.410223
27.831621 13.738584 -26.150452
28.302242 12.774659 -26.177614
28.22648 11.087111 -26.569033
28.031574 12.143023 -26.247395
27.83412 11.502931 -26.534542
27.930984 10.420998 -26.585495
28.068508 9.9615889 -26.646664
27.585608 10.251893 -26.640226
28.236835 12.00104 -26.423479
27.616882 12.147944 -26.27548
27.926071 11.588035 -26.481789
27.827194 12.76701 -26.20763
27.725405 14.470433 -26.077858
27.455235 12.10567 -26.413269
28.128017 9.4425545 -26.62112
27.53614 12.67662 -26.260201
28.512693 15.186588 -26.307007
28.32328 15.67295 -25.996611
28.027483 11.989604 -26.43676
27.520639 11.341061 -26.398195
28.325338 14.820709 -26.286438
27.251474 10.857133 -26.644451
27.64061 15.44408 -26.051554
28.226284 12.148705 -26.231693
28.222015 14.186787 -26.351151
27.746861 14.19387 -26.384428
27.449282 11.436594 -26.371824
28.309593 12.006282 -26.401915
27.350958 10.155291 -26.401497
27.572403 14.214616 -26.114573
27.93354 11.817362 -26.274828
28.031338 11.195166 -26.541965
28.12396 11.184927 -26.543917
28.22072 8.8283033 -26.688272
28.123844 10.535543 -26.336006
28.032755 14.09921 -26.375546
27.50894 10.877272 -26.606279
27.92271 14.462074 -26.080587
28.204002 11.282178 -26.287968
27.769497 12.972115 -26.422005
27.927446 12.973981 -26.189724
27.643539 14.550303 -26.214275
28.408474 11.298555 -26.503851
28.310555 12.054497 -26.242571
28.126633 13.01997 -26.443413
27.926636 13.107176 -26.200932
28.22533 15.912351 -25.936815
27.526501 14.869162 -26.325018
28.121483 11.279377 -26.52425
28.420353 12.165291 -26.493689
28.125874 13.108393 -26.422251
28.318108 11.041633 -26.528395
28.516361 9.7235889 -26.674372
28.309647 11.199512 -26.552259
27.930437 11.058809 -26.5187
27.940948 15.48383 -26.302513
27.948336 11.561891 -26.557209
28.452486 14.820823 -26.290659
27.576366 14.438701 -26.24604
28.40744 12.932692 -26.458887
28.23164 13.511922 -26.357569
28.129585 8.9452858 -26.694881
27.517181 11.579197 -26.375217
27.535471 9.1886482 -26.52363
28.407696 11.471615 -26.433632
27.617956 8.8037844 -26.67536
28.616785 10.210871 -26.625923
27.811838 13.11936 -26.19648
28.355339 10.379133 -26.657515
28.046312 13.954509 -26.36548
28.335602 14.845922 -26.03693
27.601883 10.978731 -26.595032
27.730995 9.009654 -26.634081
27.3957 10.448428 -26.638931
27.725487 13.424582 -26.372059
27.926712 14.142081 -26.297361
27.824446 12.089981 -26.404469
28.42572 13.958385 -26.35651
28.40889 13.865705 -26.372839
27.924765 14.373536 -26.29969
28.22999 13.115502 -26.422434
27.428493 11.650076 -26.572269
28.44186 13.120051 -26.163733
28.149445 13.088222 -26.153143
28.103523 11.240557 -26.451267
27.734402 11.376358 -26.308889
28.221523 12.262446 -26.480871
27.738136 12.083282 -26.40435
27.826355 11.822762 -26.27986
28.013546 12.452613 -26.225716
28.007256 13.057526 -26.167379
28.02549 14.362357 -26.304956
28.169127 12.083932 -26.180387
27.734547 13.10002 -26.211473
27.555567 12.897136 -26.249033
27.715645 10.350465 -26.411934
28.133495 11.90998 -26.454134
28.037548 10.653032 -26.586227
27.678144 12.971025 -26.523254
27.928377 8.9204416 -26.64609
27.830399 8.9563713 -26.718857
27.617741 13.902019 -26.30558
27.875902 9.0209312 -26.838179
27.223845 13.937407 -26.333405
28.813276 11.28742 -26.385021
27.559401 12.782277 -26.23027
27.362301 12.437916 -26.284771
28.031261 10.804349 -26.406839
27.44882 12.674932 -26.464079
28.316402 12.306955 -26.168703
28.588804 11.050694 -26.55332
27.748629 11.99646 -26.429529
28.123739 9.6886988 -26.385166
27.928024 9.3508444 -26.64604
28.222565 14.057706 -26.328102
28.128902 14.371538 -26.304726
27.937529 10.865013 -26.582989
28.219551 13.654537 -26.138981
27.827072 13.823408 -26.320753
27.83445 14.693891 -26.072121
28.317598 8.511467 -26.705761
27.534996 9.5925398 -26.458652
28.116777 15.222864 -26.224297
28.137709 13.960001 -26.359686
28.224068 14.362679 -26.301569
28.327543 15.062579 -26.19216
28.328485 13.01758 -26.434372
27.994967 13.780542 -26.412407
28.218742 10.799413 -26.401449
28.519632 13.551841 -26.381821
27.742487 11.509622 -26.560347
28.152115 14.74749 -26.066315
27.839188 11.987641 -26.433073
28.225719 9.8004007 -26.334333
28.318342 12.229367 -26.194853
27.511902 8.3291388 -26.818235
27.929796 11.083956 -26.587532
28.389978 10.22588 -26.377361
28.302441 12.359127 -26.216797
28.513533 10.145499 -26.658268
28.519901 9.2350159 -26.672028
28.600479 12.423723 -26.457001
28.214363 10.615902 -26.507812
28.323652 9.7132196 -26.665684
27.446459 10.448132 -26.425781
28.115679 10.081491 -26.337612
27.931093 9.5844355 -26.430164
28.513193 14.352311 -26.167608
28.047129 11.103386 -26.570227
28.121265 14.412436 -26.181105
27.521152 13.039366 -26.362663
27.422739 14.893766 -26.113401
27.725376 12.265885 -26.505398
28.015596 11.683377 -26.459658
27.441114 13.838227 -26.376209
28.128376 12.762589 -26.401423
28.41436 10.494974 -26.564354
28.305107 14.178101 -26.073647
28.093014 13.465724 -26.462383
27.624805 11.372838 -26.293568
27.827198 15.486705 -26.15345
28.215374 12.58601 -26.342651
27.743317 11.05579 -26.522135
28.228262 9.6705074 -26.388748
28.40345 12.435171 -26.202084
27.434044 12.36753 -26.294582
28.127419 13.426032 -26.398664
27.818865 11.650593 -26.309853
27.919584 9.6880121 -26.409101
27.862169 15.030072 -25.908337
27.647476 12.87462 -26.225126
28.125841 13.6554 -26.145895
27.921726 14.693965 -26.075861
27.945953 14.822294 -26.313828
28.416479 14.600072 -26.29748
27.820301 11.991804 -26.237309
28.232761 10.777218 -26.599749
27.632627 10.786777 -26.620737
28.023144 11.71679 -26.285509
27.544098 10.511747 -26.560169
27.662445 10.570518 -26.641745
27.914337 13.423159 -26.389645
28.428064 12.034711 -26.179663
27.7418 14.968966 -26.253939
28.026445 13.480639 -26.432152
28.302803 15.319853 -26.20303
27.529316 15.976615 -26.289183
27.838131 10.534537 -26.35574
28.509317 11.28785 -26.501089
27.920677 12.44383 -26.421185
27.752449 15.388344 -25.926769
28.21768 14.086494 -26.206808
28.109037 14.930064 -26.13929
27.831104 9.2284908 -26.62076
28.38582 15.04848 -26.007141
28.040956 11.910443 -26.460001
27.53871 11.966778 -26.40867
28.131256 9.0453091 -26.433844
27.414524 11.783319 -26.436636
28.249668 9.8316355 -26.694735
28.217724 9.2365589 -26.612473
28.428106 16.115339 -26.203133
28.241213 11.145428 -26.476532
28.157326 12.170626 -26.271534
28.190277 14.005651 -26.05415
28.220587 13.984664 -26.228773
28.118053 12.662683 -26.20566
27.639999 13.178612 -26.343866
27.715836 14.725226 -26.115541
28.118183 12.265955 -26.243025
28.123995 13.291724 -26.358431
27.739193 10.537817 -26.362906
27.736553 11.403934 -26.33695
27.419399 13.150732 -26.341074
28.317888 12.139835 -26.230751
27.828442 8.1442375 -26.703413
28.318672 12.270184 -26.248447
27.6327 14.167317 -26.29714
27.834782 15.44853 -26.030235
27.937717 8.1515551 -26.692011
27.736101 13.425688 -26.181616
27.630817 12.361878 -26.262297
28.435602 10.650141 -26.580513
27.614424 15.516158 -26.226011
27.744804 15.414883 -26.247137
28.111883 10.219653 -26.371763
28.322132 10.98549 -26.313387
27.622221 15.403327 -26.270811
28.031723 15.443148 -26.011379
27.451193 12.065645 -26.19491
27.931124 15.443941 -26.018505
28.203196 13.482917 -26.426586
27.516523 11.858624 -26.349821
28.419144 14.079823 -26.360176
28.029018 15.576618 -26.263166
28.191259 9.222723 -26.383238
27.282043 10.683767 -26.440592
28.052765 10.995186 -26.601028
28.322317 12.268472 -26.482584
27.63905 10.161757 -26.53805
28.112629 13.161409 -26.336851
27.563549 13.355963 -26.418409
28.227493 13.017038 -26.437147
28.49692 13.230326 -26.431709
27.927141 14.505368 -26.092781
27.923157 15.307078 -26.206133
27.857698 14.657668 -26.261536
28.044907 14.195581 -26.129187
28.347649 14.539384 -26.24098
27.907909 14.343538 -26.243576
27.64344 14.155194 -26.122969
27.513762 12.980144 -26.425869
28.513702 10.939179 -26.602139
28.323112 13.086108 -26.368879
27.846497 9.4786291 -26.683161
28.015402 10.666881 -26.352203
28.01252 8.6930838 -26.651005
28.421139 10.343438 -26.349106
28.066891 10.605571 -26.321617
27.823944 12.040852 -26.268135
27.827011 11.363882 -26.496761
27.856096 12.184803 -26.276678
28.02894 8.7270212 -26.701181
28.344402 11.216885 -26.592596
27.525124 11.742432 -26.342043
28.212675 11.119736 -26.345608
27.932756 11.467358 -26.465355
28.430433 14.140037 -26.282669
28.497519 12.256909 -26.47209
28.415995 11.471946 -26.576532
27.183615 11.863559 -26.430103
28.03212 14.68027 -26.270685
28.645943 9.8262596 -26.620583
27.835028 12.847178 -26.368214
27.627155 15.226529 -26.250196
28.024149 13.238162 -26.444014
28.126579 13.250199 -26.429733
27.729118 14.24681 -26.395706
28.117107 10.391723 -26.652349
28.221085 14.140028 -26.297832
28.214378 13.230556 -26.434237
27.4028 12.237445 -26.534399
28.123835 11.684979 -26.441353
27.530825 10.649476 -26.397942
27.343229 12.92829 -26.274218
27.560011 10.625624 -26.628536
28.420322 9.8055067 -26.635395
27.615156 12.807985 -26.245209
