# .PCD v0.7 - Point Cloud Data file format
VERSION 0.7
FIELDS x y z
SIZE 4 4 4
TYPE F F F
COUNT 1 1 1
WIDTH 1558
HEIGHT 1
VIEWPOINT 0 0 0 1 0 0 0
POINTS 1558
DATA ascii
53.534725 26.600798 -61.47789
54.16502 20.601997 -61.725765
55.050468 21.115213 -62.023964
55.756622 28.438696 -61.551174
53.663689 30.594664 -61.851662
55.99033 29.565838 -60.979427
55.389011 18.935772 -62.145443
53.754368 26.613268 -61.482204
54.051128 20.733864 -61.622547
57.520576 16.111101 -61.098801
55.886078 23.841335 -61.801186
55.643646 31.529165 -61.421234
55.776443 29.726856 -61.579575
55.74905 16.888758 -61.479908
52.969143 23.918697 -61.70607
53.590294 17.431223 -61.904327
54.449684 16.760284 -61.712345
54.736481 27.675884 -61.266754
55.267048 31.194046 -61.542313
53.4146 26.964315 -61.448963
55.938637 19.447931 -61.931828
53.216095 15.859813 -61.909508
52.840561 27.139742 -61.576023
56.55957 15.792328 -60.948746
53.55484 19.795662 -61.75301
52.420429 27.091642 -61.58791
54.01366 29.672001 -61.396103
53.553665 19.479315 -61.763866
56.155697 17.490347 -61.390789
56.745384 16.667387 -61.279812
55.274796 21.257944 -62.020111
55.333393 18.261122 -62.06424
54.635021 29.904652 -61.331203
53.940464 26.48946 -62.076683
54.132908 23.22673 -62.102566
54.945839 31.92853 -61.658878
57.55442 29.040178 -61.117104
53.947578 21.563324 -61.608681
54.544319 27.898638 -61.839115
54.353844 20.244736 -62.156357
54.365318 23.199249 -61.637218
55.937946 19.20927 -61.895527
56.147099 16.54981 -61.388409
56.154667 28.510195 -61.523144
54.356293 17.421398 -61.755337
56.548798 26.978649 -61.538548
54.83989 25.922249 -61.878033
54.640224 23.678297 -61.427258
56.549099 30.005646 -61.410759
54.242222 17.417675 -61.774963
56.055683 28.518169 -61.52832
55.356419 19.153149 -61.992863
55.370705 26.449478 -61.786057
54.539467 18.870607 -61.640823
55.132538 24.965319 -61.316814
55.045929 30.095125 -61.123661
55.358677 31.216702 -61.013805
55.460968 29.731613 -61.673035
56.121872 30.255806 -60.975616
53.836853 15.940628 -61.855389
54.051804 19.456013 -62.248329
54.760559 27.772425 -61.259815
56.970829 27.064308 -61.010406
54.127262 23.271505 -62.07542
54.839104 27.661018 -61.255497
54.74712 17.417332 -61.684864
55.040981 24.204973 -61.865414
54.041454 27.595947 -62.046589
56.328812 28.881878 -61.528484
53.055157 27.420895 -61.516159
57.244595 23.090788 -61.47081
54.658043 17.229277 -61.766827
54.598862 15.981068 -61.128193
57.070278 18.68751 -61.668449
54.338436 20.21427 -62.111095
55.126389 19.933971 -62.016632
52.556828 26.714544 -61.620728
52.854549 16.489914 -62.045074
52.663609 25.449488 -61.675247
55.542774 24.320414 -61.794178
54.665005 25.04031 -61.916
55.839054 24.319223 -61.728474
55.654484 20.154175 -61.878632
53.342644 31.023542 -61.372101
56.117443 25.185926 -61.663422
54.541428 27.149378 -61.862671
54.849777 26.00099 -61.317776
56.047138 15.871529 -61.439503
52.567554 21.194191 -61.826588
53.857456 18.778355 -62.326443
55.549126 27.60878 -61.657524
54.454311 27.028364 -61.866684
55.420223 29.548645 -61.740936
55.251286 19.813187 -61.976589
56.215836 20.988073 -61.819721
53.945953 28.668602 -61.991238
53.9575 21.159658 -61.638474
53.750061 26.554676 -62.053329
54.687832 31.525034 -61.772884
55.034218 17.906212 -61.563084
54.049126 20.217882 -62.14283
56.466789 19.188227 -61.79528
52.742786 25.376486 -61.656273
55.144558 17.247559 -61.674614
54.65617 30.634005 -61.91185
55.305706 21.771854 -61.462982
55.946117 16.629723 -61.413868
54.446781 29.866816 -61.241966
55.950493 32.047264 -61.31649
54.454823 28.327543 -61.395653
54.548378 27.150328 -61.318893
54.247719 21.931856 -62.10181
57.140461 20.182409 -61.616531
56.647449 16.23506 -61.29533
54.34206 27.983334 -61.324238
54.530815 19.315331 -62.183723
55.447033 22.766207 -61.8801
54.047455 20.6315 -61.636818
53.043552 25.655071 -61.620655
54.173122 32.256054 -61.098507
54.760246 32.82637 -61.625916
53.630337 24.860928 -61.594238
55.582863 22.816448 -61.825691
53.880486 23.180866 -62.082302
56.44735 29.682678 -61.374889
55.745014 30.694641 -61.482216
55.673477 17.004116 -61.556004
57.238701 18.684429 -61.623894
54.656792 15.974394 -61.779358
56.716164 28.762512 -61.393547
54.956181 18.409317 -62.186039
54.294895 17.026955 -61.640282
54.361519 16.78578 -61.788452
55.353897 32.8596 -61.565643
55.24332 28.969194 -61.684669
56.145294 30.334345 -60.90134
57.551605 16.010275 -61.035042
53.936459 26.447725 -61.496941
55.546459 29.066868 -61.581627
54.43478 24.119728 -61.967964
57.439056 18.245014 -61.66151
55.593712 17.048071 -61.378925
54.13467 31.122059 -61.753361
54.349514 30.551357 -61.809814
56.861012 18.668339 -61.710953
56.560104 25.651485 -61.170609
54.838097 21.911278 -61.461662
56.834751 15.996855 -61.19426
54.866764 23.112579 -61.452675
56.148476 22.835995 -61.718102
56.747849 21.731627 -61.607918
54.869987 21.749073 -61.541454
53.431278 20.509094 -61.728664
56.053822 16.360567 -61.437634
57.765076 16.447649 -61.069626
54.142338 21.945965 -61.536983
54.150146 17.604673 -61.743641
53.480083 18.932871 -61.776951
54.55769 25.783699 -61.374626
56.268951 21.8855 -61.655369
56.156849 31.873222 -60.841965
55.781937 17.128553 -61.56636
57.12513 18.048504 -61.346363
56.2187 26.312584 -61.636406
56.345486 18.69216 -61.815266
56.636654 17.063892 -61.198517
55.547031 16.361336 -61.537449
53.475601 19.39813 -61.828701
53.654984 21.361303 -61.657555
57.34462 16.720337 -61.077702
54.652882 29.122002 -61.726524
54.752209 29.411827 -61.788315
52.322269 25.614599 -61.663574
54.171486 17.420116 -61.783985
52.747406 16.634869 -62.00864
54.251022 20.544355 -61.630978
53.854301 19.983356 -61.671314
56.610172 29.643036 -60.980183
56.61903 27.517675 -61.478584
55.351559 28.528021 -61.654293
55.17207 24.033588 -61.970322
54.442207 20.549738 -61.591927
56.453041 31.6105 -61.346756
54.842983 30.241796 -61.810051
55.46426 17.47715 -61.520901
55.64526 17.106457 -61.510635
55.639034 16.803791 -61.531898
54.352821 27.782316 -61.845142
54.938309 27.746321 -61.847691
55.857147 29.220211 -61.404743
55.500412 26.692947 -61.164524
54.930901 25.043192 -61.32988
55.923241 19.013832 -61.913246
54.249664 21.870382 -61.536804
52.600407 19.737881 -61.835346
56.072647 32.004051 -60.863396
55.85207 17.968931 -61.965782
54.653942 20.774462 -62.048336
56.877293 26.546196 -61.489136
52.585487 19.77125 -61.897125
54.050629 21.032946 -61.607468
54.553673 21.554581 -61.488354
55.747604 27.603952 -61.623653
54.743896 21.4646 -62.04715
56.730602 30.12324 -61.337662
54.650307 25.374273 -61.936417
56.089649 20.433155 -61.925575
56.043587 32.047821 -61.298946
55.550816 17.467819 -61.497379
57.354523 27.120859 -60.879292
53.746872 19.989294 -61.692867
56.026848 29.241791 -61.517052
56.643719 19.187067 -61.752567
53.955482 19.494719 -61.704178
53.657856 18.837543 -61.751522
52.791508 17.441217 -62.050533
54.542912 19.112484 -62.20509
57.143265 26.990911 -61.405815
57.808266 16.673063 -61.036007
55.134396 30.547482 -61.664436
57.06678 25.029768 -61.110214
55.557522 21.651413 -61.95216
55.254208 29.460667 -61.643799
55.049328 15.87616 -61.226017
54.044537 19.48876 -61.690907
55.553364 32.511902 -61.491024
52.743156 17.022469 -61.994629
56.241543 32.048176 -61.260445
53.65815 21.048403 -61.685768
54.349243 29.654736 -61.251884
57.04166 19.043633 -61.664726
54.921608 24.887342 -61.898716
53.9436 31.550169 -61.267883
54.861118 24.699564 -61.976479
53.958668 30.31953 -61.345577
55.197285 32.845058 -61.557354
54.738956 32.532398 -61.650799
55.269173 29.186897 -61.682735
54.513565 19.132481 -61.786781
54.044708 16.642157 -61.766403
53.551952 23.985481 -61.584026
55.758308 28.409121 -61.67947
56.404892 30.367922 -60.940399
54.947803 28.613958 -61.200172
56.449505 29.357151 -61.403374
54.84877 16.764246 -61.642441
57.551121 16.564373 -61.090916
57.373741 18.431358 -61.261871
53.329483 30.276894 -61.414757
54.82864 19.135715 -61.703285
56.457649 19.023317 -61.845478
54.757629 31.246044 -61.660061
55.872684 25.175282 -61.716354
54.746235 28.651752 -61.797855
55.846329 28.98115 -61.651928
55.358749 25.294525 -61.807594
55.529346 25.763056 -61.830059
54.848934 16.580626 -61.68121
56.552624 29.679792 -61.408909
54.845325 17.423376 -61.665939
54.650372 18.445757 -61.622368
56.518627 20.602064 -61.788475
54.352592 20.545155 -61.608101
54.251556 19.092348 -61.70023
54.849468 20.059845 -62.133717
56.937237 20.454817 -61.134186
53.861595 31.953089 -61.248962
53.744549 21.980227 -62.135174
52.538689 28.23469 -61.584198
54.35014 17.598904 -61.708988
56.568512 30.734386 -61.377403
55.54966 26.148409 -61.754383
56.733768 28.498877 -61.397827
54.758282 31.005754 -61.817711
55.151394 17.437208 -61.718555
56.25864 21.567062 -61.829807
56.555698 28.546305 -61.424187
55.536591 19.554142 -61.995388
55.169048 29.943071 -61.273422
52.65218 21.117279 -61.822598
56.037563 30.831316 -61.414913
53.12587 26.218243 -61.646606
52.933064 16.171597 -61.887875
53.756866 23.225304 -62.194695
56.256191 31.472553 -61.382767
56.448597 32.049255 -61.218231
55.621208 28.386955 -61.589901
53.540798 25.564138 -61.569237
55.26918 21.635714 -61.917984
57.933491 16.547636 -60.9809
56.446259 24.562534 -61.646835
53.174515 26.738016 -61.582657
55.146702 15.876648 -61.420334
53.965683 30.978598 -61.392929
54.344849 17.464815 -61.858253
53.048801 27.153601 -61.596333
55.245174 22.187983 -62.043957
55.019672 24.348795 -61.918068
55.548317 26.216463 -61.721363
54.341213 30.218752 -61.333401
54.567287 32.073933 -61.662457
56.706169 29.35568 -61.356503
53.853123 26.414473 -61.519043
54.588417 30.860514 -61.731548
53.061447 16.011736 -61.967712
55.601875 29.848955 -61.511593
53.816238 30.757162 -61.8964
55.949131 16.053131 -61.475689
53.747089 16.113474 -61.839363
53.954285 26.802837 -61.412113
56.33123 23.319292 -61.574982
52.664719 17.886156 -61.934475
57.653114 18.629772 -61.544121
54.073784 20.037731 -62.178432
54.384369 32.589134 -61.7789
54.338322 32.815125 -61.676388
55.137573 29.063782 -61.765167
53.790527 21.402138 -61.752239
56.463261 20.843597 -61.742538
56.677864 25.780979 -61.034836
56.946823 26.24708 -60.944805
57.24575 18.77179 -61.586136
55.951393 29.068174 -61.493984
54.544338 16.811939 -61.752781
55.348282 28.741753 -61.668873
55.251881 32.378883 -61.508198
55.048088 15.942767 -61.170807
53.436317 21.6469 -61.689373
54.925499 25.943153 -61.875713
54.743832 32.492188 -61.565842
52.647747 25.741489 -61.63047
53.390778 20.528507 -61.776909
56.551273 32.056992 -61.203831
54.737484 25.840191 -61.960857
53.767784 23.180033 -62.094643
54.846684 16.013433 -61.11721
55.279705 23.493549 -61.257874
56.446507 17.237368 -61.443981
53.478992 20.296505 -61.711987
54.34499 19.370136 -61.62434
55.537975 21.185556 -61.896416
55.007874 25.025549 -61.337379
57.402103 16.03927 -61.186829
54.191013 15.917544 -61.337055
55.10244 24.171413 -61.911736
56.905697 17.608089 -61.741394
54.245605 26.001186 -61.426224
53.754784 26.933193 -61.464691
52.952705 23.763916 -61.68848
53.947674 19.396597 -61.742432
54.178787 29.913637 -61.353733
53.850948 30.839396 -61.921726
53.955757 23.978437 -61.525208
54.136192 25.473707 -61.99683
54.05209 26.920498 -61.405525
57.399223 22.915508 -61.427597
56.851444 24.998266 -61.504055
55.344585 26.187439 -61.696823
53.48243 22.217182 -61.698425
53.053993 16.782841 -61.986019
53.732327 31.536339 -61.303646
56.727551 21.524704 -61.672756
55.038734 26.546066 -61.27512
53.244766 25.340118 -61.597218
54.245583 19.490694 -61.657955
56.549236 31.25136 -61.301437
55.471619 26.230051 -61.830357
52.990807 30.657621 -61.496529
54.274002 18.769047 -62.178631
56.243549 29.121048 -61.416008
57.342747 16.758879 -61.116325
54.052471 19.579004 -61.673389
57.466114 16.242193 -61.106117
57.241653 29.061628 -61.232525
56.120331 26.041168 -61.528122
54.150665 22.629421 -61.547379
55.869816 32.555351 -61.377754
57.349216 16.017754 -61.134579
55.554684 29.463793 -61.570377
54.834248 31.37311 -61.161518
54.548786 21.381908 -61.708694
55.643581 21.731577 -61.831493
54.262558 23.169926 -62.013931
55.650665 15.849327 -61.017052
54.444187 26.266443 -61.345051
54.94606 19.91157 -62.205887
55.250984 16.891191 -61.583797
56.656372 19.716532 -61.737419
56.216106 30.961729 -61.461288
56.709587 31.936058 -61.298576
57.239326 16.977144 -61.163704
56.941658 16.267656 -61.296452
55.147316 18.061426 -62.134335
56.669674 29.842474 -60.895077
54.147343 19.486528 -61.675171
54.926075 26.302299 -61.28965
54.25087 26.403639 -61.398148
54.547729 23.758827 -61.635216
52.478687 25.776373 -61.69664
54.058834 32.044289 -61.68375
53.842239 26.725691 -61.504562
54.242554 16.983921 -61.757694
54.750336 17.166237 -61.619377
54.148911 20.639843 -61.62698
54.547588 29.547823 -61.917435
54.443882 17.386576 -61.68288
55.341408 22.866051 -61.873058
55.698086 23.146669 -61.284958
56.051563 15.865399 -61.038029
55.123016 19.317211 -62.073658
56.550907 15.953337 -61.220119
56.044498 16.546509 -61.407665
55.949863 26.149488 -61.676113
55.130032 21.620007 -61.962963
56.735977 25.5275 -61.545208
53.848812 27.572285 -61.943005
53.322575 16.624861 -61.984406
57.53207 16.232042 -61.106087
54.142914 19.177834 -62.239204
56.450512 19.314573 -61.824177
53.762707 30.947527 -61.325241
53.770393 30.978203 -61.950092
55.469223 32.608944 -61.018402
55.133137 29.138554 -61.137405
56.248436 18.80596 -61.847317
56.051113 26.142813 -61.653961
57.244816 16.321686 -61.143066
55.949276 20.134413 -61.818886
54.044399 25.602346 -61.519215
55.753956 30.53455 -61.535347
54.347218 26.225216 -61.415798
54.937744 17.330826 -61.66227
55.050888 17.201996 -61.599197
55.198402 16.939434 -61.660637
55.851852 32.541836 -61.424423
55.730885 17.095198 -62.136333
53.747128 30.80378 -61.320099
53.632839 19.178198 -62.287415
55.051975 29.126444 -61.163475
55.35524 21.637203 -61.933613
54.053474 30.157274 -61.250076
53.570053 21.466095 -62.209827
55.33173 16.732265 -61.674118
56.737919 16.888317 -61.291096
56.048637 19.409904 -61.875084
57.245224 17.233616 -61.270874
56.159508 17.239548 -61.484234
53.342834 26.273529 -61.528877
56.93121 15.753446 -60.833298
54.340343 31.463444 -61.218628
57.181664 19.280748 -61.64698
54.349575 28.127544 -61.363678
52.948627 16.692093 -62.014885
52.678406 17.078617 -62.042786
55.44656 17.654285 -62.078457
53.234921 26.050289 -61.529072
56.372047 24.541273 -61.616474
55.623283 31.822428 -61.548531
54.659668 30.560865 -61.202988
57.151093 29.3258 -61.258129
55.487183 31.482958 -61.59845
54.98687 21.467478 -62.135319
53.620308 23.620913 -61.551136
55.161362 28.59495 -61.322098
55.350094 29.118773 -61.589756
53.954277 18.829445 -61.704594
56.470676 20.913412 -61.783619
55.245895 29.11499 -61.608845
53.642353 28.912647 -61.392643
52.799137 21.976202 -61.770008
56.690784 16.116846 -61.409645
54.156818 27.419863 -61.339001
55.846985 20.170975 -61.893696
54.049622 20.544256 -61.662292
54.852699 28.311253 -61.74844
54.180889 28.639374 -61.894665
53.743801 20.288754 -61.675194
55.037933 23.682457 -61.340366
53.792976 21.4715 -62.236385
56.724777 20.171637 -61.708092
55.852562 30.863457 -60.97543
57.146736 23.179485 -61.451096
54.735744 27.526413 -61.43792
52.562565 26.010059 -61.650143
54.449066 25.050135 -61.411476
55.128319 31.219849 -61.542477
57.422699 18.660666 -61.590977
55.963459 30.557949 -61.523159
53.864258 22.620117 -61.590034
54.344765 29.565096 -61.273514
53.95509 28.506021 -61.382442
55.919174 25.239717 -61.767284
55.050117 32.69054 -61.552593
56.849762 30.484812 -61.206059
54.445801 29.878105 -61.734287
53.75383 17.194403 -61.865562
52.81142 16.027569 -62.009834
54.743031 29.877308 -61.183422
56.543316 25.745188 -61.096127
54.545528 30.930208 -61.181755
54.451477 25.472685 -61.408745
55.236191 26.324049 -61.233479
52.673065 25.009298 -61.696587
56.141247 20.154522 -61.777405
54.254868 25.470736 -61.443035
53.954929 30.557188 -61.707535
53.537075 28.815409 -61.438557
54.768272 21.545301 -62.064472
54.025917 27.491251 -61.911118
54.946346 16.764698 -61.623253
53.568542 16.039429 -61.367901
54.046371 28.514503 -61.368744
56.881313 25.536022 -61.048065
56.049015 18.674911 -61.881741
57.150246 16.670708 -61.199791
53.853458 18.423979 -62.41708
56.070538 24.987688 -61.726715
54.76503 30.020651 -61.19548
54.143497 27.074652 -61.973019
55.040867 32.120411 -61.461449
57.041111 16.666338 -61.217308
53.954594 30.275553 -61.28981
56.834839 21.559776 -61.170448
54.147583 28.512451 -61.349171
52.743401 26.042336 -61.604137
54.44809 23.764797 -61.443069
55.347603 33.130402 -61.485035
53.376606 30.567675 -61.865768
52.316109 25.465254 -61.66317
53.444183 28.521235 -61.464493
53.492893 26.066149 -61.516529
56.3498 20.305708 -61.738663
53.537636 30.675047 -61.319954
54.264008 30.42168 -61.337074
53.953506 26.064838 -61.416992
54.852268 29.888821 -61.164524
56.848553 21.8015 -61.633186
55.179291 25.214422 -61.948029
52.490021 29.157084 -61.519825
55.836807 17.555412 -62.065975
56.935757 29.688786 -60.81353
55.749676 30.630039 -61.508251
56.447556 27.083731 -61.53418
55.33717 27.100998 -61.130058
56.720253 26.452402 -61.518314
55.527901 29.105886 -61.691017
55.133877 28.699306 -61.667137
56.067543 32.545055 -61.390385
52.646667 32.235989 -61.424725
54.356007 18.162823 -61.744213
54.249866 17.201187 -61.767376
53.079845 28.183764 -61.527775
55.142662 30.273989 -61.102535
54.044258 23.761133 -61.510181
54.456306 20.219002 -62.078728
56.162937 26.976618 -61.60244
57.452248 29.047955 -61.152554
54.256241 31.760929 -61.218498
56.950672 17.431715 -61.332664
54.158497 32.029434 -61.653664
55.933212 20.664755 -61.878574
54.816433 20.357435 -61.585461
52.59766 31.780611 -61.461426
55.146175 29.805096 -61.679413
54.948524 17.437033 -61.752815
56.227055 19.434608 -61.842876
54.749962 24.675497 -61.918629
54.939442 31.24123 -61.108856
54.448959 19.319952 -62.244381
57.247093 15.946869 -60.80994
57.223526 30.3619 -61.218369
52.350117 26.058527 -61.723301
55.548843 20.144249 -61.905087
53.866035 32.295963 -61.265415
56.289505 24.556471 -61.651417
56.261314 18.721905 -61.893314
56.466927 22.14817 -61.702667
55.920605 31.166193 -61.432159
55.918785 29.006174 -61.605968
56.139843 17.382263 -61.354046
55.249893 32.311623 -61.575203
57.847637 16.858755 -61.000805
55.02232 27.371849 -61.333176
54.284039 32.202679 -61.791405
55.054867 33.029854 -61.482845
53.756287 21.467632 -61.652126
56.451591 19.729771 -61.776798
56.850315 18.780228 -61.68029
56.653591 26.131971 -61.472439
55.194862 26.829748 -61.863163
54.146683 29.005745 -61.289963
56.959896 20.183382 -61.660789
54.134884 26.884174 -61.362484
54.745907 31.839827 -61.579369
54.351826 29.746973 -61.864239
56.446064 20.502377 -61.828762
56.648407 17.295013 -61.282982
56.047558 15.927535 -61.438175
57.243244 15.819503 -60.529858
56.454811 19.403728 -61.809097
54.445381 18.040926 -62.22168
55.057552 17.50798 -62.14579
54.443523 18.159746 -61.750362
54.247528 28.822279 -61.304672
53.832863 27.373062 -62.073299
52.766109 27.079708 -61.6106
54.156528 29.149336 -61.831455
54.649357 20.493963 -61.662601
55.049435 17.388063 -61.568836
54.345074 27.499222 -61.885822
53.414371 30.58387 -61.849766
53.63665 28.804024 -61.424419
56.350163 24.056986 -61.658718
55.07172 32.891758 -61.534382
54.150349 21.754433 -62.045517
53.957699 20.513464 -61.639858
56.167351 16.394585 -61.503963
56.347084 31.57514 -60.84251
56.332405 22.139811 -61.750431
57.183903 27.35441 -60.869064
55.846718 33.023659 -61.275528
54.248062 28.257339 -61.945999
55.921898 29.917475 -61.475662
54.146076 18.131351 -61.727516
56.741184 29.232447 -61.3568
54.839931 24.672796 -61.890182
54.860119 31.118246 -61.080132
53.742031 31.115318 -61.296959
54.627613 31.096125 -61.313736
54.641388 29.559677 -61.226986
55.257526 31.862877 -61.524849
52.470631 25.873676 -61.702923
55.066216 19.328135 -62.099129
55.595093 21.548212 -61.816227
54.140686 25.610418 -61.998257
56.799946 31.587601 -61.279881
54.978798 19.3535 -61.506477
56.946045 30.886868 -60.90266
57.551888 29.045713 -61.171719
55.346077 31.993055 -61.470032
54.478809 20.975412 -62.138126
54.243763 32.568413 -61.126595
54.550037 30.754284 -61.806404
53.547272 27.55258 -61.461105
55.156219 15.874715 -61.209183
54.933876 27.871126 -61.239307
54.255722 32.49152 -61.748482
55.226902 29.705751 -61.722858
53.638863 32.793388 -61.249775
53.945454 23.369293 -62.120838
56.540054 19.412704 -61.783733
54.251431 17.595871 -61.719116
54.849747 19.322927 -62.121208
54.549778 31.231455 -61.714474
55.273293 28.037294 -61.833775
53.942921 32.55904 -61.193413
53.857677 23.629816 -62.088264
53.948044 28.166466 -61.36269
54.862591 32.106075 -61.022228
53.807846 26.2645 -62.003777
56.955635 20.54607 -61.699497
55.663799 29.082808 -61.648945
54.342876 26.583504 -61.340031
53.772945 32.544533 -61.289303
54.643845 23.590227 -61.437229
55.841461 17.331806 -62.006973
54.655754 28.25075 -61.873238
54.825542 28.438839 -61.768051
54.253082 21.166569 -61.590973
56.083843 18.200727 -61.963139
55.345432 27.329727 -61.859409
56.656849 20.371885 -61.237587
53.758194 20.227148 -62.202965
54.003139 21.571571 -62.121353
53.140369 19.359818 -61.852459
54.930485 30.042625 -61.275711
53.529842 23.079624 -61.600109
55.840828 29.240669 -61.557472
56.047585 30.528835 -61.406612
54.55249 26.777552 -61.9067
53.865654 26.043123 -61.433891
53.846573 28.515961 -61.401756
53.012733 26.069839 -61.55143
53.659904 30.942608 -61.338783
57.157475 32.058968 -61.148788
53.07045 17.104792 -61.941422
55.848637 30.628395 -61.489674
55.634899 31.916206 -61.530273
54.279781 21.738354 -62.259392
55.228844 22.840944 -61.891106
55.642761 31.251791 -61.486256
55.926842 26.364861 -61.682743
55.147648 16.979317 -61.584961
56.362324 32.220375 -61.365124
53.304485 18.991133 -61.789452
54.417072 28.931326 -61.961746
54.953316 25.881495 -61.296207
54.189899 32.117813 -61.619438
55.259048 17.651171 -61.584663
53.48156 21.967243 -61.657234
55.551849 23.204081 -61.276871
53.645058 26.061882 -61.471649
56.356579 18.154242 -61.948727
55.271175 29.482294 -61.644981
53.527351 26.065882 -61.484924
53.116844 23.780144 -61.672195
54.056599 28.829863 -61.344593
53.745785 25.760881 -61.471432
54.844765 28.039787 -61.159447
54.898331 20.513033 -61.596474
54.145931 26.041477 -61.395195
54.435375 28.629995 -61.336105
54.639893 24.656199 -61.944893
53.351849 18.498264 -61.841846
55.947239 31.255733 -61.436783
57.141369 16.458281 -61.183838
56.246342 26.185324 -61.536652
54.644215 23.269093 -61.981735
54.151882 26.585323 -61.371098
55.262676 26.108841 -61.959507
55.849846 15.922794 -61.475925
54.849403 25.874193 -61.310448
55.275078 22.306396 -61.328365
53.039913 20.3769 -61.77206
55.948139 15.876499 -61.1525
54.256775 25.91481 -61.99041
54.246155 27.766008 -61.338924
56.650928 28.973669 -61.3876
54.062237 21.608028 -62.176956
56.134117 20.974186 -61.799889
53.765747 30.135609 -61.304081
53.407867 25.413124 -61.616325
54.532642 18.056845 -62.201767
56.704517 26.30372 -61.458839
53.963295 32.118721 -61.167091
56.253304 20.892185 -61.822262
52.941723 17.065542 -61.997025
57.648891 18.744661 -61.448631
55.052071 16.977121 -61.602055
54.24585 19.977423 -61.605526
54.551743 25.387333 -61.408882
54.155708 29.659428 -61.288677
52.956375 20.301422 -61.792675
53.178162 31.10161 -61.402817
54.360195 31.771717 -61.194038
55.217163 27.507456 -61.227318
57.467613 17.903744 -61.203949
54.247437 22.221479 -61.565346
53.951454 18.646343 -61.740665
54.447201 20.641493 -61.580204
56.65963 15.823059 -61.254704
53.953407 18.797577 -62.336239
53.565208 25.377237 -61.591644
53.417042 15.947761 -61.50098
53.923431 21.772346 -62.076107
54.622433 20.166983 -62.148396
53.626427 18.684206 -61.740532
55.946827 16.238115 -61.449768
54.642693 18.045517 -62.194542
54.438408 21.035795 -61.539204
54.848137 25.482273 -61.883167
53.723614 20.866615 -62.1796
53.76384 18.913641 -61.726254
56.840801 20.344116 -61.647678
52.679771 23.94117 -61.706699
53.532684 30.493584 -61.355751
54.151741 28.176689 -61.317379
54.548866 25.310677 -61.483242
56.265804 26.001431 -61.696182
56.719971 32.491077 -61.161999
55.561787 28.009453 -61.676807
55.620144 18.755234 -61.859585
54.515541 18.451845 -61.822208
55.570049 26.974049 -61.71814
56.833084 18.573803 -61.735374
53.128819 17.250834 -61.90683
56.911964 23.845175 -61.573177
54.563942 27.513754 -61.906651
53.637848 18.075077 -62.372654
54.15863 17.206799 -61.782784
54.547802 24.668272 -61.950588
54.304623 25.508413 -61.945885
53.826973 18.705307 -61.843788
56.471104 26.06967 -61.625458
56.049065 19.931227 -61.873276
56.993149 20.660694 -61.644436
53.748989 27.054686 -61.511837
52.845974 31.605261 -61.381264
52.981239 26.000687 -61.634521
55.228249 28.59235 -61.67754
56.629807 32.211243 -61.288288
53.054245 23.836643 -61.678001
54.049927 26.583685 -61.391445
54.355991 18.066204 -62.208149
54.16581 30.159842 -61.799156
53.19931 23.556906 -61.69754
55.366764 31.788069 -61.518673
54.933422 20.671906 -61.532177
55.647873 20.634541 -61.879341
54.94339 17.425636 -61.644264
56.346863 17.237534 -61.464096
55.458225 23.860176 -61.889736
53.695847 25.343884 -62.158257
53.786617 30.606546 -61.767052
55.6492 31.868864 -61.450672
54.01601 30.586044 -61.73074
55.551155 18.79899 -61.988724
54.291519 18.790253 -62.266396
55.036354 29.388063 -61.70491
55.317806 29.741674 -61.647652
53.65564 30.678944 -61.324276
55.767002 31.363552 -61.008797
53.941399 16.18471 -61.780712
54.646248 16.897396 -61.707005
56.349972 15.820134 -61.337727
54.348534 30.201405 -61.783066
53.038849 26.290054 -61.638515
53.654446 23.856033 -61.550392
53.453678 28.812935 -61.449963
53.702538 19.300812 -62.295174
53.457211 19.258717 -61.778099
56.143623 15.92871 -60.975132
56.819546 31.424133 -60.767063
53.850857 16.118856 -61.823875
54.62352 28.860365 -61.341141
53.462776 26.300266 -61.494495
54.360779 19.710041 -62.183788
56.668037 30.912224 -60.848225
57.448509 16.755651 -61.103836
54.314793 20.491905 -61.754681
54.735783 20.381128 -61.59951
55.447277 29.119322 -61.571583
56.199291 24.908642 -61.714855
56.928429 32.316597 -61.208202
53.725384 20.775787 -62.17778
55.555256 23.858801 -61.889141
53.531998 28.881401 -61.349483
56.233612 28.459774 -61.569851
56.512638 19.347948 -61.328644
54.157143 28.855871 -61.266727
55.379486 23.812256 -61.272839
54.962673 19.326546 -62.116112
56.852451 15.836046 -61.231491
53.563396 16.186728 -61.857525
53.571339 18.512358 -61.780037
55.43898 20.276817 -62.034939
56.558056 21.218483 -61.249889
54.147488 27.055571 -61.418049
55.349232 28.631079 -61.634136
57.561268 16.808735 -61.138931
52.562054 31.605223 -61.447235
53.675014 20.780535 -62.221851
55.476315 19.783216 -61.433025
53.607651 32.126606 -61.662563
55.122307 29.412418 -61.747429
56.64735 16.542152 -61.282383
54.749218 23.799213 -61.423969
54.352844 26.401421 -61.381126
54.558502 28.136688 -61.308632
55.651268 16.238277 -61.508556
55.868443 29.698391 -61.0723
54.048393 29.404663 -61.906651
56.751183 29.065474 -61.339188
53.129219 18.413342 -61.86237
52.753178 19.328556 -61.861206
53.295231 32.097237 -61.343815
56.444817 30.630266 -61.378674
55.949112 16.979282 -61.424194
54.843811 16.502398 -61.708435
56.34668 18.785492 -61.779663
53.634041 22.612103 -61.621273
54.756214 29.111095 -61.840954
54.219536 18.611082 -62.256416
54.048634 32.56472 -61.171844
56.550583 30.638664 -61.353638
56.65015 32.315441 -61.260094
54.506111 20.149181 -61.478729
54.921902 31.072548 -61.178825
55.446396 21.29665 -61.941402
53.653332 27.415428 -61.420879
54.753494 15.874885 -61.288231
54.14991 27.113216 -61.35775
53.640614 18.131847 -61.810768
53.238285 20.638247 -61.780483
54.458916 20.6735 -62.114841
53.754795 25.03713 -61.528008
56.247009 18.788284 -61.800652
53.871006 30.554634 -61.765556
56.451763 19.415531 -61.854904
52.501396 28.768343 -61.566071
55.042664 25.115122 -61.870506
55.846939 18.683451 -61.911636
54.075172 20.386356 -62.288761
52.46101 28.877653 -61.557613
53.950947 32.78685 -61.194908
55.256836 17.423975 -61.594559
57.441391 17.078373 -61.092529
53.459209 30.058594 -61.385212
53.949299 21.349144 -61.607349
55.730984 31.918436 -61.499264
54.253555 29.807421 -61.910892
56.163029 29.494787 -61.532661
53.35667 32.581707 -61.308937
55.650723 19.940054 -61.948112
57.161446 16.257126 -61.237988
56.250202 17.238274 -61.483002
53.658001 27.466541 -61.466843
56.60841 25.53702 -61.152168
54.211849 25.213476 -61.537476
53.138309 25.94725 -61.578064
54.94109 32.530621 -61.064201
55.253185 17.585402 -61.539021
53.354317 32.053711 -61.319042
55.016853 30.277514 -61.092117
54.445827 26.719069 -61.346535
54.804649 24.59342 -62.029808
53.237865 22.185165 -61.739952
56.948841 20.028759 -61.668159
55.152752 32.152889 -61.52071
56.458145 27.50482 -61.526226
54.145664 15.936523 -61.790092
56.750061 15.83109 -61.247833
55.260612 25.918844 -61.806786
56.047264 24.709621 -61.57655
56.644512 26.041321 -61.54567
53.115379 26.038567 -61.586075
55.021511 20.947086 -62.174084
55.843349 26.156328 -61.696362
55.533909 29.215105 -61.537663
57.440372 29.048567 -61.187401
55.039577 17.59586 -61.582047
54.975166 20.376476 -61.632042
54.077244 18.627258 -61.814789
55.943565 17.248762 -61.522038
56.313065 28.347486 -61.538288
55.042488 23.87956 -61.94392
53.185566 26.911903 -61.561218
54.463966 29.057289 -61.797009
55.850735 19.862293 -61.918365
56.726566 16.581928 -61.305313
54.645725 16.547232 -61.678253
55.747322 16.363029 -61.502117
56.894894 17.818924 -61.753723
54.380322 20.383198 -62.169258
54.861034 28.432724 -61.237347
55.969662 17.047884 -61.339478
54.856182 19.420473 -62.120937
52.602463 29.000147 -61.501091
54.665092 17.780247 -61.727032
56.639652 31.876459 -61.265362
54.729923 29.880457 -61.741695
55.321335 29.09222 -61.700871
54.4492 25.419178 -61.536125
53.062061 23.89072 -61.719894
54.25317 30.275002 -61.237652
54.15873 32.566074 -61.144215
55.651722 31.306442 -61.571026
55.702564 30.508434 -61.418156
53.752384 16.185434 -61.827972
54.342236 28.427744 -61.332993
54.327068 28.353958 -61.898018
55.051979 31.35965 -61.094482
54.271988 18.920603 -61.77446
55.491753 18.89827 -61.466213
53.556934 18.823992 -61.776443
52.691914 18.503412 -61.951698
55.93084 22.012112 -61.78912
52.650059 31.619104 -61.421806
55.150078 27.754377 -61.695282
56.559914 30.110855 -61.347095
56.704216 25.525091 -61.069412
54.948742 19.414881 -62.109085
54.058086 27.04882 -61.440002
54.247524 18.650743 -61.689514
55.914471 29.720409 -61.546822
54.589066 22.486395 -62.110371
55.237156 31.384212 -61.089828
54.256371 24.751663 -61.957981
54.844269 23.794392 -61.408634
55.047657 27.671076 -61.726055
56.49614 31.639687 -60.815147
55.002949 29.823614 -61.708286
55.352097 27.105618 -61.782059
55.290039 19.798157 -61.441219
54.486717 19.355179 -62.298752
53.942337 27.063183 -61.46418
56.745308 21.61331 -61.655846
54.244648 28.864985 -61.238686
56.153595 29.277117 -61.504078
53.834587 21.745455 -62.099693
54.771339 24.943441 -61.918617
54.219238 29.920471 -61.900105
54.056782 29.876789 -61.309887
53.952644 17.383085 -61.772598
54.940483 15.876845 -61.473625
53.4534 16.716146 -61.858719
54.067085 29.03966 -61.345524
57.134762 17.909159 -61.332001
53.461769 16.188362 -61.868938
53.450645 17.25009 -61.837223
55.275543 24.791433 -61.860954
54.451271 17.200775 -61.723637
54.353844 20.375601 -61.653175
55.650696 31.774317 -61.465038
55.04834 27.066822 -61.254726
54.539963 31.169077 -61.762791
55.988464 32.363689 -61.413063
56.648956 17.117947 -61.319469
54.82048 15.948193 -61.523029
56.953136 17.975344 -61.397861
56.576984 17.007494 -61.195114
54.151619 22.218849 -61.579632
54.745804 19.399668 -62.136276
56.847721 16.798986 -61.297958
57.622181 23.169624 -61.357906
55.542522 20.780468 -61.937489
56.562992 30.266836 -60.861416
56.746243 18.781511 -61.695438
55.257824 18.75172 -61.935528
54.245232 32.505905 -61.226261
56.441795 17.113165 -61.355728
54.146999 25.038153 -61.459427
54.3699 31.991106 -61.770817
54.744366 28.912321 -61.206985
56.928246 16.494661 -61.310822
55.94915 16.273685 -61.48246
54.147171 30.891335 -61.222668
55.648445 15.922506 -61.519901
55.509487 19.266619 -61.545452
56.758091 20.520802 -61.221714
54.258568 18.031031 -61.72868
52.94614 17.286848 -61.937675
55.946171 33.032658 -61.296124
54.227806 32.104706 -61.622383
52.869331 29.424526 -61.61953
52.906197 29.232454 -61.619392
56.144535 15.881947 -61.3316
55.845757 15.874293 -61.170269
53.954872 20.630928 -61.657257
57.228783 19.751802 -61.20488
53.737503 25.531828 -61.464115
54.152405 19.704128 -61.684464
55.749252 32.011536 -61.440815
54.383022 26.547874 -61.937904
53.788578 20.125248 -62.310482
56.652943 17.843113 -61.796364
55.648426 32.384327 -61.420868
52.692421 26.075384 -61.665508
53.560551 31.414484 -61.374317
54.249043 20.63549 -61.608128
54.750252 27.048342 -61.309101
54.660622 26.993965 -61.895088
53.850384 27.064772 -61.475292
54.654976 19.403257 -62.134529
57.047226 27.388205 -60.93214
53.212124 28.971346 -61.407513
54.246933 27.584898 -61.384445
55.447865 24.675909 -61.779812
56.648003 27.623901 -61.528111
54.651047 16.861248 -61.659622
56.542439 29.105314 -61.472843
54.239361 16.481724 -61.836349
54.030529 31.063587 -61.187946
54.432087 30.303514 -61.760498
54.252705 23.142921 -61.512344
53.861309 29.868702 -61.352516
54.73016 30.390984 -61.653927
55.055683 19.388817 -61.51104
55.223511 28.527285 -61.679451
54.336185 32.172268 -61.696911
53.536526 15.93811 -61.897251
56.569294 32.878704 -61.171825
54.821285 32.889519 -61.602016
55.850941 31.264591 -60.996544
54.04464 29.743525 -61.294708
52.861969 29.455379 -61.516804
56.729507 26.030735 -61.495789
56.929447 21.901173 -61.095093
54.458538 24.651278 -61.988861
56.583652 29.261328 -61.410423
52.638962 16.54966 -62.032925
55.012249 21.608358 -62.002312
54.15617 28.787102 -61.276482
53.759285 17.431717 -61.869846
55.945709 20.30209 -61.918552
54.452827 27.765543 -61.305614
54.447613 22.441347 -62.073017
56.547199 27.610285 -61.462437
53.934685 32.004147 -61.831791
55.148521 26.92234 -61.241688
53.635479 28.72341 -61.450554
55.332771 27.922976 -61.159607
55.644897 22.503742 -61.894554
56.930885 26.99268 -61.440884
54.348431 31.974127 -61.658379
55.39502 27.487013 -61.907959
53.5089 28.509369 -61.474709
53.390614 26.026525 -61.539631
54.942982 32.920521 -61.546288
56.248146 29.063814 -61.433281
55.363304 21.655195 -61.981812
55.024864 29.428236 -61.683468
53.311916 25.55883 -61.602463
54.425243 31.660154 -61.213882
55.04261 24.683737 -61.862305
52.946636 21.905272 -61.775948
55.271473 23.207867 -61.966644
55.052719 31.256943 -61.083942
54.937382 28.380634 -61.732849
54.417236 32.149216 -61.681789
54.223297 21.368956 -62.16011
56.045841 16.319496 -61.406452
54.248009 29.975462 -61.807129
54.642754 28.689949 -61.215958
53.737873 32.266987 -61.241116
54.950878 23.231037 -61.86795
54.839058 19.731297 -62.088398
53.265339 22.844736 -61.679512
57.105431 25.618958 -60.949223
53.955715 27.549135 -61.392548
56.645184 29.352852 -61.363251
57.075516 18.593878 -61.723351
55.359344 16.022133 -61.109425
52.736771 20.34202 -61.843021
53.48391 16.555677 -61.974815
55.292858 30.512474 -61.091179
53.653786 30.797195 -61.332413
55.350689 16.238178 -61.570786
52.752655 16.654459 -62.083221
54.563248 26.372465 -61.979401
54.714684 32.162994 -60.942924
53.533966 27.066757 -61.519859
54.827534 27.827806 -61.837101
55.950531 26.591778 -61.684101
53.907059 26.491783 -61.991314
55.323597 16.125765 -61.708229
54.54483 28.417736 -61.291546
53.16087 20.281244 -61.786469
54.954342 15.871592 -61.244484
53.51881 29.907461 -61.996078
53.729919 26.04941 -61.455708
52.4851 28.988876 -61.565788
56.756424 17.337627 -61.156185
53.544582 26.84581 -61.508533
54.451042 27.902517 -61.321411
55.168358 26.400438 -61.885578
54.642662 21.807024 -61.525383
53.597649 18.055178 -61.822483
56.541924 19.921757 -61.782288
55.007816 20.556814 -61.643223
53.955025 25.759851 -61.440842
55.200943 20.334925 -61.463348
56.752335 15.872094 -61.209454
53.850681 31.685749 -61.325447
55.265461 29.673159 -61.086426
55.545731 24.715977 -61.675873
54.626049 18.895521 -62.221012
53.358101 18.445139 -61.870106
55.932232 20.620501 -61.830544
55.514378 20.568073 -61.295143
56.927055 29.632526 -60.951691
57.43198 21.70783 -61.461399
56.864128 28.546587 -61.493053
57.142441 27.223236 -61.050259
56.444023 27.379763 -61.508183
53.193554 18.857611 -61.849476
54.94239 26.196604 -61.266941
54.853455 31.248636 -61.225578
53.954433 16.639519 -61.786324
53.672207 19.773039 -62.29034
57.044571 27.632006 -61.433731
53.13673 18.510973 -61.876637
54.9245 20.948204 -61.45525
54.058647 31.456331 -61.27343
53.650208 27.655624 -61.46909
53.632282 16.208719 -61.840252
55.862228 28.977928 -60.969078
53.754997 19.190456 -61.756489
54.351566 21.596268 -62.132397
54.548687 16.935465 -61.661705
55.443024 17.074394 -61.512863
54.439758 31.981253 -61.644138
54.04987 32.792419 -61.166809
55.18288 25.584734 -61.812344
56.200077 29.942999 -61.475098
56.84737 20.210159 -61.611797
55.342781 28.386303 -61.810795
55.105148 27.540199 -61.221157
54.446953 20.679409 -61.615746
56.544537 15.874532 -61.249874
54.552094 22.311422 -61.496342
55.047329 18.798035 -62.090172
56.334614 21.857639 -61.63496
55.637245 31.596676 -61.390518
54.560081 22.387985 -61.654057
54.668575 32.574261 -61.740177
56.842419 27.668205 -61.385548
53.23912 16.961107 -61.95171
53.356281 17.075243 -61.914108
55.673 18.297855 -62.056458
54.355835 27.333122 -61.844501
54.046341 30.263409 -61.82589
55.451115 16.977865 -61.520622
56.944061 29.525509 -60.940781
55.847618 32.043453 -61.338451
55.267651 28.105892 -61.209385
53.846359 29.450232 -61.338722
54.639565 20.63044 -61.544056
55.752361 18.43611 -61.960739
54.555943 15.872101 -61.323856
56.047089 21.843298 -61.680325
53.854885 17.592762 -61.783466
55.593311 24.301477 -61.747532
52.590431 31.041525 -61.440933
54.445049 26.183697 -61.366657
53.223118 17.254816 -61.857815
54.041458 23.841137 -61.489723
55.04916 27.992975 -61.828831
52.417969 26.65213 -61.593166
54.726322 28.31525 -61.792633
53.954632 29.664457 -61.331989
52.610744 17.278206 -61.977058
52.604927 21.725403 -61.888439
55.755264 32.911686 -61.3979
54.646957 17.387617 -61.643814
53.805294 21.628311 -62.185028
54.858913 18.59778 -61.72879
56.974487 17.546572 -61.310101
57.651676 16.629168 -61.041618
56.551121 17.392355 -61.340019
55.292381 28.829706 -61.665085
54.045116 29.435387 -61.311653
56.213909 28.556086 -61.545094
57.150478 16.937757 -61.14196
56.033482 17.446533 -61.348946
55.345516 30.725855 -61.564007
55.311848 21.511549 -61.408268
55.450321 15.87306 -61.146751
55.341354 17.601614 -61.532459
54.31131 22.470449 -62.064823
54.24781 30.929176 -61.25272
55.140892 32.69006 -61.021107
54.040138 26.443705 -61.486217
57.146351 16.328899 -61.169655
55.755547 21.816439 -61.845184
55.750992 16.721622 -61.552296
55.935715 18.696566 -61.89576
56.651321 29.278889 -61.385765
54.951332 24.691229 -61.891693
53.911114 16.257742 -61.745525
55.549652 30.549202 -61.57943
53.974892 32.215328 -61.111118
55.224934 32.533596 -61.126698
54.74826 27.590326 -61.761662
56.136185 18.663338 -61.840546
53.463772 28.99947 -61.404076
56.241505 22.246119 -61.725182
55.923187 22.138653 -61.799183
54.046658 26.272636 -61.937878
56.201733 21.60434 -61.242546
53.660515 29.428301 -61.387413
54.233696 22.239893 -62.096363
54.140102 32.736549 -61.228363
56.281227 22.136284 -61.714462
55.946365 30.594379 -61.397545
53.844524 31.112114 -61.277523
55.054077 15.925342 -61.632614
53.640945 30.287941 -61.337528
54.09399 19.139292 -62.243313
56.160362 28.000633 -61.50069
56.35405 22.054827 -61.733047
53.46125 30.567047 -61.347229
53.738457 22.243734 -62.187138
54.446815 32.478714 -61.116318
53.132664 27.197878 -61.570297
55.654278 30.663473 -61.435608
53.686077 29.610834 -61.952675
57.50325 19.478142 -61.166935
55.145588 16.892458 -61.602673
52.829597 19.324127 -61.857666
55.926945 20.464949 -61.957657
57.332298 21.612986 -61.492905
53.045837 25.532017 -61.638218
55.698997 19.047817 -61.366489
56.551891 22.051167 -61.681797
54.343491 15.931362 -61.750046
54.747417 29.739136 -61.756145
54.141766 31.423489 -61.198204
53.262848 28.816235 -61.443768
56.865009 26.460232 -61.052994
56.97971 29.562887 -60.958305
57.568535 16.928404 -61.045982
53.564365 19.994991 -61.721619
52.800411 16.995478 -62.047733
54.171959 31.267096 -61.351536
55.979851 28.590422 -61.545952
58.060875 16.666471 -61.007431
53.463192 30.248707 -61.947353
56.810753 17.231188 -61.177429
54.353027 16.892315 -61.76857
52.922916 19.368605 -61.862377
57.134453 28.78083 -61.348923
54.355068 26.441376 -61.421867
54.631268 22.709547 -61.429497
55.533493 26.518059 -61.162262
53.665539 20.946541 -61.690319
54.472092 19.654181 -61.766155
54.753101 16.890789 -61.678097
54.643848 18.128397 -61.638157
55.306568 31.048401 -61.035595
55.863022 21.632633 -61.762398
55.848076 20.161133 -61.840931
57.381565 15.950612 -60.786045
54.550415 21.39155 -62.07159
56.749557 31.483557 -60.841625
54.949039 19.6175 -61.555691
57.05859 29.286077 -61.291046
54.63813 31.995533 -61.675663
56.146465 27.668758 -61.509056
55.63298 21.66844 -62.021492
53.753918 27.115677 -61.426037
54.942745 26.468569 -61.873932
54.121071 25.295435 -62.024315
54.450775 32.868824 -61.233486
54.750431 19.0536 -61.549026
54.628635 26.795797 -61.290512
56.747177 20.154816 -61.658409
54.449047 27.581245 -61.892155
54.662346 32.359924 -61.586208
53.969887 21.838583 -62.218994
53.791622 24.700064 -62.083157
53.547169 26.626028 -61.514633
54.044949 27.564047 -61.427891
55.947006 26.21291 -61.629246
54.466656 26.781811 -61.49789
56.849297 19.844131 -61.730091
53.659351 30.593864 -61.330875
54.287983 18.663553 -62.293034
55.550198 30.594933 -61.479099
53.828712 29.179558 -61.780285
54.445965 19.443153 -61.773407
54.148304 16.020464 -61.784096
56.720455 23.712103 -61.592052
56.819313 23.413204 -61.597404
52.872513 32.766472 -61.369473
54.471466 31.364254 -61.221039
54.940678 18.541147 -62.093193
53.955784 17.598516 -61.767235
55.74884 17.864826 -62.031475
55.845951 22.467896 -61.811188
55.170517 22.427092 -61.934597
56.447269 23.297348 -61.705177
56.146523 29.1178 -61.432312
56.62825 28.934551 -61.379486
55.644646 28.976606 -61.593189
53.158154 16.976946 -61.962963
54.743797 27.764196 -61.778622
55.277439 32.409756 -60.989735
55.34848 27.668344 -61.666115
53.762466 25.620457 -61.555382
55.052124 16.887672 -61.619366
55.045887 31.206387 -61.681084
54.834457 18.575315 -62.150608
53.939205 27.750856 -61.934242
54.447876 27.672857 -61.322533
52.852985 27.938208 -61.538559
54.844978 26.44693 -61.85857
54.443085 25.605761 -61.445351
55.837635 23.398666 -61.788002
55.04464 23.198643 -61.931305
54.326031 28.662235 -61.857422
56.546024 23.315031 -61.685192
55.333614 17.839506 -62.073345
56.748554 27.667898 -61.401279
57.33638 16.991589 -61.121906
56.545082 16.888664 -61.325062
53.639088 30.005268 -61.840363
54.750778 32.973854 -61.643909
53.113361 18.11426 -61.882271
54.051659 23.054123 -61.558487
56.566574 23.642021 -61.655201
57.174004 19.043869 -61.206329
54.954792 27.59763 -61.239365
52.832428 20.502798 -61.80938
56.150837 18.503714 -62.0159
56.102791 17.8843 -61.935474
56.038876 31.06591 -60.934998
56.74646 17.161268 -61.231506
53.7547 30.029644 -61.386745
55.357109 22.753332 -61.8881
54.638901 23.057741 -61.462578
54.248726 29.962326 -61.253784
55.24976 31.14308 -61.650814
55.009434 28.066481 -61.709259
55.061607 29.471991 -61.699455
55.053596 15.982159 -61.682877
55.344093 23.034559 -61.319283
54.247044 23.054903 -61.529957
54.223896 26.137278 -61.862278
56.549629 23.713453 -61.644138
54.831089 23.42753 -61.568321
54.491692 31.877289 -61.744965
57.400578 25.095545 -61.436047
54.119213 31.919605 -61.82288
57.265125 21.149956 -61.566418
54.547146 15.935384 -61.718403
53.557499 21.477945 -61.689556
53.949127 27.586884 -61.442501
54.257927 29.382442 -61.2318
54.758251 23.266094 -61.961304
57.353352 19.003853 -61.15062
54.241375 19.431593 -62.173306
55.130611 23.056425 -61.348877
56.637688 21.931463 -61.661743
56.648407 15.9165 -61.312256
55.452217 27.618961 -61.779381
56.580727 29.533566 -60.930279
55.356186 32.155022 -61.478401
57.548157 17.319557 -61.174461
56.153412 25.93915 -61.640751
56.518398 30.744759 -61.18597
56.654316 19.451338 -61.32658
55.371544 25.277109 -61.793533
54.052578 27.576374 -61.879986
54.542316 27.372009 -61.871864
55.837193 31.885935 -61.414261
54.846912 19.259243 -61.531879
54.147514 27.572762 -61.403999
55.942734 19.306108 -61.912514
53.044155 16.934095 -62.01825
54.626915 20.672873 -61.581692
54.247353 32.01672 -61.775776
55.14962 18.484068 -62.12167
55.056252 18.499035 -62.13657
53.743984 23.364143 -62.177372
55.140461 25.087484 -61.880341
53.854382 27.605738 -61.458317
54.543964 26.89731 -61.986824
55.843803 27.643644 -61.531261
54.15667 27.776464 -61.970676
54.24778 30.510967 -61.753216
53.126934 28.553333 -61.482914
54.846844 16.893463 -61.665897
53.843761 22.359852 -62.208248
54.643173 27.775778 -61.80315
56.238857 28.137064 -61.532692
53.44437 27.679041 -62.064964
54.36869 26.63537 -61.919853
56.052296 30.663662 -60.94709
53.790733 23.603434 -62.158237
56.738895 29.042376 -61.302319
54.337048 22.980213 -62.061596
56.044518 26.006252 -61.686073
56.370712 31.416344 -60.879883
54.440113 22.700918 -61.477837
55.389812 31.587872 -61.668461
53.936043 25.519207 -61.4417
54.670925 27.743563 -61.446121
56.54903 23.187714 -61.578655
54.855751 26.065933 -61.939484
54.735607 21.483236 -61.494732
55.048088 30.591551 -61.57246
54.820911 21.150095 -62.109867
54.539684 31.767771 -61.696419
53.304928 26.789053 -61.499302
54.240997 27.672783 -61.362289
55.54858 26.889721 -61.761894
54.553009 30.584499 -61.667053
52.602623 18.238977 -61.966347
55.05257 30.211788 -61.201141
52.660473 18.120472 -61.944225
54.655823 31.354685 -61.656319
54.028454 26.674931 -61.491501
55.7729 19.510172 -62.045326
54.832169 24.112997 -61.933643
57.473465 17.59111 -61.226379
52.731075 27.266462 -61.612598
55.054066 24.786673 -61.901703
55.369415 18.453991 -62.06229
53.749268 17.073296 -61.818802
52.916203 32.802353 -61.403305
55.239651 30.360197 -61.580288
54.149307 18.451359 -62.303181
53.367271 15.901423 -61.889278
57.648552 15.780555 -60.520645
57.039223 30.459099 -61.293076
56.26569 26.09836 -61.656132
55.149612 29.385439 -61.666481
54.36834 32.676266 -61.07848
57.033405 25.607954 -61.073151
53.046841 16.609694 -61.931923
55.060093 23.884266 -61.895493
54.387016 18.407185 -61.610882
52.562393 25.294701 -61.673252
55.022556 29.979525 -61.123047
54.641315 22.463861 -62.034779
53.337547 26.487146 -61.528042
54.848732 26.866898 -61.924736
53.63839 21.81321 -61.730339
54.340984 22.70611 -61.486504
53.344395 32.787792 -61.302109
56.218983 29.652493 -61.559486
56.947247 16.847246 -61.206505
55.346703 32.117062 -61.614185
53.296886 28.815594 -61.460888
55.953014 19.562805 -61.929699
55.315529 18.906311 -61.542385
55.753822 22.438152 -61.830742
55.537228 22.466497 -61.869812
53.192032 26.389498 -61.55426
53.32045 22.458906 -61.733387
56.349476 16.162901 -61.290092
56.287739 31.818184 -60.866039
56.761276 28.611845 -61.401047
52.718636 19.58987 -61.878765
54.765938 31.386337 -61.148491
56.138622 30.669546 -61.52956
54.043404 26.501207 -61.409351
52.895607 29.263876 -61.49144
53.557529 28.221579 -62.047047
53.848045 24.635069 -62.030392
54.343395 19.08226 -61.686569
56.541119 28.653023 -61.468842
54.343204 27.672688 -61.337978
55.250633 18.562571 -61.646534
56.467869 30.846823 -61.3773
55.245392 27.905916 -61.168819
54.154781 29.925295 -61.868755
56.345596 16.978579 -61.345455
54.561947 30.526697 -61.774166
53.683468 27.777193 -61.984802
54.329796 25.729464 -61.387325
55.070522 29.860512 -61.778
54.866749 18.937212 -61.672379
55.711117 30.578592 -61.637745
55.941284 25.909882 -61.678898
54.756641 31.880478 -61.62764
54.15218 26.406467 -61.41259
54.326164 28.023811 -61.381981
55.920094 17.810049 -62.002384
55.317322 20.64924 -61.965382
55.161598 27.150726 -61.237377
55.849541 26.21736 -61.659271
53.642422 29.960178 -61.363388
53.682247 28.905403 -61.340576
53.823948 28.86689 -61.325417
54.772411 18.908737 -62.20734
53.458549 26.566292 -61.493099
54.242752 25.294313 -61.503422
52.720806 29.727152 -61.441528
56.149651 30.170467 -61.494053
54.551796 30.087811 -61.751507
56.146458 26.303694 -61.564182
53.85178 19.40896 -61.762634
54.941311 29.30711 -61.780392
52.731129 25.289032 -61.664913
53.750675 22.620039 -61.609318
53.443134 28.170977 -61.454235
