# .PCD v0.7 - Point Cloud Data file format
VERSION 0.7
FIELDS x y z
SIZE 4 4 4
TYPE F F F
COUNT 1 1 1
WIDTH 1086
HEIGHT 1
VIEWPOINT 0 0 0 1 0 0 0
POINTS 1086
DATA ascii
12.931915 7.0203905 -22.150381
12.726241 7.1917658 -22.113983
17.171688 6.0958743 -22.187618
16.958118 6.3171525 -22.174751
12.800724 7.1408992 -22.106485
17.595003 6.0260849 -22.274321
17.867994 6.2225428 -22.253304
17.881544 6.2650685 -22.194498
16.973625 6.4589896 -22.274242
15.884505 6.2144885 -22.270464
13.920415 8.715023 -22.132868
14.39388 6.2611794 -22.203255
13.886366 6.2466593 -22.19368
16.167736 6.5034957 -22.253744
12.949192 6.7042694 -22.23517
17.624054 6.1536427 -22.376471
14.316852 8.393445 -22.188198
15.20816 6.1366549 -22.299313
14.614355 8.0044765 -22.153078
13.573234 7.9208336 -22.166821
14.212187 7.9997864 -22.156582
16.390987 6.1497121 -22.238562
16.255692 6.6144419 -22.325087
13.174891 6.3373375 -22.313309
17.194908 6.322875 -22.229395
16.293835 6.2051449 -22.307571
13.225133 6.5262294 -22.189207
16.376919 6.1969886 -22.321999
12.865883 6.3246083 -22.319557
13.882305 7.8013721 -22.291636
16.289112 5.961154 -22.273146
12.816448 7.4657841 -21.975534
12.909356 6.8786507 -22.3172
16.17334 6.0131407 -22.260242
14.292063 7.8032589 -22.148922
16.339725 5.9489379 -22.263771
16.904444 5.9737458 -22.233257
15.480604 6.1877046 -22.209602
14.696178 8.6164646 -22.21063
12.897799 6.3885808 -22.313616
13.796461 6.8449931 -22.329214
15.415277 6.4603505 -22.251766
16.979761 5.9470892 -22.269768
13.888758 7.8038802 -22.145704
14.091825 7.7932968 -22.155487
16.180706 6.5869303 -22.360945
16.478052 5.9117279 -22.228827
14.173101 7.8019433 -22.144794
14.949671 6.388556 -22.107779
16.442816 6.6067991 -22.311445
14.066372 7.8571591 -22.267155
13.967221 7.85392 -22.2777
15.078394 7.6721439 -22.263708
13.985588 7.7520075 -22.167055
14.086047 7.2447639 -22.22867
14.045642 9.0063162 -22.187109
13.371626 6.6145325 -22.25095
15.790069 6.5895367 -22.414291
13.776501 8.893116 -22.222311
13.682398 6.8464823 -22.330435
14.057046 7.6814237 -22.278564
14.292658 7.6369853 -22.215231
14.059637 7.6181068 -22.15267
14.120208 7.4232969 -22.213552
14.42978 7.4374766 -22.225246
13.905346 7.8718395 -22.272472
16.409706 6.6759133 -22.383434
15.821923 6.1910667 -22.202761
16.797792 6.1086721 -22.219215
14.942223 8.5930233 -22.07815
14.278232 6.2972078 -22.326044
13.966412 6.2517285 -22.192049
14.081963 6.2750349 -22.208876
13.978536 6.3302836 -22.170479
13.194803 6.3171411 -22.181442
15.964999 6.4469032 -22.291176
15.917946 6.2509031 -22.211226
15.204226 6.1037774 -22.175909
14.363103 7.336483 -22.196346
14.154885 6.1754284 -22.290625
15.949124 6.3098569 -22.453421
17.296021 6.2498384 -22.200731
12.956657 6.5893068 -22.193823
12.983527 6.8239126 -22.278952
13.684731 6.3348565 -22.181601
13.086672 6.3877172 -22.30271
12.804853 7.2409081 -22.397587
13.37487 6.3336139 -22.155222
13.486231 6.3849568 -22.297234
13.816249 8.8695297 -22.305849
14.723478 8.5048122 -22.1549
12.856392 6.9823127 -22.143307
12.968793 6.3625941 -22.229973
14.082796 8.8907814 -22.222172
13.978014 8.8938398 -22.214876
16.70215 6.139925 -22.192478
12.895628 6.813519 -22.265648
16.547915 6.1474042 -22.230251
17.290667 6.3906484 -22.29693
14.259886 8.7485209 -22.266218
13.474226 6.3277683 -22.17314
13.597993 8.8632841 -22.164999
14.778131 6.3779736 -22.440954
13.169044 6.420094 -22.232008
12.97895 6.8314929 -22.186785
16.940224 6.0961866 -22.244158
13.783242 6.7908921 -22.217983
14.411683 6.5730028 -22.192163
14.385807 7.8159056 -22.144653
13.49049 6.789432 -22.208569
13.382374 7.1697378 -22.141392
15.26816 6.3146119 -22.158489
14.280057 6.2572794 -22.192551
14.20144 6.9025412 -22.305428
17.073475 6.593646 -22.340851
16.795313 5.9702001 -22.293655
13.781 8.8634167 -22.168903
14.078963 6.7873201 -22.213697
12.804087 7.1458182 -22.307795
15.394543 6.3577652 -22.297148
15.885327 6.3573732 -22.300566
14.264813 9.1087017 -22.159643
13.884457 6.7915502 -22.216709
15.68623 6.3134642 -22.313183
13.886537 8.8902626 -22.218729
16.885584 6.3054495 -22.331627
16.983416 6.3384056 -22.252253
13.18853 6.818953 -22.269295
13.704872 6.8402195 -22.182095
13.492308 6.8513808 -22.194431
13.68438 6.7892494 -22.216221
12.890093 6.8761048 -22.240297
13.295845 7.4087787 -22.145918
13.687515 8.8101864 -22.19054
13.874994 6.3323455 -22.159941
17.375408 6.5514059 -22.287912
13.196474 7.6616406 -22.165411
16.76955 6.3714156 -22.317307
16.879784 6.3755507 -22.306067
13.973083 6.8948617 -22.310526
16.571144 6.6395907 -22.434278
13.786022 7.7932143 -22.148357
13.586411 6.8467283 -22.191572
13.016397 6.378685 -22.154198
16.999495 5.7585816 -22.310305
14.413778 6.0385218 -22.171436
14.458527 6.3156333 -22.431789
13.270495 6.8537083 -22.17124
14.42485 7.16678 -22.207333
13.683393 8.8706617 -22.14959
13.971618 8.867384 -22.153589
13.888187 8.8691292 -22.172443
13.670879 6.4287071 -22.21007
13.123061 6.4078822 -22.145977
14.099041 6.9035974 -22.306923
15.795197 6.5219998 -22.364561
13.783033 7.8234291 -22.214436
13.382929 6.3650894 -22.237074
13.557191 6.4599814 -22.256054
16.888132 5.8721366 -22.368206
13.970027 6.32762 -22.330877
16.687704 5.9153342 -22.191151
15.562839 6.4386163 -22.235775
14.367901 8.2312269 -22.179964
13.40241 7.4200306 -22.112579
16.130062 6.4363427 -22.256474
13.773863 7.9002767 -22.162914
13.128476 7.2070532 -22.069847
15.917804 6.4350295 -22.243107
14.408581 7.9429045 -22.171253
14.402149 7.6278629 -22.203445
16.804117 5.8899617 -22.184448
13.580577 7.8016853 -22.1542
15.791014 6.3633814 -22.295111
14.085666 8.8690386 -22.163137
14.603463 8.5019808 -22.179434
15.593243 6.6521225 -22.361528
15.822021 6.164063 -22.411125
15.298645 6.654501 -22.356377
13.78522 6.8662734 -22.242826
13.024636 6.3892941 -22.136456
15.387152 6.6327744 -22.379745
14.093666 6.20014 -22.349606
14.170916 6.1997714 -22.347374
13.583343 6.2155967 -22.320915
12.735329 6.9692774 -22.1761
14.786434 6.2008743 -22.348547
13.088087 6.8141546 -22.28335
13.770262 6.1997132 -22.33165
13.488563 6.1776376 -22.301521
13.784415 8.7330475 -22.266613
14.339395 6.2035694 -22.320339
13.787265 7.6844029 -22.289097
14.015282 6.207737 -22.287901
13.769 6.7300477 -22.316736
12.908017 6.1891737 -22.168404
13.097401 6.7170572 -22.283579
12.803663 7.1110721 -22.105366
15.512822 6.6664495 -22.337448
13.991229 7.6953731 -22.265823
14.272606 6.2076344 -22.302765
13.912127 6.9108057 -22.296427
12.693337 6.8476453 -22.294106
13.986852 7.7966237 -22.158705
17.208532 6.6532831 -22.334599
14.158518 7.6819854 -22.282715
13.498755 6.7372589 -22.287205
13.691622 6.735889 -22.30423
16.096615 6.2059283 -22.398872
14.099749 8.7565708 -22.250401
13.398639 6.7407403 -22.277857
16.571262 6.2159905 -22.472197
15.171321 6.2295022 -22.355282
13.870909 6.7500882 -22.2911
13.290275 6.2850814 -22.248322
13.605414 6.738883 -22.269699
14.766978 7.4244475 -22.172041
13.992748 8.853837 -22.379593
14.885109 6.2912397 -22.3258
17.024035 6.1809225 -22.452181
14.369941 5.9192109 -22.243034
15.100535 6.2240877 -22.374466
12.752984 6.5622487 -22.143126
15.693458 6.2174501 -22.357521
13.985054 6.7916894 -22.214333
15.296734 6.2176738 -22.367649
15.585874 6.2234249 -22.380875
14.392276 6.7195792 -22.299486
14.577187 6.7909946 -22.212292
13.372153 6.8715448 -22.255474
16.185524 6.3106623 -22.32057
17.008497 6.1981068 -22.40093
16.317751 6.22121 -22.352301
13.385736 6.3338342 -22.332342
13.830431 6.5855336 -22.252031
14.061964 6.6023955 -22.221308
17.174431 6.2204676 -22.367088
17.079401 6.2322464 -22.368486
17.590986 6.1688037 -22.259741
16.874832 6.2247319 -22.35791
15.870639 6.1740718 -22.222683
15.698364 6.2648344 -22.196936
15.695347 6.1051836 -22.196383
16.005913 6.1569037 -22.20174
16.09252 6.2719822 -22.183043
16.545816 6.1457748 -22.383175
15.360149 6.1961017 -22.383932
15.110432 6.2544336 -22.203279
16.789246 6.2189093 -22.282391
13.882195 6.4261117 -22.210184
13.689579 6.3517733 -22.239614
13.996313 6.4304738 -22.213512
17.398571 6.204689 -22.301521
14.543601 6.2356048 -22.406132
14.197754 7.1267314 -22.212095
14.085239 6.864706 -22.23838
15.32318 6.0595512 -22.302202
13.097247 6.1734476 -22.222713
13.329563 7.3089514 -22.042315
13.094219 6.4187503 -22.217541
13.022023 6.6106415 -22.143059
13.779946 6.8428211 -22.192013
14.217803 6.5943837 -22.219318
13.374365 6.4356661 -22.219133
13.972271 7.9042788 -22.10815
15.498853 6.1836696 -22.400131
14.961851 6.2032022 -22.364923
16.388161 6.539454 -22.376869
15.722605 6.0024047 -22.295897
13.273594 7.65692 -22.182171
13.700986 7.9036484 -22.103411
13.492609 6.8743877 -22.248201
17.086014 5.7005472 -22.348455
14.072629 6.2999005 -22.259224
12.873209 6.3079033 -22.246738
13.479031 6.4347606 -22.218796
12.871076 6.1068144 -22.238964
13.516079 7.1333203 -22.101656
16.98954 6.284524 -22.266016
15.780653 6.2986164 -22.27342
14.070213 6.4527907 -22.311069
14.587418 6.3019595 -22.260004
13.309331 6.4199195 -22.208057
15.388113 6.302321 -22.27211
16.881964 6.2736387 -22.263527
13.781756 8.82969 -22.246622
16.571606 6.3689518 -22.313307
14.385031 7.8247204 -22.215532
12.798796 6.3748579 -22.218267
13.681156 8.687252 -22.156826
16.488504 6.3574553 -22.309195
14.389728 6.3491049 -22.24752
13.049299 7.0416813 -22.173773
17.487326 6.2706294 -22.291246
14.582866 6.9450479 -22.185896
16.683184 6.2828474 -22.275444
13.026706 6.9431891 -22.326468
16.587826 6.2806005 -22.271128
14.100632 6.8540463 -22.184525
17.091656 6.2887907 -22.271082
12.742018 7.1303787 -22.146641
15.983481 6.2927065 -22.275013
14.569754 7.2074499 -22.157846
14.21158 6.4613829 -22.258287
13.883208 6.3758292 -22.298838
13.884022 7.8229408 -22.212818
12.676226 6.4679956 -22.260723
13.292212 6.3949175 -22.30805
13.903761 6.6912727 -22.251005
13.903004 8.7666092 -22.268778
14.084058 6.3517537 -22.245935
13.106427 7.2109485 -22.200726
12.929902 6.8197756 -22.163462
13.991073 7.7752705 -22.22617
15.370522 6.7324724 -22.311808
16.358784 6.4887223 -22.294914
12.80139 6.6161494 -22.414679
15.807095 6.4778399 -22.323494
14.684185 6.3709912 -22.298353
14.594879 5.9197941 -22.199841
14.071713 7.092031 -22.22588
14.133427 8.6164999 -22.162586
17.101011 6.3462772 -22.246578
16.763588 6.1923079 -22.430155
13.676003 8.9333801 -22.091997
15.683327 6.3560209 -22.299446
15.485191 6.3414207 -22.261358
14.577942 6.3349423 -22.165888
14.360908 6.4408607 -22.263584
13.988073 6.683219 -22.218313
14.188313 6.3011932 -22.256981
14.209922 5.8941288 -22.209497
14.570986 6.3729849 -22.293264
12.889884 6.3687315 -22.227364
14.783371 6.348042 -22.250269
12.764318 6.6223845 -22.28441
14.883947 6.3670883 -22.296738
13.219974 6.1471391 -22.212265
15.655367 6.3575015 -22.174206
14.848555 6.6227288 -22.371582
14.593347 8.137764 -22.188499
13.603004 6.8933182 -22.32089
16.415657 6.2330976 -22.187141
13.599227 6.4380794 -22.240446
14.384392 7.7742672 -22.227623
14.082173 6.3779688 -22.29475
16.53105 5.9427719 -22.278164
14.49403 6.3016963 -22.257442
13.984217 6.3535018 -22.241709
16.68866 6.3574386 -22.305662
15.175529 6.475234 -22.29624
14.07586 6.952055 -22.166149
13.372875 7.0548077 -22.143147
14.288665 6.4951391 -22.273424
16.085358 6.347939 -22.253641
16.448277 6.2254763 -22.42741
14.285215 6.8503346 -22.187462
12.93442 7.1433463 -22.209875
14.177543 6.0434518 -22.209179
17.288771 6.2758126 -22.282976
14.184624 6.3537083 -22.243246
13.811992 6.882237 -22.304895
12.690607 7.0751705 -22.099913
14.159093 5.9240079 -22.285917
16.382616 6.3392439 -22.246204
13.356001 7.0314536 -22.261417
14.369973 6.0674243 -22.248079
14.477392 6.4294333 -22.240421
14.236292 6.8899579 -22.327265
14.084186 7.82197 -22.213491
16.282707 6.3689046 -22.304333
14.013824 6.9426446 -22.168421
16.381969 6.0960312 -22.335037
13.583677 6.2980566 -22.262251
14.025905 6.1623302 -22.249403
16.283443 6.3118501 -22.324804
12.985168 6.8697429 -22.238167
14.082686 7.7878375 -22.298836
16.487854 6.7258315 -22.31719
15.631368 6.3081522 -22.193373
13.677089 6.8643756 -22.24678
13.684618 7.8239713 -22.210758
14.895088 6.2084942 -22.371397
12.611329 7.0773091 -22.079071
12.933339 6.1086016 -22.166159
16.389181 6.5930395 -22.433388
13.868255 6.9289503 -22.143044
17.211054 6.3728495 -22.417093
14.190443 7.774045 -22.230024
15.636621 6.6727071 -22.320585
13.809103 6.319994 -22.325108
16.48678 6.2884965 -22.275225
13.194723 7.3150611 -22.127617
14.165397 6.936934 -22.135748
15.08451 6.3750997 -22.29747
14.150867 6.6777406 -22.259237
14.840754 6.4367213 -22.15313
17.082699 6.2994452 -22.346478
13.289827 6.7091508 -22.24379
13.788154 8.8098831 -22.190708
15.469773 6.6856642 -22.234192
16.4998 6.3445477 -22.410431
14.44995 6.741189 -22.279518
14.080355 7.7721028 -22.227568
15.986074 6.1259084 -22.428484
13.388381 6.3813534 -22.30899
13.690903 6.2012038 -22.314367
14.675592 6.2220731 -22.347725
12.961473 7.2599354 -22.152317
14.681434 6.3413596 -22.247694
16.877245 5.8890629 -22.158762
14.383813 6.4354181 -22.208158
17.480326 6.2156835 -22.36138
15.283876 6.3621273 -22.30611
13.300866 7.0901208 -22.138248
13.287031 6.8678746 -22.247486
14.569744 6.7214179 -22.227966
14.288587 6.3751154 -22.296547
14.078982 6.7246714 -22.312281
14.681049 6.3025441 -22.260437
14.386958 6.3037333 -22.2596
13.520287 6.5894485 -22.261589
15.977804 6.3568959 -22.299822
13.981031 6.74438 -22.289455
13.684256 6.8110242 -22.266245
15.183077 6.3595834 -22.30155
16.562958 6.2178936 -22.351486
13.098682 6.3272705 -22.15914
14.462499 7.7968531 -22.150654
13.185263 6.3629284 -22.229425
13.489077 6.2932043 -22.261614
15.982101 6.3144426 -22.315002
14.28685 7.8290834 -22.215677
13.188638 6.3814468 -22.305023
14.070061 6.4329648 -22.190277
16.968683 5.8064961 -22.215176
15.666141 6.6293039 -22.247684
15.390638 6.3440013 -22.256952
13.051862 7.3804717 -22.198776
17.276392 6.3234134 -22.442356
14.259029 6.8430762 -22.323959
13.841489 8.0156984 -22.059021
12.693253 6.8983803 -22.245996
15.987358 6.2191906 -22.382265
13.584799 8.8114071 -22.188307
16.718353 6.193552 -22.302719
16.57695 6.1890273 -22.280722
13.786934 6.815351 -22.264729
14.183169 6.3807111 -22.298294
14.085092 6.8107738 -22.261938
15.447691 6.0618734 -22.321827
14.084214 8.8275366 -22.240334
15.776715 6.3115377 -22.141781
14.090053 7.6489854 -22.346664
13.163307 6.0882378 -22.226542
13.886598 6.3556213 -22.244471
13.986941 6.8138065 -22.261208
16.11768 6.1541924 -22.419798
14.08764 6.6589322 -22.424803
17.684629 6.2753611 -22.298893
16.576872 6.576468 -22.27574
16.185625 6.3680658 -22.296259
14.081844 8.8080797 -22.19648
16.585949 6.3390226 -22.260044
13.387191 6.2942858 -22.256586
13.887434 6.867806 -22.244703
14.028547 7.5553722 -22.290432
12.796466 6.8196931 -22.287598
15.975547 6.0786476 -22.334843
15.194758 6.2514825 -22.208279
13.969223 6.8391004 -22.328924
16.875395 6.3360553 -22.231117
12.968283 7.1627622 -22.139202
16.381428 6.287632 -22.267923
13.988888 6.8610201 -22.240845
13.671859 6.0624485 -22.280115
13.603679 6.7146339 -22.230234
13.771155 6.3819351 -22.304457
17.096617 6.4243612 -22.170483
12.964144 7.1261125 -22.170464
13.583191 6.8081479 -22.268774
16.493761 6.340241 -22.259443
14.887401 6.3487649 -22.254129
16.962656 6.1076517 -22.317509
14.983572 6.3631701 -22.299236
14.883365 6.3164167 -22.174601
13.891332 6.3020325 -22.261656
14.186659 7.823246 -22.213232
13.573332 6.3370123 -22.175585
13.176184 6.860353 -22.240091
13.206118 6.2789049 -22.261353
16.185392 6.2906985 -22.277351
13.786591 6.2973714 -22.258135
13.783305 7.7701902 -22.229223
13.885739 8.8300114 -22.245916
14.279903 7.7746763 -22.23226
17.10252 6.0000463 -22.336935
14.390636 6.3693428 -22.296913
14.080858 6.849215 -22.330872
13.675008 8.886549 -22.225769
14.348762 7.0345941 -22.247063
14.63262 8.5374718 -22.135508
17.757118 6.261992 -22.270006
13.590672 6.8752284 -22.25766
14.894773 8.5660744 -22.158943
15.797634 6.2223473 -22.387306
13.983925 7.8208375 -22.211584
13.978588 8.8240118 -22.244242
14.191921 6.8474345 -22.191875
14.976778 6.3354292 -22.17042
16.988264 5.7359304 -22.244745
17.176126 6.3797588 -22.306612
16.698257 6.3412285 -22.253731
13.086581 6.3640685 -22.226898
13.980469 6.0924015 -22.243221
15.213683 6.7259426 -22.301878
16.488655 6.3084059 -22.325583
17.81279 6.2582488 -22.364241
14.769736 6.3148694 -22.168056
17.370182 6.2234383 -22.36541
14.57041 6.4360614 -22.218922
14.588176 6.3481741 -22.244291
13.324155 7.2972178 -22.133081
13.591528 6.6202321 -22.359423
14.09279 6.3199167 -22.319506
12.762377 6.6637592 -22.315138
17.17675 6.3043327 -22.35568
13.495216 6.3554568 -22.2348
17.287086 6.334095 -22.246876
13.921878 6.131094 -22.228834
15.389812 6.3186183 -22.313124
15.971213 6.4887505 -22.420296
14.379472 6.8666945 -22.242647
13.883488 7.7712245 -22.22427
15.752455 6.5373731 -22.261381
15.090531 6.4932914 -22.277466
15.292038 6.7323256 -22.308529
17.046398 6.369905 -22.127459
15.046906 6.3254838 -22.183771
13.783805 6.3577175 -22.23815
13.454062 6.6948676 -22.230139
12.982268 6.3802309 -22.310543
13.686066 6.2988267 -22.258759
16.700743 6.215086 -22.391827
14.271874 6.9371533 -22.166977
13.896493 6.8467479 -22.20059
17.569508 6.2691045 -22.286106
12.733642 6.3735471 -22.196089
13.983589 6.8485575 -22.195791
16.072985 6.3600678 -22.297634
17.487757 5.9423923 -22.26264
14.705513 8.5955744 -22.155962
13.288623 6.813004 -22.268555
13.700561 7.1785846 -22.1126
16.981495 6.3082724 -22.347141
14.486102 7.8262911 -22.217152
14.480562 6.3843799 -22.291561
14.489336 6.3147335 -22.326458
16.07865 6.2945018 -22.272547
13.68501 8.8324261 -22.24662
14.789948 6.3153896 -22.326521
13.495913 6.8148756 -22.265902
17.185059 6.2579947 -22.263258
13.990705 6.3747082 -22.301138
16.383049 6.3025675 -22.41383
14.677756 6.7258162 -22.308891
14.590025 6.3179326 -22.323986
15.473668 6.3628821 -22.298485
14.696459 6.3119736 -22.31428
15.341752 5.9831553 -22.32481
16.78796 6.2836118 -22.275507
14.431026 8.5319691 -22.180338
14.479095 6.8627796 -22.236271
14.885573 6.3039932 -22.265263
14.985393 6.3021321 -22.266621
12.935282 6.1520405 -22.175117
14.075921 6.963316 -22.180487
15.885697 6.3462358 -22.2591
14.138328 8.8370047 -22.332346
16.066776 6.1950145 -22.321075
13.379365 6.8442392 -22.183245
16.988562 6.3295941 -22.45273
15.606513 6.1938324 -22.298702
15.182591 6.3042774 -22.269499
13.177811 7.1860056 -22.224524
15.491862 6.3182831 -22.307655
13.846736 8.6041183 -22.133362
16.38479 6.3092446 -22.328663
13.979839 6.2965503 -22.26059
14.086007 8.8904371 -22.342569
12.641268 7.2811213 -22.132282
13.886262 6.8108168 -22.26417
13.198236 6.7952199 -22.205698
13.883237 6.8264108 -22.338909
14.176632 6.8622179 -22.241999
13.395161 7.4602351 -22.056355
16.08559 6.3156214 -22.318005
17.295498 6.2238288 -22.365496
14.203115 6.1189704 -22.227154
14.274014 6.6796732 -22.223375
16.279882 6.4773669 -22.278488
13.544182 6.9261446 -22.158747
15.586326 6.3436189 -22.255522
14.182557 6.8133006 -22.258833
13.659975 6.6585603 -22.343725
13.789145 6.7294207 -22.22821
14.994196 6.6680298 -22.183903
14.802355 8.2193193 -22.128973
13.082695 6.8500991 -22.171343
13.390176 6.815618 -22.269156
16.378464 5.8871212 -22.228209
13.674186 6.9366894 -22.143774
13.208702 7.1115999 -22.146297
12.725877 6.5890975 -22.271105
15.088516 6.3429804 -22.255501
16.173206 6.3369308 -22.254858
16.285992 6.3380661 -22.251497
14.986474 6.3433189 -22.257683
14.157497 6.4196162 -22.212563
13.187164 6.8489609 -22.180382
16.294188 6.2634444 -22.193724
16.616871 6.5721879 -22.391975
15.326281 6.56985 -22.215706
13.689471 6.3818669 -22.300386
14.395081 6.6089082 -22.319904
16.792534 6.3466797 -22.250816
13.357513 7.4055095 -22.258356
13.892769 6.6972451 -22.128141
15.979732 6.3390017 -22.249426
13.359608 6.4828763 -22.283062
13.657642 6.6327138 -22.267729
13.376581 6.9321456 -22.301521
14.189342 7.9310908 -22.182741
15.884941 6.2976718 -22.277298
16.278515 6.2859182 -22.273746
16.695038 6.5394464 -22.386406
15.68092 6.2990489 -22.271637
13.571516 6.1378489 -22.244184
13.300907 6.3453031 -22.15624
16.379465 6.3562269 -22.300125
13.094745 6.7985129 -22.216787
13.868529 7.6506209 -22.206488
15.166516 6.6418881 -22.273092
15.682289 6.3454809 -22.258734
14.701553 6.0484324 -22.241724
14.606731 6.0348301 -22.211487
17.681812 6.284379 -22.32996
15.583102 6.3092394 -22.314545
13.37827 7.3539939 -22.100147
15.584582 6.3629079 -22.303637
15.86787 6.2484035 -22.37228
16.389357 6.6246505 -22.35339
14.184559 6.7874727 -22.213865
16.758484 6.5510569 -22.357746
16.950863 6.4974155 -22.38022
14.374704 6.7905378 -22.21583
13.017015 6.9860168 -22.16958
14.282912 6.8698378 -22.24682
14.987608 6.5564337 -22.311316
13.886955 8.8108664 -22.192667
13.808464 7.7852373 -22.066311
14.622667 8.287241 -22.182198
17.180168 6.4134841 -22.42614
14.286721 6.3518481 -22.243469
14.89552 7.416141 -22.23111
15.195621 6.0493455 -22.218195
13.28003 6.7879405 -22.207516
13.591836 6.7918425 -22.217176
12.845005 6.5948863 -22.225508
14.783537 6.5768247 -22.251123
13.580605 6.378511 -22.302446
14.172588 8.8873043 -22.225224
14.476214 6.073844 -22.234159
14.481997 6.3488107 -22.244986
15.858331 6.4857311 -22.342855
17.383026 6.2963924 -22.351191
17.585754 6.2708411 -22.354685
13.984062 8.8102083 -22.192297
13.172697 7.3654776 -22.136122
15.086758 6.0149088 -22.26264
13.285248 6.3540626 -22.234041
13.586033 6.3596277 -22.241461
13.103641 6.2577419 -22.261217
17.090933 5.7641582 -22.318363
16.780298 6.3900476 -22.391541
13.026299 7.3221827 -22.170286
13.974689 6.5700345 -22.242334
14.97537 7.1131411 -22.194975
14.462695 6.3411064 -22.163263
16.786114 6.3093276 -22.33831
14.70792 7.2131019 -22.172638
15.083752 6.3023629 -22.268293
16.709513 6.3958168 -22.389303
13.078816 6.8683729 -22.250227
15.284799 6.3393564 -22.255827
15.182001 6.3431053 -22.255489
14.292392 6.7332163 -22.302731
14.284681 6.7881513 -22.214602
15.780796 6.3459492 -22.25573
12.860667 6.787993 -22.182898
16.581968 6.3115625 -22.323608
16.834595 6.3337092 -22.155939
15.17824 6.3185391 -22.180763
15.754059 6.3139939 -22.433439
16.569923 6.320601 -22.417013
14.287391 6.3005986 -22.263353
15.144813 6.7212076 -22.2229
15.122758 6.6488318 -22.212946
15.28197 6.0185652 -22.229681
16.162006 6.2014341 -22.386675
15.270205 6.6735945 -22.227325
14.786248 6.3766904 -22.292587
16.383978 6.2175198 -22.359823
15.483061 6.3012495 -22.274761
15.470216 6.7286549 -22.304644
16.484604 6.4607668 -22.403561
14.646679 6.6944308 -22.258713
12.809662 6.3339524 -22.170986
15.584321 6.7310791 -22.300253
14.989536 6.3119073 -22.321072
14.78729 6.3034477 -22.262003
16.891727 6.6124926 -22.374346
15.076749 6.3187723 -22.308907
15.886333 6.3124919 -22.315748
14.281884 6.8107848 -22.259731
14.241635 6.7534499 -22.352121
17.537689 6.2573528 -22.426256
15.185779 6.3152075 -22.320208
16.880741 6.1626673 -22.417557
14.3894 6.3207335 -22.318476
15.295404 6.3211608 -22.321604
17.574217 6.2353506 -22.382359
15.778418 6.3143272 -22.315989
16.684708 6.3074908 -22.331669
14.184714 6.7391944 -22.302151
12.771658 7.2625451 -22.114147
12.810722 7.3748703 -21.970284
16.899542 5.8608975 -22.273855
14.188718 6.2372713 -22.073107
15.288445 6.3016677 -22.270655
16.893192 5.7603426 -22.313032
15.590504 6.3007998 -22.27524
16.675947 5.846313 -22.300097
12.969072 6.288631 -22.274263
12.993591 6.0387039 -22.230835
17.294361 5.7356234 -22.316212
17.303944 5.9517379 -22.307858
17.179005 5.754137 -22.315826
16.746187 6.0846372 -22.307188
16.776371 5.9617481 -22.324585
13.115299 7.2897201 -22.314451
13.675784 6.9123173 -22.317612
16.48275 6.1047049 -22.287825
16.462255 6.1802111 -22.304354
13.146392 6.4774399 -22.303986
17.381084 6.3310099 -22.24184
14.777505 8.1891956 -22.202816
13.164768 7.4277191 -22.223972
13.710824 6.4441824 -22.29653
13.177403 6.9986339 -22.243345
13.843231 6.4497814 -22.277706
17.356449 6.3713374 -22.309069
14.196186 6.4578538 -22.112734
16.223028 6.0839872 -22.307396
14.765126 7.2992363 -22.185244
17.43716 6.3461695 -22.230213
17.499578 6.0492511 -22.241722
13.492109 6.8822956 -22.310005
14.263202 7.9465036 -22.200518
16.291805 6.5252271 -22.370445
13.204983 7.2990475 -22.194481
13.12524 7.4822631 -22.200937
13.974259 7.9144454 -22.197058
14.754215 6.51441 -22.231726
12.955877 7.0104799 -22.146612
14.73846 7.0935879 -22.205059
13.064784 6.5890384 -22.245008
16.166819 6.553628 -22.361696
12.991311 6.6614099 -22.322241
14.594441 6.4500861 -22.255135
13.092751 6.9724774 -22.192822
14.169966 6.3307724 -22.323307
14.617116 7.0473013 -22.155357
14.589785 7.2539859 -22.204229
13.121799 7.2866936 -22.203741
14.670727 6.2508073 -22.201929
13.271206 7.3129239 -22.171471
14.803482 6.0429802 -22.218826
17.481264 6.2800984 -22.364338
14.188161 6.7502937 -22.389986
14.161845 6.7596064 -22.124565
13.654312 6.635952 -22.233213
16.677578 6.321331 -22.415918
14.063433 6.7230701 -22.379189
12.676929 7.1762447 -22.230562
16.807491 6.2476625 -22.195438
14.262341 6.4128714 -22.128712
14.187599 6.3155475 -22.435465
16.794933 6.3290138 -22.422155
13.594827 6.3150396 -22.325287
13.985672 8.761631 -22.288193
13.774175 7.7732339 -22.309959
13.89331 6.3195639 -22.345531
14.005687 7.7894635 -22.293507
13.708435 6.3293991 -22.308119
17.542336 6.6100364 -22.151728
13.916684 6.3154616 -22.43914
17.350439 6.5594845 -22.167999
13.382797 6.2949257 -22.084389
16.890015 6.2539225 -22.20863
17.439785 6.6190319 -22.148603
17.529556 6.2518263 -22.210205
17.275896 6.1734433 -22.287405
17.108856 6.3605847 -22.386461
17.373211 6.2740107 -22.253616
15.070008 6.1897068 -22.20612
17.514942 6.1996517 -22.294403
17.493231 6.1100488 -22.213594
16.721733 6.241663 -22.206211
16.845846 6.3607216 -22.39183
17.948591 6.1955605 -22.220684
17.328938 6.1322298 -22.216217
17.56707 6.1727376 -22.229275
17.118511 6.0038152 -22.198469
17.38117 6.075562 -22.22418
16.626308 6.0325513 -22.269156
14.297915 6.4293184 -22.21233
17.207203 6.0470996 -22.254335
14.475082 6.4180217 -22.139515
17.408876 5.931241 -22.237429
14.681451 6.434463 -22.20978
15.484941 6.4553213 -22.249725
13.777368 6.4189153 -22.204403
15.977084 6.1984987 -22.310818
15.760388 6.2159247 -22.320686
16.414352 6.0625806 -22.262442
13.841884 6.4231987 -22.384253
16.090704 5.9502573 -22.281992
14.41472 6.8401217 -22.185169
16.165102 5.9784379 -22.262499
16.119059 6.5333304 -22.355171
15.795533 5.9718766 -22.261818
15.97877 6.2490311 -22.192917
17.343304 5.6744766 -22.329512
17.453167 5.7436895 -22.315536
17.08128 6.4944768 -22.465729
15.262162 6.2563019 -22.192684
14.658936 8.2731295 -22.202581
13.862391 6.3957911 -22.14566
17.181017 5.9882483 -22.246969
13.599258 7.2600784 -22.109907
14.172025 7.3360229 -22.237638
14.468996 7.1816864 -22.17635
15.672717 6.4862642 -22.333727
15.934216 6.547749 -22.298353
13.810584 7.9989352 -22.169096
14.389874 6.3350277 -22.167927
14.27577 7.7425599 -22.179596
17.18355 5.8928032 -22.173464
17.036438 6.0676947 -22.337564
13.741467 8.7342768 -22.088327
14.022759 8.7979412 -22.07774
14.387533 7.072649 -22.156582
17.072708 6.3631859 -22.33087
16.873869 6.2159748 -22.29459
14.875931 7.3698111 -22.162628
17.237638 6.5070581 -22.34972
15.891988 6.0562911 -22.326439
16.942617 6.1832447 -22.305916
13.882591 7.7460423 -22.17004
17.499649 6.5622087 -22.159056
14.71533 6.5964956 -22.356638
13.073775 6.9532022 -22.144135
15.712972 6.2063608 -22.290541
14.325344 8.1979809 -22.192453
13.284114 6.4944181 -22.244314
14.04976 6.7667279 -22.11764
13.707692 8.7453775 -22.197172
14.089267 6.7284055 -22.235743
13.831061 6.5705776 -22.201057
15.312541 5.9781609 -22.29047
14.295567 5.9314079 -22.246542
14.185104 8.7620869 -22.285164
14.518553 6.1085706 -22.273144
14.345278 6.3733811 -22.400255
14.096858 6.8514857 -22.429832
15.727972 6.0246749 -22.275135
15.788883 6.0258021 -22.266277
15.803286 6.2839594 -22.163239
16.195883 6.2484593 -22.199659
14.685221 6.329844 -22.166672
16.724426 6.0510216 -22.12693
16.547144 6.2101693 -22.196772
16.00666 5.9650979 -22.279779
17.053925 6.1660528 -22.201202
17.065226 6.2205343 -22.300892
17.792294 6.2066717 -22.325424
17.891777 6.1881604 -22.309631
17.788712 6.2266631 -22.364635
17.667444 6.2394805 -22.360022
17.210482 6.2273526 -22.317348
14.195027 6.329093 -22.177744
17.296421 6.2882895 -22.354479
17.714302 5.974833 -22.334669
13.597633 6.5833745 -22.244694
17.68465 5.5205283 -22.299637
14.294752 6.3230529 -22.185162
14.953454 5.9849706 -22.184479
16.387211 5.844821 -22.304415
17.695896 5.4927645 -22.333185
17.585011 5.5509214 -22.318436
16.981747 6.3658381 -22.304338
16.377811 5.9957371 -22.334757
14.765776 6.1443081 -22.200764
16.443888 5.9793062 -22.343878
14.782447 6.0315089 -22.189329
17.506733 5.6903143 -22.325171
16.455442 5.8527493 -22.32379
14.723678 5.9893274 -22.232342
14.483335 7.4936132 -22.182833
13.149622 6.9206862 -22.135826
13.469902 7.8921337 -22.099375
13.486119 7.7966018 -22.155666
14.065022 6.362247 -22.168316
15.032986 6.2868128 -22.188969
14.342891 6.1023908 -22.247231
13.577098 6.2296634 -22.1782
13.46957 6.2768359 -22.195568
13.3005 7.5833879 -22.108116
14.832663 6.2317605 -22.16925
13.286352 6.3146572 -22.315107
14.671009 6.1414542 -22.231232
14.878617 6.2546201 -22.174021
14.383911 6.6471972 -22.17598
13.459354 6.2528853 -22.373878
13.389679 6.240243 -22.402122
14.859218 6.0487971 -22.203381
13.450786 6.3182006 -22.319221
14.365682 7.1563005 -22.194557
14.096222 7.1107092 -22.212158
13.79026 6.2754183 -22.197285
14.555882 6.2196989 -22.285326
13.936493 6.5377283 -22.133562
14.213535 6.9947362 -22.208628
17.218943 6.5101752 -22.293037
13.380552 7.3017912 -22.094675
13.264037 7.5638933 -22.160938
13.289766 6.9866347 -22.176571
17.187946 6.2421532 -22.441715
13.496325 7.3165135 -22.113674
13.308113 7.1694031 -22.133617
13.467465 6.9528279 -22.110626
13.103 7.3730884 -22.240091
13.356498 6.9896832 -22.160698
13.058943 7.4029427 -22.294977
13.182456 7.182909 -22.180235
13.011044 7.3331575 -22.248556
13.357205 6.9249654 -22.153313
16.137451 6.422472 -22.232975
13.317448 6.955246 -22.124126
13.671041 8.7587938 -22.107615
14.195172 6.2812972 -22.196745
13.376896 6.2541246 -22.17325
13.459408 7.4064937 -22.071156
15.526605 6.4270287 -22.234142
13.998672 8.7277231 -22.203074
15.145539 7.5465384 -22.173094
16.512138 6.1381893 -22.198681
13.675646 7.0693808 -22.178234
13.382797 7.0576763 -22.113472
12.898529 7.2167802 -22.162369
13.069834 7.0248423 -22.077274
13.187943 6.688623 -22.215904
16.376175 6.4386096 -22.391359
12.955426 6.1413836 -22.131931
14.435023 6.4085865 -22.383406
13.678846 7.8008432 -22.147655
13.16941 7.0552626 -22.040989
16.911869 6.4019771 -22.177921
13.460984 7.0339632 -22.274038
14.595813 8.3227186 -22.168688
13.792533 7.7447314 -22.180277
12.583903 6.8868113 -22.255234
14.401942 8.0433617 -22.201288
12.453577 6.9777532 -22.150936
14.192448 8.7303886 -22.209486
14.575426 7.7364955 -22.154129
12.881392 7.0919995 -22.16139
14.479716 8.3477011 -22.189411
16.795883 6.2485552 -22.43343
13.817326 6.7170339 -22.383205
15.008747 6.1651688 -22.278505
13.976707 7.5486221 -22.207802
15.818392 6.4552064 -22.231108
15.106915 6.5509825 -22.149738
14.439825 6.5139904 -22.192987
14.362514 7.4041591 -22.187237
13.588802 6.8227019 -22.334333
14.067557 8.63937 -22.26688
14.3021 7.4198647 -22.192696
17.124645 6.4079986 -22.398754
14.179294 7.7495279 -22.177849
14.397133 7.7557483 -22.171097
13.283932 7.7401032 -22.1635
14.791962 6.4447851 -22.197065
15.808701 6.4091039 -22.400032
14.466678 8.1429367 -22.164423
15.878348 5.9580235 -22.282822
13.690927 7.7390156 -22.178423
16.607489 6.1775117 -22.474783
15.485422 6.21632 -22.225063
14.378578 8.1518145 -22.187525
14.157634 7.1052918 -22.213394
14.332391 7.4766049 -22.196442
12.609987 7.1639237 -22.098364
14.180131 7.48561 -22.212931
14.402717 8.3510904 -22.185345
14.373678 8.0203485 -22.172333
13.893947 7.6815739 -22.263329
15.361159 6.4410892 -22.202242
14.232491 8.2474394 -22.191883
17.152338 6.5615163 -22.239813
16.014402 6.0561047 -22.275988
12.812583 6.3719254 -22.337627
12.853093 6.0839353 -22.221994
12.705006 6.3688912 -22.3134
13.092569 6.3356853 -22.307087
14.20571 8.0910416 -22.186892
14.459093 8.6076031 -22.22974
14.100992 8.6567373 -22.158773
15.785754 6.6179128 -22.342627
16.9154 5.9687753 -22.347355
14.098635 7.9219937 -22.152248
16.32222 6.454011 -22.384609
12.937166 6.4558692 -22.185778
12.858953 7.3282528 -22.165106
17.117146 6.0027437 -22.21681
13.811649 7.9088097 -22.061659
16.227777 6.1985769 -22.235224
16.217545 6.1727996 -22.171665
13.86997 8.7146931 -22.20331
14.010409 7.573421 -22.126251
14.532382 7.5760899 -22.094706
16.218294 6.0927305 -22.155813
16.475496 6.0513697 -22.130344
14.174899 6.5807595 -22.111027
15.028796 6.1516404 -22.214388
14.210022 9.1074438 -22.203442
14.493467 6.1757646 -22.225725
14.010757 8.9898119 -22.167984
13.850311 8.818388 -22.106195
15.066885 5.9773726 -22.188036
13.732391 7.9753289 -22.058542
15.865677 6.6455798 -22.401825
13.870208 6.779429 -22.384768
17.000067 5.8636761 -22.297247
16.789354 6.6699104 -22.408113
13.569113 7.9062972 -22.120922
13.675571 7.0314837 -22.113142
13.478189 7.1317616 -22.110081
13.783988 8.7319756 -22.196703
14.864629 7.552525 -22.19166
14.691678 7.3267879 -22.149109
13.630148 7.969336 -22.053656
17.365036 6.2990255 -22.409712
15.68254 6.4336076 -22.238356
16.583853 6.414207 -22.395973
15.280879 6.4394603 -22.222076
14.972322 6.4305534 -22.215006
14.331271 6.6428046 -22.357553
15.037627 6.4811249 -22.232256
14.893161 6.1664147 -22.344002
13.585157 7.7505479 -22.173624
15.449398 6.179883 -22.287294
12.914729 7.2232995 -22.205061
14.091672 7.7510028 -22.17312
13.803239 8.6085367 -22.234802
15.106567 6.2054982 -22.269081
15.365462 6.1818151 -22.277901
13.351676 7.4822936 -22.123857
14.877307 7.5186486 -22.139301
13.251629 7.5422349 -22.139296
13.202971 7.4862328 -22.138229
13.660428 6.9401536 -22.198219
14.435391 6.6728177 -22.366375
14.457494 6.6979742 -22.246376
