# .PCD v0.7 - Point Cloud Data file format
VERSION 0.7
FIELDS x y z
SIZE 4 4 4
TYPE F F F
COUNT 1 1 1
WIDTH 504
HEIGHT 1
VIEWPOINT 0 0 0 1 0 0 0
POINTS 504
DATA ascii
50.177971 71.784721 64.176971
50.157829 71.834915 64.178627
49.997101 72.592247 64.157097
49.850464 71.988411 64.043556
49.907509 71.935799 64.013603
50.035812 71.986877 64.074158
50.392254 71.795074 64.092949
50.575874 72.152962 64.114998
50.46125 72.085075 64.086571
50.51313 71.897781 64.091263
50.541573 71.796936 64.095154
50.085484 72.003464 64.03643
50.285034 72.45575 64.073013
50.26416 72.040062 64.049156
50.296234 72.62413 64.232841
50.285275 73.732079 64.143616
49.699127 71.707756 64.090691
50.264183 73.989532 64.155251
50.58358 73.829369 64.290215
50.604332 71.715363 64.240288
50.918522 73.632294 64.411278
50.379574 72.79808 64.077179
50.384815 74.719322 64.311539
50.762806 74.021309 64.392235
50.267323 73.39476 64.258636
50.638416 72.147675 64.325676
50.65984 72.080101 64.333138
50.714954 71.896629 64.342384
50.441456 71.831444 64.268837
50.743885 71.79982 64.346512
50.458668 71.765602 64.271042
49.52467 71.69976 64.020279
50.5392 74.413361 64.301735
50.393406 73.808281 64.278267
50.568741 72.014961 64.256409
50.494942 71.714615 64.242325
50.675575 71.637054 64.28315
50.509811 72.033859 64.235565
50.449203 71.713051 64.214226
50.826542 73.744957 64.336945
50.769848 73.553749 64.322693
50.507702 72.209023 64.225082
50.584499 71.822792 64.241676
50.123024 74.863319 64.213028
50.386478 74.560356 64.259468
50.503456 72.529915 64.24012
49.320786 71.688461 63.941578
50.80043 74.095985 64.327225
50.396278 74.853157 64.259079
50.510792 74.787178 64.29274
50.784794 73.421425 64.311836
50.587406 73.223923 64.261948
50.428146 73.26474 64.234192
50.559818 73.025558 64.249344
50.39539 71.967865 64.126686
50.656193 71.998245 64.231461
50.221897 71.835663 64.107903
50.419205 71.74691 64.148544
50.927963 73.715118 64.264244
49.777905 74.548378 64.05352
50.307831 74.891205 64.170029
50.719879 73.966515 64.237038
50.831329 73.997581 64.261253
50.71933 73.844597 64.233673
50.779938 73.785721 64.241676
50.89682 73.81324 64.269829
50.753815 73.478302 64.228142
50.694244 73.258453 64.209465
50.572174 73.225647 64.17688
50.758881 73.174873 64.211594
50.427216 72.19207 64.108337
50.327255 71.89843 64.070816
50.639435 71.920097 64.142647
50.5093 72.803696 64.078926
50.509212 72.427414 64.185158
50.660152 72.387383 64.214714
50.194527 72.004326 64.124062
50.459408 72.036636 64.162544
49.911629 71.722221 64.108337
50.325279 75.164009 64.242989
50.304783 75.066788 64.231468
50.032127 74.670654 64.143318
50.497303 73.797043 64.280807
50.819126 73.628967 64.328819
50.590977 73.610878 64.252258
50.596886 73.004936 64.223953
50.408901 72.486122 64.145401
50.607384 72.469101 64.221825
50.305786 72.078537 64.164238
50.881607 74.270813 64.333618
50.365349 75.153351 64.242851
50.397392 75.050972 64.246719
50.553337 74.577888 64.267342
50.650017 74.519257 64.294434
50.712898 74.378838 64.304886
50.866447 74.355675 64.333946
50.727455 74.154701 64.301743
50.76281 73.938934 64.299904
50.711849 73.63974 64.271507
50.529858 73.554237 64.202431
50.527348 73.327728 64.221695
50.499153 73.019669 64.176613
50.719963 71.750107 64.226746
50.867012 74.290878 64.315102
50.079487 74.571228 64.14061
50.58614 74.157738 64.257057
50.686287 73.70575 64.271973
50.553364 73.258354 64.219383
50.117752 75.075371 64.176163
50.771896 74.113159 64.311272
50.589157 74.061661 64.265289
50.703255 73.375778 64.291077
50.70549 71.971573 64.230995
50.095306 75.193611 64.175056
50.281628 75.122505 64.207726
50.167919 75.145897 64.180229
50.171539 75.069954 64.18383
50.711239 74.464035 64.302727
50.593189 74.463928 64.273865
50.619766 74.095322 64.25914
50.859753 74.034447 64.321564
50.670666 73.527771 64.249847
50.494263 73.12426 64.208336
50.307236 74.849091 64.245338
49.832664 74.539101 64.13665
49.848732 74.447914 64.172798
50.597038 74.401688 64.271416
50.789143 74.241135 64.316589
50.614506 74.260384 64.281937
50.698944 74.041916 64.296982
50.498005 73.512695 64.238495
50.692879 73.313332 64.244774
50.514763 72.471298 64.20401
50.523373 72.3592 64.191338
50.128735 75.001778 64.18277
50.309441 74.647499 64.243744
50.414772 74.460648 64.248779
50.57996 74.435898 64.318245
50.713432 73.935745 64.302162
50.319347 73.833023 64.227905
50.5952 73.52623 64.281029
50.880451 73.525581 64.359749
50.680851 72.041855 64.272804
50.695255 71.983475 64.275108
50.735111 71.817245 64.277115
50.31913 71.717789 64.179222
50.145348 71.690613 64.137245
51.015614 73.521828 64.3647
50.935299 73.651741 64.349632
50.211452 74.869225 64.223244
50.503525 74.450783 64.287231
50.705238 74.310692 64.314934
50.708656 74.234932 64.307205
50.79089 74.051155 64.339729
50.284901 73.511124 64.203758
50.527794 73.312538 64.268745
50.709572 72.162743 64.254959
50.612858 72.142723 64.25135
50.635895 72.063034 64.252884
50.537373 71.945419 64.248871
50.223949 71.732368 64.165794
50.864666 71.775009 64.27655
51.002048 73.562889 64.337082
50.391617 74.572105 64.209846
50.417461 73.631737 64.202011
50.609177 73.537048 64.226135
50.593647 73.122086 64.272408
50.525261 71.824005 64.210938
50.496155 71.764557 64.181198
50.318298 71.708763 64.149323
50.128517 74.680092 64.165184
50.323463 74.460915 64.225838
50.772823 73.864716 64.273262
50.305908 73.728638 64.188454
50.433983 73.497849 64.237122
50.10022 73.496429 64.177231
50.500034 73.42807 64.229767
50.602139 72.22876 64.231941
50.486832 71.959892 64.178154
50.412827 71.836258 64.186958
50.015137 74.979607 64.168503
50.109497 74.909378 64.168808
50.480381 74.661522 64.247528
50.308376 74.557106 64.218513
50.389694 73.726196 64.22364
50.185638 73.49398 64.184113
50.301857 73.399162 64.180809
50.397316 73.426323 64.198601
50.574516 73.305405 64.24041
50.723434 73.220406 64.275482
50.513817 73.195282 64.237518
50.288422 74.67762 64.200005
50.199875 74.655991 64.178566
50.387936 74.698433 64.2341
50.308525 74.617165 64.186646
50.192543 74.580147 64.164963
50.10751 74.465195 64.162086
50.506718 74.263847 64.212852
50.205715 74.891129 64.16185
50.309303 74.81208 64.172241
50.568863 73.753563 64.241676
50.525497 73.726089 64.253326
50.48933 73.77636 64.21804
50.662079 73.758568 64.21447
50.393917 73.7929 64.170349
50.233574 74.67424 64.230667
50.380371 74.645515 64.272636
50.303787 74.765366 64.234093
50.041935 75.172279 64.193344
50.386108 74.733978 64.247185
50.198391 74.773674 64.189438
50.052002 72.377975 64.016678
50.140629 75.200699 64.216858
50.32473 75.179367 64.25293
50.416344 73.20372 64.204025
50.174561 72.39872 64.046997
49.925983 71.741371 64.055305
50.316856 73.195671 64.184822
50.11594 72.41996 64.058456
49.898197 71.848549 64.069031
50.282864 73.308464 64.222168
50.318958 73.221069 64.269562
50.398468 72.307236 64.103455
50.21286 71.731125 64.12178
50.080402 75.131256 64.166763
49.782471 74.48037 64.102142
50.323463 71.830177 64.145988
50.193539 73.405563 64.192612
50.224197 72.327759 64.063873
50.071033 73.675125 64.211784
50.305687 72.553932 64.152962
50.025009 73.256035 64.150192
50.335003 72.489006 64.137436
50.401512 72.57946 64.18811
49.802345 71.781151 63.999298
50.234474 71.895546 64.095779
50.30431 74.013092 64.282875
50.0849 73.304626 64.166061
50.256718 73.241112 64.196198
50.502121 72.184708 64.189255
50.524704 74.156952 64.245872
50.481369 72.169861 64.208633
50.357838 72.145065 64.252541
50.143311 72.524879 64.047264
50.388458 74.063507 64.206894
50.299854 73.686073 64.272728
50.613213 74.325691 64.298691
50.504669 72.684547 64.220711
50.204384 74.071022 64.146904
50.314022 74.065575 64.178078
50.292221 74.357719 64.187744
50.157612 74.034729 64.150734
50.03051 73.503899 64.127747
50.135105 72.339645 64.058815
50.222828 73.558891 64.252075
50.054264 73.571983 64.148384
50.690674 73.580818 64.311005
50.38607 74.966995 64.252831
50.266693 74.271393 64.132973
50.338108 73.617874 64.265465
50.148834 72.193306 64.180428
50.217789 72.234558 64.165977
50.316406 72.199928 64.103035
50.301056 72.71418 64.09877
50.327614 72.164825 64.178993
50.446999 72.220871 64.217606
50.269543 72.829575 64.14608
50.121063 72.803497 64.101089
50.0387 74.306099 64.14402
50.22842 72.813087 64.105644
50.504395 74.341461 64.287422
50.196327 72.673294 64.168083
50.211517 72.793427 64.186501
50.539555 74.149734 64.294716
50.311157 72.442627 64.194313
50.414146 72.682137 64.184227
49.976368 72.771774 64.143555
50.215572 72.144051 64.125793
50.30809 72.685722 64.218727
49.937672 72.78537 64.156715
50.499596 72.987617 64.225105
50.488724 74.25898 64.248856
50.227058 72.278404 64.086754
50.496231 74.032806 64.250298
50.236946 72.36599 64.134102
50.39859 72.132141 64.183006
50.111122 72.681877 64.150597
50.200279 74.232269 64.189713
50.215141 74.033134 64.196251
50.189732 74.16848 64.197556
50.384537 74.338715 64.23793
50.410191 74.245087 64.235573
50.51936 72.271767 64.187065
50.405785 72.365799 64.179161
50.384411 74.110207 64.256638
50.123875 74.771408 64.17218
50.295456 74.104828 64.233994
50.138962 73.99501 64.177681
50.408775 74.159988 64.219742
50.397808 72.967781 64.218391
50.315613 74.134674 64.197861
50.397358 74.006126 64.218346
50.507755 72.750084 64.247307
49.996311 72.797508 64.106499
50.297169 72.264542 64.137199
50.196327 74.978546 64.182625
50.419842 71.929359 64.203354
50.148895 71.932304 64.192001
50.099255 73.229599 64.16835
49.71344 71.933945 64.009895
49.610256 74.514961 64.079918
50.605217 73.424805 64.267616
50.393433 73.822647 64.199493
50.396629 74.360428 64.22036
50.530148 73.363182 64.297554
50.240639 75.188019 64.207321
50.419567 72.290421 64.1754
50.375233 72.465744 64.189346
50.005291 72.579033 64.13398
50.381805 72.924973 64.119392
50.391796 72.527969 64.226173
50.068066 72.535637 64.139145
50.2383 72.469223 64.166473
50.079048 72.476585 64.131912
50.007183 72.373268 64.11837
50.2841 72.360191 64.170174
49.897327 72.274391 64.073639
49.819519 72.254143 64.065399
50.19426 75.251312 64.202652
50.405262 72.062996 64.199837
49.909782 72.184135 64.081436
50.012341 72.13092 64.105804
49.982155 72.237305 64.113121
50.278229 74.499931 64.14901
50.122952 72.171341 64.131073
49.815952 72.158325 64.062737
50.012413 74.907433 64.14357
50.193291 72.045761 64.125053
50.332672 72.586235 64.103188
49.92923 71.9683 64.076469
50.360565 72.651871 64.109497
50.191467 72.01619 64.163948
49.826122 72.011307 64.077026
50.203026 71.940361 64.156075
50.413269 73.02269 64.191284
50.351044 72.927086 64.109406
49.904896 72.032089 64.064476
49.997231 72.077797 64.094635
50.304146 74.039406 64.224251
49.656357 71.794136 64.034119
49.819256 71.71067 64.075294
50.106445 75.287704 64.179092
49.950066 74.917007 64.131767
50.146423 74.373749 64.170479
50.186394 72.834549 64.211067
50.317741 72.120445 64.071899
50.061325 72.015007 64.11998
49.62558 71.676651 64.050331
50.005352 71.701202 64.103325
50.057407 72.125969 64.033005
49.977669 72.834663 64.15033
50.020809 75.300552 64.187805
50.237793 72.631897 64.068832
50.501839 74.375107 64.241493
50.063812 74.208374 64.091354
50.290745 73.01577 64.13903
50.487373 73.629066 64.225311
50.432396 72.716293 64.028503
50.127079 71.770866 64.105659
50.498863 72.871666 64.203247
50.892868 74.141396 64.342659
50.679333 74.569031 64.284485
50.2145 73.785088 64.190895
50.292046 71.679222 64.128372
50.125427 73.802269 64.185532
50.19931 72.503258 64.073029
50.211151 74.546631 64.190697
50.22715 72.582283 64.172897
50.534496 71.665092 64.172684
50.051029 75.090668 64.196068
49.983318 72.311211 64.138664
50.039406 74.511993 64.148605
49.99168 71.758919 64.066742
49.999664 72.684296 64.122665
49.895775 74.466568 64.105072
49.877563 74.553635 64.129532
50.137238 74.742691 64.125397
49.851227 72.713348 64.126427
50.044003 73.046272 64.052681
49.836708 71.918289 64.083626
49.921249 72.569641 64.096878
49.828064 72.052658 64.038971
50.217072 73.545998 64.149849
50.403915 73.547478 64.192398
49.801949 73.040291 64.116684
50.216175 73.15239 64.239716
49.99482 71.685951 64.039368
49.917427 73.106369 64.143227
50.327408 73.119598 64.16494
49.87719 72.901665 64.082321
49.992298 72.874565 64.121513
50.083157 74.553711 64.164131
49.930256 72.833771 64.16819
50.128963 71.68293 64.040001
50.146069 74.263733 64.188728
50.133255 73.903625 64.152962
50.241184 74.79631 64.165565
50.308662 73.847679 64.184578
50.203873 73.837578 64.163773
50.202511 73.626129 64.167839
50.304516 73.646286 64.185951
50.136284 73.806015 64.135986
50.512177 73.108055 64.154503
50.354156 73.124695 64.128204
49.90416 72.975945 64.075218
49.990864 74.365891 64.133232
50.182114 73.334976 64.160271
50.119137 73.211914 64.083061
50.412956 73.093742 64.20063
50.242649 72.959625 64.141884
50.406384 71.605713 64.19648
49.917091 72.331116 64.042381
50.425301 71.713486 64.063805
50.509922 71.61705 64.193535
50.310646 73.313324 64.161102
50.407562 73.322952 64.189674
50.047298 72.430389 64.15226
50.382519 72.908356 64.189835
49.832893 72.96225 64.112526
50.2286 73.042809 64.183502
50.613167 72.029381 64.120743
49.965527 73.356209 64.126945
50.20668 71.610695 64.143295
50.319912 73.943596 64.205635
50.378853 73.934669 64.213577
50.216221 72.997421 64.117538
50.124413 72.953293 64.15625
50.323738 73.546829 64.153984
50.037941 73.796989 64.152412
49.775898 72.254929 64.021278
50.019787 72.280396 64.082764
50.211887 74.352287 64.177444
50.209076 74.469032 64.190239
50.001854 73.09227 64.089081
50.109695 71.640633 64.127968
50.502583 73.945366 64.242088
50.30032 74.249611 64.210594
50.324532 71.655602 64.157524
50.06311 72.83857 64.033768
50.045307 73.988831 64.133484
50.205067 73.12381 64.157585
50.025234 73.667343 64.117302
50.096989 73.405655 64.14389
50.0313 73.388985 64.193718
50.016689 72.191658 64.079903
50.029682 74.094894 64.133141
49.634098 71.657722 63.948856
50.220871 73.715202 64.200233
49.882786 71.68145 63.964817
50.326717 73.242737 64.128716
50.248592 73.172134 64.113869
49.61816 71.596054 64.016823
49.323738 71.620377 63.934868
49.824409 71.633919 64.061958
49.955322 72.791077 64.007294
50.145386 71.982544 64.021347
49.912109 71.631927 64.072701
49.889336 72.670464 64.087631
50.204929 72.055786 64.063759
49.99762 72.612976 64.013611
50.127045 72.901451 64.063789
50.210114 73.938339 64.182655
50.312946 74.332481 64.225822
50.28854 73.006523 64.175537
50.421455 73.229172 64.176613
50.442719 72.130974 64.112038
50.234787 74.352829 64.217812
50.288097 72.897041 64.180977
49.987587 71.863388 64.073067
50.222198 72.916603 64.157692
49.695938 71.661079 63.938049
49.491043 71.586136 63.992859
50.121273 72.29068 64.098
50.127739 72.367569 64.123032
50.135315 73.305374 64.144775
49.751865 72.172348 64.032173
50.137947 72.898277 64.132545
49.701302 71.641716 64.030075
50.137856 73.127762 64.132248
50.605717 71.638794 64.241119
50.028469 74.109467 64.137344
50.112457 72.726318 64.04554
50.08527 74.135094 64.156769
50.100037 72.177902 64.021927
50.510975 71.566879 64.278191
50.137299 74.281876 64.110252
50.574329 73.896629 64.344276
50.303898 73.903625 64.261818
50.608109 73.929916 64.250359
50.641964 73.848663 64.265228
50.509686 73.849289 64.227608
50.051762 73.827492 64.141403
50.105103 73.715317 64.157211
50.011745 74.222443 64.161148
