# .PCD v0.7 - Point Cloud Data file format
VERSION 0.7
FIELDS x y z
SIZE 4 4 4
TYPE F F F
COUNT 1 1 1
WIDTH 1041
HEIGHT 1
VIEWPOINT 0 0 0 1 0 0 0
POINTS 1041
DATA ascii
45.014084 7.2247534 -52.413158
46.237942 8.1826229 -52.681034
45.347534 7.8554006 -52.557732
45.249046 7.1750808 -52.544365
45.225857 7.2874932 -52.605541
44.5509 7.1883669 -52.471382
45.227962 7.8286867 -52.679092
44.61945 7.2296109 -52.55426
44.143551 7.4345441 -52.516975
44.533794 7.3990493 -52.525524
44.134846 7.9288802 -52.675556
44.538013 7.2981553 -52.547577
44.737293 7.2902737 -52.546051
44.630173 7.2839313 -52.549046
45.337009 7.1761622 -52.496151
44.886871 7.0505915 -52.497791
45.386406 7.0610514 -52.522751
45.086082 7.1731043 -52.480385
45.264824 7.0783687 -52.522381
45.516113 7.9704399 -52.622028
46.267052 7.8706894 -52.710361
47.019058 7.8248992 -52.697979
45.947525 7.8676357 -52.56382
44.981152 7.163168 -52.489273
45.146465 7.9757838 -52.61039
45.647278 7.7756314 -52.56477
45.707623 7.9939747 -52.671623
46.048016 7.5486488 -52.507397
45.901699 7.3209815 -52.44236
45.801517 7.5372748 -52.504074
44.825508 6.9558606 -52.558384
43.463837 7.9486303 -52.502361
44.866081 7.5709066 -52.489491
44.953911 7.2685208 -52.585201
44.796936 7.2285953 -52.462624
46.762772 7.4375377 -52.553516
44.41415 7.9629011 -52.594486
44.349648 7.8300848 -52.705505
44.413635 7.8580265 -52.535141
44.350014 7.8742108 -52.528152
47.222984 7.6405373 -52.500439
44.546898 7.8612494 -52.534454
47.070702 7.7681193 -52.796429
44.433453 7.4821501 -52.47871
44.527485 7.4743066 -52.483398
46.027988 7.8075428 -52.616341
47.135857 7.445076 -52.656597
48.369423 7.6813931 -52.560959
46.99865 7.8845673 -52.697937
45.328022 7.6989064 -52.553535
46.932598 7.6064191 -52.573502
44.125824 7.4766169 -52.467289
45.42701 7.6911592 -52.555637
46.459812 7.4133668 -52.565784
42.87225 7.9468117 -52.482521
45.331371 7.8062067 -52.596897
45.132942 7.6889935 -52.549809
46.823223 7.5857744 -52.558773
45.62558 7.726172 -52.607647
44.61301 7.405314 -52.525078
44.331108 7.3886685 -52.520668
45.924522 7.6912179 -52.557877
43.236626 7.9126725 -52.551651
43.339489 7.6848688 -52.477303
45.62822 7.6913819 -52.556561
45.938862 7.9239435 -52.712185
45.235317 7.9939241 -52.675484
46.026669 7.6956515 -52.563652
46.022911 7.9286313 -52.707615
43.203091 7.8050795 -52.556042
47.220322 7.6198392 -52.56049
45.537399 7.934792 -52.693779
44.878002 7.281765 -52.431767
43.437401 7.6945891 -52.485878
44.378666 7.3750887 -52.412514
46.521736 7.4767709 -52.510654
43.625778 7.4711761 -52.44043
46.446106 7.302866 -52.454361
46.145187 7.2503977 -52.447346
45.533772 7.9094744 -52.609386
43.533691 7.4794278 -52.446827
45.517559 7.4267397 -52.536667
45.011574 7.8640342 -52.652973
47.046925 7.516571 -52.5695
45.04269 7.4092741 -52.53653
47.62537 7.515861 -52.593838
47.418056 7.6885796 -52.559258
44.631691 7.5047326 -52.517086
44.727249 7.403348 -52.530838
47.881973 7.5295081 -52.593117
42.565762 7.9528642 -52.459641
43.231903 7.6247048 -52.470421
44.130154 7.5022345 -52.518242
46.427696 7.7240982 -52.636795
44.812782 7.4106431 -52.534588
42.513977 7.7127185 -52.478611
45.82547 7.9101071 -52.616501
43.121483 7.7960896 -52.482903
42.451393 7.9628305 -52.464199
44.063839 7.8212748 -52.676708
43.763142 7.5211844 -52.49395
45.735748 7.7175274 -52.612087
44.642273 7.2570744 -52.425346
45.409485 7.9723358 -52.619083
46.426739 7.9103904 -52.721306
45.524002 8.0090647 -52.665405
44.828827 7.6917038 -52.540565
45.414162 8.0173874 -52.662907
43.0592 7.4147873 -52.444809
43.736198 7.479001 -52.451504
43.14724 7.59057 -52.496479
44.424129 7.4184351 -52.533039
42.540794 7.8946562 -52.523392
44.226749 7.8094959 -52.571339
42.928642 7.4216156 -52.410858
42.937962 7.6042943 -52.472759
42.933643 7.7876091 -52.472969
43.628094 7.6931243 -52.496727
43.656593 7.5051241 -52.497345
45.316563 7.4139071 -52.55051
45.821503 7.5041466 -52.550655
45.423717 7.9447956 -52.685616
45.322193 7.7290154 -52.606567
45.522919 7.5920286 -52.547329
46.933117 7.9059057 -52.634445
45.945805 7.4208159 -52.564976
43.338097 7.7611799 -52.568478
43.314442 7.5939713 -52.490334
42.919529 7.7450466 -52.561676
45.304932 7.8505411 -52.709587
46.588387 7.8655033 -52.559559
42.389832 7.7212434 -52.508533
44.628029 7.7332139 -52.584923
46.131001 7.9248104 -52.709988
45.246643 7.7602119 -52.687408
45.327122 7.9349666 -52.698532
42.632851 7.6294789 -52.509949
43.161739 7.8537521 -52.588436
45.537865 7.1783595 -52.441177
45.821182 7.715806 -52.619213
42.843689 7.2703562 -52.331158
42.503448 7.2120557 -52.28941
42.545319 7.3897071 -52.325916
43.931431 7.4696388 -52.462223
42.278305 7.9626489 -52.433865
44.032951 7.4750595 -52.464661
43.922695 7.5001216 -52.504288
44.225914 7.4810705 -52.465805
42.366211 7.2708998 -52.271225
44.522915 7.4978633 -52.516747
45.124928 7.1642289 -52.427277
45.066345 7.2076759 -52.428303
43.244495 7.4286251 -52.377918
45.436436 7.3047686 -52.483696
45.418777 7.1855917 -52.451981
43.527569 7.2610908 -52.352623
43.309135 7.6731415 -52.420132
42.919815 7.3754678 -52.333096
42.626026 7.8870034 -52.455315
43.119953 7.7023454 -52.462063
44.931236 7.3835597 -52.488907
42.633209 7.6861558 -52.466408
42.539036 7.4942346 -52.399681
43.042191 7.6983824 -52.468609
45.537609 7.3474517 -52.58831
42.628918 7.390038 -52.339581
42.588047 7.2363634 -52.338757
45.627766 7.3018899 -52.502365
44.331703 7.5563211 -52.474529
42.521915 7.590755 -52.386707
42.457115 7.3995843 -52.353542
42.417809 7.2251248 -52.310123
46.529175 7.6016812 -52.562992
44.23349 7.5723906 -52.469997
42.341755 7.5789552 -52.372944
42.346394 7.3930607 -52.33271
47.320683 7.8776221 -52.584503
42.933838 7.6719041 -52.424587
44.728085 7.5932727 -52.522694
42.728279 7.7972083 -52.462139
46.194992 7.6048846 -52.64526
44.431786 7.2845159 -52.387794
42.533562 7.291997 -52.314316
42.936825 7.6973772 -52.46344
44.740349 7.1885505 -52.428661
44.756405 7.364327 -52.373505
42.841652 7.3885393 -52.337872
43.72031 7.5856729 -52.447796
48.302094 7.5815892 -52.514259
43.016155 7.7919431 -52.470367
42.931633 7.5786009 -52.404358
43.234463 7.7834067 -52.476067
43.214386 7.6700654 -52.433849
44.727058 7.9033313 -52.59634
42.737061 7.6840081 -52.455391
42.824406 7.7986979 -52.464985
46.302143 7.9795761 -52.644474
42.63842 7.4910612 -52.395546
45.123592 7.7262087 -52.594284
44.829266 7.9090648 -52.599625
42.927807 7.8854074 -52.48502
45.229263 7.698669 -52.552124
43.33506 7.8786917 -52.493671
48.224751 7.7293468 -52.583584
43.820671 7.8146319 -52.558998
44.1301 7.789526 -52.525093
46.027603 7.7174845 -52.620872
44.13147 7.6917305 -52.513664
44.724945 7.6989989 -52.538345
43.922329 7.7911525 -52.519871
42.421734 7.7846594 -52.439751
45.647148 7.616477 -52.613251
44.047764 8.11415 -52.678528
45.02425 7.7716827 -52.553146
45.095367 7.6310163 -52.60656
44.532604 7.6300602 -52.686935
44.710712 7.0589218 -52.39505
42.408909 7.9138689 -52.529072
45.82959 7.7818213 -52.565254
48.211437 7.5635138 -52.530167
45.232048 7.9117365 -52.608593
47.23719 7.9130793 -52.633385
44.103115 8.082283 -52.696663
42.618198 7.4408922 -52.358105
43.300415 7.6686797 -52.584957
44.236702 7.5971975 -52.517147
43.832794 7.5743651 -52.464104
44.828171 7.3801832 -52.486774
47.637001 7.6971531 -52.566776
45.827328 7.6979189 -52.560894
44.932377 7.6909833 -52.548698
43.423012 7.4920568 -52.439259
43.121212 7.6749692 -52.54871
46.94231 7.9803176 -52.65345
44.937233 7.7277355 -52.595585
46.41156 7.8464956 -52.749317
47.813744 7.5772128 -52.579437
44.529034 7.6946516 -52.530781
47.929104 7.8842316 -52.601383
44.723701 7.7234225 -52.581696
44.717468 7.5372076 -52.383499
44.42968 7.8166394 -52.576927
44.029446 7.5984344 -52.509357
43.390514 7.5154262 -52.480324
44.529213 7.5952873 -52.517231
44.936207 7.4957175 -52.529182
43.656921 7.8711605 -52.52013
44.822933 7.4723282 -52.491978
44.929077 7.9113789 -52.601646
43.746685 7.6012855 -52.492664
46.508728 7.919148 -52.716801
46.616497 7.891664 -52.621243
44.829578 7.719799 -52.593582
47.435345 7.5746579 -52.50724
44.82373 7.5911326 -52.525135
44.512123 7.634666 -52.599884
47.327862 7.5994582 -52.563038
46.92173 7.7845492 -52.576317
45.914299 7.8238583 -52.695747
44.223652 7.8729291 -52.523808
46.034054 7.7832518 -52.566357
46.121349 7.6879725 -52.560974
43.434872 7.5865774 -52.481472
44.334393 7.6912112 -52.521152
43.537945 7.5922074 -52.488049
46.324017 7.8136163 -52.717506
43.625618 7.6094284 -52.487507
47.635048 7.8708658 -52.581154
46.324509 7.904881 -52.62553
44.428913 7.5029221 -52.516842
44.826157 7.8508101 -52.674843
43.823433 7.4830079 -52.454033
44.725166 7.4720497 -52.491844
44.926735 7.8141994 -52.58601
43.723309 7.682775 -52.492638
44.623077 7.475872 -52.486794
44.42152 7.3099303 -52.478439
47.498039 7.2961764 -52.42717
45.129761 7.4001274 -52.536728
46.016941 7.2741427 -52.451199
47.074642 7.6710443 -52.636967
46.430099 7.9001393 -52.627472
45.187103 7.3386688 -52.43227
44.232716 7.3786993 -52.457565
43.248432 7.3643222 -52.369457
45.030663 8.0035267 -52.661961
44.537823 7.8418708 -52.671688
46.824581 7.7882452 -52.580975
45.125633 7.9968472 -52.667027
46.422215 7.5056458 -52.547596
43.637157 7.8167896 -52.55159
43.620491 7.3923297 -52.428089
42.863163 7.6249042 -52.44891
46.334923 7.6908774 -52.561527
45.553772 7.3760705 -52.367397
46.83588 7.7158661 -52.623817
46.141155 8.0222874 -52.713978
44.526031 7.3779998 -52.472839
44.727913 7.9816155 -52.606865
44.057243 7.8569026 -52.528904
44.718895 7.9987445 -52.657772
47.994308 7.7777586 -52.583492
46.937 7.6864996 -52.56987
43.448284 7.8066201 -52.56089
44.736492 7.2694726 -52.420208
42.245914 7.689218 -52.377777
43.867058 7.7368627 -52.580154
43.941517 7.81323 -52.56604
43.236515 7.5736122 -52.435452
45.132401 7.3017783 -52.48838
44.828251 7.4989538 -52.520687
47.856339 7.7317715 -52.64851
44.528629 7.811204 -52.571819
45.829033 7.3786373 -52.503998
46.120598 7.5964766 -52.55389
44.725624 7.3780079 -52.479542
44.52813 7.3103752 -52.488667
45.93298 7.5943928 -52.545284
43.541061 7.8872323 -52.511692
45.926762 7.3741531 -52.503651
42.304493 7.8211856 -52.457603
45.119923 7.2408495 -52.433315
47.749668 7.6825542 -52.560936
47.02766 7.5901127 -52.562141
45.039131 7.6329207 -52.604046
45.727768 7.6950903 -52.559116
47.346245 7.3742571 -52.46048
44.789295 8.0815115 -52.724293
45.924221 7.9834771 -52.636471
45.327404 7.5931325 -52.544956
44.623077 7.6971226 -52.534111
47.108349 7.3845696 -52.459896
44.178719 7.8764729 -52.531391
47.513504 7.4510098 -52.504681
42.627537 7.7946515 -52.452343
46.517437 7.3107896 -52.506638
42.916267 7.4459548 -52.363503
43.427444 7.9094143 -52.544994
46.446152 7.9884543 -52.643196
46.026329 7.6002436 -52.557899
43.997208 7.7005548 -52.574669
47.45797 7.9008417 -52.572594
47.035915 7.3872957 -52.50462
47.951183 7.6884799 -52.585701
48.131348 7.6962199 -52.573086
45.961864 7.6243372 -52.628681
43.023701 7.9152718 -52.544659
45.555092 7.6150994 -52.626625
46.620354 7.3356471 -52.454903
47.531685 7.7389655 -52.64946
42.845329 7.4804959 -52.396347
44.929577 7.5944686 -52.531902
46.515308 7.491715 -52.565201
45.725121 7.3803339 -52.503815
47.536812 7.5226421 -52.573864
45.028511 7.6908274 -52.548985
47.032024 7.6884956 -52.572701
46.63483 7.2990494 -52.50478
48.024857 7.7030001 -52.56744
42.930801 7.490171 -52.403839
47.812881 7.6916361 -52.571583
46.125305 7.9032378 -52.621773
46.536579 7.6340184 -52.633919
44.526337 7.2644362 -52.365135
45.82753 7.5945177 -52.546669
43.337521 7.9191976 -52.53904
47.328838 7.6872559 -52.56831
46.935673 7.3851576 -52.492901
44.135269 7.9100432 -52.583683
47.532433 7.6995592 -52.552368
46.523193 7.9944863 -52.649654
44.568752 7.362361 -52.387177
46.617374 7.4899445 -52.51564
44.32848 7.3769884 -52.464634
47.458393 7.2873616 -52.453285
46.334476 7.5942531 -52.558403
47.42514 7.6014733 -52.571808
46.628902 7.5927997 -52.551971
46.724697 7.8697095 -52.578991
42.820927 7.9778857 -52.533401
45.732548 7.307126 -52.51025
46.819454 7.4679813 -52.512928
46.717911 7.3815064 -52.501743
43.008186 7.7784572 -52.423164
47.240742 7.3874288 -52.491501
47.229034 8.0461855 -52.753643
44.631119 7.5963469 -52.522854
45.729145 7.5929914 -52.55077
44.123703 7.5601678 -52.460579
43.924858 7.6918182 -52.507713
45.230446 7.6004686 -52.540421
47.133186 7.7016902 -52.57465
43.126373 7.9892845 -52.547295
43.626793 7.8043027 -52.506176
44.828548 8.0085163 -52.665745
44.429962 7.3765655 -52.468185
47.229855 7.7052579 -52.569946
45.424244 7.7257872 -52.609623
47.118332 7.3835335 -52.50362
42.413235 7.4685755 -52.33625
48.222183 7.3608255 -52.518333
44.237789 7.9005156 -52.581795
43.144588 7.4601817 -52.406143
44.435867 7.5919776 -52.512512
47.155876 7.829093 -52.786568
46.380463 7.8782439 -52.564278
48.064968 7.5622745 -52.556232
43.232689 7.4842315 -52.425804
46.620674 7.3699493 -52.501984
46.122192 7.7252274 -52.641083
46.227173 7.5953264 -52.551682
42.614811 7.678196 -52.414299
43.927273 7.8549933 -52.515972
44.442677 7.6415396 -52.61533
43.030846 7.4808946 -52.413307
47.131611 7.7823563 -52.575592
48.154785 7.6883354 -52.705524
44.332523 7.924583 -52.673641
47.515701 7.6430826 -52.51746
45.323296 7.6525879 -52.64016
47.477188 7.3263087 -52.52914
46.325039 8.0136127 -52.691002
48.312637 7.8545475 -52.561424
46.820625 7.3682656 -52.488415
47.418129 7.7869334 -52.575939
42.953529 7.9156127 -52.528736
46.733448 7.6947613 -52.562061
45.939072 7.6988316 -52.616043
44.410522 7.8349862 -52.659134
46.623085 7.6984859 -52.569653
45.728909 7.9368839 -52.692654
47.231071 7.5596924 -52.658768
43.323982 7.5812516 -52.439018
45.824356 7.8238959 -52.691212
43.629471 7.5644879 -52.451012
47.639042 7.4864163 -52.530609
48.26778 7.5436149 -52.564785
44.514801 8.0115013 -52.662838
48.123676 7.7989426 -52.591579
47.701691 7.8982096 -52.838356
45.412785 7.4130993 -52.538887
46.82095 7.6874933 -52.565918
42.435303 7.9916115 -52.510578
45.925819 7.3044748 -52.505314
48.246254 7.8538857 -52.574108
44.897495 7.781765 -52.680954
44.215519 7.9971638 -52.648586
43.198505 7.2812829 -52.280163
46.918427 7.7325954 -52.643322
44.697872 7.6308498 -52.610958
46.747948 7.3359895 -52.460964
47.320522 7.5772228 -52.519527
46.929417 7.5703068 -52.524677
46.171726 7.8786116 -52.570141
46.748116 7.5948172 -52.560398
47.146271 8.0171518 -52.74522
43.331116 7.7739487 -52.482372
44.411774 8.012495 -52.644753
44.932983 7.3035202 -52.486553
47.510513 7.4058595 -52.523563
47.173641 7.8884463 -52.57354
43.437733 7.3921933 -52.367367
44.338455 7.4891086 -52.474586
43.439777 7.7879934 -52.493561
44.423061 7.7856445 -52.53434
47.240578 8.0017643 -52.642506
46.720955 7.5064349 -52.556129
46.113213 7.6336217 -52.620396
46.316601 7.4099336 -52.569054
48.220516 7.4327345 -52.450588
45.05024 7.3075886 -52.576878
45.927288 7.5080891 -52.549168
46.033669 7.5038133 -52.557629
47.127331 7.5912828 -52.564495
45.634117 7.5948482 -52.543957
46.982475 7.8590155 -52.581646
46.63139 7.7367435 -52.659698
45.333733 7.7485738 -52.678482
44.933769 7.9426785 -52.679802
47.977951 7.3772702 -52.51897
47.423897 7.399034 -52.502609
44.531399 7.927527 -52.673115
47.952141 7.5783138 -52.530838
45.931549 7.8079262 -52.606979
47.625526 7.392065 -52.515144
43.824776 7.6960497 -52.498177
46.52459 7.6941719 -52.564022
46.224709 7.6921721 -52.567562
45.024303 7.9086971 -52.606873
44.435551 7.9270029 -52.670891
44.498646 7.7320051 -52.583538
44.228249 7.6869287 -52.520565
45.164898 7.3583241 -52.375534
47.23011 7.928514 -52.729229
42.622318 7.4248667 -52.25589
47.119431 7.9231029 -52.743149
45.425915 7.9088736 -52.609745
46.095154 7.8364034 -52.690948
44.518562 7.420763 -52.334999
45.628834 7.5080438 -52.545467
44.926926 7.7770705 -52.552818
47.074322 8.0333538 -52.731506
45.232254 7.3060942 -52.49073
45.219181 7.501091 -52.532642
44.6241 7.9032664 -52.588455
47.130028 7.8106985 -52.639084
45.826748 7.8154097 -52.611591
48.153419 7.448678 -52.581352
44.524174 7.9091835 -52.589008
47.619534 7.6219397 -52.572144
44.333847 7.7295218 -52.589867
46.222294 7.4708967 -52.511662
46.330326 7.7271171 -52.630257
45.33371 7.5047078 -52.534431
44.82412 7.8137646 -52.581593
47.022507 7.9018526 -52.640072
47.145115 7.4929948 -52.561661
47.427654 7.8917322 -52.626545
44.6259 7.8544321 -52.532593
45.627403 7.8127842 -52.601406
48.010235 7.4903488 -52.532242
47.399517 7.9395328 -52.747799
45.031631 7.7142363 -52.599327
47.245419 7.8045893 -52.627563
44.61425 7.7864823 -52.542259
42.668678 7.8091063 -52.550709
46.807934 8.0116081 -52.702019
43.935177 7.5971699 -52.496822
45.132267 7.4971347 -52.527119
47.232964 7.4657693 -52.507549
46.124882 7.5141301 -52.554909
45.4244 7.4959135 -52.537235
46.040226 7.8200278 -52.710258
45.53001 7.8349352 -52.712486
46.581184 7.3854198 -52.567986
45.037636 7.9385943 -52.683365
47.815334 7.5207372 -52.571041
47.824703 7.4923716 -52.527451
42.833736 7.7101417 -52.449825
47.71904 7.8213921 -52.632698
46.132904 7.3752584 -52.50647
45.429428 7.8143482 -52.596287
45.528374 7.8102174 -52.595852
45.722958 7.8105607 -52.60157
47.731239 7.8595743 -52.581608
46.204601 7.4178996 -52.55817
45.701176 7.4021354 -52.553589
45.036659 7.5005951 -52.525242
42.775173 7.2321301 -52.283413
45.625404 7.1920195 -52.482838
45.627407 7.9076209 -52.612587
48.036442 7.8855805 -52.590279
46.636524 7.8547077 -52.698231
46.441856 8.0148268 -52.697021
46.429237 7.8039804 -52.621159
46.822079 7.9281683 -52.707325
46.838886 7.5041733 -52.56485
45.729668 7.8964181 -52.611084
43.728004 7.7920504 -52.503922
46.529259 7.8133779 -52.620815
44.423721 7.7175837 -52.575817
44.625 7.8153911 -52.576065
46.742386 7.7233934 -52.614571
47.821732 7.5710526 -52.522984
45.632893 7.4129529 -52.570812
47.126419 7.8983479 -52.634056
45.032722 7.8086658 -52.590508
45.028587 7.591455 -52.535065
43.83242 7.6011872 -52.500839
47.521816 7.8232422 -52.64917
47.611893 7.8187056 -52.665447
45.533546 7.7186861 -52.600552
45.802856 7.4013739 -52.569462
46.951477 7.3109736 -52.503159
44.429604 7.9047728 -52.584042
46.631248 7.7830186 -52.565948
42.141369 7.7638006 -52.424278
44.726315 7.3032517 -52.480789
47.11282 7.4691882 -52.511269
46.926926 7.8117266 -52.627407
43.830971 8.0113649 -52.624756
46.028278 7.3764873 -52.506538
44.019901 7.9987664 -52.646706
44.037418 7.8088017 -52.563362
47.019081 7.8159599 -52.620247
44.819637 7.9170771 -52.67971
44.330296 7.7890468 -52.530869
44.122116 7.8194046 -52.579987
48.160412 7.5643559 -52.565975
45.723057 7.5017867 -52.541607
45.205162 7.4159555 -52.524685
46.146496 7.3734384 -52.55151
42.523823 7.8227153 -52.445831
45.525963 7.5116682 -52.539761
45.426414 7.7703838 -52.56197
44.039883 7.6931262 -52.522141
44.035442 7.504868 -52.505787
44.247387 7.7287135 -52.571194
44.334946 7.5984821 -52.515537
46.43224 7.3686509 -52.504208
44.725773 7.9357333 -52.678574
44.72493 7.8134623 -52.580547
46.934914 7.5184813 -52.550617
42.806744 7.8021979 -52.52507
44.646744 7.0629878 -52.43964
46.429401 7.6922441 -52.565796
47.089272 8.0398731 -52.766541
45.126369 7.5960822 -52.533512
45.130306 7.376915 -52.489651
44.132244 7.3866763 -52.450928
44.32967 7.3033152 -52.470276
45.430557 7.4759946 -52.503334
45.237305 7.7717729 -52.556862
45.227467 7.3783302 -52.494106
45.125664 7.809298 -52.590103
45.029079 7.3782067 -52.489223
46.628319 7.8090053 -52.627911
45.290276 7.242105 -52.40023
45.730038 7.4700022 -52.509758
47.31918 7.3114104 -52.485233
47.822845 7.4135942 -52.528393
47.73008 7.8041139 -52.584515
46.328308 7.3693333 -52.498943
46.227959 7.8204031 -52.613708
48.092869 7.4688592 -52.548897
48.027187 7.848073 -52.63773
47.416294 7.4788833 -52.507454
46.530361 7.8983927 -52.62344
46.734524 7.898468 -52.617161
46.748795 7.8115997 -52.624729
43.518261 7.8991356 -52.544445
44.633656 7.3804092 -52.479004
46.904598 7.9254966 -52.703804
45.525875 7.3860183 -52.500027
47.644184 7.3150191 -52.481289
46.132313 7.4694753 -52.516712
46.235653 7.3053088 -52.513626
48.36927 7.3587737 -52.517826
44.033157 7.9058008 -52.579128
47.345268 7.4928541 -52.528919
47.421444 7.8107519 -52.646214
47.818386 7.9041128 -52.636707
47.95348 7.3285589 -52.567757
45.922501 7.4801879 -52.511436
45.626366 7.3816195 -52.501305
47.692707 7.3171306 -52.499344
47.881573 7.74685 -52.644054
44.426807 7.3707438 -52.392517
46.545998 8.0175352 -52.681335
42.32798 7.9720335 -52.525803
42.628532 7.5800204 -52.395569
42.523647 7.1647797 -52.272804
44.241081 7.8333464 -52.693943
46.346283 7.781795 -52.573063
45.328941 7.3797388 -52.49258
47.722042 7.4649506 -52.508965
46.126278 7.8204603 -52.617088
45.23069 7.8138494 -52.596287
45.624313 7.4702082 -52.50885
45.233795 7.7097974 -52.606865
46.43121 7.6046987 -52.563171
46.333733 7.8022051 -52.611614
43.529469 7.8033791 -52.559761
43.223713 7.6878829 -52.47184
45.252316 7.6574006 -52.627029
43.727203 7.8204055 -52.558983
42.722702 8.0004091 -52.539375
43.313152 7.3826599 -52.383488
47.51033 8.0435448 -52.715401
45.833389 7.4677334 -52.511105
43.835979 7.9791737 -52.58873
43.837555 7.5154772 -52.501404
45.336052 7.4730077 -52.503643
43.530544 7.6940832 -52.490589
44.628952 7.3078203 -52.472126
46.220345 7.5043459 -52.556149
46.227173 7.3649745 -52.503151
46.301876 7.2067285 -52.451626
43.034931 7.8344746 -52.601055
44.89674 7.2355952 -52.443478
43.931606 7.5669932 -52.46439
44.91375 7.6493616 -52.587143
44.332428 7.8148489 -52.579861
44.229763 7.9288831 -52.681377
44.344509 7.6307759 -52.587894
47.632164 7.9013591 -52.654137
46.720406 7.4753623 -52.50906
44.625378 7.5922794 -52.593529
46.320839 7.4978843 -52.558521
46.224125 8.0054379 -52.699448
43.725246 7.8714542 -52.515068
44.940666 7.4134316 -52.54261
45.127701 7.9407549 -52.685921
46.04137 7.390521 -52.556244
46.618027 7.5054412 -52.549656
46.523296 7.3706274 -52.501705
47.324036 7.8027048 -52.585365
45.659912 7.5648079 -52.504318
45.745617 7.556776 -52.507034
45.361305 7.5588713 -52.498775
47.023972 7.4921794 -52.52578
45.426975 7.3804393 -52.495872
45.453976 7.260922 -52.431957
43.830734 7.897613 -52.574593
45.526905 7.6947784 -52.553288
45.528557 7.4735942 -52.506916
45.031445 7.3174343 -52.493034
47.016777 7.3064833 -52.518284
47.531315 7.8996964 -52.631569
47.631729 7.5660267 -52.530792
47.228764 7.3081079 -52.488228
47.65451 7.2744827 -52.493195
47.535156 7.8009057 -52.578934
45.807182 7.3147526 -52.572346
48.102451 7.8656883 -52.620667
46.451599 7.7879181 -52.568146
48.125107 7.5612535 -52.500973
44.821255 7.7754502 -52.549946
44.923126 7.483645 -52.49852
47.498482 7.6195273 -52.571438
47.332394 7.3868637 -52.516422
48.236217 7.3713198 -52.472771
46.276817 8.0839319 -52.696548
47.645447 7.788228 -52.583755
46.026829 7.4682136 -52.51593
46.121525 7.3106632 -52.501492
47.02494 7.7817068 -52.57819
47.136173 7.2815409 -52.45187
46.031605 8.0033054 -52.685062
46.02953 7.9111166 -52.622608
47.737328 7.6315446 -52.572376
46.413586 8.0908699 -52.698757
46.900284 7.9955096 -52.674831
46.189022 7.3374367 -52.450844
47.852779 7.2478037 -52.455212
46.929043 7.474967 -52.518227
45.33065 7.3088713 -52.485104
48.289421 7.7021279 -52.528591
48.342331 7.38199 -52.462997
46.842747 7.9656882 -52.61549
44.834492 7.9805112 -52.612564
46.421524 7.477036 -52.515095
48.117058 7.4168258 -52.449528
47.325359 7.8060985 -52.62994
48.182137 7.9036217 -52.615009
48.210434 7.7565536 -52.559406
47.234978 7.7845473 -52.575222
48.237049 7.837965 -52.616184
48.24889 7.7271748 -52.453979
46.739029 7.5562558 -52.507454
45.122665 7.4739203 -52.497948
46.780212 7.357029 -52.452267
46.832058 7.5641046 -52.515182
45.226204 7.4753389 -52.503113
47.726925 7.5721202 -52.528522
46.155083 7.1945724 -52.457962
47.731674 7.2517118 -52.447506
45.443218 7.2972002 -52.57444
45.924278 7.8943062 -52.610958
44.929287 8.0025835 -52.663895
47.215992 7.8575287 -52.583054
47.221561 7.574008 -52.512455
45.645576 7.9846611 -52.621235
47.347347 7.4859509 -52.558914
45.928707 7.5582709 -52.499649
45.970501 7.1907334 -52.43232
46.128178 7.796751 -52.568172
44.845707 8.0861883 -52.679211
44.662415 7.9844813 -52.615601
44.945171 7.0960588 -52.43272
45.40564 7.1050076 -52.440968
44.139618 7.5946136 -52.506359
45.830814 7.2646227 -52.445343
45.762196 7.6518512 -52.619118
43.435646 7.7207451 -52.559063
43.618244 7.3170257 -52.446999
46.994915 8.0839109 -52.666618
46.215717 7.9057217 -52.735397
45.423702 7.5955291 -52.542912
45.532784 7.3114972 -52.500774
46.334293 7.3097892 -52.510391
46.947445 8.1001053 -52.674007
45.35564 8.0789261 -52.66135
45.726097 7.7869635 -52.565952
46.720001 7.8319507 -52.747597
45.107876 7.8171349 -52.706459
44.965973 7.124927 -52.447144
44.715351 6.9620929 -52.555595
45.233273 8.1144333 -52.663387
44.646442 7.3396063 -52.645195
47.024914 7.9931788 -52.64291
47.345596 7.9838862 -52.639904
48.330696 7.4720654 -52.506317
47.782719 7.7442412 -52.774071
45.59729 7.2164149 -52.444294
47.715954 7.9204583 -52.660442
46.61953 8.0523443 -52.675808
47.419052 8.0028191 -52.630089
45.836037 7.9734316 -52.633575
47.732544 7.9600329 -52.613678
45.93586 7.7965941 -52.567101
46.215019 7.7861571 -52.565201
46.519516 7.7834311 -52.575085
46.723419 8.0232182 -52.669754
45.133522 7.9084873 -52.604774
44.526115 7.9699855 -52.594883
44.329834 7.9049239 -52.581371
44.318203 8.0091066 -52.6525
43.731731 7.916882 -52.560238
44.338448 7.9750576 -52.591469
43.735138 7.9754467 -52.565586
45.416748 8.1171122 -52.676956
43.5271 8.0022745 -52.567421
45.347202 8.0136251 -52.674274
42.544559 7.9857469 -52.531563
44.035534 7.9723215 -52.578602
42.73793 7.8946571 -52.471691
44.228958 7.9701743 -52.59523
43.238144 7.976346 -52.564068
43.634949 7.9131503 -52.556698
43.514492 7.790647 -52.494473
43.435627 7.5748134 -52.442146
45.752293 7.6808558 -52.471069
42.818588 7.5768061 -52.409695
42.835964 7.8834677 -52.479832
42.911869 7.9795671 -52.523289
43.023067 7.89256 -52.482441
43.031174 7.6015811 -52.457771
42.316872 7.7286763 -52.434025
42.324219 7.8815603 -52.443443
43.83725 7.790813 -52.50853
43.920238 7.9777651 -52.558876
42.333126 7.6802764 -52.400509
45.326485 7.9090371 -52.608166
43.045723 7.586411 -52.420959
43.133835 7.8820815 -52.495049
43.151516 7.5898199 -52.437893
43.239563 7.8587484 -52.49239
43.331226 7.9864774 -52.55426
45.226093 7.9482718 -52.680038
42.22369 7.5975423 -52.367409
45.203007 7.6516027 -52.427448
42.186226 7.4249301 -52.387112
42.338631 7.969841 -52.47403
47.434177 7.3655133 -52.440945
44.229599 7.4998741 -52.506428
44.72654 7.4985271 -52.520176
43.13612 7.9104314 -52.537525
42.739487 7.5809779 -52.408279
42.719414 7.5006938 -52.398651
43.314934 7.4724483 -52.419674
43.410686 7.873857 -52.504509
43.927956 7.9088368 -52.563313
42.218323 7.8860688 -52.437927
42.219189 8.0231867 -52.52636
42.439762 7.8848553 -52.446693
46.324234 8.0768213 -52.656036
45.500515 7.4362478 -52.396202
42.532749 7.6804771 -52.402935
42.655212 7.9283991 -52.510487
44.13393 7.9791241 -52.599895
45.443207 7.2234182 -52.512459
42.61314 7.9894104 -52.498146
42.687679 7.4024086 -52.442635
42.735302 7.9152565 -52.539967
42.528111 7.8999095 -52.461151
45.439533 7.6335077 -52.608913
44.334133 7.5092196 -52.514854
44.23769 7.7840962 -52.528374
43.525787 7.3823342 -52.421749
43.438316 7.9919066 -52.565556
42.230812 7.5036922 -52.375443
43.728661 7.3850293 -52.436447
42.795704 7.9374142 -52.53336
44.628738 7.9356909 -52.678337
46.63028 7.665278 -52.474926
46.339298 7.4752107 -52.513241
44.524323 7.7868457 -52.535912
46.232433 7.9011278 -52.625504
46.331623 7.6467271 -52.497173
43.315109 7.4131327 -52.413544
43.121853 7.4074907 -52.405239
43.007961 7.3656626 -52.356693
44.036304 7.7944016 -52.5243
46.53273 7.7188191 -52.621964
46.326466 7.9177923 -52.718727
46.822182 7.8949165 -52.620274
46.027309 7.3019009 -52.500896
45.529629 7.7754955 -52.561684
47.099033 7.6892309 -52.64188
45.144005 7.6201782 -52.48777
45.823608 7.3123865 -52.507095
46.82608 7.8118663 -52.627129
46.225498 7.720973 -52.617405
43.517326 7.3188496 -52.416058
43.538757 7.5689449 -52.446995
45.026596 7.461987 -52.501762
45.128304 7.7867875 -52.555244
44.430428 7.6963835 -52.526966
46.222157 7.9883032 -52.640682
47.918266 7.8279715 -52.629517
47.336342 7.9144835 -52.624935
47.401291 7.9964032 -52.693504
47.463615 7.7407856 -52.627876
47.43029 7.8438249 -52.757477
47.613438 7.9654102 -52.625774
46.103127 8.0761499 -52.709827
46.154835 7.9743438 -52.636387
46.652248 8.000555 -52.651474
47.587059 7.9288478 -52.704033
46.745129 7.9858208 -52.639778
48.154655 7.7633758 -52.483662
47.839851 7.7895899 -52.577206
45.708397 7.9799995 -52.627411
46.614769 8.0641832 -52.656017
45.315212 7.9754882 -52.610897
42.313698 7.4539618 -52.278217
47.240173 7.8653598 -52.775745
47.818905 7.8212996 -52.611614
45.281967 7.3325901 -52.544239
47.535965 7.9332023 -52.693985
46.567806 8.1343031 -52.704281
47.220837 8.143137 -52.701042
46.73613 7.7918372 -52.576557
47.819374 7.3266239 -52.421894
47.704994 7.3610888 -52.47443
46.41861 7.303226 -52.511993
47.915562 7.7879925 -52.601109
47.375465 8.0176277 -52.682297
47.529278 7.5835414 -52.521347
45.233063 7.9774289 -52.61203
44.538567 7.562583 -52.478439
44.826572 7.3065958 -52.478439
44.241749 7.319993 -52.47551
43.86422 7.652987 -52.457882
45.32349 7.7727566 -52.558735
44.721851 7.7838326 -52.546028
42.605865 7.9538598 -52.457142
43.027458 7.6611323 -52.422256
43.024021 8.0003138 -52.536777
46.338402 7.3323536 -52.450867
42.549801 7.4742179 -52.341808
43.13335 7.3653207 -52.369095
42.605934 7.7791791 -52.394253
42.332775 7.7403769 -52.367424
42.367443 7.8464646 -52.401592
44.944973 7.5599251 -52.491371
43.028946 7.4507828 -52.35714
43.128479 7.6728945 -52.419338
43.140484 7.7696934 -52.426373
42.079472 7.6478696 -52.286877
42.114807 7.753283 -52.338585
43.200932 7.3074059 -52.260696
43.270756 7.5227308 -52.326305
44.934387 7.9817944 -52.605099
46.014927 7.6032262 -52.617851
42.145157 7.9862642 -52.478745
42.474812 7.4821749 -52.37429
42.439903 7.5896111 -52.373302
42.455151 7.6793032 -52.398907
42.726139 7.661809 -52.419884
43.438934 7.3976598 -52.421864
42.227169 7.4929423 -52.350498
43.52409 7.6759706 -52.444534
45.824383 7.6463647 -52.607964
43.308132 7.296092 -52.310261
45.767284 7.2012906 -52.424137
43.337612 7.4169998 -52.334217
43.366787 7.5351219 -52.362976
43.425411 7.6666212 -52.410339
44.611778 7.5610018 -52.473797
43.239582 7.4027948 -52.408459
42.723259 7.3832207 -52.354668
42.816654 7.6864724 -52.417397
46.334 7.2737756 -52.434654
43.164536 7.9531884 -52.496986
46.945072 7.8365359 -52.735275
46.051731 7.9820676 -52.628456
46.320683 7.636466 -52.621853
46.225063 7.2905302 -52.44323
46.990963 7.3302002 -52.58749
46.908329 7.8762178 -52.569168
47.102673 7.9802547 -52.651745
43.325867 7.3174667 -52.444767
46.611095 7.3041005 -52.442787
47.075558 7.2931266 -52.44059
47.518551 7.2189298 -52.373569
47.263847 7.32971 -52.454807
47.269295 7.2606111 -52.426098
48.39196 7.6134624 -52.482754
45.021038 7.9712009 -52.607655
47.743919 7.6499491 -52.52721
47.629097 7.6494517 -52.510056
44.821911 6.9665217 -52.597717
47.88974 7.4500155 -52.492279
44.739716 6.9774666 -52.60532
46.542618 7.3374662 -52.457191
47.73661 7.3831253 -52.486809
46.249348 7.2745051 -52.351566
47.061764 7.5786324 -52.509811
44.796497 7.2755179 -52.635769
48.019291 7.6823292 -52.509861
44.842957 7.5878382 -52.597336
44.153736 7.6914997 -52.566772
45.568336 7.2460408 -52.441357
46.330185 7.5756197 -52.506317
45.394566 7.5522861 -52.481491
48.358696 7.7486124 -52.642529
47.88665 7.6793995 -52.512379
46.426353 7.5747552 -52.503323
46.544975 7.2727857 -52.446739
46.539543 7.5735288 -52.513287
48.003723 7.6224222 -52.517101
46.167046 7.5659771 -52.505497
44.735073 7.5505209 -52.479568
45.283764 7.2074375 -52.425976
44.809311 7.2026606 -52.423996
46.229759 7.5754824 -52.503372
45.260506 7.5471845 -52.496105
47.122341 7.5848942 -52.51202
47.864174 7.6413093 -52.523731
44.629417 7.9930706 -52.649479
46.530693 7.8622365 -52.750195
43.945148 7.6433654 -52.463593
47.49799 7.9662867 -52.682495
44.425419 7.5538087 -52.481323
44.047188 7.574564 -52.462391
43.716778 7.6754775 -52.440495
42.857372 7.7579556 -52.419361
42.483776 7.5494428 -52.346523
42.532475 7.7669368 -52.411804
42.440735 7.7932091 -52.405567
43.658279 7.6499295 -52.440258
42.245869 7.769115 -52.396679
42.302147 7.537828 -52.339588
42.7346 7.7501144 -52.420265
42.732185 7.4707708 -52.359688
43.083946 7.3093219 -52.416523
43.254021 7.9541564 -52.503391
47.079071 7.3223987 -52.588676
42.858418 7.4180021 -52.385864
