# .PCD v0.7 - Point Cloud Data file format
VERSION 0.7
FIELDS x y z
SIZE 4 4 4
TYPE F F F
COUNT 1 1 1
WIDTH 836
HEIGHT 1
VIEWPOINT 0 0 0 1 0 0 0
POINTS 836
DATA ascii
7.4610472 7.341701 18.617334
8.3135977 6.3159475 18.57896
8.3828926 6.3838725 18.621119
8.3355579 5.7931461 18.570213
7.0690622 6.1496167 18.100283
7.2584624 6.2849398 18.122305
8.3065434 7.8603797 18.723642
7.2585344 6.218348 18.146299
7.2296934 7.6244836 18.250771
7.1686029 7.589643 18.240351
7.4773035 6.7128901 18.181604
7.1293335 7.9130125 18.246231
8.243166 6.642777 18.620514
7.1434436 7.6358747 18.235346
7.4537725 7.9070773 18.288696
7.3754435 6.6141691 18.591747
7.3103771 7.5286498 18.654715
7.4256406 6.574491 18.507263
7.3660774 7.3706703 18.248819
7.7076845 6.9846277 18.211657
7.3950434 5.8569684 18.568403
7.733901 7.9058323 18.300598
7.7110105 5.8963928 18.150784
7.4322224 7.7302547 18.731398
7.4661417 7.82026 18.364412
7.6557169 7.7928176 18.371449
7.3675008 6.6555047 18.545296
7.9032845 7.1674938 18.317858
7.2909136 5.759099 18.546753
7.5254879 6.5121202 18.189831
7.4226346 6.5374069 18.566711
7.4430442 7.7199278 18.324125
7.3484211 7.6786199 18.278076
7.248189 6.6909842 18.57712
7.4417849 7.9842629 18.296041
7.4696541 6.5614977 18.241419
7.4550142 7.1748204 18.296343
7.6294842 7.9563818 18.345207
7.3503599 8.1929417 18.336517
7.4724998 6.8265734 18.577518
7.9605608 7.8332248 18.281748
7.9311824 7.765389 18.320343
7.4263372 6.6076798 18.212336
7.6242495 6.4756761 18.228254
7.6523666 7.8955288 18.291487
7.2406168 7.6432142 18.305092
7.7266531 8.2166767 18.302694
7.2466745 7.9181948 18.275082
7.275322 6.5971727 18.570234
7.2622547 7.9856319 18.272942
7.4324503 6.4828076 18.170441
7.1370993 6.2076659 18.110811
7.3104787 6.2356248 18.128601
7.2203655 7.1558785 18.203989
7.7310324 6.1939154 18.168205
8.485651 6.3353624 18.670679
7.8196735 6.4632802 18.241732
7.1400518 7.6195302 18.268236
8.3309202 6.3112221 18.664362
7.4158816 6.6590858 18.529266
7.5104766 6.8519616 18.582573
7.2399702 7.9219112 18.329926
7.2254887 7.8577762 18.309633
7.332705 7.1925831 18.317059
7.0300951 7.2388048 18.235264
7.723258 7.7670579 18.313061
8.2144108 6.3372712 18.586254
7.241312 6.0631514 18.174988
7.3400836 6.05339 18.164074
7.3399801 6.2816958 18.172297
7.215517 7.0183454 18.234554
7.164135 7.15694 18.252979
7.7245283 7.1773124 18.321196
7.3301215 7.6400619 18.308771
7.8383713 7.8557172 18.33687
7.5343099 6.8719125 18.276566
7.335578 6.6661005 18.22765
8.2663364 7.1300545 18.254971
8.2498264 7.2665639 18.281395
7.4541321 6.4785542 18.216734
8.4164181 6.4305935 18.194542
8.3564577 6.5511847 18.231428
8.0208931 5.9106169 18.172653
8.0182743 5.6415043 18.163712
8.0343475 7.1328568 18.264915
7.4293571 7.6391873 18.305647
7.8275995 7.1318369 18.266125
7.8182092 7.764122 18.32373
7.6244836 6.6025033 18.221285
8.1100931 7.1385198 18.276478
8.2152004 7.429822 18.646875
7.8252497 6.3421268 18.551962
7.3179078 7.7625389 18.287584
7.2427511 7.4182181 18.315983
7.6240492 6.5181828 18.200962
7.8337049 6.2931576 18.57597
7.8346691 6.5078807 18.208242
7.3899059 6.3229289 18.59082
7.540843 6.2429204 18.222097
8.1300106 6.5136833 18.24032
7.6307402 7.6769452 18.288925
7.7283463 7.674808 18.293495
7.8063221 7.6784348 18.299768
7.6140966 7.0162325 18.547358
7.5446234 6.5676227 18.250261
7.6332483 6.064754 18.179716
7.3347983 6.3235416 18.609585
7.6278763 6.3847713 18.20994
7.1400442 7.7490101 18.290892
7.6356821 6.2530956 18.232021
7.3340445 7.3232512 18.276245
7.6285152 6.5653453 18.261965
7.4305878 7.7592092 18.301186
7.5943584 6.0559821 18.557281
7.5360508 7.1100664 18.281849
7.4336729 6.2427483 18.215887
7.7296381 6.3857141 18.214649
7.477603 6.9945416 18.464182
7.6330447 6.1669097 18.206306
7.6322994 7.7653575 18.310961
7.6357884 6.914588 18.24782
7.372509 8.0055923 18.312607
7.5499363 6.1070008 18.122223
7.5273528 6.1877074 18.157494
7.5309944 7.7627749 18.300652
7.3442006 7.0904136 18.26236
7.9245062 7.9239726 18.673685
7.5222483 7.919435 18.277727
7.4380178 6.6827397 18.223396
7.4550724 6.2729506 18.174957
7.5342999 6.9110689 18.240067
7.5427608 7.9854159 18.305168
7.7678781 7.6650934 18.668287
8.1252232 6.0414834 18.548559
7.3520832 6.9200549 18.227032
7.3632903 6.5871644 18.174469
7.3601847 5.9031615 18.498497
7.3723617 7.5880609 18.200848
7.4236927 7.821703 18.614416
7.3927364 6.0551944 18.086906
7.4235702 7.2005424 18.579123
7.5299573 6.5980353 18.217194
8.1326962 7.668149 18.677057
8.0280828 7.835393 18.66267
8.0390701 7.6938343 18.690668
7.467133 6.2002544 18.119862
7.455543 7.3734045 18.242151
7.4237733 7.6864772 18.263321
7.4418073 5.9061012 18.498188
7.5389671 6.135612 18.509531
7.6374521 6.2798004 18.194338
7.6038647 7.6781878 18.637156
7.6432848 7.1371975 18.256109
7.907804 7.6822119 18.678997
7.9197664 7.8045073 18.665873
7.4278531 5.9743152 18.539778
7.6434007 7.6027179 18.628258
7.8409009 7.6897044 18.677393
7.5363579 7.5382223 18.299198
7.5421782 7.6029997 18.619204
7.5468283 6.7824364 18.536129
7.5365648 7.6467776 18.596493
7.5240612 7.721426 18.609308
7.9414558 5.9377661 18.504421
7.6248646 7.8256989 18.636494
7.5354195 5.9375372 18.469883
7.6453829 6.7908444 18.545292
7.6325388 7.1070576 18.571192
7.5209312 7.8136406 18.610733
7.6364717 5.7195835 18.473772
7.6422577 5.9396868 18.480902
7.5387859 7.0136538 18.542017
7.536787 7.1024814 18.55092
7.1042471 7.3361559 18.273548
7.2711177 6.9930558 18.149601
7.3382645 6.5194168 18.157658
7.6177988 7.7235317 18.343981
8.0264244 7.3272781 18.604021
8.2098331 7.4643307 18.690863
7.4275289 6.2184215 18.533537
7.8953276 6.4859629 18.528093
7.539793 7.4163699 18.58873
7.6312542 7.7306976 18.615498
7.3624058 6.0491462 18.086157
7.5309916 7.6355305 18.314203
7.8263659 6.4822478 18.521376
7.6351857 7.4229231 18.599548
7.5384502 7.1309891 18.255352
7.3518643 6.2130857 18.596455
7.8265896 5.9511857 18.489553
7.6297092 6.3481541 18.525436
7.6327591 7.6392899 18.605465
7.8132668 6.7888823 18.545769
8.1201687 7.3501039 18.616064
8.0390205 6.2602024 18.52701
7.7248106 7.7315969 18.624134
8.0327988 7.7380176 18.64855
7.5389004 6.0688219 18.178661
7.9218025 7.6351428 18.623854
7.8267336 5.8114676 18.515648
7.6306267 7.1938415 18.591671
7.525547 6.2808776 18.190531
8.1981277 7.1856766 18.675732
8.0053997 7.6071582 18.668501
7.6825795 6.408874 18.612169
8.0265102 6.7420034 18.230864
7.3529887 7.4166555 18.31218
7.6249223 7.3273687 18.581238
7.5403066 7.3569484 18.246208
7.5253992 6.5726748 18.519537
7.6299167 7.1896443 18.329729
7.6417389 6.3757353 18.599625
7.6417093 6.8429718 18.601923
7.8484287 7.1776547 18.659666
7.6359177 7.5164223 18.610756
8.1357584 7.5966983 18.676188
7.4489775 7.1419754 18.243835
7.6581469 6.6826053 18.503992
7.7320271 6.5610118 18.541716
7.5410595 7.7137871 18.337034
7.8097014 6.0832748 18.58387
7.5483656 6.2126851 18.533848
7.8513365 6.6306009 18.623451
7.6376567 6.9793782 18.585688
7.541091 7.1976318 18.58621
7.7283936 7.9924121 18.324009
7.8079901 5.7832623 18.556273
7.6426725 6.2181296 18.547045
7.6350808 6.6549063 18.557022
7.5432639 6.9765654 18.565807
7.3720903 5.9856625 18.529865
7.6252298 7.2828269 18.601942
7.4436769 7.0034103 18.26243
7.6713467 6.2094102 18.158667
7.8562288 7.5212259 18.698864
7.6573524 5.7628679 18.538576
7.6420269 5.9057231 18.514198
7.6444178 5.9912395 18.543766
7.4480476 6.0831113 18.17375
7.4279804 7.2911863 18.598438
7.439466 6.3903127 18.209505
7.4403405 5.8010063 18.481054
7.5443096 7.2275267 18.26902
8.0226145 7.4177108 18.631556
7.5316267 5.9187355 18.513981
7.9845514 6.1552463 18.623188
8.3504868 7.059269 18.727848
8.3471298 7.1503768 18.725967
7.4957495 6.3704934 18.098022
8.0770493 6.9254332 18.664057
8.0331926 7.1714549 18.665827
8.1231155 7.2852497 18.674442
7.440227 7.8581152 18.31654
7.5356135 6.2571793 18.492012
7.9452286 5.8525343 18.605085
7.927536 7.2876983 18.635498
7.5575781 5.7453561 18.528332
7.5462818 5.8095121 18.479601
7.824533 6.0339093 18.523127
7.5421944 6.3226442 18.57259
7.5425816 7.5213156 18.600248
7.5478725 7.5768147 18.583723
7.7318077 5.9904385 18.552265
7.7293148 6.0337195 18.504257
7.7354035 6.3425684 18.53768
7.7364283 6.4380207 18.558565
7.5320525 6.5387621 18.559832
7.5365748 6.6617017 18.555
7.7342329 6.9796987 18.587257
7.7307501 7.1954827 18.595068
7.7269888 7.606638 18.63755
7.6386795 7.0714035 18.598835
7.6304016 6.5647526 18.535463
7.4377737 7.1059308 18.653233
7.3465414 6.9532599 18.619225
7.4268594 6.7714834 18.554785
7.3039865 6.8479772 18.21401
7.538444 6.4794097 18.220814
7.7270122 7.1751676 18.648943
7.7437234 6.5310597 18.578066
7.7407894 6.9290705 18.637228
7.3406305 7.8462491 18.316265
7.8206406 6.5699129 18.552042
7.5358887 6.3769784 18.202341
7.9235291 6.5769324 18.566843
7.0552053 7.5342293 18.285957
7.8295341 7.7260251 18.63566
8.3282108 6.1114178 18.597525
7.5339208 7.3270531 18.570965
8.119978 7.2390361 18.712664
7.9254165 6.6820049 18.654966
8.134531 5.8609834 18.619547
7.8334723 6.2138705 18.5592
8.3803806 6.2432985 18.668514
7.9340816 5.7818027 18.585367
8.4771461 5.8259315 18.662287
8.2065773 5.8779097 18.63987
8.20261 5.9311032 18.648809
8.1935158 6.144105 18.647535
8.2055855 6.2793965 18.645285
7.9414754 6.6333508 18.63884
7.4195213 6.8381705 18.234457
8.5112286 7.0705843 18.737864
7.930654 7.1487718 18.662119
8.5049114 7.153769 18.753248
7.9637208 7.248785 18.691101
8.500639 7.2621694 18.751902
7.633112 6.7936139 18.256807
7.7544193 7.4463539 18.652931
7.5348778 7.0160723 18.253414
8.0625114 6.3928413 18.646454
8.6211472 6.3999395 18.740303
8.0431213 6.8380966 18.646135
8.0617056 6.0964432 18.624632
8.3304119 6.430048 18.682608
8.4083071 5.9221678 18.665432
8.4093828 6.184144 18.676161
8.6744537 6.2144885 18.707609
8.1900978 5.8040462 18.257612
7.7261953 6.4759932 18.233686
7.8207178 6.2544065 18.523163
7.5189209 5.9278197 18.186193
7.43713 6.2411051 18.487263
7.5250301 6.7805419 18.249327
7.5428782 6.8365407 18.227146
8.573926 6.911078 18.749264
8.2549562 6.9865537 18.7178
8.6474943 6.6320796 18.729916
8.6149426 6.6882381 18.725761
7.6316528 6.747962 18.577854
7.6657267 6.9540277 18.307838
8.2950935 5.9717941 18.219925
8.0263977 6.7438455 18.617073
7.8144722 7.0601115 18.246672
8.5122643 6.9285641 18.669842
8.0409184 7.9897404 18.709047
7.7512341 6.6209927 18.616985
7.7335758 6.8220458 18.235172
7.4457479 7.3167925 18.291882
7.92524 6.7517476 18.609411
7.418282 7.2634912 18.188745
8.1596603 7.0195408 18.25728
7.9258137 7.9343743 18.664326
7.945365 7.3202257 18.580675
7.7243209 6.7890239 18.548618
7.9213529 7.6042709 18.661175
8.4230251 6.3852329 18.264391
7.9303751 5.8048949 18.526886
7.9997892 6.572319 18.55916
7.5635319 7.2957592 18.211229
7.9293318 6.7938681 18.569948
8.0312862 6.0735989 18.218672
7.9190369 6.0350447 18.533579
8.0460091 7.3666306 18.671968
7.409759 7.4102254 18.304153
8.2420473 6.5785222 18.693672
8.5421181 6.5790601 18.680609
7.6222744 7.0941119 18.283613
8.0252743 6.0348539 18.54682
7.4304152 6.8811526 18.54805
7.7353945 6.5995865 18.224922
8.0376644 7.0389023 18.252832
7.3331442 7.3762083 18.632269
7.7342854 6.2179456 18.554905
7.7084641 5.750555 18.159019
8.3984232 5.8034811 18.270998
8.3050632 5.716928 18.244415
7.3496089 7.700923 18.668909
8.1260395 6.0175114 18.26347
7.8229418 7.3755603 18.643785
7.2529135 5.9745092 18.133101
8.2530928 7.3710103 18.70274
8.5438128 6.2605605 18.640654
8.4246607 6.6038074 18.707212
7.7500696 5.7722573 18.561356
7.630456 7.2352777 18.277861
7.9223232 7.5109124 18.641264
8.1236296 6.1357985 18.569681
7.4412775 7.9608455 18.33564
8.6469517 6.013835 18.251949
8.5107403 7.0178475 18.751581
8.3464088 7.3688521 18.738815
7.9330187 6.3863573 18.635149
7.4526401 5.9744067 18.141859
7.6500258 5.9062696 18.14299
7.5137458 7.4149418 18.306585
7.7351246 6.1231809 18.531921
7.1382427 6.0120268 18.084452
7.8287592 7.2254286 18.284943
7.7292643 7.4485869 18.2892
7.9334774 6.1186714 18.553913
7.5176306 5.9918551 18.158707
8.0196247 6.1245236 18.560656
7.5311589 7.4589615 18.27593
7.6187649 5.9745455 18.162811
8.3360634 6.590292 18.262045
8.0244274 6.3385305 18.556215
7.9231043 6.4357748 18.58017
7.3676896 5.999373 18.147068
8.4112053 6.6673937 18.303978
7.2153397 7.4389691 18.269663
8.0347748 5.6892409 18.546368
7.7324324 7.0190263 18.546371
7.3926263 7.5740838 18.758383
8.1986513 6.472959 18.26446
8.1344051 7.0107317 18.30929
8.1439877 6.8614945 18.308535
8.1089392 6.7087097 18.260763
7.8185163 6.5675001 18.274063
8.3283091 6.8808403 18.310772
7.6235104 5.75317 18.15593
8.4953403 6.4506912 18.27915
8.4834671 5.7381039 18.259453
8.4893742 6.0735469 18.260889
7.9225407 7.4561329 18.295094
8.4214268 6.5152864 18.263994
7.9167895 6.589489 18.237564
8.0868206 6.3247023 18.270985
8.3241196 5.628027 18.223389
7.8247671 6.9095001 18.259398
8.0291653 6.918715 18.272141
7.8255129 5.9782934 18.183207
8.0250549 5.7613373 18.186243
7.9326191 5.9846673 18.174212
7.7205758 6.7053738 18.517437
8.5769691 6.4619017 18.676062
8.4187679 5.9695063 18.231018
7.9257693 6.4809475 18.249765
8.1352043 5.7314348 18.230289
7.4348297 8.2249775 18.285549
7.8264961 6.7855382 18.28257
8.4258003 6.5447927 18.31076
8.4150858 6.0887899 18.292873
7.6241703 6.5993109 18.59231
8.1465044 6.9137797 18.296463
8.1073828 6.5694585 18.288073
7.9207234 6.9102654 18.267059
8.4229641 6.4388866 18.290846
7.9064989 7.1336746 18.272161
8.1053886 7.2443705 18.286011
7.9294839 5.9972963 18.568699
8.3268051 6.382144 18.268192
7.8224287 6.1214476 18.542099
7.7296572 6.7201457 18.201172
7.7293091 7.4103546 18.600176
7.7109528 5.9408293 18.205027
7.6238251 7.4879179 18.672981
7.8249197 6.7583489 18.590929
8.4127064 6.0747933 18.245646
8.3659592 5.4858251 18.212481
8.2185087 6.5947518 18.263025
8.2188425 6.5267797 18.253824
8.2159176 6.0672898 18.223396
8.1493874 6.0491476 18.230469
7.9278908 7.4130292 18.613914
8.0241108 5.8963566 18.5529
7.8239107 5.9938879 18.563728
8.2132187 6.5413766 18.624384
8.0249109 7.0116415 18.286596
8.2139225 6.1731815 18.240253
8.48913 6.0107851 18.26483
7.9200573 6.0759487 18.211388
8.206562 5.7026 18.210701
8.408474 5.6249595 18.233799
8.1333714 6.1536207 18.241135
8.4941349 6.1214066 18.27527
7.7227545 7.8355975 18.645252
7.6407452 7.5448976 18.298601
7.0664482 7.4498253 18.234467
8.3209133 6.1701856 18.660492
7.5446997 6.8775415 18.540159
7.7342424 6.3306904 18.258759
8.2270174 6.7903786 18.290609
8.0138683 6.5990839 18.247396
8.2163219 6.576097 18.294834
7.925024 7.3854342 18.663277
7.9172125 7.4764476 18.690723
7.8315225 7.6099033 18.649012
8.3035202 6.7203841 18.696472
7.6412315 5.8172851 18.497341
8.1193962 6.7800078 18.29488
8.1053619 6.6034775 18.263462
8.1152973 6.4880743 18.270054
8.4380798 6.2690372 18.243059
8.220417 6.8837585 18.289581
7.8236957 7.1961598 18.603836
8.218998 6.3839092 18.254652
8.331686 6.7056212 18.293543
7.8308201 6.6954985 18.251003
7.8182564 6.5984874 18.229969
8.3267937 6.580821 18.314827
8.3338594 6.4832759 18.288349
7.8233604 6.379899 18.219328
7.7335749 6.0687914 18.188715
8.3073368 6.0295701 18.2749
7.4460602 6.4470491 18.528702
8.1545963 7.2033339 18.619324
8.2179184 6.7103286 18.266552
7.8281522 7.4107852 18.611191
7.7369232 7.6375203 18.600267
8.6204796 7.3309608 18.79155
8.4446983 6.5742788 18.278971
7.9334302 7.1942062 18.618467
8.3347063 6.7832141 18.318012
8.0155115 6.5601792 18.277328
8.0227661 6.4719343 18.25469
8.1327658 6.9623108 18.60104
8.2622366 6.041748 18.267838
8.0940065 6.2605062 18.543083
8.0419855 7.3332205 18.270803
8.4196825 6.1690283 18.261732
7.4884796 6.4078526 18.476221
7.6283417 7.4132142 18.318817
8.0081387 6.8080854 18.281971
8.2564278 5.6732664 18.174187
7.8163862 6.2844772 18.199547
7.8122044 7.8158269 18.659824
8.0294037 6.3118591 18.612116
8.057621 7.1141405 18.608171
8.2191458 7.6091857 18.662413
7.8286929 5.9062324 18.535461
7.9164658 6.9720583 18.609304
7.9261289 6.7853942 18.27022
7.9304414 7.398509 18.333803
8.2982435 5.9493628 18.246317
8.021636 5.8484182 18.1954
7.7340288 6.6588149 18.563366
7.7326584 5.7101555 18.476805
7.936481 5.7382894 18.185328
7.8453617 7.0077519 18.26786
7.9833355 7.0064511 18.691681
7.8293233 6.0681024 18.199482
8.1443386 5.9352474 18.232321
8.0308142 6.6559191 18.598021
7.7218313 6.8789144 18.573109
7.7371998 6.7897291 18.268978
7.8222294 6.9757032 18.6059
7.8130927 5.7499514 18.172426
7.5495291 6.7381353 18.193333
7.7368932 7.1050014 18.575737
7.7273335 6.1665745 18.201427
8.1143951 6.3527732 18.572861
7.7320404 6.2907815 18.19751
8.040451 7.87995 18.307579
8.3008938 5.8298836 18.247238
7.9347429 6.1984286 18.196585
7.6210775 6.1640816 18.472857
7.9396677 7.2232685 18.294022
7.3364391 7.2158494 18.26161
7.6343946 6.8838053 18.56658
7.4418573 7.2195549 18.265385
7.5067978 7.0231752 18.212173
8.311161 6.3419113 18.299791
7.4679041 7.0308251 18.2187
8.0205307 5.7233901 18.523735
8.0196991 6.2937264 18.217058
7.6418233 6.2963719 18.569181
7.5523825 6.4876547 18.508526
7.9284887 6.6989708 18.252909
8.7092552 6.1125979 18.698755
8.1338005 6.3752761 18.257904
7.7623062 7.6055393 18.274935
8.0244808 6.8359642 18.263777
8.0357399 6.6441517 18.659105
7.9117765 7.0070963 18.292068
7.7320251 7.2928987 18.615681
7.6361885 7.3588376 18.626717
7.633512 7.0072947 18.263674
7.8232322 6.883954 18.577518
7.8227749 7.095717 18.581352
7.3754487 6.8341537 18.581734
7.7259693 7.0204382 18.272715
7.6350775 6.0300403 18.506275
8.1324711 6.2833147 18.238531
7.5350919 6.4305573 18.543184
7.7301502 6.7013121 18.241276
7.5320396 7.6852369 18.280226
8.0189362 7.1941695 18.617109
7.8276463 6.1557412 18.211048
7.6126709 7.6012449 18.260136
8.2175026 5.9034338 18.586384
8.3530531 6.8390608 18.261362
7.6306562 7.3727269 18.260168
8.2281704 5.7709961 18.192968
8.0226212 6.1639376 18.2278
8.20294 6.3043795 18.245441
7.5621405 7.381073 18.614523
7.6457305 6.2633233 18.500967
8.4236851 5.7911234 18.218075
8.5596104 6.1199141 18.661753
7.9205484 6.5425901 18.272429
8.3431835 6.0743823 18.217525
8.0333824 5.9628196 18.229322
7.7222743 6.5205445 18.208506
7.8403807 6.2364807 18.245575
8.0120306 6.3785558 18.239208
8.3698435 5.7405176 18.223396
8.6305389 6.2847047 18.691074
8.1123257 6.2116065 18.600218
7.7382579 6.8409343 18.604425
7.813735 6.8212566 18.237204
8.4694643 6.4755774 18.697018
8.64921 5.8948417 18.245214
7.8301659 7.3774934 18.278078
8.0271702 7.5270276 18.656599
8.2239723 6.8301129 18.279919
7.9222031 6.3704414 18.216106
7.9101801 6.8789859 18.582924
7.8274374 6.6627569 18.575115
8.4049816 6.1179037 18.603079
8.3270302 6.6574478 18.334541
8.1420527 5.9775996 18.198521
8.3964434 5.8428288 18.244106
8.4698172 6.7757177 18.27434
8.0323105 6.876575 18.596745
7.6337581 6.6942749 18.245144
7.7156391 7.6461883 18.323469
7.926064 7.101903 18.59503
7.543335 7.0767698 18.581818
7.4033365 7.6919265 18.654947
8.3210735 6.1648288 18.265085
8.4213276 5.9535017 18.262074
7.9301214 6.8230796 18.255323
8.4837885 5.9355173 18.256275
7.0487885 7.4597588 18.28631
8.2218351 6.1168933 18.583305
7.8147449 5.9432979 18.21171
8.5464058 6.6749921 18.673191
8.0640278 7.270731 18.230745
7.8245754 6.5317445 18.586565
7.6278887 7.6422286 18.312771
8.0266972 7.0649161 18.643951
7.5222273 6.3504972 18.514139
8.3330364 6.2259765 18.631186
7.9238462 6.3401437 18.562595
8.0252066 7.4598813 18.691587
7.4567261 7.0595603 18.576118
7.8283334 6.2079554 18.187313
7.9338942 5.9410563 18.214474
7.3341618 7.1969862 18.647654
8.491188 6.2265038 18.281033
8.017828 6.9707355 18.608521
7.6344213 6.5274644 18.569023
7.7206101 7.1010494 18.295147
7.7285452 7.0749831 18.614067
8.3049965 6.2622585 18.281382
7.7243366 7.9480462 18.351831
8.1089163 7.1564951 18.685169
7.6917806 6.0861506 18.592173
7.823329 5.7125368 18.490011
8.2194986 6.243691 18.262688
7.8256836 5.8643913 18.194618
8.2160034 6.2133241 18.590178
7.8884706 6.734684 18.217846
7.4426222 6.1437783 18.197931
8.4260979 6.051569 18.649784
8.0300426 6.2609096 18.250294
7.4323835 6.7930641 18.252325
7.747036 6.3034182 18.584007
8.1160641 5.7214651 18.524643
7.9433212 6.2560844 18.252174
7.9231472 7.0765276 18.628475
8.1295376 7.0544357 18.664873
7.9230299 6.5115361 18.204165
8.1851912 7.01369 18.62126
7.8219109 7.0682135 18.6157
7.7320662 6.2543392 18.236383
7.6195536 7.0365291 18.223642
7.5403481 6.7015042 18.233446
8.2370729 5.9352794 18.230942
7.4402189 5.8535261 18.152794
8.532321 5.7502475 18.232119
7.635293 7.2763968 18.349497
7.2912884 7.4908295 18.31608
7.82024 6.8345265 18.613823
8.2274961 5.632647 18.213194
7.9519758 6.27599 18.207911
8.1124592 5.9057064 18.560825
7.9483709 6.0381565 18.239758
8.0244455 6.6990714 18.279045
7.9388447 6.1638689 18.228737
8.0271854 6.2191768 18.582251
7.9251776 5.9081249 18.54487
7.7369671 5.9059792 18.532448
8.1160622 6.6461701 18.610514
7.433465 6.8839097 18.275034
7.9202647 6.8549652 18.628757
7.5624924 7.6094141 18.271112
7.8372054 7.5786085 18.273485
8.4162102 6.7727757 18.311184
8.1221848 6.2558174 18.256632
8.1072483 7.494535 18.722713
7.7295895 7.2274442 18.275282
7.8265352 7.0933433 18.303099
8.3145752 6.247973 18.234228
7.3338041 7.4305229 18.265522
7.9262505 6.3070884 18.600296
8.2101574 7.0692453 18.642778
8.5103521 5.8617072 18.225937
8.138236 6.8065691 18.25654
7.6329708 7.4508734 18.283163
7.8158112 7.4451771 18.293203
8.4609432 6.1837845 18.211834
8.0172453 6.2007828 18.19866
7.7308407 7.3914962 18.641687
7.5278568 7.3248978 18.28092
7.9274244 6.6602836 18.585608
7.446497 7.5578876 18.284986
7.8254275 6.4410591 18.566294
7.3596249 6.1331801 18.53237
8.1249533 5.7582359 18.211052
7.9362364 5.8455238 18.191696
7.433413 7.465591 18.269621
7.8319473 7.5172873 18.627169
8.2171125 5.9957824 18.601295
8.0302982 7.9335079 18.70233
8.1386194 5.6845922 18.572018
7.5256948 6.0249896 18.492842
8.3130684 6.7777758 18.660049
7.4277244 7.5918417 18.614935
8.1973152 6.07235 18.632099
7.7279034 7.5037794 18.618582
8.3424587 6.0792575 18.650238
7.4388752 6.9020786 18.247667
8.450737 5.8917274 18.62339
8.6445503 6.394763 18.661163
8.2238703 5.8512001 18.217209
8.13871 5.8472967 18.217525
8.3304739 5.989727 18.624298
8.1343441 6.5350823 18.631048
8.1189766 6.5698819 18.583344
7.6362271 6.4372187 18.551517
7.6365557 7.3294969 18.291348
7.6376925 6.1297374 18.521399
8.0261841 7.2925291 18.648737
7.4365196 6.1221886 18.50453
7.9347477 7.3297076 18.301357
8.1291103 6.0877872 18.625114
8.1425934 7.3922663 18.67951
7.4450874 7.0981007 18.272976
8.3347921 6.6094065 18.687944
7.9944448 6.5094428 18.228741
7.7357855 5.8083587 18.503292
7.5360613 7.9559574 18.344206
8.3166494 5.8887348 18.597353
8.0151539 5.7979498 18.534157
8.0241766 5.989275 18.573589
8.1126671 7.3222008 18.728033
8.0184498 6.5336523 18.605787
7.9261866 6.223031 18.5721
8.6232262 7.2547059 18.790176
8.3146296 5.8467231 18.626337
8.0539389 7.6451712 18.62258
8.3433056 5.691412 18.587759
8.1355963 6.3032217 18.613762
7.5343914 6.1628904 18.191917
8.2654419 5.9113851 18.186527
7.9403296 7.5490937 18.313482
8.2451811 5.9500046 18.191677
7.7368584 5.9839945 18.171614
8.0022717 5.9624114 18.176502
8.1185837 6.4364834 18.595549
8.2409878 5.6726317 18.571777
8.6115408 6.013423 18.659252
8.0942764 6.8552008 18.616701
7.1955452 7.5492778 18.281616
7.3275633 7.5429468 18.279467
7.6736717 7.5152459 18.364014
8.1482306 6.4271679 18.672503
8.2224865 5.779223 18.609753
8.1443424 6.6074166 18.653812
8.112711 5.7767482 18.59836
8.5284004 5.7741108 18.633211
8.4249029 5.655098 18.183178
8.465107 6.3210616 18.644413
8.239563 6.4123816 18.616009
8.1100121 6.7465506 18.629551
8.1127558 6.8503628 18.650415
8.5324612 6.8492436 18.704197
8.4051714 6.0041876 18.640062
8.3200245 5.7443943 18.597809
8.1233082 5.8192554 18.541483
8.1364574 7.5030761 18.652533
7.5249805 6.7573538 18.557192
7.8235154 7.3318686 18.303171
7.9241371 6.5386548 18.596455
8.4555321 5.7576375 18.607147
8.0371647 5.7679133 18.579588
8.0222683 6.4432755 18.589577
8.1202412 5.9956937 18.60791
7.732687 6.7575784 18.586912
8.3248987 6.4329915 18.625353
8.3149624 6.5134749 18.643597
8.2006311 6.8223495 18.638336
7.8344278 6.7563763 18.216204
7.8276482 7.5415611 18.31584
7.9541168 6.079886 18.60482
8.1184511 6.9489379 18.703224
8.302494 6.9041085 18.699123
7.9260082 6.9374266 18.661928
7.8034945 7.6440444 18.32349
7.9479251 7.359808 18.277529
7.8658924 6.3307524 18.266417
7.7217112 5.8558874 18.16894
7.4757528 7.4879694 18.200872
7.7369804 7.1381125 18.260126
7.6297712 6.8185534 18.225283
7.6280785 6.8593044 18.282001
7.7225013 7.7236977 18.354218
7.7215266 7.4123845 18.325006
7.6365142 5.8522143 18.16914
8.2055111 6.8995881 18.614687
7.7284451 7.0480561 18.236122
7.9124289 7.7322488 18.640057
7.736968 7.3471251 18.262859
7.8296814 7.2892103 18.619501
7.7259274 7.5485363 18.303886
7.544908 5.8610678 18.106966
7.7235613 6.9194484 18.252497
8.3012047 5.6814585 18.171343
7.1287875 6.6362076 18.587393
8.2936325 6.8075356 18.705589
7.4355717 6.1417327 18.645395
8.2054996 7.1823139 18.64245
8.426609 6.6887875 18.706934
7.7285075 7.3248038 18.292656
7.545578 7.2905121 18.588675
7.0929594 7.4207563 18.274364
7.7191391 6.8789773 18.294067
7.7211914 7.2545347 18.546865
7.5525508 6.6096187 18.590769
8.215868 7.2655439 18.656128
8.2138186 7.1041245 18.62257
8.123826 7.9187946 18.687132
7.9398069 7.8412437 18.607071
8.2218075 6.0259705 18.562948
