# .PCD v0.7 - Point Cloud Data file format
VERSION 0.7
FIELDS x y z
SIZE 4 4 4
TYPE F F F
COUNT 1 1 1
WIDTH 1546
HEIGHT 1
VIEWPOINT 0 0 0 1 0 0 0
POINTS 1546
DATA ascii
20.609648 -0.44618735 -23.208914
20.701778 -0.46680802 -23.189749
20.210567 16.204916 -23.138344
18.408802 7.1930456 -23.264706
20.978283 10.704979 -23.496412
20.716425 6.6485367 -23.541399
17.405169 16.657753 -23.305603
20.728628 14.75506 -23.448393
21.012152 16.512133 -23.091476
20.621992 0.5597291 -23.163036
20.217411 3.0064673 -23.388996
19.226976 7.5904026 -23.279888
19.876326 2.4823024 -23.342909
20.706022 0.85023957 -23.554287
21.090256 10.691731 -23.503996
20.007608 5.5294051 -23.478277
20.010078 7.6709857 -23.218239
20.306208 7.3836212 -23.270912
20.503521 0.34496897 -23.301416
20.460863 15.539602 -23.535341
20.142664 13.3562 -23.278887
19.996775 0.63357854 -23.220175
20.42313 3.2640038 -23.181873
20.316309 0.095337041 -23.530788
19.919792 4.0634074 -23.507685
20.812023 5.6636238 -23.510803
20.506413 14.818988 -23.428164
20.25839 2.4997122 -23.308022
21.023361 7.228013 -23.139626
16.223803 16.540749 -23.342926
19.805916 16.124552 -23.177132
21.11866 16.425125 -23.074512
20.001364 8.6079369 -23.390604
20.405424 13.843199 -23.387646
21.174992 16.709517 -23.084652
20.117786 15.693896 -23.350252
20.918129 6.3322129 -23.549103
20.920076 -0.044006225 -23.162809
20.212652 -0.013845525 -23.287487
18.704651 7.3999224 -23.328449
20.690754 8.8420944 -23.528852
20.086624 1.1476235 -23.636892
20.352934 6.2143884 -23.299747
20.492575 5.3662767 -23.305752
20.804087 1.4864951 -23.546034
20.728168 4.5723877 -23.191019
20.301338 10.777838 -23.452955
21.410526 5.8662057 -23.522604
19.014936 7.26015 -23.303955
20.508497 2.6656485 -23.26659
20.606289 8.5324068 -23.462181
20.211578 3.2840948 -23.485624
20.115503 2.0818112 -23.610104
17.807665 16.233551 -23.319025
20.098862 6.8775415 -23.182972
20.789726 9.8064594 -23.454943
20.592834 15.138907 -23.163584
20.797754 0.56247187 -23.213903
20.005138 4.9549165 -23.171406
20.414352 4.6852784 -23.473927
20.629684 4.8533697 -23.56341
20.61182 9.2944193 -23.493561
20.733538 0.57577419 -23.167
21.455374 13.420929 -23.436001
19.717808 7.5797496 -23.260569
19.504189 7.6677094 -23.247475
21.127602 13.467253 -23.514961
17.011969 16.429039 -23.310762
20.41617 3.4211707 -23.502314
20.596603 2.442348 -23.19338
20.624342 4.6976109 -23.168127
20.449249 7.1996145 -23.183496
19.891287 5.6207738 -23.543768
20.612633 6.5149465 -23.492657
20.512911 7.2356286 -23.236275
21.263592 5.9256511 -23.533506
20.724079 2.420203 -23.203873
20.019447 14.243186 -23.522793
20.508436 8.4629364 -23.474276
20.212147 14.606764 -23.424891
20.020967 -0.13151999 -23.521387
20.997639 14.444073 -23.513233
20.041794 2.2531865 -23.2621
19.936422 0.50620639 -23.522837
20.409397 10.111585 -23.442629
20.407503 15.035779 -23.15781
20.425983 1.7290002 -23.312716
20.72574 6.8595357 -23.555313
20.324575 0.5672276 -23.315279
20.510567 0.62970316 -23.230337
20.498833 0.19155344 -23.502262
20.5086 3.9717729 -23.307261
21.034483 13.574116 -23.44743
20.071573 15.302084 -23.356838
20.321344 14.833069 -23.423166
20.90027 -0.73254389 -23.586796
20.876637 12.517839 -23.207747
20.739109 1.9703126 -23.606192
18.116823 16.131979 -23.26198
20.119623 0.54957271 -23.576077
20.224161 10.370687 -23.520952
20.400436 0.24727052 -23.314314
17.921951 7.1411672 -23.318052
20.01659 4.4635935 -23.481274
21.272362 9.2940989 -23.603073
20.414963 8.1046658 -23.4505
20.63015 8.8101244 -23.546911
20.213985 -0.22298755 -23.541559
19.923695 2.6034939 -23.327681
20.329231 3.7669563 -23.306032
20.31094 13.179061 -23.289286
16.713186 16.691654 -23.399492
20.507744 4.8391099 -23.574715
21.369633 -0.55934 -23.483644
20.344563 15.721474 -23.481787
21.045803 10.938625 -23.578497
16.414015 16.467905 -23.369913
16.396915 16.588928 -23.282555
20.318911 -0.061819576 -23.2202
18.394451 16.51753 -23.362091
20.675697 13.772845 -23.576223
20.43129 6.4292402 -23.513582
21.117529 9.1267614 -23.555389
21.170351 8.9038105 -23.528376
21.179228 6.4911728 -23.525024
20.990999 14.344411 -23.475258
20.900974 14.964186 -23.472757
20.022322 0.4051995 -23.519491
17.119419 7.4908905 -23.402544
20.312641 0.53410268 -23.286249
19.80974 7.7828908 -23.270233
20.921537 16.42621 -23.104713
20.621132 8.9913111 -23.499958
20.03957 15.384941 -23.248894
20.700069 7.7073441 -23.242966
21.010183 11.875296 -23.534416
20.719055 3.2143238 -23.261868
20.499359 14.513439 -23.427929
20.112011 5.9994321 -23.309038
20.119537 8.6332684 -23.46694
20.016321 2.4410396 -23.211281
20.312872 1.7714359 -23.450218
21.171577 14.21177 -23.514797
20.911575 7.2184415 -23.141748
20.603451 13.480476 -23.513237
20.199505 0.62880665 -23.261175
20.722935 5.8809943 -23.53945
20.505894 -0.82532519 -23.306047
20.698498 8.413022 -23.505131
20.344156 14.697066 -23.395201
20.952438 13.204975 -23.418793
20.916248 11.992155 -23.532242
20.644142 14.367741 -23.537457
21.162069 -0.080578193 -23.592705
21.216179 12.057854 -23.526268
21.171812 12.755657 -23.539494
20.524185 -0.0032750338 -23.537695
21.101028 2.5334146 -23.135851
20.111025 4.9333482 -23.296814
21.281509 7.6853037 -23.098652
21.008678 4.8436122 -23.574236
21.166742 16.228134 -23.1063
19.912132 14.1556 -23.493891
20.313395 5.6651616 -23.48847
20.097008 4.2484865 -23.227865
20.519905 -0.38524878 -23.6077
20.806427 7.73212 -23.170155
21.328369 13.848896 -23.416134
15.897478 16.539042 -23.37575
19.905012 0.42225593 -23.512175
20.500233 -0.53898102 -23.529747
20.116016 6.0934234 -23.48222
20.505737 5.7811241 -23.560598
20.621502 3.7317982 -23.210382
20.22032 15.365133 -23.424829
20.274403 3.4684994 -23.454865
20.421041 0.57031161 -23.304604
20.610733 2.3093982 -23.617498
20.301863 16.137403 -23.157957
16.616096 16.465761 -23.35881
19.811792 8.7869511 -23.525112
20.308695 14.951136 -23.459633
19.213491 7.6209226 -23.33777
21.01326 0.021717571 -23.133621
20.107435 0.51447058 -23.511591
20.207233 15.923829 -23.126938
20.03293 15.435057 -23.29067
20.794785 7.2701316 -23.213177
20.622009 5.565134 -23.539488
19.715384 16.428427 -23.180061
19.913492 16.421803 -23.171806
19.613564 16.126226 -23.19272
20.214502 2.4303298 -23.494591
20.714188 16.332144 -23.121077
21.204962 16.296991 -23.097128
20.223707 -0.028752174 -23.509298
20.076324 -0.48492524 -23.625563
20.148855 9.011879 -23.310722
20.423178 0.28820607 -23.482239
20.492355 15.864086 -23.35726
20.631447 5.7574062 -23.259735
19.507784 3.5177703 -23.453463
20.400505 4.8195019 -23.288385
20.526754 8.1745958 -23.263639
20.413292 1.839857 -23.294083
19.929266 14.956059 -23.124424
21.333801 12.219995 -23.570099
16.698719 16.201479 -23.314646
21.515699 16.311695 -23.059219
20.101418 7.5839486 -23.229893
20.98139 14.800056 -23.51442
20.008339 1.6858468 -23.490704
20.119259 13.183558 -23.30636
20.584957 15.791966 -23.390471
20.593483 0.3608714 -23.297558
20.263107 12.46102 -23.535267
21.165686 12.423219 -23.509985
20.908882 5.5730524 -23.54987
20.607054 14.164687 -23.367912
21.261946 3.5305583 -23.498571
19.976408 5.6256585 -23.464674
20.307545 11.196683 -23.439867
21.011204 16.041155 -23.148586
20.151051 -0.99674046 -23.472204
20.697618 10.694767 -23.497961
17.214382 16.228506 -23.341095
19.931555 -0.04067215 -23.212919
20.6784 12.565696 -23.21417
18.921881 7.6239281 -23.353348
20.619421 16.550177 -23.137281
20.710148 11.639916 -23.431538
20.028177 15.51104 -23.254839
20.770473 14.512194 -23.440718
18.409599 16.132908 -23.253004
20.01853 4.258018 -23.232508
20.611483 4.1537428 -23.224775
20.505219 0.65825874 -23.284792
18.918728 16.647722 -23.23979
20.214531 11.953702 -23.445795
21.189838 5.5994163 -23.495581
20.592735 13.568555 -23.451216
21.385227 13.5484 -23.552469
20.415232 14.004234 -23.503248
20.688881 16.490971 -23.150942
20.645809 9.8657522 -23.570995
20.113365 7.6827655 -23.198833
19.621061 -0.45031962 -23.645657
20.555676 15.435863 -23.553158
20.876413 9.6208839 -23.497454
20.026737 8.2224112 -23.485832
20.429325 2.4257057 -23.219158
20.481434 1.6937805 -23.237013
20.622723 6.6523423 -23.550028
20.30862 15.552421 -23.352547
20.303312 2.7641377 -23.283234
20.3123 15.32946 -23.354687
20.636652 2.5682597 -23.287975
20.473087 3.6902573 -23.207602
21.27224 9.3935509 -23.600914
20.895985 13.771637 -23.410215
20.276691 3.7334445 -23.229395
20.23315 7.6315551 -23.405325
20.735994 7.2396846 -23.140625
20.393097 2.2202742 -23.492453
20.921249 6.4443293 -23.544064
20.026165 -0.07072448 -23.235149
20.006443 14.10622 -23.484131
20.055096 9.8692379 -23.465424
19.825481 7.624064 -23.30689
17.205271 7.4865599 -23.389124
20.408319 0.53365785 -23.26408
20.208752 7.1306334 -23.212761
20.708927 11.858443 -23.472504
19.652908 -0.22662242 -23.552134
20.132227 9.3795366 -23.468073
20.793131 7.080245 -23.115587
20.200443 13.331653 -23.379742
20.011036 16.431551 -23.166191
20.998472 0.61708546 -23.165215
17.804876 7.3878236 -23.387503
20.708448 5.5709629 -23.545237
21.319609 8.8350868 -23.525375
20.417675 15.723382 -23.483337
16.602365 16.353479 -23.400404
17.015543 16.740282 -23.294184
20.397787 4.2453728 -23.222988
20.425631 10.16175 -23.20989
20.51799 8.0993767 -23.548534
21.095276 8.7902031 -23.547953
20.729721 -0.2016179 -23.555634
20.308399 1.6988637 -23.267527
21.342903 13.479455 -23.561081
20.515461 0.22760037 -23.553055
20.70435 5.8051066 -23.254591
20.75593 16.355604 -23.205631
20.216293 13.800457 -23.558401
20.602367 1.1408087 -23.474594
19.600847 16.522749 -23.280437
20.603439 3.290205 -23.17161
20.27578 13.630599 -23.522459
17.715471 16.231726 -23.317787
20.507595 -0.85646361 -23.541424
21.00482 16.321587 -23.09409
20.125013 2.4822938 -23.34796
20.609552 -0.055671282 -23.195776
20.317776 3.2903185 -23.487812
20.801708 9.4243002 -23.449162
20.02739 3.7598076 -23.317265
22.260342 7.518971 -23.200296
20.412918 8.0015278 -23.454031
20.818388 11.899055 -23.53758
20.847153 13.255104 -23.316416
20.316011 13.929301 -23.519012
20.123587 16.12104 -23.166336
20.608015 0.53298408 -23.249584
17.404697 7.4878564 -23.385323
19.782421 7.3076081 -23.171276
20.405415 14.915676 -23.40143
20.304075 0.41405529 -23.521223
20.423931 5.8053861 -23.318651
20.798538 5.250154 -23.257996
20.707457 -0.055592913 -23.181885
20.079802 3.3053041 -23.215477
21.099792 12.26067 -23.570202
21.121197 9.8721037 -23.511887
21.115021 15.29075 -23.516867
20.614077 15.815023 -23.450916
20.909758 0.57900125 -23.144768
20.608299 13.162486 -23.255205
20.992748 6.4482899 -23.54241
20.61025 -0.72999841 -23.267183
20.803478 13.601536 -23.524818
19.503124 7.5766482 -23.257156
19.613674 7.4138341 -23.296696
17.709822 7.4910741 -23.38518
20.117086 1.6708591 -23.492226
20.409307 0.30830711 -23.251171
20.309937 0.49713543 -23.511196
20.733459 9.2455063 -23.449543
21.529974 7.4359212 -23.103729
20.697067 -0.71078634 -23.580484
21.217354 15.300241 -23.506809
21.208687 -0.037302513 -23.61698
20.451405 -0.054759644 -23.200583
20.809837 2.5252171 -23.600563
20.725508 9.0552874 -23.464153
20.307648 15.768146 -23.400663
20.787626 4.4521713 -23.157948
18.822979 7.2947149 -23.380928
20.766325 6.4859266 -23.538485
20.812403 16.559422 -23.113485
19.814482 16.430986 -23.161198
18.013832 16.564615 -23.296303
20.709898 13.29943 -23.280268
20.496185 16.350298 -23.207254
21.228516 4.4852967 -23.137636
16.51713 16.699146 -23.400982
21.222326 1.4706818 -23.607809
20.500313 11.894507 -23.543146
20.512007 13.331841 -23.366476
20.502638 3.4082909 -23.204737
20.416222 9.6800785 -23.545395
20.218996 16.078136 -23.255407
20.609373 16.144373 -23.222921
20.250814 2.0731699 -23.162519
20.791527 12.155792 -23.321884
19.829868 -0.24784435 -23.548712
20.497803 0.20062783 -23.205851
19.961277 2.5974956 -23.60251
20.184299 5.6290326 -23.207403
20.398241 8.9969101 -23.475588
20.000156 5.6890683 -23.523092
20.307959 16.140539 -23.226727
20.515959 16.4704 -23.170965
20.31361 4.46034 -23.473881
20.614178 8.9020138 -23.526728
21.212463 12.275044 -23.555483
20.918808 12.933908 -23.217064
19.988781 13.955376 -23.507339
20.126204 16.200331 -23.124702
20.220539 3.9921274 -23.449512
20.423321 16.149078 -23.203363
20.41036 0.50691611 -23.508753
20.787533 14.702825 -23.154892
20.420355 5.659039 -23.500612
20.422897 2.2493773 -23.260921
20.111126 0.83253139 -23.49461
20.505869 16.13962 -23.153961
20.508045 16.557486 -23.146673
20.513441 16.419781 -23.131538
20.685165 8.9717894 -23.509563
20.013638 15.173962 -23.519529
20.295925 0.24527706 -23.541454
20.31694 14.307309 -23.204351
17.804054 7.4854474 -23.364559
17.611935 16.229542 -23.326967
20.348446 6.5233822 -23.088995
21.771515 7.6902013 -23.212093
19.910501 16.330599 -23.181396
19.97204 -0.78234404 -23.632139
18.911499 7.4835153 -23.305962
21.225462 15.179482 -23.516478
20.405138 16.343838 -23.151321
21.022457 2.2587323 -23.136076
20.710447 16.554577 -23.126778
20.019108 16.125698 -23.167912
20.096321 15.035895 -23.15196
20.21755 9.2589455 -23.454304
21.172813 -0.25480083 -23.567421
20.91576 0.13738245 -23.590233
18.914278 16.241665 -23.268816
20.605173 9.1000328 -23.540346
21.123201 8.0866556 -23.57523
19.309292 7.4808693 -23.287724
20.333303 12.980592 -23.54479
20.207249 16.145346 -23.228956
20.408678 15.252309 -23.159248
20.612885 4.8799658 -23.177332
20.508297 11.767197 -23.513737
20.707705 11.230987 -23.510916
20.015568 10.107483 -23.45265
20.056646 9.3219442 -23.470989
20.974693 8.9556751 -23.567734
20.001459 -0.15920055 -23.239332
20.719423 8.7840595 -23.552383
20.624937 13.926168 -23.370192
20.520935 6.4253235 -23.531544
20.594086 13.761519 -23.410465
20.629158 12.980718 -23.533598
20.600735 12.34716 -23.264471
21.098101 7.3807926 -23.246025
20.344156 5.8222237 -23.341864
20.143278 5.7770801 -23.370182
20.215124 16.128345 -23.158228
19.008102 16.738232 -23.211117
20.404419 3.2897556 -23.485973
20.129318 5.2568431 -23.278406
20.304899 -0.82220685 -23.315063
20.699984 5.365449 -23.290751
21.12155 11.675215 -23.542049
21.211163 10.900851 -23.514132
21.103271 9.2554359 -23.560335
20.002947 11.877315 -23.397718
20.815979 -0.099436849 -23.582939
20.990517 11.23821 -23.498995
21.020676 11.779426 -23.515337
20.713238 0.43564174 -23.269772
20.831636 0.63625574 -23.544472
17.50705 16.551931 -23.321129
20.310625 7.11203 -23.201559
20.02021 2.3797772 -23.364277
21.212791 8.511713 -23.550919
19.806034 16.265919 -23.274641
20.303204 7.7219605 -23.268599
20.036503 4.7065563 -23.341721
19.918358 7.1516829 -23.203354
21.059341 4.557014 -23.111227
21.293259 -0.16793746 -23.588337
21.224415 0.94782895 -23.477413
20.00881 7.1480532 -23.205095
20.806791 10.607495 -23.537958
20.012062 -0.1989183 -23.647947
20.686853 6.0745668 -23.457237
20.229181 15.876951 -23.348871
21.019896 7.6747966 -23.149933
17.817074 16.268797 -23.387985
20.403698 3.6346302 -23.253122
20.633982 14.508527 -23.135132
20.206566 15.507257 -23.449965
20.720573 2.4686985 -23.559315
20.3223 2.469358 -23.278143
20.222921 14.335545 -23.247362
20.319038 -0.18220779 -23.47283
20.50902 0.6380446 -23.528862
20.416393 15.770972 -23.398991
19.714226 16.285635 -23.271976
20.624832 -0.89703166 -23.195377
20.49551 11.912983 -23.356174
20.608061 15.863771 -23.512596
20.904589 9.6473837 -23.559031
20.453186 1.5997671 -23.383743
20.682013 6.5938134 -23.498814
20.916775 -0.085745804 -23.588192
20.867859 12.298074 -23.565372
20.484985 2.5271425 -23.469349
20.097906 15.920614 -23.237541
20.626919 3.6409044 -23.150078
20.42691 8.7301702 -23.446627
20.425604 3.027945 -23.329149
21.655937 7.6331091 -23.290688
20.619659 11.771495 -23.511274
18.714899 16.589081 -23.307072
20.00795 2.0064278 -23.493872
21.086008 16.576065 -23.158169
17.708218 16.461046 -23.319111
20.026423 6.0760822 -23.49387
21.920971 16.200045 -22.99559
21.074955 0.22007629 -23.564445
18.106781 7.2543435 -23.342508
20.21607 10.878111 -23.449219
21.181305 4.0821071 -23.557062
19.909704 7.7742729 -23.255768
21.625622 16.268473 -23.02282
20.863316 4.7142386 -23.167915
20.409386 0.33802477 -23.302505
20.718374 1.8057985 -23.502438
20.605042 3.1317422 -23.307026
21.001137 5.6771913 -23.489746
20.406834 6.6133118 -23.471241
20.111397 0.61493677 -23.482445
16.817915 16.379993 -23.402924
20.423172 15.918521 -23.190739
21.071688 16.717316 -23.089642
20.711435 12.398937 -23.492205
20.937918 6.0760536 -23.469568
20.506628 7.5728865 -23.208408
19.62488 7.4780183 -23.267218
20.80908 4.7532868 -23.134285
21.110584 0.26321578 -23.485735
20.674217 10.178936 -23.415808
21.106544 11.862871 -23.480503
20.744795 14.910192 -23.531298
20.519501 14.379951 -23.535679
19.007074 7.4773936 -23.307238
20.97718 2.9508083 -23.482796
21.007164 9.1363716 -23.603352
19.893948 -0.18192929 -23.650581
20.530439 15.553367 -23.533112
20.276537 10.003684 -23.25605
20.40139 8.5264387 -23.462809
20.508587 8.1897421 -23.438143
20.506886 10.201709 -23.396776
20.613487 14.648583 -23.475462
20.318947 4.6719217 -23.202806
20.656918 13.199448 -23.547602
20.912237 16.566505 -23.112202
20.909689 2.8583329 -23.158428
20.51502 6.6074972 -23.46595
19.834248 13.05416 -23.429693
21.049541 14.233139 -23.596153
17.694456 16.269575 -23.377478
20.812052 13.873036 -23.453484
20.609159 9.0788345 -23.468594
19.013002 7.3406248 -23.275705
20.5077 -0.11806559 -23.518597
20.413799 4.1428843 -23.483986
19.895893 2.3175399 -23.488613
21.009487 14.235911 -23.516981
20.792088 9.5788355 -23.562572
18.311377 16.738888 -23.240303
18.81568 16.41728 -23.227936
20.043583 2.0860417 -23.472874
20.632074 12.821279 -23.251438
21.413731 13.634336 -23.555773
20.350658 10.298099 -23.290165
19.896914 14.617043 -23.538984
20.714722 9.5754852 -23.564852
21.005199 7.9467058 -23.557959
21.022593 13.862127 -23.439415
20.716305 3.1830025 -23.186922
20.609549 14.401896 -23.162966
20.131037 14.9267 -23.403887
20.688789 6.3388281 -23.553106
20.510956 1.8078558 -23.50881
20.9946 0.1790591 -23.146572
20.693771 14.53377 -23.178986
19.917255 8.7366962 -23.465221
21.114489 13.189738 -23.546995
20.517199 3.1828349 -23.216503
20.407137 5.8483362 -23.468065
20.82091 14.269493 -23.567505
20.600382 15.7078 -23.409641
20.597788 5.11834 -23.21274
20.606434 7.7857399 -23.217222
20.092686 9.953537 -23.196018
20.808882 14.632782 -23.477583
21.430931 16.50569 -23.068672
21.439196 16.424076 -23.079214
20.006279 0.52594 -23.618935
20.578506 14.636526 -23.230959
21.262808 8.4635735 -23.568995
20.513504 3.0421083 -23.336573
20.508673 6.0718093 -23.466852
20.911833 11.283155 -23.552343
21.407089 1.6233696 -23.573835
21.423874 16.706074 -23.066216
20.322794 5.8868742 -23.302961
20.416676 7.6208391 -23.288155
21.202259 16.55204 -23.117809
21.181303 16.485188 -23.077211
21.184475 16.418814 -23.096844
20.519491 6.8228173 -23.480028
20.380663 3.1832271 -23.23119
20.100079 14.638453 -23.469303
20.803345 12.576017 -23.268463
20.927368 14.763391 -23.521154
20.515762 8.5383644 -23.453939
20.705709 0.18544383 -23.185137
20.919022 8.4548922 -23.556776
19.00169 16.429897 -23.219526
21.151154 16.268055 -23.105726
20.890581 5.0849724 -23.191839
20.917013 15.188218 -23.497892
20.217051 3.0686746 -23.485146
20.411335 4.7386112 -23.31962
20.55472 4.3557992 -23.427479
21.106924 14.375754 -23.516577
20.711584 13.862683 -23.446278
19.80756 16.245558 -23.227962
20.319311 1.4897174 -23.512842
20.106791 7.7808828 -23.251944
17.715775 7.4022408 -23.386812
20.89056 0.60320091 -23.165445
21.125101 11.733805 -23.501663
20.404133 4.5397563 -23.460232
21.015434 -0.23280053 -23.554117
20.522129 11.791362 -23.30468
21.375326 12.055818 -23.609718
20.51951 10.99499 -23.476116
20.021574 3.3135984 -23.274364
20.41614 14.636226 -23.467165
20.608862 1.8975612 -23.495188
20.318184 0.6345762 -23.531553
21.104301 14.335397 -23.507086
20.521696 -0.27956972 -23.316448
20.089411 -0.6946581 -23.624563
17.940834 16.515394 -23.366301
21.703424 16.140608 -23.042723
17.810402 7.1706729 -23.38356
21.188856 -0.55673778 -23.462025
20.320292 10.4737 -23.463877
16.70631 16.514343 -23.304979
20.998175 14.362377 -23.526363
19.414518 16.738098 -23.18466
20.415739 0.096367978 -23.528149
20.901966 1.2061338 -23.582836
20.596067 5.010098 -23.239233
17.820557 16.466618 -23.391329
21.494371 16.524693 -23.064533
20.912237 11.534931 -23.499786
20.225071 10.394713 -23.294073
20.607983 6.7423897 -23.525812
20.788673 5.93471 -23.569925
20.500774 5.0660987 -23.289293
20.700226 14.016246 -23.506617
19.02042 7.6319137 -23.349007
20.791542 14.40568 -23.126694
20.441769 6.4252567 -23.28606
20.599566 11.902356 -23.388075
20.49399 1.8290346 -23.271397
20.408907 13.186577 -23.258244
20.986092 3.1231096 -23.544287
20.517687 2.2074983 -23.488493
20.771196 5.7589664 -23.495064
20.304817 8.4652872 -23.473797
20.694271 8.5251207 -23.469929
20.413767 0.63349009 -23.530373
21.065559 8.4910345 -23.56358
20.422958 2.5643477 -23.510454
19.015306 7.5338569 -23.393444
20.323448 14.240205 -23.280586
20.502844 9.4874115 -23.445021
20.308334 10.126445 -23.449339
20.604361 2.138988 -23.272968
20.217382 11.409403 -23.446396
18.408588 7.3837495 -23.3505
20.517544 1.7275556 -23.29921
20.307838 1.7383735 -23.313107
19.899462 7.3965669 -23.281067
19.118071 7.6252122 -23.346779
20.808552 16.113894 -23.187004
20.535271 2.5731587 -23.590302
20.302942 3.381041 -23.475317
20.106501 1.8336327 -23.313322
20.215284 0.53640634 -23.545755
19.523144 7.4804878 -23.276577
19.506109 16.645332 -23.205416
20.202625 7.7204399 -23.270214
20.129082 11.280432 -23.433746
17.711025 7.6317239 -23.406328
20.12678 -0.47607541 -23.487938
21.011494 13.243754 -23.494398
20.615721 2.6133921 -23.584749
20.060774 0.3762494 -23.674486
21.141056 5.6775551 -23.524815
20.134619 0.10979839 -23.528923
17.199047 7.6285129 -23.255175
20.891121 7.5167665 -23.126635
20.500772 9.3073149 -23.488098
20.026386 9.4778233 -23.468679
20.40374 10.562444 -23.447466
21.100737 12.029048 -23.569075
20.817373 14.324209 -23.499781
20.880287 4.9206672 -23.548447
20.596025 9.494277 -23.439247
21.277082 13.772717 -23.472672
20.054222 0.83602256 -23.230108
20.832764 7.4090323 -23.263044
20.706259 14.094139 -23.476702
20.412041 9.9690018 -23.270723
20.699753 0.63911539 -23.527414
20.035866 14.630187 -23.497919
16.904577 16.655838 -23.321217
20.638933 0.66068792 -23.583063
20.524788 6.6478267 -23.540558
20.413912 -0.67721081 -23.211052
20.203251 5.2836614 -23.328335
20.543371 9.6285076 -23.310354
20.654659 -0.17104222 -23.575846
20.287867 15.982362 -23.31263
21.084198 8.9226828 -23.54664
20.501659 14.646973 -23.496462
21.089666 0.06831181 -23.476578
20.109522 3.3135302 -23.282589
21.154274 1.1212173 -23.484346
19.901596 6.243299 -23.196384
20.613573 13.169147 -23.507006
21.079477 15.166979 -23.476271
20.393154 0.71206588 -23.451706
20.110655 1.9227678 -23.299116
20.222998 9.3154745 -23.486668
20.316282 -0.66747451 -23.236071
20.431057 -1.0428408 -23.443649
17.401741 7.5816936 -23.377987
20.332611 13.157442 -23.518143
20.303263 14.332706 -23.490349
20.571424 6.318397 -23.179735
20.305367 6.3674536 -23.394932
21.354692 12.002861 -23.612686
20.497732 6.2849135 -23.476437
21.030016 5.0964561 -23.184334
20.296829 16.269211 -23.243166
20.10787 6.2318029 -23.304119
21.414436 7.6480308 -23.226307
20.803482 3.2291038 -23.561398
20.195959 6.583467 -23.187845
20.521723 1.9004402 -23.498453
20.084358 0.66809034 -23.603111
20.521223 9.9642754 -23.234901
18.313128 7.1530862 -23.303055
20.003567 2.7990515 -23.263546
20.0385 0.084778637 -23.260504
20.608761 0.082000941 -23.202869
20.510529 0.30176327 -23.232687
20.996223 4.9279423 -23.573565
20.614527 0.17839597 -23.199425
20.320415 0.073030144 -23.263676
20.417772 0.084578782 -23.2325
20.724291 5.0916238 -23.19574
20.408848 6.2098813 -23.50771
20.047489 3.8560941 -23.240065
20.410746 14.194017 -23.147543
20.060978 6.4917488 -23.479929
20.209373 7.1614041 -23.267702
19.920876 15.987719 -23.102962
20.900175 15.404425 -23.502476
20.11557 1.8989705 -23.499664
19.991253 -0.024585459 -23.286575
20.407728 3.3123679 -23.26729
20.413731 -0.26936638 -23.303879
21.100471 16.287464 -23.070654
15.891362 16.189377 -23.327604
20.412569 0.1635628 -23.210518
20.519926 -0.015054519 -23.243818
20.114798 14.801025 -23.149307
20.408901 5.6665359 -23.227179
20.609993 0.10205823 -23.280174
20.139679 4.8158741 -23.507013
20.52483 15.489586 -23.455463
20.081177 5.3666177 -23.3687
21.069874 13.025871 -23.471874
21.119944 11.792177 -23.54534
20.111433 -0.5254457 -23.564081
20.384357 5.0792751 -23.220615
18.227327 7.3744407 -23.359922
20.528006 13.154125 -23.512184
21.127604 0.35490021 -23.556524
20.505438 11.196641 -23.430111
20.413149 6.071599 -23.462444
19.206711 7.3538761 -23.274218
20.331114 14.394551 -23.176594
20.419342 4.8056092 -23.50255
20.682392 4.283175 -23.150831
20.136295 5.1446881 -23.299387
21.131477 7.6407151 -23.200224
20.71093 13.962667 -23.44243
20.622509 7.4927611 -23.108076
20.316084 0.95297092 -23.525198
20.310888 5.7568121 -23.475443
20.627544 16.458857 -23.220102
20.667215 16.268591 -23.239643
20.71682 16.064157 -23.234983
20.483541 7.1463823 -23.172792
19.219685 7.1518168 -23.253935
19.94227 14.173229 -23.174625
20.607332 11.953381 -23.439787
20.716724 4.7577701 -23.151379
18.732149 16.494961 -23.373163
19.819164 -0.79218197 -23.678711
20.005417 14.176853 -23.138559
18.116343 7.3856449 -23.368597
21.306961 0.47659105 -23.549953
21.016586 12.0866 -23.507496
21.004566 12.747744 -23.523165
17.194546 7.5395975 -23.253071
20.224358 2.5700452 -23.519264
15.29501 16.115265 -23.315269
18.799641 16.602997 -23.319582
20.711727 0.054596521 -23.187738
20.434013 12.859682 -23.298296
20.717573 4.9432993 -23.554586
21.489843 7.6440587 -23.132252
17.512833 16.23333 -23.333061
20.217276 16.267323 -23.253332
20.717285 11.534011 -23.505148
20.201544 7.7798395 -23.254948
20.814959 2.8434916 -23.127695
20.013277 2.3196445 -23.469191
20.211987 0.096827887 -23.530304
17.108244 7.6467047 -23.292534
20.719826 13.835183 -23.532778
20.204763 3.8626516 -23.263914
20.155024 3.5998318 -23.402929
20.815771 2.638433 -23.176756
20.227297 7.8762393 -23.264923
19.95433 3.4172692 -23.223181
20.016899 0.0044203745 -23.574532
21.381426 7.6702914 -23.138586
20.79936 2.285423 -23.594585
20.603241 7.6028748 -23.261446
21.10309 6.2501478 -23.565088
20.592216 10.914168 -23.523678
20.120571 9.4856968 -23.468433
19.917339 2.1388261 -23.501785
20.270178 5.6025972 -23.210546
18.426529 7.3537765 -23.323652
20.012871 14.961619 -23.451275
21.281862 8.9088688 -23.537424
21.123146 13.83417 -23.528105
17.799828 7.2096663 -23.295349
20.910042 14.004415 -23.50629
21.234344 0.29773939 -23.542063
20.306309 0.88250089 -23.306192
20.101074 0.86554563 -23.549334
20.313082 7.2530718 -23.225189
20.301119 11.778077 -23.507462
20.324429 4.7085752 -23.253065
20.715836 5.6244397 -23.584099
20.981419 7.0654607 -23.204027
20.406614 9.2635269 -23.451183
17.686165 16.520998 -23.374886
20.102083 2.4353311 -23.497967
20.321323 5.129787 -23.219982
20.052103 13.787744 -23.477802
20.111645 15.997494 -23.126558
19.625011 7.3592887 -23.245829
20.515041 7.3441916 -23.189159
20.075644 -0.16467671 -23.599623
20.425947 11.757165 -23.500957
20.430729 13.057932 -23.534658
20.804304 9.6544199 -23.544897
20.400038 14.306318 -23.192972
21.143187 9.2677422 -23.52943
20.310335 3.1292 -23.304539
20.008049 0.73483759 -23.51441
20.507797 5.689209 -23.41482
20.834049 14.750968 -23.45188
21.261276 9.8576193 -23.515873
20.520515 15.407051 -23.507141
18.40534 16.175718 -23.243708
19.980734 5.2974916 -23.552486
20.812763 -0.17458181 -23.593513
19.902208 10.163619 -23.368946
20.901121 10.959085 -23.551746
20.607216 9.2048836 -23.544172
20.501623 6.1636214 -23.450987
20.002218 6.2481236 -23.194286
20.814747 13.78434 -23.494457
19.231644 7.2926593 -23.361795
20.107117 15.179667 -23.464079
20.225077 14.343102 -23.496078
20.027807 2.4475086 -23.503328
20.754261 9.6545696 -23.562494
21.028267 8.9761305 -23.508802
20.50561 14.191323 -23.426867
20.610542 0.55238783 -23.55378
20.601954 1.5881808 -23.496157
19.999655 7.7628932 -23.195154
20.891064 8.9824686 -23.537256
20.5942 14.835696 -23.418596
19.821917 4.801702 -23.186781
21.082428 0.29294294 -23.124624
21.100412 12.209516 -23.535145
20.329189 5.2136979 -23.308815
20.702522 -0.95688528 -23.251909
20.409019 14.109205 -23.471165
21.999485 7.5989628 -23.205235
20.803925 13.522353 -23.550838
20.400654 0.46965411 -23.367048
20.612215 3.3030927 -23.235231
21.022202 3.548691 -23.561985
19.40284 16.181355 -23.176359
19.245255 16.210457 -23.19459
17.515087 16.426624 -23.300098
20.807175 11.658479 -23.526768
20.810057 10.906625 -23.52352
20.518753 14.955911 -23.462332
18.610773 7.397315 -23.34724
20.400997 10.652018 -23.438631
20.41283 7.7821283 -23.243263
20.767342 6.2998147 -23.204741
20.68836 7.5308385 -23.157387
19.899759 0.16963571 -23.505816
20.691401 8.6274166 -23.441978
20.614014 1.7992846 -23.288172
20.897078 16.129644 -23.173367
20.216774 8.946702 -23.456182
20.396711 -0.097789444 -23.564602
20.403782 14.856114 -23.184202
20.396069 9.2289591 -23.522627
19.923056 2.127816 -23.281187
20.633282 10.398617 -23.565502
20.50845 10.067602 -23.509912
20.08864 0.37947795 -23.473946
20.81307 15.171728 -23.486519
20.813593 9.2998743 -23.50366
21.758251 16.346647 -22.991907
19.997608 11.686326 -23.536007
20.605858 14.896396 -23.556046
20.209911 12.7148 -23.463331
20.907217 13.510766 -23.538471
17.409891 16.734955 -23.277044
21.17901 5.2386022 -23.541588
20.610476 9.2792139 -23.445679
20.712029 6.1241059 -23.381109
20.211372 1.9078279 -23.499218
21.11438 -0.82404584 -23.60438
20.105825 2.2165008 -23.302057
17.312706 16.460123 -23.34136
20.976921 7.0315895 -23.113796
20.907475 3.2288868 -23.555973
21.209864 10.623624 -23.575411
20.115866 14.832373 -23.214342
20.225603 14.40109 -23.180487
20.516483 13.191727 -23.274624
20.711439 -0.36244491 -23.18862
20.40345 6.2434902 -23.265699
20.704992 12.940091 -23.502548
21.529028 16.404263 -23.052044
20.407148 1.9003743 -23.494728
20.220404 6.222713 -23.299881
20.503801 12.716957 -23.465343
20.096514 6.0813417 -23.208136
20.273945 0.44339958 -23.376356
19.112272 7.3893361 -23.31646
20.728315 10.51896 -23.539019
20.808916 14.003155 -23.50812
20.647308 1.7371024 -23.348583
20.203619 6.7020226 -23.469759
20.98028 0.32903969 -23.556337
20.791378 4.9281855 -23.555059
20.697611 14.296019 -23.411171
20.089617 8.816864 -23.443476
20.567888 2.862078 -23.134235
19.974586 15.533721 -23.124989
20.141823 -0.16124502 -23.477253
20.507658 5.6641307 -23.50045
20.110527 14.272668 -23.274069
20.211727 8.7257795 -23.451069
20.644678 11.047276 -23.279488
19.908962 16.241938 -23.224087
20.611292 -0.95418477 -23.251226
20.80611 -0.32513279 -23.176098
20.134346 5.8877478 -23.337517
20.238747 -0.44221243 -23.241901
20.901333 -0.35003027 -23.164507
20.409039 1.6727728 -23.491871
20.409163 13.154796 -23.222338
20.8811 -0.21606544 -23.567482
20.817638 1.0815499 -23.575626
20.087278 -0.066502698 -23.598923
19.953993 10.05596 -23.281046
20.34322 2.1052589 -23.184168
21.19278 13.518884 -23.531578
20.41353 13.530561 -23.417009
20.128811 -0.4186742 -23.310371
20.612555 14.193267 -23.42627
20.503294 0.39308509 -23.454632
21.108437 7.6158395 -23.249659
20.606792 0.41598624 -23.519051
20.173347 -0.39321721 -23.186413
20.108236 9.3175125 -23.493179
20.692936 1.6937512 -23.210615
20.71249 9.1732998 -23.458138
20.593143 15.894855 -23.182858
16.398012 16.567434 -23.430006
19.810865 7.6757708 -23.222807
21.303383 5.8356309 -23.58848
20.472923 7.0137987 -23.314991
19.996105 -0.38224831 -23.226011
20.503958 14.845017 -23.16799
20.950228 4.7777743 -23.577017
20.497076 3.3862677 -23.470079
21.108942 3.6863747 -23.106174
20.332781 3.0045509 -23.425211
20.198605 -0.81568003 -23.31484
20.804546 2.0564241 -23.578932
20.530962 2.1426311 -23.347612
21.418205 4.4250579 -23.543797
18.298204 16.420692 -23.260471
20.508476 15.770673 -23.377224
20.714985 -0.91151744 -23.192417
19.999407 -0.45510641 -23.219143
19.936634 15.347538 -23.144911
20.410835 5.0325599 -23.254038
20.775333 9.1983309 -23.452065
20.314625 3.3010705 -23.2761
20.800282 -0.45239791 -23.190639
20.769459 9.1213045 -23.493418
15.906559 16.324173 -23.355509
20.631693 14.132129 -23.225401
16.99622 16.588213 -23.392775
20.291653 6.3349304 -23.276495
20.508718 -0.34587669 -23.200264
20.521019 -0.30324623 -23.538139
20.726931 10.198675 -23.555283
20.432566 7.4721746 -23.363083
20.785744 3.3717639 -23.16395
21.21595 11.25214 -23.512571
20.419495 2.5079689 -23.325411
17.610481 16.734552 -23.274321
20.307062 1.0441613 -23.511971
19.643341 12.870393 -23.449026
21.151915 -0.56441414 -23.459032
20.048639 5.9041362 -23.300432
20.309021 6.6051989 -23.470201
20.220821 2.6527205 -23.499479
21.212595 11.266514 -23.54147
20.284775 8.4701595 -23.307734
20.618246 1.0881299 -23.562851
20.532627 9.8811779 -23.312531
20.110481 -0.70291376 -23.473829
20.414749 1.5210778 -23.437859
20.699713 9.6128616 -23.479872
20.184307 6.2662468 -23.261105
19.941563 3.4302096 -23.515524
18.312634 16.336767 -23.28299
19.806736 -0.19779246 -23.639071
20.412348 2.8794594 -23.500044
21.224291 4.4197245 -23.562174
19.939617 11.925151 -23.354628
20.52179 15.529754 -23.362967
20.222139 6.813221 -23.450819
20.812489 5.0234652 -23.217562
19.203707 16.743343 -23.193905
18.129267 7.3536644 -23.335226
20.963297 6.1160173 -23.605598
20.212572 10.093788 -23.513748
20.616005 5.6626487 -23.49995
19.904886 1.2764961 -23.612394
20.397232 -0.22127195 -23.529886
20.223398 3.1533909 -23.287834
20.12582 11.316027 -23.297506
20.40144 -0.30814496 -23.542515
20.421425 5.7911205 -23.259689
22.203278 7.5613866 -23.194933
20.833698 7.680244 -23.147537
20.000904 5.7605829 -23.483244
20.097843 0.49447215 -23.613115
21.221556 8.7211485 -23.542631
20.975348 7.7585425 -23.140654
20.211971 5.6251063 -23.464115
20.215706 0.19841553 -23.526424
20.313501 13.975732 -23.432426
20.89609 5.3100877 -23.128653
20.303123 14.189589 -23.432253
20.514362 2.8120894 -23.165846
20.285622 3.4422379 -23.307833
20.827662 15.974359 -23.312809
20.413805 -0.44035926 -23.530807
20.205549 2.0273566 -23.516487
20.430243 10.067581 -23.526333
20.897526 15.961108 -23.233868
20.320175 14.235409 -23.529766
19.928053 2.0413895 -23.507286
20.612312 -0.40637419 -23.272009
20.409901 6.519134 -23.480995
20.41338 11.544095 -23.474007
20.304893 0.060027402 -23.474014
20.112356 12.143911 -23.424929
20.331005 -0.94257176 -23.577913
20.782124 4.0086536 -23.17046
19.958138 8.4245386 -23.34786
20.510157 9.2109127 -23.514572
20.503225 11.634686 -23.44599
20.217585 2.9909825 -23.276268
20.605928 11.686996 -23.518946
20.612495 11.641743 -23.466986
21.321455 15.146617 -23.546329
21.229111 3.4095838 -23.570242
20.506254 0.040764596 -23.447859
21.407881 16.63261 -23.068623
20.030989 3.51108 -23.2742
20.308468 6.414989 -23.253622
20.452585 14.121558 -23.535635
19.995089 3.9305458 -23.236235
20.514557 0.61117303 -23.478769
20.977591 2.6600599 -23.508936
20.912407 1.1647475 -23.550303
19.893064 1.2089982 -23.624363
20.705931 4.7185826 -23.555105
17.910389 7.3632512 -23.344736
20.322403 3.5230751 -23.282686
21.095987 1.0602198 -23.576223
20.861134 3.3589821 -23.139956
20.151566 1.194497 -23.613232
20.518568 2.0160408 -23.517847
20.417799 7.4871745 -23.249561
19.952599 1.9405074 -23.616163
20.916664 4.9730763 -23.148485
20.809946 15.395371 -23.501371
21.291626 14.304529 -23.475698
20.624874 2.7610211 -23.230604
20.31336 12.127057 -23.424255
21.52393 3.1312649 -23.553238
20.520519 4.6181927 -23.563524
20.315395 11.550672 -23.486553
20.104521 3.4470932 -23.299757
19.515795 7.3853693 -23.29442
19.759127 3.7513714 -23.55689
20.148684 1.1083031 -23.550247
20.867802 9.3736095 -23.500908
20.710995 14.648651 -23.480801
20.011272 13.118755 -23.450294
18.31587 7.3539863 -23.312588
20.892441 7.2622223 -23.222443
17.204098 7.4675484 -23.336424
20.109631 -0.96476227 -23.605806
20.106493 0.077127837 -23.273169
21.041386 4.2191248 -23.149071
19.122141 16.270542 -23.317423
20.311947 9.2646351 -23.448662
20.915924 11.761129 -23.516088
20.508305 13.117742 -23.423447
20.936958 15.546706 -23.441816
20.704681 15.612251 -23.434351
20.402269 -0.97450519 -23.532545
20.402 6.8287678 -23.477938
20.449406 13.082335 -23.339718
20.993614 14.190207 -23.401552
20.303562 12.118581 -23.551973
20.175579 5.4817805 -23.581524
20.223291 14.645211 -23.461014
19.909416 -0.88524646 -23.666513
21.277527 2.2956059 -23.587397
20.411772 1.4854766 -23.511507
20.804287 8.8841009 -23.541174
20.305305 0.60742271 -23.4722
20.480762 12.002737 -23.292112
20.407696 -0.84938371 -23.543091
20.112909 -0.57333094 -23.50643
20.026796 15.694083 -23.171869
20.63335 3.3363967 -23.302366
19.996014 -0.66494304 -23.510395
19.9086 7.4902453 -23.258671
17.907871 7.3953962 -23.375319
19.84866 -0.6779356 -23.568115
20.79635 12.710827 -23.481541
20.233768 9.6471415 -23.436533
19.835396 0.46426144 -23.654425
21.204763 16.655258 -23.092854
21.014421 14.120401 -23.519379
20.818096 10.284865 -23.544954
18.619602 7.1507492 -23.288805
20.503981 0.3957333 -23.214235
21.330231 5.551764 -23.555441
20.528259 4.9466825 -23.564659
20.619099 5.9928384 -23.266537
20.50511 1.4887644 -23.507383
20.214722 14.189682 -23.436104
20.612778 5.546279 -23.229509
20.718288 1.8983918 -23.484629
21.356672 5.869688 -23.587093
20.676483 12.963574 -23.414171
20.695244 10.87898 -23.425241
20.429182 -0.4016827 -23.577444
20.720196 -0.13603532 -23.188356
20.40279 -0.12630366 -23.226505
20.777184 13.989769 -23.432123
20.921087 2.8404374 -23.128679
20.718214 2.0205641 -23.522957
20.020073 3.0747259 -23.479788
20.74712 3.0522361 -23.145584
20.820377 5.3808346 -23.581234
21.299974 7.4944596 -23.214491
19.531984 7.2757492 -23.339046
21.218637 6.0061431 -23.571539
20.010098 7.4792223 -23.253595
20.717758 14.298269 -23.549982
20.216667 7.4010944 -23.268681
21.108572 7.246129 -23.098333
20.244205 14.44094 -23.353233
21.113783 16.652931 -23.095362
20.327499 6.5926218 -23.235826
20.01729 1.8859841 -23.50304
20.134239 7.3882589 -23.27803
21.012707 7.2618451 -23.206062
20.37085 15.977923 -23.31246
20.413036 7.2661457 -23.228584
20.033813 2.5166879 -23.195032
20.802031 11.855973 -23.47979
20.03652 1.6248293 -23.367846
21.222462 7.2700415 -23.194061
20.397211 6.653852 -23.256582
21.040985 2.0811369 -23.483618
20.105789 8.1740541 -23.459019
20.50029 13.82222 -23.541151
20.59543 8.8441725 -23.461229
20.022356 0.72480351 -23.600073
20.301487 9.4816523 -23.459084
19.70648 15.126527 -23.150822
19.926369 15.152861 -23.131954
20.839647 -0.31682315 -23.212004
20.72006 2.1277225 -23.504847
20.625256 15.044888 -23.131741
20.112644 4.1418581 -23.471905
19.93387 15.093826 -23.241655
21.381287 13.807559 -23.543983
20.301775 7.5253372 -23.160418
19.972771 1.9279941 -23.355762
19.802071 7.3969402 -23.288683
21.620678 7.6653538 -23.12788
20.29801 2.5866888 -23.297497
19.93861 0.35416993 -23.622864
20.143379 0.022549409 -23.320604
15.8419 16.291418 -23.382153
20.088402 2.4700747 -23.205475
20.003281 14.271646 -23.298677
20.610027 13.885159 -23.461084
20.403358 13.882616 -23.437132
20.518896 13.880996 -23.438269
21.203741 2.4699385 -23.553524
21.408133 8.1428146 -23.567202
19.766615 3.6350067 -23.586466
20.506611 2.4673886 -23.261566
20.044998 0.02946577 -23.326311
20.822422 11.610791 -23.452841
20.116661 2.0293934 -23.519339
20.256437 11.160843 -23.497007
20.751329 5.8924084 -23.594236
20.613791 2.0296345 -23.517706
21.194687 1.9332886 -23.550819
20.406361 7.5855403 -23.210159
15.811385 16.67473 -23.333515
20.999231 4.3841367 -23.550667
20.509073 16.059536 -23.246315
20.244205 -0.93206507 -23.370274
20.498234 13.163033 -23.196945
20.012945 12.90416 -23.447783
20.804703 5.3167024 -23.134787
19.713863 7.7563925 -23.216345
20.234913 2.5350528 -23.258797
21.099924 1.9426402 -23.538479
20.36937 2.1993818 -23.341146
20.114216 2.2780197 -23.301292
20.42462 2.0875041 -23.423611
20.124525 0.12000921 -23.303196
20.299545 5.0282321 -23.265955
20.713333 5.5368848 -23.150414
20.507408 3.1253126 -23.296551
21.031525 3.5806196 -23.170881
20.615324 4.9317284 -23.562593
20.280836 7.6307173 -23.287792
20.032345 14.370848 -23.421919
21.220348 4.9834352 -23.595577
20.680914 0.62775111 -23.066038
20.79804 11.225108 -23.504488
19.933155 1.9009041 -23.484818
20.605179 7.3847737 -23.27342
20.89188 5.7039618 -23.529551
19.309427 16.235395 -23.2509
20.508783 1.925369 -23.270559
20.199717 16.236191 -23.189487
20.416763 5.0889893 -23.460533
20.718994 2.6528797 -23.50495
20.427097 14.375951 -23.39834
20.317097 2.5586345 -23.257963
20.514896 -0.94416994 -23.559496
20.014645 0.94546658 -23.524786
20.305136 0.37860519 -23.604717
20.211317 0.95382333 -23.527826
19.894279 14.327579 -23.271969
20.511087 14.371762 -23.404312
20.199699 14.91939 -23.417473
19.716518 16.526676 -23.154482
19.912003 14.073045 -23.431881
20.133362 6.4341793 -23.277504
20.320316 13.467382 -23.501989
21.481735 3.3588836 -23.56135
20.190016 7.6821547 -23.201653
20.402166 14.347041 -23.248898
20.731628 15.842395 -23.511814
19.962297 15.56381 -23.431273
20.338623 13.198879 -23.213837
20.503178 4.9954667 -23.466391
20.115086 3.3225179 -23.545065
20.315895 7.7886262 -23.257622
20.404884 0.47222519 -23.549194
21.073683 5.044189 -23.190601
20.475588 1.9675767 -23.309849
20.311119 3.4184959 -23.49975
19.416142 7.2739215 -23.327856
20.10886 0.19019344 -23.510208
19.768988 3.44438 -23.543125
20.805859 0.66429299 -23.587435
20.898479 2.9636519 -23.148195
18.814468 16.238918 -23.271761
21.283379 13.461607 -23.509573
19.977654 0.29209188 -23.205523
18.217278 7.4331379 -23.297123
20.212711 1.4474124 -23.476126
20.915274 -0.24779283 -23.182842
20.414686 2.9112163 -23.287832
20.007568 5.6468749 -23.207642
20.196739 12.981598 -23.423204
20.97142 0.11174073 -23.114885
20.80838 -0.22039863 -23.183456
20.723112 4.6488934 -23.163273
20.410408 5.4697847 -23.276569
20.52883 2.0489957 -23.57847
20.616022 7.0608864 -23.20944
18.822229 16.183615 -23.198124
20.6919 7.7871547 -23.237421
20.511002 8.0897131 -23.445738
20.822264 6.7645922 -23.52879
21.410137 7.6403074 -23.060654
20.218079 7.2238679 -23.169477
20.38283 16.494074 -23.095266
21.001177 2.87166 -23.082012
20.113083 13.029886 -23.451746
20.612354 -0.85842574 -23.229431
21.001524 5.3474002 -23.536539
20.911797 5.3761153 -23.541407
20.604244 3.4200315 -23.527746
20.711037 -0.56156862 -23.199728
20.80637 -0.62346202 -23.221432
20.902462 5.0446434 -23.544945
20.919088 12.635766 -23.50746
19.736786 3.2244186 -23.514095
20.622021 6.1069775 -23.55143
20.407211 -0.65821916 -23.523907
20.405649 3.1917698 -23.491156
21.107075 12.622322 -23.515799
20.708593 12.622849 -23.504673
20.70266 2.5498881 -23.208569
20.217583 -0.32924408 -23.28804
20.453705 13.804371 -23.544495
20.014223 12.805977 -23.456154
20.918175 4.203835 -23.184629
20.492733 2.5568702 -23.238735
20.423426 -0.54876649 -23.25382
20.877972 -0.54026198 -23.192989
19.317617 7.4238219 -23.248491
20.886091 3.169183 -23.197145
20.615639 -0.32353377 -23.235075
20.791676 5.0346961 -23.547373
20.989574 11.001329 -23.497519
20.61899 8.7848978 -23.401821
20.513205 5.2715664 -23.554279
20.131369 14.179657 -23.39608
20.516445 7.7565207 -23.127581
20.965359 7.5880804 -23.118553
20.41293 3.2312851 -23.432404
20.403307 3.1534593 -23.457125
20.842428 3.5666797 -23.162285
20.418751 3.1283896 -23.296928
20.740122 3.4049702 -23.168362
20.436047 2.7534153 -23.187681
20.495144 2.7349451 -23.194397
20.866665 2.7444112 -23.131701
20.473629 7.5551848 -23.316507
20.09387 5.3554463 -23.519928
20.410234 0.95391148 -23.520376
17.833851 16.619667 -23.202812
20.406593 3.6059241 -23.478769
21.120937 3.6861329 -23.164965
20.924309 11.012276 -23.499559
21.782465 1.3658799 -23.722469
21.537498 9.8966703 -23.592356
20.718151 3.9483843 -23.176371
20.916729 3.8780439 -23.143579
20.717627 3.8225851 -23.16448
20.937761 3.7825735 -23.145588
20.404705 2.1154628 -23.200989
20.827374 2.1061172 -23.202229
20.639341 2.1132448 -23.181746
20.842621 2.0003502 -23.202971
20.89134 1.7792145 -23.157906
20.616173 -0.67274731 -23.203529
20.316898 5.7025194 -23.449562
20.506588 13.597778 -23.526731
20.309605 -0.0017980952 -23.536404
20.618998 2.79583 -23.554247
20.523016 15.843545 -23.515066
20.614908 2.9445281 -23.172825
20.318653 -0.80156046 -23.469202
20.909775 0.00087116251 -23.173557
20.804312 4.1182814 -23.160007
20.82856 2.508884 -23.147413
20.926205 1.7349782 -23.134323
20.814133 6.0233021 -23.561518
16.875593 7.5306745 -23.463934
20.704817 3.579788 -23.170923
20.523373 6.5547867 -23.558079
20.140614 3.9531207 -23.24197
20.516195 10.238406 -23.447554
20.795319 6.5436869 -23.562941
20.419308 1.1712234 -23.521749
21.099138 3.4938774 -23.148806
20.806751 4.3419228 -23.167044
20.405628 14.873145 -23.485928
20.891577 6.5733404 -23.55488
21.015078 3.2062166 -23.561857
20.301723 2.6437783 -23.225586
20.314255 2.8714621 -23.503141
21.069954 4.5896668 -23.196667
20.507668 8.2196541 -23.464888
20.596115 4.5929136 -23.197083
20.50753 3.0894456 -23.230751
20.306067 -0.34410921 -23.521118
21.026926 3.5288887 -23.172455
20.508745 11.092935 -23.438875
20.691853 3.4180534 -23.143181
20.504862 -0.55863595 -23.230961
20.722647 -0.59548253 -23.17425
20.71315 10.586438 -23.514355
19.978559 13.071797 -23.330427
20.607685 15.497634 -23.466982
20.500687 3.693917 -23.458735
20.006018 14.805848 -23.140909
20.543453 7.8817725 -23.192282
20.720081 5.6640759 -23.196045
20.803125 5.6525636 -23.160717
20.603649 5.5342345 -23.175444
20.685055 4.4059529 -23.166697
20.717787 4.1178799 -23.175726
20.587276 2.8502779 -23.203304
20.614218 2.6415873 -23.194958
20.412796 10.246169 -23.447699
21.13846 4.6842895 -23.146988
20.790253 4.9044814 -23.174517
20.645201 4.7991433 -23.199928
20.528131 4.5928125 -23.203821
20.882481 4.6117711 -23.154459
20.688606 -0.0076016388 -23.223034
20.305155 2.0303175 -23.514593
20.40877 5.313108 -23.471216
19.830517 3.5490122 -23.525761
20.810795 5.7520409 -23.134113
20.619232 5.7430615 -23.169836
20.688972 5.7062397 -23.172377
20.736828 5.6309137 -23.121679
20.49696 5.585248 -23.138039
20.873486 5.5753932 -23.113049
20.903406 5.4956884 -23.132053
20.498671 5.487607 -23.173748
20.72224 5.4155846 -23.129425
20.734631 5.3643727 -23.133465
20.427959 4.2237401 -23.162106
20.594175 4.1509943 -23.162167
20.417377 4.1155705 -23.18565
20.869579 3.9579141 -23.156185
20.619762 3.9346085 -23.154905
20.413473 2.5535626 -23.249552
20.609856 -0.98185617 -23.210651
20.502588 4.9070549 -23.198826
20.769531 4.5575261 -23.188803
20.131706 11.607346 -23.433355
20.49527 5.0935779 -23.455719
20.629629 5.6330457 -23.176476
20.812868 5.5275507 -23.236403
20.611826 3.861587 -23.233547
20.33749 2.8560405 -23.234959
20.887173 2.0934701 -23.20116
20.522881 2.1160254 -23.20594
20.219557 4.3370647 -23.200989
20.340519 5.7196116 -23.205084
20.478306 5.6357002 -23.201273
20.402779 5.5582995 -23.253605
20.619421 5.4216342 -23.191902
20.80459 5.3315439 -23.202826
20.53488 3.9372139 -23.207674
20.521645 3.872148 -23.245192
20.320377 5.4771209 -23.242695
20.721666 5.4453678 -23.262266
20.517788 5.4061694 -23.212605
20.34992 5.2745466 -23.20672
20.485174 5.2130594 -23.208204
20.294008 3.5113087 -23.221365
20.223015 0.21575199 -23.297781
20.521061 -0.32297578 -23.246124
20.215063 2.327708 -23.512344
20.305939 3.9633064 -23.500559
20.97097 3.9716561 -23.20318
20.787296 -0.026753196 -23.230667
20.402704 6.6806622 -23.543324
20.407064 6.3155322 -23.267956
20.930267 5.3030763 -23.224293
20.611038 5.2479992 -23.227394
20.705942 4.6905613 -23.234512
20.355843 4.6362948 -23.223419
20.730179 4.4852681 -23.213408
20.787033 4.4640255 -23.215544
20.401218 4.5759997 -23.22982
20.260017 3.4019878 -23.252855
20.199923 11.587193 -23.428625
20.311357 3.6030216 -23.4806
21.090767 0.35044482 -23.598021
20.369762 8.1432886 -23.242847
20.727245 5.2980704 -23.236814
20.915356 5.272027 -23.212826
20.622988 3.0855772 -23.242701
20.499271 14.559039 -23.491508
20.214375 -0.76157254 -23.53702
20.217106 2.2203693 -23.4895
20.224512 3.6673334 -23.537643
20.530672 6.5104928 -23.210852
20.562513 6.369853 -23.180861
20.40958 6.1801486 -23.244884
20.582293 5.3465009 -23.225557
20.934889 5.3878145 -23.176895
20.605282 4.4888916 -23.238762
20.307743 0.21790832 -23.287916
20.600178 -0.11371783 -23.26767
20.517353 -0.10827041 -23.271082
20.225306 3.7317386 -23.49493
20.306812 5.2162127 -23.478159
20.397476 16.384161 -23.056122
20.827974 7.3300891 -23.092894
19.594063 7.1961651 -23.214033
20.790064 5.5450244 -23.158659
20.818214 5.4268203 -23.177166
20.44606 5.3112769 -23.174076
20.6996 5.2572718 -23.160019
20.609806 5.1863856 -23.174891
20.895279 4.8655043 -23.164961
