# .PCD v0.7 - Point Cloud Data file format
VERSION 0.7
FIELDS x y z
SIZE 4 4 4
TYPE F F F
COUNT 1 1 1
WIDTH 1613
HEIGHT 1
VIEWPOINT 0 0 0 1 0 0 0
POINTS 1613
DATA ascii
30.055986 15.30998 32.890106
29.847235 15.466269 32.804081
30.534452 21.756582 32.8265
30.569036 20.963667 32.538822
29.876177 19.274576 32.712959
30.898558 19.04159 32.878704
30.366537 19.084087 32.936737
30.576336 14.570251 32.874126
30.085403 19.088367 32.643448
30.612053 21.303545 32.953014
30.517759 21.598413 32.929062
30.236736 20.534966 32.798992
30.974775 21.795012 32.945599
30.708523 18.65074 33.053764
30.412724 17.392693 32.776489
30.515478 21.87645 32.703793
30.601368 21.594389 32.941017
30.415947 19.921013 32.830029
30.383678 19.309372 32.803036
29.986076 19.291573 32.672138
30.491894 18.619881 32.78347
31.087538 20.275602 32.857994
30.589041 15.050305 32.956841
31.09704 21.391453 33.124378
30.506281 20.060181 32.731125
30.013073 19.443499 32.6478
30.404573 20.736185 32.831268
31.096956 20.98945 33.117352
30.0404 16.74408 32.835587
29.946085 18.657562 32.805592
30.997698 18.247566 33.149223
30.59761 19.665993 32.985477
30.868866 21.657276 32.900852
30.768364 21.520412 32.90807
31.27202 19.5243 32.889267
30.595331 21.091261 32.71294
30.807091 18.16028 33.067642
30.603601 21.202749 32.924435
30.99785 21.934528 33.030693
30.914394 21.429205 32.861084
31.20521 20.988611 33.156181
30.898758 19.6737 33.086681
30.601618 21.871571 32.733429
30.505362 20.400951 32.933266
31.002769 19.976604 33.120453
30.185776 21.862835 32.615955
30.165382 21.342646 32.626724
30.810671 22.020546 32.971695
30.295073 21.641844 32.771854
30.602537 18.503616 32.875946
31.015369 19.681595 32.862923
31.094538 14.488605 33.272766
31.070202 17.977953 33.086475
30.716587 14.896372 32.923302
30.288376 21.063715 32.635899
30.629662 19.025558 32.883774
30.663616 16.4305 32.847775
29.836372 20.836027 32.631821
30.053244 17.913921 32.645851
30.611809 21.405031 32.910652
30.716984 19.428051 32.822971
29.706221 15.652011 32.695389
31.048443 21.796568 33.015312
30.409672 20.033026 32.748222
30.610401 18.104425 32.837135
31.087826 18.643974 33.180378
30.80504 17.403204 33.147068
31.196608 21.730675 32.824505
31.026766 21.577839 32.865517
30.807734 15.883423 32.946857
31.191967 21.209393 33.133068
31.012545 18.949213 32.898911
30.902941 19.579428 33.072838
30.706665 18.135994 33.073132
31.005596 19.260904 32.887905
30.243919 21.512636 32.552662
30.807903 15.575741 32.95895
30.50658 17.649153 32.813698
30.609262 20.447691 32.753902
30.602301 20.549217 32.78196
31.008057 14.903716 33.022072
30.425835 15.886136 32.839573
29.970625 20.955305 32.640434
30.327593 15.05945 32.82679
30.390612 14.769279 32.851677
30.400553 16.1238 33.0144
30.710651 21.720371 32.948353
30.622475 15.48952 32.89526
31.206451 21.410027 33.119663
29.851851 19.802809 32.613384
30.385073 18.819338 32.760387
30.182266 20.23181 32.77021
30.507002 16.427479 32.957962
29.915016 15.082582 32.752262
30.055555 20.420576 32.769581
30.401028 15.458689 32.839775
31.107386 19.034269 33.202488
30.820492 21.028728 32.971619
30.401972 16.088636 32.807079
30.712208 18.242908 33.043671
30.646069 21.709238 32.854244
30.715696 21.030861 32.933056
30.297623 20.161242 32.882294
31.006121 20.367744 32.852982
31.20249 21.373898 33.146942
30.513781 14.770515 32.879047
30.989498 20.621527 32.931721
30.431259 16.314703 32.793011
30.814552 19.754692 33.070236
30.505615 20.896566 32.910789
30.108862 17.312948 32.852554
31.08392 19.143085 32.897175
29.917326 16.924309 32.70364
30.201065 17.514706 32.837551
31.114292 21.382561 32.845055
30.415819 18.98563 32.90691
31.102865 20.066845 32.889446
30.71895 15.675804 32.935154
31.039598 19.073221 32.853764
29.683624 16.880741 32.613571
30.545237 14.430617 32.994553
30.083143 17.515549 32.689262
30.094704 15.103749 32.806053
30.614147 15.074254 32.912296
30.714355 19.487333 32.993565
30.317417 16.566874 32.811741
30.314661 15.843009 32.87886
31.073536 21.551237 32.858006
30.721708 15.909893 32.873379
31.094921 15.654387 33.189194
30.990849 20.829773 33.047638
30.378992 20.591125 32.664356
30.3699 17.67477 32.846107
29.806864 15.75453 32.678104
30.91045 21.584587 33.036148
30.182791 17.546021 32.823631
30.610826 17.403339 32.844368
30.810879 21.606976 33.009926
30.518551 21.922848 32.864838
31.09746 15.894528 33.037025
30.789137 17.774672 33.03075
30.309624 20.228155 32.695789
30.163984 19.514191 32.853889
30.805611 17.841198 32.867447
30.517916 16.295448 32.824726
30.510485 21.271217 32.701962
31.385351 21.254047 33.256039
30.902704 19.459133 32.849365
31.090998 20.911108 33.10265
31.039915 14.779499 32.985317
30.807755 19.024492 33.107178
30.711422 15.273997 32.936672
30.899406 15.365477 32.996201
30.33884 15.719944 32.795677
29.956877 18.430883 32.723259
30.295382 20.583685 32.625488
30.801418 18.228569 32.875679
30.517939 21.092834 32.687817
30.310472 20.068245 32.860573
30.607815 19.648216 32.777588
30.282194 19.902828 32.793041
30.214294 18.215548 32.920891
30.714661 14.851626 33.10717
31.096228 17.23053 33.212292
30.203501 16.189047 32.948235
30.719917 21.585962 32.974613
30.379475 21.981993 32.646069
30.621889 16.388496 32.875572
30.995996 21.187206 32.834332
30.918629 19.671242 32.829388
30.305983 20.049786 32.709637
30.705177 16.481909 32.906452
30.810028 16.551311 32.950035
30.020761 20.573273 32.781208
30.523331 21.355745 32.757881
30.700134 16.302412 32.898579
29.942669 16.749472 32.720554
30.405342 16.889641 32.871246
30.896799 18.914282 32.895458
30.423553 17.512861 32.7812
30.404009 15.138369 32.856258
30.437157 19.636248 32.920406
30.811457 17.53558 33.118275
30.992382 15.07338 33.023109
30.072729 18.099012 32.799004
30.797901 18.884081 32.823586
30.304686 17.631369 32.816135
30.333494 21.565016 32.633434
30.138937 18.219072 32.663403
30.324512 21.535868 32.789364
30.98263 16.082735 32.992611
29.934801 18.967484 32.786533
30.609909 15.979762 32.897694
30.018803 18.119736 32.69545
30.173109 18.802954 32.778217
30.716993 18.85968 32.793465
30.4039 17.836092 33.009594
30.803705 19.764748 32.814636
30.90023 16.813833 32.933506
30.996632 18.236319 33.196095
30.507252 19.845837 32.744495
30.804167 20.626354 32.914948
30.422422 20.128889 32.811466
30.914352 16.538639 33.139378
30.203951 18.019243 32.709576
30.397945 18.523285 32.769547
31.401733 15.509605 33.252876
30.708315 15.161177 32.947983
30.612846 14.681321 32.916412
30.808481 20.578411 32.799561
30.518532 20.789488 32.953465
30.806007 20.81518 32.991272
30.676281 18.82045 32.967743
30.593344 20.824291 32.913815
30.40192 21.182037 32.654922
30.27413 20.088865 32.719749
30.00592 15.982622 32.754196
30.334576 21.284487 32.843536
30.114189 16.267065 32.76762
31.295181 19.745777 33.230244
30.305706 17.005116 32.797356
30.160822 17.955421 32.750435
30.524851 20.836264 32.899696
30.420959 18.417099 32.975834
31.368689 21.182558 33.21944
30.420109 21.585472 32.683186
29.91548 17.275261 32.819016
29.926512 18.712854 32.664104
30.710983 17.022741 32.861462
30.226555 19.670048 32.890778
30.723568 18.438694 33.085979
29.973524 20.496202 32.59404
30.146839 17.607349 32.930237
30.68972 21.265215 32.762314
30.436247 18.913788 32.778534
31.096006 18.21615 33.234509
30.510717 14.687171 32.888649
30.611626 18.028128 32.822586
30.302567 17.075504 32.91869
30.326605 18.18364 32.881683
30.618362 21.024036 32.901432
29.992233 18.623146 32.682846
30.90844 14.411975 33.050995
30.626181 18.974895 32.98061
30.793787 20.241604 32.824902
30.189405 20.157032 32.653053
30.810421 18.886312 33.017696
30.295879 20.383282 32.866177
30.813643 18.323641 32.882214
30.709618 16.901423 32.892784
30.823492 15.407321 32.944347
30.193327 18.195625 32.865807
30.625393 17.072031 32.878403
30.89456 14.378946 33.003563
30.223793 16.456287 32.782661
30.400021 17.30932 32.812866
30.608772 15.872265 32.887413
30.57972 18.887289 32.77021
30.52482 15.793622 32.859146
30.99164 19.937128 32.892296
31.1577 21.446901 33.159676
30.813341 18.779055 32.808395
30.523537 20.579977 32.717632
30.503763 17.490385 32.812256
30.276155 18.527094 32.779232
31.008905 21.5042 33.066185
31.08098 18.159182 32.940323
30.220314 19.950207 32.669167
30.925291 21.462261 33.088173
30.130943 21.913809 32.764111
30.717587 18.021599 32.862419
30.542784 18.974995 32.929516
30.93528 21.671043 33.066994
30.195871 16.725569 32.917706
30.899845 16.184713 32.964596
31.094931 15.348768 33.062969
30.525114 20.221628 32.737656
30.621302 18.414047 32.844334
30.510117 19.654778 32.959656
30.317604 16.084448 32.802319
30.342806 15.740868 32.863182
30.520437 16.780846 32.843948
30.907381 15.397148 32.964039
30.366543 17.379328 32.850937
30.19412 21.520218 32.798088
30.40486 17.631201 32.767906
30.473478 18.104269 32.808403
31.408791 21.438519 33.25206
30.179001 18.890186 32.717239
29.920244 15.9952 32.782196
30.620083 18.889744 32.960659
30.425507 15.290722 33.041172
30.329861 19.493383 32.840733
30.515331 19.258669 32.804733
30.707975 19.246767 32.816452
30.803003 19.646166 32.838276
30.707424 17.414644 32.86903
31.105816 21.672873 33.117378
30.714994 17.373873 32.91246
30.619427 17.925282 32.822372
30.522934 21.957123 32.77459
30.70528 20.556538 32.811039
30.896236 19.979307 32.824875
30.906487 18.948997 32.875008
30.521864 15.970667 32.87418
31.099415 16.43383 32.883324
30.502266 21.120211 32.877247
30.62014 20.71113 32.703381
30.565445 16.357885 32.90131
30.710409 20.90596 32.964008
30.52084 17.325468 33.059273
30.316013 17.420555 32.890499
30.602699 21.839748 32.875378
31.216612 19.67314 33.19582
30.205437 15.166017 32.96022
30.89706 21.800701 32.769875
30.136658 19.047632 32.834454
30.809767 15.378267 32.970337
30.515131 20.96907 32.70126
30.725948 17.532505 33.078865
30.707256 14.76195 32.953487
30.452734 20.492868 32.617714
30.109797 17.47389 32.872559
31.269909 17.416359 32.999771
30.701818 18.543697 33.038208
30.341455 14.362162 32.828068
30.722206 20.248354 32.810524
30.902227 14.347557 33.029583
30.423496 20.458342 32.70694
31.013443 21.609398 32.811378
30.423658 18.212427 32.764339
30.399353 18.389902 32.941277
30.3027 14.744965 32.820698
30.714539 19.761002 32.798634
30.715343 17.293535 32.8881
30.525145 18.368683 32.960503
30.340742 17.331797 32.986042
30.810322 14.586876 33.210251
30.807796 17.509584 32.901901
29.926355 16.340466 32.706635
30.198576 17.516172 32.716415
30.709507 20.820747 32.825142
31.102795 20.081707 32.822006
31.00905 20.559155 32.891457
31.076981 21.860113 32.912968
30.389851 21.593294 32.892178
31.02244 17.10277 33.222183
30.898239 20.54435 32.88747
30.406214 15.369325 32.826756
30.496557 18.86047 32.713535
30.978424 15.451979 32.928368
30.704906 19.855808 32.798008
30.613541 22.019949 32.902435
30.902746 18.440592 32.886528
30.74958 17.539228 32.843292
31.017235 14.858145 33.045879
30.607912 17.505079 32.844753
30.922321 20.21438 33.028873
30.105892 17.843504 32.797459
31.024067 19.366413 32.866428
29.430283 16.962885 32.569717
30.511135 15.881597 32.853035
30.496258 17.453022 32.986282
30.039686 19.915522 32.763386
30.936098 21.779024 32.967609
30.702965 18.438391 32.837612
30.723425 16.782974 32.910419
30.715015 15.972013 32.927326
30.59429 18.449068 33.035473
30.509159 18.146463 33.026646
30.804031 15.06758 32.970974
30.388666 21.760038 32.65369
30.608891 15.418864 32.853146
30.60743 20.161009 32.757027
30.005053 20.315464 32.728325
30.900843 19.34524 32.87291
30.711788 20.805147 32.955738
30.594786 17.308386 32.85339
30.304226 21.188635 32.628353
30.71225 19.670263 33.025513
30.299664 21.619398 32.710968
30.519899 21.02903 32.844471
30.513279 19.769779 32.740547
30.24914 16.54472 32.864334
30.903326 21.563047 32.826622
30.230057 20.552443 32.676311
30.514587 20.546001 32.744614
31.068508 20.179977 32.844955
31.005461 17.743303 33.168476
30.716684 17.507252 32.878242
30.381142 14.909599 32.83712
30.295504 20.550175 32.691284
30.502316 14.376842 32.868778
30.199379 14.964622 32.809422
30.228256 21.560869 32.612953
30.303532 18.823914 32.730816
30.216337 20.938917 32.719814
30.287848 18.629375 32.722565
30.389601 16.045532 32.999771
30.907728 17.636106 32.914917
30.577297 16.62899 32.93932
30.383858 20.231792 32.636692
30.711224 16.692863 32.898586
30.49778 21.892128 32.919498
30.4041 21.543888 32.84481
30.784424 20.32679 32.881851
30.941114 22.009432 33.081432
31.119991 16.303091 32.919399
30.998213 21.524622 33.000786
30.911518 18.890369 33.05386
30.516369 19.376413 32.917145
30.90539 21.393261 32.799141
31.007948 21.99128 32.809082
30.996712 22.016478 32.753292
30.412659 18.616806 32.768768
30.118662 17.994715 32.774658
30.494982 16.56917 32.88657
30.440886 21.393402 32.652878
29.928738 19.317045 32.663448
30.381021 15.385358 32.79866
30.827648 19.668846 32.806976
29.813894 15.54602 32.727131
30.60589 16.598541 32.866322
30.383141 21.885296 32.668804
30.805515 21.773115 32.773075
30.147652 16.565849 32.75296
31.02527 16.596962 32.981606
30.896343 19.373453 32.830082
30.808218 16.971905 33.064938
30.203617 19.264845 32.663017
30.904375 20.453798 32.844181
30.417906 19.347101 32.740017
30.40803 19.950512 32.720104
30.808754 18.021145 32.884232
30.802322 19.345812 32.843121
30.911055 20.720995 32.992233
30.64728 19.871941 32.731255
30.801458 18.063246 32.850552
30.981678 18.609623 32.922283
30.421751 19.394489 32.698814
30.613964 18.624998 32.816383
30.907997 19.762676 32.843369
31.104282 15.198625 33.043274
30.520813 17.406796 32.805866
31.001623 18.739605 32.90834
30.615805 20.573961 32.737156
30.510979 15.124756 32.81292
30.430014 22.058969 32.808537
30.291576 21.713251 32.754711
29.977602 19.702654 32.724941
30.70079 14.19727 33.011139
30.314756 20.715355 32.790985
30.821293 20.727341 32.976463
30.331192 19.258768 32.694801
30.194891 19.711111 32.819511
30.318855 19.593409 32.865974
31.0821 21.17886 32.856266
30.619135 16.216957 32.849152
30.812988 19.376434 32.801674
30.282513 16.81525 32.966965
29.834564 18.986275 32.766499
30.827797 16.214483 32.906975
31.057507 19.406612 33.098095
30.403702 18.10899 32.768402
29.852934 19.702007 32.658043
30.436811 18.402781 32.769733
30.70286 18.223839 32.846016
30.7967 15.158615 32.972622
30.803087 16.520985 32.910393
30.808258 14.975112 32.970562
30.613638 18.227964 32.821022
30.191175 21.489561 32.637592
30.305119 19.091562 32.840694
30.492464 22.259033 32.769997
31.006767 16.470015 32.913147
30.311962 18.210606 32.722168
31.006588 15.677099 33.013432
30.709375 16.186586 32.912792
30.528467 21.412722 32.948208
30.510479 19.463589 32.726044
31.096758 22.175179 33.113102
30.19091 18.109703 32.719631
30.31286 17.561941 32.956711
30.603354 17.521828 33.053471
30.382254 17.881126 32.930378
30.909147 21.845407 32.985371
30.35471 18.135811 32.733379
30.524195 18.21081 32.804546
30.396101 21.82041 32.872513
30.616699 16.9422 33.050575
30.802402 17.924101 32.881756
30.901793 17.928406 32.913845
29.916916 19.217621 32.6371
29.911396 18.145767 32.732521
30.392578 14.696753 32.823212
31.204687 15.150712 33.165787
30.334963 17.943396 32.943756
30.519094 18.171419 32.972546
30.612518 21.057663 32.767437
31.091337 21.601439 33.104912
30.703751 21.081324 32.998623
30.290337 15.918795 32.974308
30.50473 20.128471 32.987995
30.17182 18.511538 32.740501
30.343712 17.499897 32.790272
30.338387 17.420731 32.760551
30.798784 18.623699 32.873501
30.632603 18.174704 33.009495
30.608387 18.533201 32.810158
30.532907 18.74781 33.021622
30.053923 18.598032 32.823208
30.46196 20.691648 32.846935
30.89393 20.918592 32.874321
30.142767 19.953016 32.645145
30.230768 19.119688 32.770386
30.253284 20.80098 32.848846
29.952423 20.249535 32.701481
30.447704 18.17477 32.945885
30.392529 16.424057 32.965832
30.708509 15.367061 32.937145
30.867182 21.939716 32.880833
29.778484 20.209457 32.652927
30.994162 17.402344 32.958241
30.898846 14.557824 33.016769
30.903404 21.475605 32.803905
30.344164 17.930826 32.756268
29.829273 19.663406 32.465775
31.007219 21.479977 33.114182
30.897137 21.374884 33.060188
31.302902 19.862568 33.251801
30.067589 21.462467 32.644131
30.905621 15.613656 33.198627
31.023817 21.992123 33.09594
30.77449 21.448021 33.023628
30.697655 19.390648 32.970566
31.015093 21.382288 33.096268
31.303286 20.686438 33.24477
30.606739 18.128448 33.050083
30.108845 19.120913 32.739368
30.910551 18.741661 32.8843
30.511484 20.661034 32.972931
30.600327 19.765137 32.760025
30.49268 21.500374 32.953465
29.974068 17.47356 32.684559
30.712925 14.555384 32.955624
30.430014 15.976669 32.939529
30.706835 21.986357 32.742008
30.80229 18.43198 33.11747
30.807482 20.612926 32.999504
30.440903 20.617254 32.8311
30.901287 17.028002 32.907928
30.776854 16.938393 32.85125
31.298611 15.905555 33.09726
30.518225 19.564266 33.000839
30.257841 18.349257 32.809879
30.286314 19.771782 32.679535
30.88504 16.688028 32.946129
29.993 19.01433 32.740231
30.199017 19.016428 32.863785
30.35367 20.461397 32.852207
30.234713 18.408318 32.83934
31.032335 18.810377 32.856739
30.295385 18.98102 32.898228
31.091642 15.675178 33.262199
31.111982 20.144886 33.189098
30.131067 18.538576 32.652393
30.107376 15.59468 32.814037
30.514618 22.074633 32.677139
30.926821 19.632486 33.16087
31.091696 19.557241 32.994019
30.179459 19.99445 32.748184
30.891747 16.594038 32.950417
30.187607 17.222475 32.914421
30.987236 17.369261 33.146206
30.528864 19.886669 32.947414
29.774654 19.30953 32.545643
30.708431 18.320084 32.851562
30.889486 18.612297 32.89666
30.705145 18.622271 32.845238
30.808098 21.841286 32.941738
30.702002 18.393763 32.854565
31.011436 19.160648 32.881718
30.880329 20.633835 32.945824
30.80987 21.174316 32.792919
30.904854 16.887909 32.945499
29.980968 15.016636 32.872585
30.293253 19.148796 32.937794
30.797676 21.990982 32.759571
30.904219 16.005392 32.963837
30.236738 15.495598 32.995052
30.603558 19.06526 32.996681
30.200871 16.174896 32.768188
31.069838 22.066172 33.130173
31.103979 19.678638 32.875877
29.847534 17.497574 32.6464
30.513783 18.535082 32.782852
30.610619 21.488487 32.721687
31.162043 15.480474 33.024101
30.494177 20.842281 32.772419
31.020456 20.738089 33.04108
30.601969 20.061245 32.748695
30.810242 21.808668 32.986248
30.619789 14.396336 32.916431
30.601847 21.170872 32.724152
30.178604 22.012627 32.580063
31.010145 18.4202 32.961941
29.819126 15.909453 32.780476
29.941885 21.150978 32.615826
30.891827 18.225418 32.899334
30.324177 21.486122 32.65276
30.995918 19.857416 32.878956
30.897806 14.646485 33.019093
30.711712 14.645514 32.963127
30.633429 19.492468 32.804573
30.513346 14.644707 32.903549
31.15707 19.775911 32.85355
30.584318 19.34643 32.725296
31.010811 18.435495 33.183174
31.099634 18.132336 33.205215
30.622021 21.466331 32.843975
30.12525 16.426331 32.841236
30.707834 14.978653 32.942352
30.513729 16.197487 32.795704
30.418966 17.446424 33.062794
30.75602 19.368738 32.786091
30.61154 19.94055 32.7794
31.308422 20.310062 32.868973
30.288975 19.437761 32.705818
30.299694 15.020564 32.99575
30.497095 21.481947 32.694046
30.323687 19.979284 32.702702
30.446524 21.684643 32.672787
31.289232 19.783756 32.894043
30.70557 14.254497 32.962898
31.098103 15.999804 33.018982
31.098515 20.395462 33.117344
30.390356 21.470207 32.654446
30.208479 18.883394 32.825153
30.099625 18.884731 32.770359
31.001263 21.722359 33.047329
30.501137 18.015978 32.787888
30.625713 18.729649 32.808094
30.391912 16.39402 32.909363
30.404676 15.699069 32.821766
30.195892 18.703453 32.58559
30.884182 19.585936 32.80286
31.324093 15.672681 33.241829
30.811241 16.417721 32.885117
30.810989 17.029634 32.876335
30.533089 18.418829 32.815193
30.145147 15.384274 32.817223
30.698477 16.258299 32.918266
30.350698 15.353134 32.83094
30.034615 18.302826 32.662579
30.915445 16.513678 32.941536
30.701975 20.9541 32.862499
30.2194 15.35819 32.791752
31.009268 17.87306 33.137386
31.082449 17.886307 33.163956
30.901817 19.556107 32.853981
30.908531 21.685457 32.793461
30.81015 21.48234 32.782158
30.139099 15.511277 32.90324
30.904224 14.682494 33.003319
30.031239 14.857408 32.844433
30.901138 17.410254 32.923615
30.32336 18.105511 32.738602
30.284414 17.393707 33.002918
29.924614 18.305952 32.623096
30.401031 18.256447 32.95002
30.590508 15.954697 33.050915
30.419336 15.495023 33.091187
31.010696 18.019724 32.955494
30.998161 21.299961 33.079735
30.566732 17.375212 33.07547
30.260918 15.062862 33.021126
30.995218 18.553965 33.136517
31.003839 19.471304 32.878357
30.518179 18.326099 32.792545
30.852526 19.824026 32.777023
31.358013 21.419142 33.248543
30.465698 14.850008 32.833717
31.005651 19.422142 32.904087
31.009129 22.204405 33.075455
31.182175 15.53953 33.086887
31.059429 21.841814 33.017948
30.312347 21.83613 32.750381
30.21483 16.079523 32.961338
30.397303 15.476337 32.82465
30.380877 21.356598 32.937756
30.101231 15.993396 32.760441
30.709209 21.402067 32.995846
31.126535 21.661158 32.799675
29.909546 17.897211 32.73772
31.000607 19.123756 32.919689
30.804596 21.621792 32.972466
30.447155 19.405714 32.857449
30.302999 14.510648 32.829697
30.810846 21.722044 32.981964
30.485975 19.310913 32.858662
30.30644 21.365433 32.625553
31.101393 15.399695 33.272141
30.600765 15.392478 33.109066
30.805038 17.805208 32.897343
30.176626 16.663548 32.859673
31.024385 20.756996 32.875919
30.809 21.374977 33.024048
30.338531 21.422623 32.895706
30.728905 17.794817 33.036983
30.615473 17.121429 32.853371
30.900883 18.676634 33.081638
30.10079 17.928339 32.666164
30.598389 21.369377 32.960236
30.302666 19.055143 32.916714
29.959425 18.91991 32.769077
31.371035 16.690723 33.340408
31.186441 18.255562 33.03828
30.414829 18.090544 32.920666
30.298822 15.39256 33.046997
30.319828 21.692888 32.610012
30.151909 19.016865 32.791962
30.594542 16.007912 32.850662
30.811939 19.502979 32.879116
30.18034 19.540493 32.728085
30.210495 16.023066 32.706951
30.709415 17.401379 33.11974
30.190022 20.103617 32.854111
31.019865 18.900152 33.217854
29.89319 20.417572 32.653397
29.987715 20.102013 32.761604
30.811939 16.548372 33.112774
30.296511 21.954231 32.759987
30.72113 19.503553 32.858105
30.204933 18.670307 32.837917
30.386902 17.588676 32.944492
29.896481 18.341394 32.700695
30.703793 19.986937 32.77956
30.511496 22.020241 32.9011
31.086971 15.486768 33.014381
30.530684 15.477561 32.861588
31.096283 15.951952 33.206673
31.35137 20.724672 33.288513
30.219837 18.346657 32.725285
30.499023 15.68351 32.861626
30.846159 17.514568 33.185165
30.425232 18.462435 32.943928
31.281786 19.684534 32.889229
29.853144 18.235575 32.618309
30.614105 15.670571 32.906105
30.612282 18.319067 32.822906
31.088604 18.322475 32.960503
30.411581 18.322241 32.760468
31.011656 17.503965 33.236561
30.221037 18.225544 32.691959
30.794046 14.930006 32.987587
30.13377 18.507786 32.737652
30.446766 19.767057 32.965637
30.882097 15.753485 32.998428
30.999983 18.226952 32.933887
29.882214 14.995509 32.841583
31.317947 17.90543 33.300938
30.27162 18.403576 32.946106
30.80377 19.46924 32.820786
30.908234 15.493064 33.226246
30.806248 14.322441 33.152702
30.624226 19.664537 32.732506
31.163183 16.001513 33.276855
31.196083 20.481653 33.165882
30.088533 15.015333 32.899006
30.528778 19.933197 32.880188
31.194548 17.508785 33.292358
30.914227 19.941814 33.15308
30.810139 20.667513 32.802555
31.019825 18.139805 32.933937
30.442324 19.264557 32.98418
30.895718 16.791592 32.95705
30.424339 18.731373 32.742043
30.504478 20.991814 32.945438
30.611837 15.782974 32.88475
30.469688 15.967224 32.99894
30.703953 17.106106 32.874668
29.835648 15.051163 32.733654
30.189718 15.046058 32.86969
30.510874 17.200411 32.825481
29.933018 19.403917 32.66296
30.698658 15.518475 33.106789
30.988152 15.08536 32.983158
30.295885 17.195173 32.755032
30.292345 20.678644 32.638714
30.704649 19.686562 32.770603
30.594765 21.810341 32.678127
30.706509 21.817772 32.711075
30.114058 21.592028 32.625175
31.103699 19.460417 32.903084
30.533848 21.820698 32.654922
30.719727 15.01062 32.984982
30.517481 17.400141 33.060947
30.293415 17.23774 32.936333
30.102728 20.824827 32.597145
29.999767 19.642992 32.662796
30.750191 15.833452 32.97818
30.40859 20.782305 32.900936
30.324068 20.769558 32.87484
30.575951 20.864824 32.969868
30.858698 19.487543 32.888069
30.892111 18.318996 32.904167
31.292767 15.334143 33.223972
30.528736 20.878836 32.70158
30.997528 20.671154 32.8624
30.718895 21.508064 32.962425
30.444239 22.146988 32.811489
30.710739 19.345722 32.813168
30.417326 20.106911 32.918224
30.89917 18.104362 32.923458
30.298616 18 32.715057
30.185886 20.182528 32.837791
30.986322 15.767842 33.023216
30.995523 21.904144 33.061131
30.180313 18.306644 32.778229
31.004642 19.280237 33.109776
31.120485 21.878901 33.098885
31.006287 21.635469 33.034481
31.203566 21.504225 33.148781
30.603615 14.980393 32.906746
29.947701 15.622437 32.764606
30.887575 18.513372 33.0322
29.87302 18.810776 32.678421
29.901182 20.767426 32.764969
31.103512 18.559328 33.183472
30.712488 22.100204 32.951019
30.990772 16.391321 32.993809
31.265553 21.327641 33.144958
30.891954 14.759369 33.007759
30.710482 14.665239 32.939598
30.611507 21.583481 32.74078
30.894377 19.106522 33.028038
30.531906 18.682241 32.961761
30.712694 15.980528 33.149273
30.90723 16.395153 32.959972
30.982141 21.810921 33.048805
30.99382 16.542353 33.161976
31.018381 18.920319 32.947792
31.221045 17.573709 33.210197
31.101618 21.640003 33.0634
31.014481 21.42226 32.90202
30.623243 21.131918 32.928333
30.019539 21.673553 32.597828
30.79694 20.951344 32.906898
30.70476 21.11779 32.955837
30.817421 21.681931 33.025055
30.901855 18.608395 33.072197
30.916828 21.229359 32.984093
30.479578 20.90575 32.950851
31.013681 19.296404 32.84631
30.898453 19.156748 33.101654
30.478706 14.787811 32.759304
30.505108 19.46665 32.984028
30.996389 20.087097 33.094269
30.712362 19.787546 32.996704
30.993374 18.982771 33.114929
30.550978 21.594877 32.883274
30.911839 18.406843 32.927402
30.816887 21.084253 33.033585
30.807495 21.208464 32.998379
31.003788 18.835611 32.911362
30.215042 19.428783 32.703201
30.813459 18.794163 32.980919
30.800758 16.02158 33.133957
30.807623 19.371096 33.052063
30.20089 17.762785 32.821972
30.885944 17.770948 33.065639
31.089264 21.086615 33.120968
30.810549 18.396494 32.888573
30.87664 17.262718 33.080017
30.520416 15.083019 32.891922
30.711491 14.62231 33.121231
30.90501 14.914989 33.187664
30.805721 15.994248 33.172077
30.806259 18.855204 33.07304
31.01091 18.601263 33.084728
31.005724 18.532038 32.91647
30.862257 19.309961 32.924217
31.084061 20.164474 32.899689
31.165674 15.246023 33.280899
30.418425 18.009687 32.769672
31.188383 19.309395 33.2258
30.708754 17.809065 32.865871
30.494041 19.236774 32.991161
30.606192 14.400074 33.094193
30.507965 20.044765 32.982819
31.001352 14.758724 33.043945
30.601122 14.345674 32.935356
30.414547 19.195324 32.972713
30.615685 19.248795 32.776363
30.515642 21.51029 32.855827
30.817858 19.022766 32.793468
30.82258 14.370824 33.226044
30.228811 19.356358 32.657898
30.507452 14.860566 33.114376
30.906694 18.129419 33.142963
30.813063 21.172045 33.065487
30.916145 15.996258 33.211456
30.5098 16.955063 33.034142
30.808033 16.81661 33.156441
31.175339 16.898905 33.251534
30.712887 19.917665 32.962902
30.945061 18.788424 32.8335
30.70908 18.458178 33.035664
30.510195 20.555885 32.878323
30.726465 20.336973 32.890034
30.812733 15.687606 33.175339
30.902372 15.342339 33.266411
31.288227 17.427814 33.318314
30.419767 16.940365 33.021946
30.9088 20.088305 33.063538
30.419676 21.00742 32.888416
30.071056 18.145864 32.675152
30.4403 15.190645 33.07251
31.178324 15.463341 33.293385
30.806368 16.490049 32.935463
30.19591 17.091509 32.766273
31.008278 15.089811 33.24818
30.992573 16.306068 32.983322
31.032692 18.794075 33.020966
30.70505 21.843716 32.920353
31.100258 20.484261 33.121181
30.905048 15.012496 33.201168
30.806688 16.302134 32.928112
30.799486 15.094831 33.185944
30.381477 21.550146 32.832024
30.351669 17.141388 32.759853
30.900822 18.43425 33.148235
30.709934 16.533886 33.0793
30.069324 14.818665 32.745289
30.721714 21.146397 32.846607
30.505888 17.262411 32.962067
30.052652 15.115573 32.951775
31.178793 15.801032 33.315147
30.513611 16.428825 33.052753
30.609446 15.296034 33.108803
30.892033 21.529272 32.964344
30.523266 21.444479 32.878654
30.800188 14.857209 32.979229
30.449648 21.63637 32.649307
30.59416 21.237894 32.852982
30.707403 18.684616 33.022903
30.111736 20.122564 32.696609
30.78989 15.958448 33.107712
30.933414 16.451921 33.116283
29.967644 15.477511 32.862484
29.930481 17.806784 32.720852
30.520172 17.103188 32.801826
29.878454 18.135567 32.64209
30.067482 20.436972 32.766899
30.999466 18.649122 32.902618
30.799263 21.656403 32.814682
30.905546 14.796473 33.213768
30.283386 18.373117 32.792809
30.702904 22.139351 32.913239
30.043324 17.595316 32.714611
30.891195 19.159756 32.845448
30.903938 21.119127 33.013512
31.196518 19.755009 33.212032
30.611937 18.278311 32.943542
30.596148 15.100299 33.125824
31.091337 15.333718 33.34547
30.565002 19.216236 33.004608
30.488989 17.204845 33.075939
30.811035 18.287067 33.023312
31.106411 19.964048 33.150826
30.538162 20.337423 33.065071
30.999186 14.797284 33.246807
29.982697 21.159212 32.52005
30.518763 15.091415 33.098652
30.504631 15.711666 33.086487
30.515499 20.621258 32.910107
30.611696 14.799992 33.135235
30.721848 14.786816 33.154263
30.716438 14.37896 32.937004
30.425335 15.859385 33.058735
30.261913 19.271778 32.803398
30.671122 18.484299 32.913021
30.595171 21.699287 32.972076
30.509136 14.818263 33.031574
30.906578 18.166462 33.0975
30.519709 14.94447 33.125412
30.518333 21.195894 32.908031
29.917213 14.815279 32.791237
30.426552 21.210142 32.858128
30.726912 14.887869 33.187996
30.278637 17.296146 32.905872
30.898188 16.37668 33.213642
30.711542 14.384234 33.204544
30.911392 18.346907 33.127064
30.714407 15.572487 32.932007
30.801254 14.397193 33.170559
30.7995 19.522188 33.066128
30.919678 21.170279 33.085941
30.909376 18.13949 32.898144
30.716478 19.877462 33.000343
30.625992 14.385097 33.166267
30.529758 19.751408 32.989277
30.904604 16.71966 33.171726
30.806152 16.329237 33.131016
30.806635 15.904871 33.156872
31.001846 15.890111 33.151516
30.990463 15.382413 33.01693
30.811668 21.416727 32.981461
31.099186 18.343338 33.18795
29.990345 19.933517 32.635525
30.897232 16.301641 33.202732
30.502617 19.346159 32.757607
31.002005 19.064955 33.12368
31.03508 17.686201 33.077919
31.110693 16.825592 33.251511
30.515745 15.911041 33.085739
30.708534 20.300886 32.975628
31.077524 18.584503 33.247875
30.948803 16.397848 33.081997
31.078648 15.279438 33.300354
30.906775 20.481745 33.06036
31.20507 17.408493 33.28793
30.809362 16.715464 33.138378
30.905329 16.337946 33.164303
31.084518 20.349419 33.161049
30.633533 19.433155 32.803249
30.796938 21.566359 32.794365
31.095095 16.72538 33.232624
31.092936 18.466032 33.166889
30.720579 15.789924 32.92025
31.090097 17.839817 33.213581
30.80257 19.432138 32.849876
31.090126 16.668816 33.106148
30.712009 17.274872 33.030289
30.913494 18.258171 33.114147
30.891651 17.51301 32.925297
30.806751 18.683186 32.893677
31.068201 20.425316 33.177402
30.710703 21.429016 32.955173
30.807066 14.885199 33.210075
31.351948 19.612156 33.293186
31.099163 15.088055 33.288502
30.516514 15.008877 33.057217
30.384693 21.652519 32.698318
31.231874 14.968862 33.321362
31.093061 16.415142 33.231606
30.709082 15.000593 33.128639
30.617336 18.950905 33.024845
31.291193 19.258135 33.244064
30.81307 18.950083 33.096569
30.384916 20.447279 32.839596
31.162714 17.518597 33.230183
30.7148 19.175894 32.802738
31.105324 18.435614 33.205193
30.903688 16.425112 33.17485
31.119078 21.211096 33.115986
31.311842 16.705193 33.31884
31.093243 18.943192 32.921913
30.794884 17.258493 33.067875
30.989609 21.223537 32.979256
29.943138 17.498081 32.654854
30.812635 18.133821 33.115967
31.190001 17.120859 33.284962
30.504982 20.485037 32.529243
30.708881 14.86166 32.951664
30.901592 19.755539 33.106689
30.894779 18.053051 32.869648
30.621767 18.653091 32.993912
31.094685 17.392321 33.240448
30.619041 16.42061 33.077408
31.00342 18.100664 32.961594
30.808296 19.882393 33.042477
31.007681 19.139963 33.205746
30.418133 17.264896 32.926537
30.510811 17.798763 32.805737
29.899113 15.065163 32.776428
30.705286 18.604 33.011906
30.605738 21.321966 32.907314
30.926056 21.019487 32.797806
30.429996 16.370657 32.739994
30.904425 19.493158 33.063717
30.62018 16.778645 32.878204
30.996933 17.590912 33.144428
30.803671 21.115768 32.986511
30.41152 19.800663 32.880985
30.996317 17.32793 32.94743
30.621742 22.1028 32.916367
30.623331 18.607761 32.939743
30.906376 18.55969 33.113235
30.618435 18.651867 33.039936
30.728281 14.986016 33.207382
30.525837 17.974855 32.900562
30.883739 18.683311 32.924549
30.743732 18.024977 32.812099
30.891956 18.531645 32.886585
30.797709 14.906025 33.147476
30.818008 18.644308 33.090267
31.001036 18.46545 33.131321
30.797184 14.986877 33.218674
30.735043 17.99402 32.953983
29.845781 15.150618 32.787743
30.506237 18.576435 32.891537
30.699736 14.824487 32.854034
30.405727 18.052053 32.714832
30.442841 20.06531 32.963562
30.810846 18.679867 33.051323
30.811256 18.469683 33.067131
31.341717 15.674226 33.369686
30.817259 17.185785 33.167675
30.507217 16.220997 33.006275
31.000486 16.629869 33.190662
31.160961 16.562704 33.220936
30.712749 16.591311 33.152424
30.999664 19.036951 32.903027
30.707012 18.890137 33.001713
31.003773 18.681509 33.116756
30.51503 18.02866 32.727913
30.907167 20.393557 33.056465
30.904882 20.156162 32.843712
30.54797 21.018755 32.596916
30.502193 16.83577 32.995159
30.995546 16.926548 33.188599
30.627352 18.699213 32.825359
30.807142 16.630531 33.130299
30.498545 16.523483 33.076973
31.000053 20.234598 32.889832
30.516787 16.557222 33.002922
30.500271 16.630754 33.023136
30.480331 16.81218 33.061253
30.902557 19.88451 33.071495
30.286385 16.039869 32.918064
30.530237 16.041998 33.037754
30.296553 19.974358 32.826008
30.506208 18.65814 33.006725
30.711956 19.999847 32.977741
30.714689 20.087639 32.997112
30.621889 18.55513 33.015419
30.79368 14.698874 33.169361
30.823198 14.753984 33.246826
30.799376 16.841206 33.107132
30.993879 16.840742 33.175739
30.460949 16.69305 32.967888
31.28759 19.183805 33.310349
30.908773 15.391164 33.217663
30.624647 17.88232 33.012905
30.492556 20.49225 32.95332
30.709156 20.218569 32.957634
30.712442 20.482098 33.000774
30.900261 20.000349 33.04549
30.518831 18.046452 33.023525
30.505381 17.875391 32.946125
30.720715 17.661415 32.897472
31.005955 17.922766 33.195965
30.81061 20.39035 33.017178
30.61174 20.484671 32.973461
30.620588 20.173798 32.922398
30.528008 19.786554 32.927052
31.01107 17.997339 33.218929
30.513557 14.564009 33.125076
30.370617 18.011154 32.93372
31.115467 14.713273 33.272457
30.607145 14.691759 33.112255
30.517164 17.551477 32.975311
30.798119 17.86869 33.064472
30.814758 20.474936 33.035088
30.802959 20.219387 32.988136
31.101837 15.823824 33.245739
30.622189 16.550968 33.047295
31.112484 16.647896 33.233356
30.796438 18.595839 33.027012
30.90402 20.235884 32.862194
30.615696 16.50559 33.090038
30.910582 19.231449 32.906132
31.107098 15.527259 33.257507
30.617012 15.526178 33.08847
30.884687 15.228109 33.019581
30.624161 20.347271 32.848701
31.005079 20.475632 33.101475
30.904629 20.292995 33.047028
30.99651 20.297228 33.076199
30.708273 16.936588 33.084732
30.605974 20.275284 32.990841
30.808796 18.556248 33.078705
30.575897 15.542106 32.806297
30.604206 18.710411 33.039688
31.210783 19.46258 33.205814
30.514275 18.262568 32.976418
30.311323 16.380386 33.037704
30.619207 20.906172 32.826851
31.047434 20.964293 33.016102
30.90674 21.035391 32.984768
30.696856 15.391673 33.157505
31.19478 15.398051 33.29752
30.717741 16.658922 33.157272
30.906372 20.842787 32.876415
30.654039 17.564449 32.803276
30.695744 17.860167 33.023922
31.211651 15.786961 33.158981
30.683228 15.952431 33.085732
30.899624 15.949971 33.150684
30.914616 16.020527 33.174088
31.004721 16.040125 33.203773
30.70463 15.45795 32.945301
30.727108 15.920506 33.128864
30.601965 17.562481 32.994823
30.513702 20.260635 32.97715
30.606035 20.860483 32.802647
31.037579 20.213919 33.062164
30.54188 15.561218 33.0107
31.042107 15.469101 33.043262
31.011364 15.649018 33.161259
30.830166 15.61182 33.107048
30.80109 18.112188 32.895
30.806589 15.426413 33.124996
30.908661 15.523175 33.186665
30.511623 17.009705 33.059219
30.526428 20.003323 32.915722
30.600613 17.779404 32.979755
30.909491 15.704999 32.965313
31.169333 15.952635 33.242352
30.714762 16.027874 33.097679
30.603001 15.728282 33.07338
30.511679 18.071173 32.943291
30.803921 20.829744 32.84684
30.499966 17.453907 32.740276
30.806313 16.930679 33.119514
30.652742 14.605646 33.10009
30.700788 21.798141 32.951591
30.998751 15.395207 33.248692
30.50717 15.491573 33.098675
30.516863 15.398143 33.100586
30.709091 14.705583 33.125553
30.499622 14.728639 33.073318
30.518452 15.182032 33.126175
30.604076 21.803213 32.936989
30.906878 21.712227 33.012123
30.804234 21.889048 32.998333
30.613033 20.297356 32.943378
30.80662 20.30267 33.008049
30.805878 15.516795 33.148479
30.963947 17.549757 32.928692
30.474901 17.459967 32.926239
30.614058 19.151516 33.006271
30.810946 17.931574 33.131779
30.43104 17.801588 32.954514
30.610769 18.368336 32.99482
30.406847 20.479132 32.910442
30.423082 15.49792 33.041771
30.519382 15.506384 33.061077
30.511013 15.230762 32.936916
30.973827 15.337146 33.16016
30.427963 17.054655 33.039772
30.418636 20.275827 32.938206
30.637688 17.478359 32.798889
30.591114 16.818846 33.081306
30.416546 16.553501 32.958351
30.907459 16.630663 33.157066
30.892567 14.605727 33.175995
30.894514 14.711525 33.197037
30.347467 14.506551 32.906746
31.378275 21.531441 33.257992
30.506615 21.802383 32.89463
30.797581 15.575888 33.20961
30.798317 19.206522 32.865559
30.42251 17.126398 32.786186
30.616098 15.565366 33.148685
30.399508 18.564928 32.905144
30.792324 14.611224 33.142742
30.313009 18.906822 32.856514
30.284224 15.524631 33.026772
30.318092 15.596269 33.069313
30.608767 20.775612 32.965752
30.407715 21.038412 32.833309
30.615055 18.454035 33.003967
30.905531 18.648624 33.125984
30.894846 16.937937 33.148518
30.617619 15.643435 33.06395
30.430832 21.025387 33.005909
30.844177 21.227509 32.763714
30.683235 15.55902 32.961956
30.685673 15.64927 33.07679
30.272291 18.710947 32.836422
30.61165 18.796495 32.942593
30.394314 20.670601 32.622437
30.720503 20.401028 32.991127
30.387955 16.874147 32.986996
30.611782 15.425218 33.048473
30.903702 15.304641 33.200741
30.505177 14.871688 32.897499
30.506079 18.568972 32.990433
30.711599 16.836157 33.072479
30.52076 15.300635 33.095501
30.512115 21.503304 32.920574
30.610624 15.480552 33.127254
30.487116 14.802526 33.088516
30.901464 21.502409 33.026756
30.521332 19.171171 33.000248
31.001043 19.700382 33.068958
30.607803 17.929438 33.073822
30.725121 17.918688 33.109829
30.497862 15.387959 32.784443
30.688459 15.409152 32.895569
30.499241 16.395912 32.764359
30.704987 21.871929 32.758301
30.404495 18.567783 32.986378
30.308798 17.553595 32.724533
30.262678 14.929338 32.870701
30.303234 18.010712 32.881023
30.446873 16.250996 32.993999
31.326399 21.515484 33.186367
30.533922 20.356993 32.850605
30.102468 15.363873 32.863876
30.8123 19.914091 32.98349
30.277409 16.732216 32.928009
30.386433 20.393101 32.847775
30.815905 15.252785 33.004421
30.403992 21.316488 32.825596
29.944843 20.230055 32.629093
30.917116 21.863653 32.848324
30.404175 20.833752 32.778591
30.432451 19.96867 32.891953
30.922127 19.700033 33.045227
30.423912 20.672445 32.873745
30.380108 18.793255 32.868767
30.73612 15.696825 32.915073
31.190996 19.887867 33.167969
30.972469 20.331089 32.958965
30.995251 15.57485 33.156914
30.528521 17.96104 32.973015
30.460392 15.514748 32.749893
30.606434 16.033283 33.065865
30.516029 21.086605 32.949348
30.315409 14.744382 32.948841
30.713993 15.429602 33.108341
30.289562 20.523153 32.798244
30.268623 17.756927 32.85709
30.093874 17.450186 32.79884
30.105988 17.551086 32.633533
30.426935 21.409878 32.837749
30.492739 20.008537 32.680943
30.308491 18.747334 32.745186
30.908236 20.762327 32.845062
30.601942 19.997042 32.943768
30.623785 18.073484 32.799313
30.905054 18.390366 33.083935
30.9986 21.819475 32.820213
31.086514 20.295479 33.103672
30.709869 16.638357 33.087669
30.72315 15.544848 33.175201
30.507959 15.572495 33.117085
30.405737 17.048756 32.952045
30.500393 16.597853 33.085587
30.510448 18.91094 32.904449
30.908916 19.651087 32.863655
30.554333 17.211559 32.956589
30.80817 17.320671 33.132858
30.808455 17.116022 33.152195
31.098351 17.028404 33.23661
30.84173 15.635309 32.931225
30.518444 18.861134 33.000839
30.903694 16.485325 32.964085
30.41279 18.11775 33.001007
30.806 19.57329 33.04425
30.414951 19.599405 32.943512
30.906837 18.468163 33.094463
30.350109 19.784004 32.915253
30.169956 17.430828 32.896317
30.444592 18.002804 32.911465
30.908224 21.082605 33.062687
30.877819 17.178356 33.077278
30.602999 17.325464 33.078964
30.910738 17.107792 33.185608
30.619877 17.010313 33.094574
30.424276 16.693756 32.817463
30.61047 16.847214 33.042332
30.838057 17.17544 33.040749
31.091703 17.316519 33.223679
31.076374 16.617424 33.082424
30.996187 15.444881 33.17725
30.542212 15.231073 33.081867
30.536943 19.061493 32.981583
30.998783 20.388197 33.088814
30.589193 17.14377 32.927162
30.900539 17.311306 33.165253
30.610334 17.115 33.082897
31.002434 15.794557 33.004333
30.993742 14.696937 33.230137
30.412878 19.287519 32.912457
30.387829 14.3512 33.02327
30.895451 15.654831 33.147541
30.70977 21.20463 32.957417
31.078798 15.792068 33.038029
31.185869 18.133734 33.241344
30.23019 18.406805 32.931656
30.390556 18.258358 32.891735
31.005692 18.136831 33.180046
30.933483 17.562962 32.913139
30.423058 15.687904 32.929729
30.810303 14.89264 32.950356
30.441442 19.967875 32.931339
31.178078 20.891891 33.137115
30.813475 19.406309 33.005802
30.903717 15.452787 32.996548
30.426594 14.933918 33.107201
30.526154 18.009317 33.081192
31.01832 15.567113 33.276485
30.605907 14.880481 33.147453
30.708748 17.200804 32.94743
30.714373 17.323675 33.104656
31.014439 17.012348 33.204121
30.989878 15.707329 32.990658
30.800293 15.750642 32.970272
30.522604 15.835055 33.040627
30.518047 17.325697 32.80257
30.807755 19.714499 33.013004
30.424627 17.485283 32.921539
31.105543 14.803238 33.278019
30.713598 21.926846 32.936401
31.015436 21.709978 32.807838
30.396172 15.103227 33.043522
30.470453 18.789152 32.675453
30.399336 20.221823 32.94511
30.234451 17.729202 32.927246
30.318655 21.836462 32.83749
30.60203 19.915428 32.928608
30.478071 18.220041 33.020401
30.371517 20.548304 32.909748
31.007374 20.002777 33.076321
30.76643 15.37 33.085857
30.693655 15.483663 33.166443
30.931973 21.22357 32.786217
30.996929 17.319614 33.191761
30.741161 17.104525 33.12429
31.226177 15.669588 33.242756
31.09207 19.550636 32.903973
31.004486 19.636133 32.897427
30.515211 17.615698 33.053066
30.340254 17.350138 32.916813
30.72051 15.825916 33.114914
31.191057 15.487726 33.287579
31.065233 15.344808 33.11187
31.153645 15.620855 33.335133
30.524099 18.957146 33.006298
30.613613 17.42758 33.037025
30.766478 14.851932 33.139233
30.79911 18.976696 33.042618
30.528069 18.509787 33.039856
30.888403 19.610521 33.010635
30.317085 20.304806 32.821175
30.792223 19.6283 32.984306
30.614391 18.038998 33.031757
30.517036 17.098682 33.071625
30.24785 16.996355 32.968334
29.969526 20.006731 32.728012
30.493237 19.591894 32.867741
31.092279 19.643167 32.911289
31.101288 20.09446 33.122475
30.655712 14.839058 33.083584
31.094826 16.037811 33.224331
31.160316 20.296225 33.122372
30.623665 17.953159 33.025921
31.13946 15.578373 33.169216
30.424681 18.970474 32.985687
30.602287 14.810146 32.857975
30.887138 15.789089 32.967724
31.189568 16.620886 33.265507
30.959122 22.000166 32.876377
31.180164 17.317101 33.251183
30.983105 16.485718 32.983486
30.611927 16.323389 33.058971
30.794481 15.057998 33.225578
30.893204 21.416241 33.014996
30.819506 17.023943 33.141018
30.981848 19.591787 33.013069
31.337763 15.728571 33.073814
31.312555 15.844591 33.06321
30.910051 21.202295 33.03616
30.807402 18.043699 33.098248
30.815186 20.267939 33.054348
30.72353 15.216222 32.970451
30.985916 20.146521 32.875862
31.123268 17.705027 33.259922
30.480778 20.941282 32.956612
30.708714 17.019648 33.10075
30.726397 21.674709 32.9963
30.908699 16.812614 33.189011
30.37178 21.762686 32.583691
30.707747 15.185687 33.172794
30.522396 22.111244 32.839958
31.142473 15.807376 33.165222
30.613039 18.346342 33.031475
30.222025 18.545309 32.714035
30.995127 15.492543 33.259659
30.497103 17.821154 33.030125
30.900078 17.021624 33.16573
30.52997 17.658186 32.980324
30.975494 15.518788 32.921932
30.80735 21.508816 32.989895
30.52272 18.494987 32.711178
30.599422 20.006647 32.784081
31.098043 15.481681 33.296448
30.436291 14.579545 33.031734
30.095264 18.30545 32.755466
30.493549 19.352505 32.969231
30.307049 20.423935 32.804462
30.259474 20.216272 32.742329
30.314119 17.858162 32.867123
30.206602 17.008009 32.753689
30.292534 15.458898 32.725948
30.452854 18.23959 33.017574
30.43766 15.240365 33.017242
30.511908 21.298166 32.93536
30.708916 16.809147 33.124619
30.519707 16.76429 32.982059
30.605883 17.741676 33.037365
30.609085 17.23164 33.048019
30.99659 19.355045 32.892967
29.898964 18.95435 32.638458
30.89962 19.135628 32.884945
30.724077 14.547071 33.117603
30.716686 15.213182 33.108521
30.711735 19.459457 33.043274
30.424911 16.810307 33.053226
30.902096 14.900213 32.990356
30.707508 15.305614 33.135208
30.482773 21.157791 32.93763
30.719343 18.378824 33.021446
30.607267 15.230092 33.086891
30.821352 15.217603 33.160133
30.521919 15.26415 33.11998
30.852526 14.419072 33.049553
30.876965 14.530138 33.153496
30.610645 19.21384 32.81184
30.624348 18.920229 32.827202
30.702837 20.028458 32.823044
30.916077 19.818405 32.918343
31.012535 19.721354 32.915974
30.905024 19.39757 33.037708
30.436134 19.078743 33.021729
30.324017 19.022295 32.769871
30.826426 19.012814 32.910694
30.593941 19.573881 32.863213
30.329254 16.784678 32.793056
30.483778 20.68906 32.66745
30.709106 19.216906 32.840759
31.010384 15.308883 33.23114
30.342785 16.230112 33.02013
30.412451 19.635975 32.999229
30.405607 16.968655 32.892788
30.396641 17.147486 32.868332
30.983465 15.467666 32.995182
30.539818 22.092022 32.916725
30.999989 19.842314 33.153416
30.810932 18.917292 32.871346
30.612068 15.607456 33.105972
30.611946 19.851706 33.033581
30.915398 19.847637 33.139965
30.944439 17.916529 32.8451
30.718426 17.78474 32.771725
30.703056 18.077728 33.007942
30.988613 16.001509 33.233841
30.615643 20.186193 32.969933
30.840574 19.849674 33.11116
30.52364 19.835457 33.005535
30.513842 20.591721 32.957539
30.600685 16.727329 33.076244
30.426889 17.234238 32.981102
31.087755 18.747425 32.930401
30.711294 19.729668 32.821629
30.79158 19.728642 32.844021
30.404129 17.661896 33.032745
30.59907 19.844284 32.837337
30.862135 19.92927 32.993095
30.520947 16.710363 33.056602
30.996946 18.326113 32.933277
30.439842 18.312723 32.996929
30.19829 15.495979 32.783283
30.592424 15.89803 33.090393
30.801939 19.938307 32.831455
30.519678 20.696169 32.947216
30.712322 17.20443 32.880283
30.406475 17.847969 32.726337
30.900085 17.811417 32.922169
30.901987 17.179558 33.204144
30.900789 19.78134 33.058796
30.595484 19.640968 33.053505
30.615017 18.270147 33.011009
30.50766 16.953764 32.954067
30.704268 21.32519 32.932106
30.713053 22.023989 32.940788
31.099987 19.72209 33.103195
31.090677 19.853863 33.187675
30.806805 17.948835 33.085884
31.102942 18.183268 32.997814
30.903337 14.879848 33.245419
30.80703 18.739477 33.109592
30.81554 20.990065 33.012989
31.012495 19.231377 32.964745
30.883427 19.028376 32.92458
30.677971 18.979769 32.859516
30.86027 16.166239 33.032864
30.585014 16.395506 33.137455
30.707388 19.69906 32.981083
30.895319 15.885653 32.976608
31.104044 17.356094 33.166752
30.421808 16.781256 32.833088
30.891516 19.730463 32.882809
30.691086 16.557974 32.914249
30.51129 16.288309 32.869644
30.508896 19.57947 32.961483
30.913811 17.069681 32.976967
30.924059 16.909151 33.024136
30.716602 15.094869 33.156689
