# .PCD v0.7 - Point Cloud Data file format
VERSION 0.7
FIELDS x y z
SIZE 4 4 4
TYPE F F F
COUNT 1 1 1
WIDTH 1213
HEIGHT 1
VIEWPOINT 0 0 0 1 0 0 0
POINTS 1213
DATA ascii
-11.651206 -2.5485892 6.0754027
-14.086829 -1.8106041 6.8236527
-10.950565 -2.598326 6.1956239
-11.739161 -2.4541731 6.4177356
-10.659784 -2.5165446 6.1888103
-14.123322 -2.5685923 6.6757908
-14.086136 -1.1346734 6.6750636
-11.260983 -2.5404716 6.2201195
-12.786971 -2.4926972 6.4155297
-11.504502 -2.4307246 6.5747247
-11.976598 -2.4998803 6.4463191
-11.726376 -2.4011898 6.2827616
-11.50128 -2.4349022 6.233439
-10.938812 -2.5224185 6.2042398
-11.555023 -2.6492019 6.5534725
-13.631038 -1.8869634 6.6371412
-11.043706 -2.5232043 6.2214079
-15.337541 -1.9641142 6.8233132
-11.661616 -2.47593 6.3962498
-13.085171 -2.2508605 6.6638803
-13.786736 -2.306304 6.8056908
-14.306592 -2.4912288 6.6125255
-14.166871 -1.2362185 6.5636821
-14.362575 -1.2259643 6.5687976
-14.457665 -1.2327927 6.5776935
-15.268143 -2.3741009 6.7904544
-14.749527 -1.2343942 6.5949697
-14.54506 -1.2305149 6.5844269
-12.158407 -2.493603 6.5562887
-14.058784 -1.2519797 6.5509191
-11.921805 -2.6722991 6.597302
-12.849736 -2.4990637 6.6037421
-14.257466 -1.2263432 6.5621171
-15.308376 -2.3857918 6.7933006
-15.519188 -2.3591256 6.8601346
-14.679915 -0.7377212 6.3851638
-14.545172 -1.54498 6.6300955
-14.639159 -1.2336175 6.587625
-14.850477 -1.2402185 6.5899534
-11.548069 -2.581198 6.3573799
-14.055668 -2.4898469 6.7608256
-14.143865 -2.4829831 6.7771444
-11.676496 -2.3965824 6.2865806
-14.858994 -1.5435295 6.6495161
-14.764125 -1.5269893 6.5841551
-14.941713 -1.8350365 6.6427526
-14.623104 -0.88025743 6.6099863
-14.545518 -1.5039775 6.5626774
-14.076099 -1.1003228 6.5157733
-14.451529 -1.1050901 6.5106773
-14.747248 -0.93117154 6.5474253
-11.560483 -2.5134511 6.0917621
-14.060083 -2.5306787 6.2812767
-14.153726 -2.5236478 6.2974577
-14.152864 -1.5203575 6.5957074
-14.275989 -1.5235702 6.5288358
-15.15288 -1.9553688 6.7186298
-15.556384 -1.961648 6.7246704
-14.552467 -2.6120014 6.4748001
-14.453556 -2.4655335 6.7605081
-14.326285 -0.73427254 6.3467689
-12.367697 -2.5425949 6.5396161
-13.841073 -2.4970849 6.6808519
-14.164755 -1.0656817 6.670846
-14.963063 -2.187875 6.7934632
-15.165235 -2.3823433 6.7910495
-11.968842 -2.4001186 6.4205885
-12.560482 -2.5397298 6.5323038
-14.743709 -2.4621894 6.786119
-12.249681 -2.5487428 6.539391
-12.663082 -2.5484033 6.5391245
-12.759707 -2.5465248 6.5617375
-12.456547 -2.5486493 6.5454774
-12.054794 -2.534936 6.233459
-14.841146 -2.4735322 6.780304
-13.880139 -2.3293793 6.8673792
-12.551408 -2.5927849 6.3256016
-13.23314 -2.6060879 6.3769841
-15.08218 -2.4771445 6.8117366
-14.343723 -2.2409956 6.8303289
-12.740849 -2.6030245 6.3162189
-13.967399 -2.3381298 6.8008533
-13.80009 -2.1007874 6.8529625
-14.617722 -2.2229199 6.8510332
-15.151117 -2.4797204 6.8008127
-12.650389 -2.6147435 6.3321104
-12.669954 -2.3827388 6.6600041
-13.742682 -2.0892677 6.6943054
-13.807516 -2.2957177 6.7501435
-13.948385 -1.7796605 6.6922016
-14.942894 -2.4783392 6.7832146
-14.053836 -1.7927988 6.6931934
-13.938351 -2.5214591 6.2704811
-13.878993 -2.2085521 6.7372718
-13.854919 -2.0706456 6.7257729
-13.771194 -1.7472718 6.6410875
-14.341003 -2.0069122 6.7825632
-13.743629 -1.5857059 6.6095963
-13.89502 -1.4678818 6.6355543
-13.862948 -1.9975568 6.6902857
-13.841091 -1.6562847 6.6270447
-13.938768 -1.4417963 6.5899858
-14.48362 -1.4826915 6.6840606
-13.956308 -1.8688715 6.6832409
-13.95398 -1.6720978 6.6337705
-14.349617 -1.6759274 6.742084
-13.824217 -1.1205856 6.5340028
-13.925714 -2.0973601 6.7272701
-13.864906 -1.8925655 6.66745
-13.861704 -1.5463755 6.596539
-13.834915 -1.5845076 6.6183553
-14.33404 -1.478879 6.6754775
-14.133682 -1.2762929 6.6234221
-14.540401 -2.4966311 6.6127529
-13.952431 -1.1246791 6.5225306
-13.939411 -1.7120675 6.7589674
-13.932233 -1.8329811 6.6384568
-13.975086 -2.0752664 6.6826935
-14.637934 -2.4810767 6.7645578
-13.960275 -1.5519948 6.5914598
-14.540499 -0.72943968 6.5374446
-14.462715 -1.7596998 6.6669331
-13.76612 -2.5447266 6.6554465
-14.056852 -2.3977232 6.7919722
-14.43075 -1.7881644 6.7349596
-13.754792 -1.6459968 6.6140895
-13.855012 -1.4591234 6.5753818
-12.85348 -2.5496299 6.5913978
-14.151752 -2.102175 6.75565
-14.048796 -2.0936239 6.7415748
-14.055201 -1.8622237 6.7008667
-14.66251 -1.8014096 6.7458158
-14.04872 -1.5651593 6.6407447
-14.335317 -1.5571111 6.6798911
-14.673745 -1.5459814 6.720818
-14.67065 -1.4582441 6.7225342
-14.074256 -1.2779645 6.6041188
-13.968347 -1.227355 6.5531836
-12.071856 -2.5541503 6.5186353
-14.343232 -1.7859706 6.7423511
-14.517362 -1.4940714 6.6973863
-14.362005 -1.2438204 6.6298389
-14.250651 -1.7657931 6.6565385
-14.808242 -2.1289415 6.8018112
-14.765151 -0.71062267 6.556921
-14.551648 -1.6674825 6.6661983
-14.551547 -1.2692887 6.6416764
-12.065657 -2.6115465 6.2910466
-13.858515 -2.4945996 6.7495804
-14.872579 -2.5413871 6.5596929
-14.095473 -1.0602107 6.5141897
-14.171136 -2.4757471 6.7159247
-14.046919 -1.3936592 6.5571899
-13.654103 -2.499301 6.6735358
-12.390135 -2.6382258 6.3520761
-11.366555 -2.5649543 6.4722161
-14.042311 -1.6273884 6.5984254
-11.68333 -2.6089416 6.2511973
-14.044398 -2.4968235 6.6915045
-12.442405 -2.6080091 6.321322
-14.587951 -0.75075179 6.3716927
-14.550113 -1.7570593 6.6734486
-14.93475 -1.066092 6.6054626
-13.958603 -2.4978817 6.6824198
-14.642733 -2.5497291 6.6217637
-14.650992 -2.5334067 6.5407109
-14.849966 -2.1953244 6.7981138
-14.179996 -1.6668662 6.6611652
-14.845825 -0.69595289 6.4857526
-14.826352 -1.8826816 6.7477164
-14.072435 -0.75480109 6.4968305
-13.849266 -1.2398056 6.5490441
-14.338258 -2.0804145 6.7778964
-14.461823 -2.077436 6.7884293
-14.458076 -2.0043316 6.7894411
-14.549009 -1.7759095 6.7485504
-14.253174 -1.7814509 6.7206154
-13.953058 -1.573266 6.630816
-14.784768 -1.5485516 6.7095819
-13.963761 -2.292069 6.7400746
-15.056993 -1.9976827 6.7430525
-14.084565 -2.2059505 6.8273182
-14.062105 -1.6677387 6.6402555
-15.021691 -2.2330806 6.8018255
-14.170073 -2.3869321 6.7473474
-14.15448 -2.1401656 6.6921029
-13.955963 -2.4999814 6.5909386
-14.854368 -1.980873 6.7470865
-14.061017 -2.2842226 6.7626486
-14.149333 -1.7595594 6.6455193
-14.049591 -1.3074408 6.547658
-13.839617 -2.4970133 6.5860581
-14.063509 -0.95565301 6.6494269
-14.540526 -2.0697856 6.6525807
-14.699387 -2.4666457 6.6220064
-14.954911 -2.2640817 6.7445145
-14.440032 -2.5371387 6.5184183
-14.13916 -2.5549328 6.5682249
-14.732496 -1.8803315 6.7331424
-14.438034 -0.77428377 6.3595877
-15.053667 -0.96398801 6.5241733
-14.125008 -1.9380361 6.6541123
-14.145081 -1.0072576 6.5206637
-13.431999 -2.4985056 6.5299807
-13.83727 -2.5395331 6.2966361
-14.161733 -2.1965067 6.7475085
-14.057466 -1.9654715 6.678205
-14.059201 -1.4416153 6.5726018
-14.036877 -0.90660757 6.4996262
-13.556929 -2.4836969 6.5772829
-14.068933 -2.3944583 6.7393489
-14.050147 -2.1614816 6.694169
-14.542423 -2.1035583 6.7726054
-14.63671 -2.0998187 6.7751203
-13.942611 -1.9657187 6.6768718
-14.063848 -1.7554022 6.638236
-14.464829 -1.2610751 6.6362305
-14.259351 -1.1311619 6.5646238
-13.862922 -2.5541456 6.5550981
-14.054473 -2.0593286 6.6914697
-14.147311 -2.0620522 6.689199
-14.149966 -1.8887502 6.6959977
-14.454014 -1.8776935 6.7336125
-14.442324 -1.5726087 6.6781411
-14.27473 -1.4458425 6.622745
-14.28502 -0.72532618 6.5214257
-13.697368 -0.71901077 6.4711051
-14.159747 -1.9651123 6.6964269
-14.75154 -2.4742563 6.6342783
-14.449418 -2.5280321 6.406517
-14.743361 -2.200223 6.7784853
-13.811893 -0.71018183 6.4793873
-14.944812 -1.938749 6.6938744
-14.045624 -2.5360472 6.4669566
-15.041299 -2.1718991 6.7395964
-14.753864 -2.158978 6.7361932
-14.96711 -1.756814 6.6913872
-14.746878 -1.6709288 6.6781011
-15.040993 -1.4215852 6.6049962
-14.258558 -0.91176158 6.518301
-14.950263 -0.80200213 6.5023866
-15.023085 -2.2994065 6.7726693
-14.938842 -1.8505766 6.6910348
-14.746519 -1.7576947 6.6934457
-14.967499 -1.4549103 6.6422276
-14.356905 -0.82522786 6.511508
-14.636007 -2.4559038 6.8069305
-14.968936 -2.293596 6.7794147
-14.852161 -2.2876902 6.778111
-14.35598 -1.6669909 6.6664772
-14.84652 -1.6407632 6.6881027
-14.751321 -1.4272331 6.6397548
-15.048935 -1.2340792 6.6076508
-15.049017 -1.030785 6.5472264
-14.451968 -0.72585976 6.5312648
-14.859978 -2.0715115 6.7308497
-15.238502 -1.1791508 6.5660186
-14.973003 -2.3840752 6.788105
-14.647782 -2.2052352 6.7692652
-14.851998 -2.1720212 6.7446947
-14.4512 -1.6609572 6.6701775
-14.934684 -0.84226263 6.5433354
-14.829282 -0.66892749 6.3068233
-14.457185 -0.92089093 6.5270481
-14.255715 -2.1918526 6.7539444
-14.366172 -1.9654778 6.7127843
-14.650796 -1.8766388 6.7344527
-14.548701 -1.5748661 6.6856985
-14.347984 -0.73262072 6.5263276
-14.541751 -1.8864176 6.7284913
-14.360194 -1.4347293 6.6195121
-14.864223 -1.4440079 6.6453176
-15.033731 -0.90807253 6.55439
-14.938848 -0.88431668 6.5448952
-14.737087 -0.82012933 6.5501075
-14.442292 -0.82212996 6.5217133
-14.255106 -0.82321906 6.5081897
-14.449649 -2.1998153 6.760458
-14.748472 -1.9717468 6.7368164
-14.756417 -1.8578856 6.6928997
-14.848311 -0.91441911 6.5546703
-15.07705 -1.456911 6.6479716
-14.856019 -1.0220331 6.5712595
-14.184691 -0.7864058 6.4721808
-14.542931 -0.92534405 6.5358534
-15.401928 -1.2412189 6.6105256
-14.261877 -2.0831845 6.710804
-14.260448 -1.9782685 6.7108674
-14.645205 -1.9720231 6.7275972
-14.852451 -1.7594262 6.6932626
-14.949068 -2.0637281 6.7391686
-14.745358 -1.9507145 6.6982837
-13.985981 -0.71685523 6.4961853
-14.751017 -2.381639 6.7860489
-14.745947 -2.2961314 6.7759981
-14.639339 -2.2843723 6.7671118
-15.053041 -2.0719118 6.7345128
-14.646602 -2.0683324 6.7298355
-14.640313 -1.7616389 6.6789622
-14.642956 -1.6602498 6.6850328
-14.638072 -1.4503195 6.6339326
-14.85408 -1.3379339 6.6097021
-14.644761 -1.1340901 6.5857229
-15.038247 -0.8099435 6.4147558
-14.548988 -0.70936549 6.4908552
-14.968254 -1.2209378 6.5647731
-14.544824 -2.1963947 6.7626514
-14.743793 -2.0739295 6.7349477
-14.560459 -1.9709877 6.715457
-14.253466 -1.8705708 6.6584826
-14.55078 -1.1346855 6.5773802
-14.159599 -0.91357571 6.5125051
-13.136605 -2.405849 6.7014885
-14.549579 -2.2843421 6.759335
-14.458757 -1.9685017 6.7092142
-13.143177 -2.4052539 6.6699648
-14.645181 -1.8586508 6.6900797
-14.550337 -1.4483116 6.6249189
-14.188527 -1.0872966 6.5174551
-14.351475 -2.4738059 6.7404408
-14.745449 -2.3083446 6.7160549
-14.647265 -2.2535982 6.7230926
-14.935323 -2.0495114 6.66888
-14.658302 -1.290643 6.5233841
-14.951632 -1.1207705 6.5435748
-14.747108 -0.99010313 6.483808
-14.459201 -2.2923243 6.7607946
-14.844851 -1.8456192 6.6851683
-14.803102 -1.8064917 6.6324925
-14.835374 -1.2180442 6.5455003
-14.86971 -1.0178918 6.4954748
-14.232782 -0.68757975 6.2491822
-14.246925 -2.3932562 6.7538152
-14.635497 -2.167918 6.7358942
-14.550743 -1.8612717 6.6777487
-14.654702 -1.4202572 6.5824704
-14.867045 -1.4165205 6.6013799
-14.6354 -0.91420972 6.5411272
-14.200388 -1.7752773 6.8019824
-14.171277 -1.7760295 6.7554297
-14.735596 -1.3840903 6.5833201
-14.747876 -1.0183151 6.5490913
-14.950829 -0.89039594 6.4802513
-14.834863 -0.81475925 6.5054665
-14.555835 -2.3581469 6.7028942
-14.557418 -2.1630409 6.7226872
-14.553342 -2.0690904 6.721406
-14.650585 -1.9466392 6.6742611
-14.608534 -1.4939638 6.5710301
-14.632755 -1.3245121 6.5890355
-14.149727 -0.82766402 6.5035834
-14.553582 -2.3844252 6.7717342
-14.450143 -2.0744729 6.7156811
-14.544826 -1.9491137 6.658514
-14.347992 -0.91872925 6.5268841
-14.248788 -0.72155696 6.4655485
-14.759609 -0.69343084 6.4141045
-15.344831 -1.2244879 6.5756683
-14.640086 -2.3840744 6.7712297
-14.55111 -2.2607412 6.697844
-14.615052 -2.0330648 6.6604152
-14.761123 -1.3212093 6.5803933
-14.550924 -1.3274399 6.5864897
-14.64861 -1.0204225 6.5410628
-14.463333 -2.3543115 6.6919489
-14.455686 -2.2634077 6.686749
-14.453633 -2.1629853 6.6991515
-14.471777 -2.0458651 6.6475358
-14.456056 -1.8577334 6.6647277
-14.436081 -1.8125358 6.5956531
-14.451615 -1.5500454 6.6218381
-14.547997 -1.2182305 6.5192552
-14.57411 -0.96778786 6.4714622
-14.749537 -0.79699332 6.4795189
-14.635161 -0.70572436 6.4071846
-14.449088 -0.71641803 6.4865098
-14.154123 -2.4813044 6.5876307
-14.396644 -2.3741167 6.6859245
-14.189991 -2.3022554 6.6788163
-14.360191 -2.0718076 6.7117305
-14.453971 -1.9452543 6.6446466
-14.551284 -1.4203396 6.5691638
-14.548746 -1.0150577 6.5409236
-14.233122 -2.1245313 6.8918929
-14.353101 -2.3859406 6.7434549
-14.34376 -2.2591727 6.6759043
-14.632912 -0.80272639 6.4964719
-14.265097 -2.3458579 6.6781349
-14.282095 -2.2511246 6.6653085
-14.331405 -2.1580458 6.6940145
-14.339685 -2.048588 6.6324091
-14.737603 -1.1295388 6.5845528
-14.838333 -1.1699967 6.5987577
-13.646759 -2.5573785 6.6401806
-14.257774 -2.1680436 6.6881347
-14.352765 -1.5519531 6.6140451
-14.446334 -1.4208592 6.5529246
-14.456884 -1.0185959 6.5324817
-14.535658 -0.89531976 6.4751172
-14.258526 -1.9999747 6.7906651
-14.3551 -1.8572 6.6502323
-13.954988 -0.71102798 6.3465481
-14.260118 -2.0884516 6.7772398
-14.28262 -2.0458634 6.6167464
-14.341631 -1.9487435 6.6253424
-14.449048 -1.3254648 6.5675926
-14.432869 -1.2850331 6.4964652
-14.722217 -0.87939662 6.4666576
-14.552734 -0.79993588 6.4815731
-14.127188 -0.7417776 6.5358291
-14.164622 -1.4699867 6.683805
-14.181746 -1.7126393 6.7571054
-14.458645 -1.134958 6.5725465
-13.722961 -1.5292575 6.6037087
-14.264231 -1.9637045 6.6203818
-14.280508 -1.8253682 6.5762682
-14.358121 -1.5299343 6.541254
-14.357945 -1.4229954 6.5353112
-14.367803 -1.2937043 6.4930615
-14.439876 -0.98807049 6.4562483
-14.185196 -0.91542852 6.4258733
-14.043891 -0.72382891 6.4228487
-14.169624 -2.0862117 6.8546476
-14.464299 -0.74218237 6.2635808
-14.247988 -1.4249346 6.518157
-14.196457 -1.4190658 6.5088973
-14.244509 -1.3366053 6.5472584
-14.28215 -1.2977508 6.4912701
-14.188156 -1.2059478 6.4702759
-14.365252 -1.2238034 6.4968152
-13.683897 -2.2953265 6.7702985
-14.191151 -1.1442579 6.650703
-13.947983 -0.72154015 6.4184771
-14.45294 -0.80489177 6.4751139
-14.665418 -2.2729423 6.8419085
-14.227071 -1.460192 6.6959076
-14.215453 -1.0486553 6.6616488
-14.266181 -1.1183215 6.4748554
-14.260475 -1.0118793 6.4995356
-14.153358 -0.74434185 6.2303238
-13.952617 -0.7547254 6.390398
-14.24014 -0.99536723 6.6726518
-14.353958 -1.0167103 6.5162778
-14.343703 -0.98062778 6.4533296
-14.277379 -0.98287922 6.4458742
-14.353121 -0.79383421 6.4649448
-13.853127 -0.75799096 6.3850079
-14.342009 -0.74812359 6.2543573
-14.275715 -0.92008162 6.4409904
-14.049076 -0.77783161 6.4148297
-14.166483 -0.74563593 6.3410711
-14.262704 -0.76195872 6.3243432
-14.243828 -0.7525329 6.2516437
-15.053921 -1.5546346 6.6391373
-14.247776 -0.79391885 6.4699588
-14.210447 -0.74352175 6.6199017
-14.164843 -1.1433699 6.5567756
-14.964724 -1.3688366 6.6466041
-14.849927 -2.3850543 6.781158
-14.80608 -2.433485 6.8291807
-14.477352 -2.5010898 6.6318278
-13.636246 -2.5442839 6.3382597
-15.3619 -1.2649782 6.6398935
-15.04285 -2.3916037 6.7927213
-11.137547 -2.6332297 6.2049174
-14.61721 -1.2769639 6.6407604
-13.154315 -2.5342686 6.5017834
-14.257165 -1.5454978 6.60888
-14.465029 -1.6297952 6.5998311
-14.156516 -0.72320527 6.3508849
-15.25064 -1.4275266 6.6217608
-14.748737 -1.5354091 6.6474457
-14.464839 -2.4060984 6.8118253
-12.106697 -2.4131577 6.4933963
-13.896091 -2.0292518 6.7313056
-14.197474 -0.55590129 6.5586195
-13.844736 -2.4361038 6.7939806
-14.155807 -2.4043605 6.8103442
-14.352903 -1.7550076 6.6660652
-14.050211 -2.299973 6.7916589
-13.965773 -2.1891391 6.747736
-12.062982 -2.4241424 6.5596085
-14.32874 -2.3177693 6.8221502
-12.3427 -2.4157684 6.5667434
-11.658685 -2.504178 6.5109
-14.463175 -2.3930874 6.767457
-11.749506 -2.5088019 6.568666
-13.735719 -2.4994802 6.5951929
-14.943153 -1.2380706 6.594615
-11.125565 -2.557148 6.3160543
-15.839416 -1.2161102 6.5869331
-14.357874 -1.1308764 6.5798669
-13.763456 -1.1272444 6.5562801
-13.654429 -2.5390446 6.442821
-14.55502 -1.6319376 6.6268969
-12.441511 -2.5354073 6.1602058
-14.062805 -2.588522 6.345294
-13.973143 -1.0253749 6.5750933
-15.753241 -2.4843309 6.8127937
-11.271338 -2.5270643 6.520659
-14.361283 -0.71422035 6.3747921
-11.415326 -2.5793819 6.4931307
-13.530226 -1.7458234 6.6550322
-11.964777 -2.5559814 6.4829493
-14.230897 -0.71732992 6.3756337
-13.450076 -2.5454848 6.4172258
-13.261538 -2.5417948 6.4086947
-14.059267 -1.5422641 6.6010361
-13.740713 -2.5406814 6.4510627
-14.195824 -2.4102185 6.5510659
-14.943584 -1.694947 6.6850662
-14.253138 -2.4747527 6.7242713
-14.366972 -2.19593 6.7637877
-14.168152 -2.3075318 6.8013349
-13.901268 -2.4641302 6.8400555
-12.021001 -2.482774 6.4384804
-13.347026 -2.5411606 6.4246221
-11.947778 -2.421134 6.348444
-13.846597 -2.5876985 6.3344116
-15.228838 -1.2914635 6.5597286
-14.546863 -2.3993697 6.8204379
-14.4505 -1.4449147 6.6203499
-15.419254 -1.7459764 6.7097988
-14.738533 -2.1077096 6.7913074
-12.659363 -2.5445087 6.3512678
-14.355973 -1.0392879 6.5756898
-11.585324 -2.5036821 6.7874279
-13.630158 -1.7712492 6.6804662
-14.953276 -1.6366873 6.6454039
-14.062788 -2.5411491 6.5725112
-14.638212 -1.0467867 6.5932412
-14.759157 -2.4961016 6.8076019
-14.069596 -1.8473703 6.6408844
-14.245605 -1.6709203 6.6689391
-12.547087 -2.5318661 6.3597264
-14.258867 -2.3245876 6.8300266
-13.240274 -2.6390092 6.56252
-11.862524 -2.5521708 6.3858628
-11.440523 -2.3852386 6.5098143
-13.654797 -2.5041399 6.568481
-12.84362 -2.6981928 6.5808387
-14.005165 -0.99730271 6.5535355
-13.039298 -2.5455167 6.3029246
-14.358225 -1.7349728 6.5772371
-12.04261 -2.5576663 6.4156222
-14.313289 -0.96136862 6.5755134
-14.25105 -2.4911451 6.7685666
-13.933037 -1.8557595 6.821465
-13.043827 -2.5087185 6.530364
-13.064683 -2.4935629 6.6808743
-14.266613 -1.740067 6.567275
-11.856953 -2.5566802 6.2929778
-13.553812 -2.5450933 6.4390397
-11.740217 -2.5564423 6.3775544
-12.15922 -2.6025429 6.3152094
-14.456275 -2.4738317 6.7899833
-14.545593 -2.5244398 6.5027108
-14.269506 -1.2039388 6.4805098
-12.262337 -2.4706702 6.2815495
-14.246402 -1.5729028 6.6571484
-11.954118 -2.557179 6.4098773
-14.61928 -2.5354869 6.7010617
-14.062816 -1.145458 6.5456991
-14.241588 -0.93151557 6.6212106
-14.046259 -0.74633139 6.3304367
-14.471018 -2.5512378 6.6397824
-14.070328 -0.97606635 6.5691638
-13.869328 -2.4797587 6.5038013
-14.144053 -2.5245719 6.3524647
-13.747374 -2.490114 6.5014
-13.663754 -2.5053124 6.7244415
-12.352538 -2.5398614 6.3478966
-14.343929 -0.72826988 6.4764333
-13.587364 -2.4636333 6.4940486
-14.164791 -1.8646281 6.6531758
-14.958923 -1.0126573 6.548162
-14.777128 -2.6366453 6.4898658
-13.406748 -2.6333146 6.6157641
-13.447565 -2.5005112 6.6517167
-12.074519 -2.4480526 6.309411
-14.540421 -0.71121645 6.3795304
-14.474618 -2.4575512 6.5484972
-14.858504 -0.88755697 6.5087428
-11.09262 -2.6572578 6.4424052
-13.747377 -2.4144995 6.7688675
-14.942974 -1.4056106 6.5891223
-14.528641 -2.4806519 6.5621591
-14.730441 -1.0460306 6.5859694
-13.378921 -2.5433514 6.6243792
-14.539611 -1.7390471 6.6073937
-14.178302 -1.8543171 6.8135123
-12.136266 -2.6114337 6.1953549
-11.447153 -2.4624829 6.4999442
-12.855376 -2.5404055 6.375555
-14.439161 -1.7383901 6.5972466
-13.24317 -2.5490613 6.5951772
-12.821494 -2.3860629 6.6371918
-14.63963 -0.82098502 6.5347729
-14.545509 -2.4604406 6.7647924
-13.868013 -1.7536385 6.6473475
-11.365875 -2.5817225 6.5130939
-11.648451 -2.5512993 6.3722296
-14.949704 -1.5474323 6.6421061
-12.959645 -2.5449407 6.7508006
-14.554657 -0.82624549 6.5330553
-13.626656 -2.6289592 6.6089334
-14.777829 -1.1071826 6.5297365
-14.063253 -2.2096491 6.7558246
-13.546663 -2.499217 6.6644177
-14.355741 -1.6347544 6.5910244
-11.839172 -2.5505695 6.5727043
-12.550248 -2.5410695 6.4539671
-14.246017 -2.5304961 6.288157
-12.550201 -2.4945054 6.5817838
-12.446308 -2.5475924 6.4501595
-14.36294 -2.410965 6.8107409
-11.983468 -2.4212174 6.5943365
-13.959515 -2.4740307 6.4688039
-14.979713 -2.6751089 6.5180593
-13.724288 -2.5289841 6.2620435
-12.95176 -2.4905941 6.5213161
-13.149029 -2.5018482 6.6818471
-14.882256 -0.74871147 6.3926249
-14.658977 -1.7438022 6.6248493
-13.77497 -2.1995261 6.7259359
-14.362619 -2.4622624 6.5010018
-14.737387 -2.5531313 6.7091374
-14.649185 -1.9896934 6.7957516
-12.842199 -2.3978038 6.6991477
-12.750396 -2.5001905 6.6006627
-13.627227 -2.6249402 6.4934955
-15.230029 -1.6224244 6.7200894
-14.44643 -1.2054517 6.5014629
-13.45786 -1.8726155 6.6350102
-11.532179 -2.5572188 6.5608997
-13.527081 -2.5314896 6.2376981
-12.345705 -2.4913795 6.5672622
-14.351544 -1.8795108 6.7215114
-14.34803 -1.1118625 6.497354
-12.16774 -2.4344549 6.5648293
-14.765556 -0.70563453 6.4952364
-12.647636 -2.5527418 6.4596949
-12.253796 -2.4041367 6.5478797
-12.041508 -2.6008272 6.2084064
-14.784657 -1.84892 6.6211958
-13.729506 -2.1306741 6.7127361
-13.446467 -2.5435565 6.6320353
-15.429885 -1.2210778 6.5812087
-13.04059 -2.536922 6.4002872
-13.149243 -2.493655 6.6345668
-14.842793 -1.651248 6.6524916
-14.904622 -2.3523805 6.8443108
-14.343155 -2.5265529 6.3007269
-14.951624 -1.9702489 6.7374897
-11.440439 -2.5041132 6.3521347
-11.744487 -2.5415618 6.2871265
-13.955737 -2.5465624 6.4578791
-14.559135 -1.110032 6.5335608
-11.672068 -2.5487449 6.2715316
-11.881866 -2.4672124 6.307857
-12.793388 -2.545058 6.7277341
-14.802646 -2.4503636 6.834764
-11.950353 -2.5473824 6.3057055
-14.538054 -2.5536804 6.7274809
-13.142142 -2.5409188 6.4009376
-14.157821 -1.5696843 6.6647058
-12.144469 -2.4553428 6.2427359
-11.856795 -2.5243502 6.5809641
-12.74381 -2.5440724 6.4683046
-12.074697 -2.4733257 6.2683558
-15.247437 -1.2696011 6.6018419
-12.085987 -2.6239555 6.4642239
-12.661191 -2.490752 6.5929093
-12.745811 -2.5442369 6.3655314
-12.165546 -2.4531665 6.3415518
-15.056909 -1.7658521 6.6904936
-14.578558 -2.6228507 6.6713171
-13.925275 -2.4932334 6.7639313
-12.94452 -2.5015008 6.6117287
-12.45053 -2.4951587 6.5717731
-13.343907 -2.5010731 6.6543107
-15.15933 -1.5541164 6.6622958
-14.440504 -1.5098616 6.5544543
-12.947904 -2.5486586 6.3817945
-12.242453 -2.5513892 6.3175859
-14.636421 -0.71008748 6.4919229
-14.458784 -2.3285978 6.8333488
-15.375406 -1.5569673 6.6615529
-15.665375 -1.219645 6.5912147
-11.296566 -2.5684664 6.5222735
-14.136415 -0.82663345 6.264185
-15.536523 -1.2575997 6.618156
-11.846159 -2.5711918 6.4985924
-14.457108 -1.040792 6.5760179
-14.153331 -1.3366685 6.5614805
-13.666855 -1.1177033 6.5135889
-13.43919 -2.5470746 6.3390427
-14.256525 -2.4131591 6.8167367
-14.852945 -1.1223707 6.5654855
-14.534385 -1.0449295 6.5838618
-13.251774 -2.5459433 6.3252563
-13.546257 -2.5411811 6.3337383
-13.75209 -2.4949129 6.6809173
-14.648906 -1.1007328 6.5369534
-12.958772 -2.5428731 6.5808511
-14.541924 -2.4728765 6.8092422
-14.349294 -2.4774516 6.7866106
-14.261328 -1.6380529 6.5716534
-12.559101 -2.5396547 6.2557764
-12.447579 -2.5874856 6.2293019
-14.040542 -1.3502767 6.6053538
-12.146632 -2.5382526 6.2249985
-14.759785 -2.4056656 6.8402448
-14.446686 -0.90925205 6.451117
-15.456384 -1.6454002 6.6667752
-14.932196 -2.5494614 6.6693759
-14.041863 -1.9206169 6.641921
-14.734571 -1.6355851 6.6451225
-14.900873 -1.1684512 6.6161304
-15.124051 -1.6275002 6.6434588
-15.037403 -1.9435676 6.7059212
-13.934201 -1.7422286 6.6478653
-13.84599 -2.5404558 6.4583101
-12.161276 -2.5473726 6.3146658
-12.030702 -2.5489776 6.3191514
-14.253691 -2.5547454 6.5110817
-11.620473 -2.3670266 6.549396
-14.143806 -2.5450246 6.5024538
-13.253284 -2.4994719 6.6412168
-15.194921 -1.3012158 6.566823
-13.043591 -2.5390251 6.5826898
-14.174874 -2.2850928 6.7368498
-14.254622 -1.0396776 6.5772309
-13.249624 -2.5393622 6.524157
-12.956297 -2.5384722 6.4762793
-13.0555 -2.5389745 6.484345
-11.94593 -2.6152029 6.1946659
-13.550121 -2.5364769 6.5483427
-13.160536 -2.5466385 6.5773187
-13.653964 -2.5432894 6.5446
-14.674932 -2.4109583 6.8153696
-14.405298 -2.1106253 6.631371
-11.924478 -2.5695136 6.5713387
-13.460238 -2.5476642 6.5321569
-13.558146 -2.4411578 6.7272468
-13.14185 -2.6033263 6.2804208
-13.348316 -2.5497825 6.533741
-14.151712 -1.6387074 6.5949783
-12.842026 -2.5382843 6.4768109
-14.638008 -1.6399077 6.6396332
-14.880045 -1.9639213 6.7061863
-14.062279 -2.4610419 6.5414109
-14.342747 -1.8320749 6.5890784
-12.653807 -2.5571811 6.2632141
-12.446501 -2.5445588 6.2475085
-15.158846 -2.2843311 6.7906628
-11.573426 -2.5186169 6.209434
-14.358402 -2.2801456 6.7561231
-11.74126 -2.5591595 6.5514021
-12.624666 -2.4052119 6.6106911
-13.963658 -2.4109056 6.7843609
-14.614271 -1.1778229 6.5044675
-15.653372 -1.519679 6.6524773
-14.607033 -1.8372886 6.6116996
-15.348866 -1.5096321 6.6149902
-14.749074 -1.1946557 6.5484557
-14.195243 -0.92452502 6.6217875
-13.511365 -2.4192932 6.3425307
-15.043795 -1.3270407 6.588007
-14.566617 -2.3413098 6.8319235
-11.433463 -2.605423 6.2632351
-11.562118 -2.6411464 6.2267818
-11.744565 -2.6025448 6.2778206
-12.658312 -2.4814825 6.4725771
-12.65062 -2.514524 6.6442318
-11.531431 -2.3773186 6.5349336
-12.542801 -2.5043223 6.6265125
-15.016825 -1.5208808 6.6055231
-11.742479 -2.5605516 6.5115042
-13.541094 -2.500474 6.7219338
-13.410717 -2.4262743 6.6991119
-12.967766 -2.3909907 6.6575327
-13.727926 -2.4960155 6.7426929
-15.176074 -0.66255802 6.4761033
-14.25573 -2.288147 6.7586975
-14.241631 -1.2516096 6.6436601
-15.035144 -1.6418298 6.646996
-13.358214 -2.5970745 6.193171
-12.356678 -2.5449715 6.430409
-12.245138 -2.5560164 6.4206104
-12.955412 -2.5494883 6.2877545
-13.354758 -2.5050819 6.6958771
-12.058843 -2.4926288 6.5449352
-11.845484 -2.5067861 6.5154414
-12.854472 -2.5824246 6.2576261
-12.853962 -2.5099587 6.6627498
-12.242504 -2.5042894 6.6071568
-11.95372 -2.5137515 6.5842404
-14.144242 -1.4501392 6.6158762
-12.051712 -2.569715 6.5880466
-11.275512 -2.604995 6.2093282
-12.756943 -2.5095234 6.6530528
-12.140282 -2.5547504 6.4001646
-12.950091 -2.4864028 6.6835165
-11.653955 -2.561605 6.5572
-13.50011 -2.4756751 6.4314079
-12.751587 -2.493319 6.4901547
-14.342302 -2.5230067 6.508729
-12.983647 -2.3302488 6.659749
-11.654885 -2.6082544 6.149262
-13.162055 -2.5491638 6.3010764
-12.441166 -2.5487506 6.3466978
-12.252717 -2.4876227 6.5620508
-13.049515 -2.4007542 6.7133193
-12.048108 -2.5098453 6.5878305
-11.848407 -2.5986309 6.184937
-13.233335 -2.5905128 6.2899942
-12.344083 -2.5154974 6.624115
-13.451761 -2.5011365 6.7100811
-13.049008 -2.5878451 6.2521772
-13.346612 -2.5965772 6.2947273
-12.160022 -2.5499885 6.5139117
-11.661693 -2.5300269 6.5619249
-12.861463 -2.5381825 6.2878346
-11.468354 -2.5184782 6.5446959
-11.360892 -2.4893579 6.527729
-11.360572 -2.4720216 6.5005732
-11.955094 -2.4990783 6.5374703
-13.747149 -2.5410624 6.5420609
-11.748955 -2.507071 6.5078449
-11.562366 -2.5016911 6.4956675
-12.957501 -2.4002392 6.6870179
-12.156748 -2.5067041 6.599061
-11.358479 -2.5555739 6.3579502
-12.748137 -2.5401103 6.272428
-11.150857 -2.5358937 6.2174058
-13.243395 -2.4970579 6.6918173
-12.445494 -2.5089669 6.6197424
-11.462269 -2.5584865 6.3549223
-11.55983 -2.4992042 6.5691638
-13.958904 -2.5423565 6.5545664
-13.945586 -2.5521045 6.3600359
-13.35109 -2.5491569 6.3265786
-13.849528 -2.5390642 6.3625937
-13.754152 -2.5447698 6.3548136
-11.424944 -2.5582674 6.5129437
-12.855909 -2.5927646 6.1541276
-14.257337 -1.8804566 6.7324629
-13.059512 -2.4941711 6.6206098
-13.680384 -2.5394711 6.2629895
-13.034421 -2.3840175 6.6599002
-13.847352 -0.72421312 6.4077597
-13.960678 -2.6146111 6.3354692
-13.539069 -2.5937691 6.3090029
-13.75135 -2.584981 6.3514981
-11.5356 -2.313149 6.5171952
-12.96157 -2.6000793 6.2748103
-15.368867 -1.294394 6.5818934
-11.577175 -2.51441 6.7216687
-12.355471 -2.4830105 6.455205
-13.450066 -2.5999436 6.3011241
-12.465212 -2.485363 6.4657106
-12.262723 -2.5182819 6.1392899
-12.146726 -2.4634168 6.4273162
-15.074594 -1.2902917 6.5499597
-12.86442 -2.4863768 6.4773273
-12.25815 -2.4721317 6.4540725
-12.349602 -2.5221269 6.1254497
-12.437594 -2.484447 6.3730788
-12.54893 -2.4864464 6.4676704
-11.349436 -2.615936 6.2410874
-12.544302 -2.5235829 6.1469417
-12.24638 -2.466352 6.3512111
-12.154777 -2.5049629 6.1233783
-14.161248 -1.0364376 6.5584812
-12.549122 -2.4848623 6.3883533
-12.692339 -2.4873111 6.4239483
-12.920802 -2.495079 6.4322944
-12.843546 -2.4527493 6.4109659
-12.435279 -2.4233325 6.5758324
-12.056126 -2.4427299 6.588336
-11.963347 -2.4126322 6.5571442
-12.079044 -2.4919405 6.1281214
-13.044051 -2.4837177 6.4388232
-12.747009 -2.4386854 6.6208682
-12.507565 -2.4339235 6.5894475
-12.172563 -2.4266117 6.6001487
-11.868309 -2.4176252 6.5319943
-12.387007 -2.5372999 6.7072816
-15.331718 -2.4489565 6.8041291
-13.038682 -2.6215541 6.3836746
-13.570704 -2.6219513 6.4268165
-12.352312 -2.587805 6.2143073
-12.259089 -2.6075585 6.1921997
-12.563654 -2.5989494 6.2346926
-12.742908 -2.5874231 6.2581334
-13.116572 -2.6073036 6.3604493
-15.518625 -2.3594401 6.7712789
-15.097961 -0.67820114 6.4698806
-14.628561 -2.5886989 6.4259987
-14.427337 -2.5898664 6.3886571
-14.551437 -2.6236761 6.3948231
-11.762015 -2.6103387 6.1752934
-14.166339 -2.5976899 6.3824387
-11.734755 -2.6660404 6.315763
-12.342311 -2.6504276 6.4239769
-15.05163 -2.5539722 6.6954451
-12.610638 -2.6531415 6.4160433
-14.742415 -2.5913222 6.3885536
-15.25789 -2.5242786 6.6673217
-14.557668 -2.5522385 6.6504636
-14.348747 -2.5861776 6.3985004
-14.26549 -2.5528224 6.5974073
-13.553422 -2.5479281 6.6301584
-15.471953 -2.4132843 6.806879
-15.344332 -2.2704856 6.7714319
-14.88775 -2.5420589 6.6120615
-13.842498 -2.5528262 6.6345158
-14.260881 -2.5928276 6.3650026
-15.642117 -2.1726968 6.7605734
-15.349841 -2.1857522 6.7682829
-15.66852 -2.2620878 6.7638845
-13.557195 -2.551384 6.700171
-13.893567 -2.5477085 6.7301579
-13.220749 -2.5550599 6.6701798
-15.558995 -2.0237036 6.730608
-14.857023 -2.0782835 6.6872854
-14.76845 -2.5524702 6.60432
-15.365378 -2.0697737 6.7244625
-15.137237 -1.8782486 6.7138944
-14.946717 -2.4970989 6.8433933
-11.931419 -2.5124941 6.1018462
-13.762197 -2.597012 6.441093
-15.262561 -1.7771951 6.7131581
-15.258205 -1.8714747 6.7207675
-15.250744 -1.9590161 6.7264819
-15.242026 -1.9868622 6.75278
-15.235118 -2.0841844 6.751184
-15.21623 -2.1460149 6.7527275
-15.210286 -2.237011 6.7890911
-14.278986 -2.5471416 6.6599264
-15.149819 -2.5585012 6.6803465
-15.17145 -2.1443551 6.7412314
-13.333756 -2.6164582 6.500484
-12.040564 -2.6628227 6.3689313
-15.156019 -1.7048122 6.6682258
-15.157804 -1.7557286 6.6955585
-15.443441 -1.8309978 6.7143178
-15.42859 -1.938421 6.7031703
-15.095549 -2.0139444 6.7152581
-15.41757 -2.0704389 6.7478423
-15.047453 -2.2983997 6.7617455
-15.431099 -1.7401277 6.6739783
-15.045111 -1.85138 6.6880383
-15.357392 -2.059021 6.7380924
-15.341038 -1.9439609 6.7090158
-15.427307 -1.5537806 6.6767426
-15.258955 -1.4598761 6.6698518
-15.289536 -1.5689974 6.6658545
-15.174863 -2.2697864 6.7532954
-15.175214 -1.6926602 6.7030396
-14.38695 -2.5958774 6.4491386
-12.433703 -2.6143265 6.3966732
-15.156463 -2.0711226 6.7535005
-15.651653 -1.6423657 6.6726441
-15.263147 -1.7449889 6.669332
-15.592034 -1.7988287 6.7137284
-15.521395 -2.183779 6.7748761
-15.548008 -2.2458572 6.7542257
-15.469955 -2.281719 6.77845
-14.847872 -2.2534742 6.7495952
-15.534371 -1.4350922 6.6245794
-15.539689 -1.5598673 6.6678944
-15.102173 -2.01913 6.7099404
-15.721321 -1.4139302 6.6238093
-15.669315 -1.4336395 6.6275287
-15.345165 -1.645907 6.6588335
-15.586037 -1.884553 6.7077227
-15.262008 -2.0559933 6.7101717
-15.543326 -2.091917 6.7489929
-13.44516 -2.6262593 6.4790339
-15.051554 -1.2163635 6.5577798
-15.700384 -1.3546778 6.5952916
-15.337542 -1.4139079 6.6187363
-15.324135 -1.4636163 6.6566081
-15.17079 -1.1171949 6.5658627
-15.549897 -1.2129622 6.5957837
-15.465352 -1.3440065 6.6129241
-15.122375 -1.4212142 6.6158929
-15.011746 -1.7324122 6.64855
-15.35279 -1.8590338 6.6929479
-15.337711 -1.7886057 6.7050443
-15.435504 -1.0367881 6.5595927
-15.061172 -1.109476 6.5554957
-15.36585 -1.1085545 6.5681047
-15.338855 -1.7327332 6.6556301
-15.890197 -1.0807333 6.5686336
-15.267542 -1.0521325 6.5529785
-15.175692 -1.2059826 6.5704527
-15.470519 -1.4644115 6.6170206
-15.746429 -1.5127079 6.6427612
-15.437066 -1.5216042 6.6309915
-15.354448 -1.8269423 6.6632071
-15.915249 -1.13009 6.5747056
-15.86516 -1.3174325 6.5940261
-15.835711 -1.5416943 6.6403866
-15.17824 -1.5338224 6.6109562
-15.49312 -1.5993418 6.624166
-15.772173 -1.8473421 6.6970229
-15.113115 -1.8404061 6.6553545
-15.40291 -2.0290482 6.6969552
-15.706926 -2.1551604 6.7383027
-15.146099 -0.78356838 6.4942608
-15.735832 -1.0798306 6.5569673
-15.274242 -0.80331206 6.4967031
-15.863842 -1.1179129 6.5746813
-15.744574 -1.11406 6.5777807
-15.678229 -1.3500264 6.6255546
-15.149219 -1.2390116 6.5997052
-15.726122 -1.6358129 6.6767573
-15.66515 -1.8619822 6.7067318
-15.656852 -1.9319797 6.7285752
-14.935705 -2.1705315 6.7367473
-15.862221 -2.1369579 6.7465391
-15.765997 -2.4226992 6.7903972
-15.522851 -1.3229061 6.6312356
-15.649695 -2.0300038 6.7234168
-15.692714 -1.0550863 6.5860548
-15.652749 -1.1155047 6.5761366
-15.132063 -0.91978616 6.4922605
-15.455218 -0.99135667 6.5359855
-15.431177 -1.1162102 6.5517945
-15.357853 -1.3412318 6.5975823
-15.119879 -0.99258554 6.5069675
-15.087873 -0.81368852 6.5047073
-15.063373 -0.91554421 6.5138211
-15.392134 -0.99823374 6.5363951
-14.965803 -1.513559 6.5942101
-15.573967 -1.7413324 6.6839395
-15.691538 -1.6517965 6.636796
-15.654509 -1.7476038 6.6810031
-16.023399 -1.7337396 6.6651535
-16.00634 -1.8307238 6.6729422
-15.961783 -2.0944111 6.7100844
-15.272635 -2.1391306 6.6958098
-15.949515 -2.1622384 6.7205825
-15.231693 -2.3793085 6.7362337
-15.904227 -2.4163504 6.7677417
-15.219779 -2.4295094 6.7423444
-15.268956 -0.85192901 6.4777036
-15.155562 -1.4240171 6.662745
-14.967735 -1.7455797 6.6503329
-15.478008 -2.2017353 6.7616854
-15.253663 -2.297343 6.7574902
-14.627076 -2.4749305 6.5266275
-15.332895 -1.0382484 6.541635
-16.017649 -1.1090075 6.5575061
-15.948801 -1.6741687 6.6727967
-15.937693 -1.7494106 6.6708293
-15.581125 -1.8225044 6.6723413
-15.89271 -2.1006935 6.7234411
-15.872568 -2.2978723 6.7759466
-15.633903 -0.94042438 6.5377369
-15.662344 -0.99858677 6.5460505
-15.65827 -1.8232069 6.6828218
-15.64031 -2.141638 6.738059
-15.301443 -0.77427256 6.5061927
-14.805136 -0.58894426 6.2822227
-15.194394 -1.0128747 6.5534515
-15.599668 -1.5946671 6.6690049
-14.992115 -0.73945856 6.4972425
-14.55405 -0.62442577 6.4576569
-15.119196 -1.353345 6.6565008
-13.908755 -1.6047195 6.6007094
-13.686844 -1.2272882 6.5402389
-13.75933 -1.4609514 6.582819
-11.227136 -2.5727398 6.4681396
-13.746868 -2.3686998 6.715229
-11.075665 -2.6159019 6.2031388
-11.347019 -2.5424535 6.2344618
-13.679697 -2.4826255 6.4424562
-13.647174 -2.1848364 6.6893568
-13.670713 -2.1105702 6.8045068
-13.655106 -1.9723918 6.6536255
-13.650229 -1.8491411 6.6343293
-13.513555 -2.0945923 6.6682301
-13.501195 -2.0255244 6.6527653
-13.48022 -1.9696832 6.6495466
-13.437561 -1.7983226 6.6178093
-13.621523 -2.0705006 6.6691346
-14.271708 -2.4032805 6.9039216
-11.34496 -2.5989666 6.1654878
-14.447819 -2.6455181 6.6142316
-11.05434 -2.5718656 6.2806158
-10.851689 -2.5313895 6.1927834
-14.136058 -2.602993 6.5331178
-11.961197 -2.5360887 6.2108111
-11.238836 -2.5516262 6.3466053
-11.863839 -2.493006 6.4329243
-13.578543 -2.2232449 6.6988964
-13.692213 -1.9860784 6.7654977
-14.514662 -2.0067399 6.7847753
-11.369797 -2.4705946 6.2084794
-11.351335 -2.473139 6.4031672
-13.622478 -2.2577102 6.7023849
-11.565639 -2.6167967 6.1557736
-13.931589 -2.6136711 6.4302502
-11.743484 -2.4428008 6.1825557
-11.743565 -2.4026411 6.4323497
-12.859749 -2.7137377 6.4582815
-14.021236 -2.6292057 6.519402
-13.576064 -2.61848 6.4981866
-13.952435 -2.5655704 6.6551604
-12.802365 -2.3442783 6.6591444
-12.694094 -2.4027839 6.4989295
-12.1701 -2.7322011 6.466454
-12.647164 -2.6522605 6.5969772
-15.058738 -2.5961757 6.3603897
-12.929104 -2.6238394 6.37322
-14.257137 -2.6087499 6.480886
-12.732909 -2.6736865 6.4444919
-13.326818 -2.6324649 6.3782024
-12.27555 -2.6245577 6.3801584
-12.663604 -2.6635606 6.5158205
-13.455745 -2.6374238 6.3852034
-12.979532 -2.68116 6.4216151
-14.271932 -2.5298486 6.3952703
-13.241482 -2.675256 6.497333
-12.289526 -2.4017162 6.7104225
-11.549284 -2.5634494 6.2560377
-14.448825 -1.3546309 6.6158552
-11.55949 -2.512049 6.3935533
-11.425265 -2.536134 6.2758331
-12.346706 -2.5236361 6.2370191
-14.349239 -0.89433837 6.4473825
-11.406227 -2.5150142 6.1925168
-14.037108 -2.5423083 6.3618393
-13.955972 -2.3846662 6.7360258
-15.339662 -2.3433189 6.7768884
-14.949209 -1.3200279 6.5948243
-15.911598 -2.359936 6.7875171
-11.835541 -2.6021709 6.2912378
-14.450017 -0.70618081 6.4075117
-12.121278 -2.5798874 6.6093283
-11.97619 -2.6151369 6.2662473
-15.724561 -1.3145803 6.592639
-15.808794 -1.6636952 6.6475711
-15.152685 -1.3248909 6.5857015
-15.740519 -1.316732 6.6258402
-12.27659 -2.5502892 6.5947556
-13.164305 -2.5652027 6.6828041
-14.241456 -2.553242 6.7631483
-14.041335 -0.72087783 6.3669734
-12.273127 -2.6053092 6.3045592
-15.379639 -0.93030137 6.527492
-14.46855 -2.5846765 6.8309984
-14.92029 -0.95647722 6.5021238
-15.485904 -2.3581679 6.7753353
-13.246806 -2.501085 6.5236335
-14.502396 -2.6295619 6.7966743
-15.299002 -0.98053938 6.5337677
-13.753256 -2.291651 6.7276893
-13.159105 -2.5085702 6.5289426
-13.350592 -2.4901109 6.5423203
-13.637826 -2.6476531 6.4362507
-14.554967 -2.6518815 6.6126828
-14.030539 -2.5446088 6.675694
-14.483725 -2.4002113 6.4755406
-15.975718 -2.2354708 6.7904325
-13.270494 -2.3962977 6.7222667
-14.055413 -2.6322188 6.4243965
-12.88167 -2.6358552 6.4461923
-14.741678 -2.5359354 6.4932318
-12.590203 -2.3485453 6.7026725
-15.000451 -0.73644304 6.4307737
-14.370913 -2.5785134 6.784245
-15.701548 -1.5882564 6.6214361
-13.865723 -1.355469 6.5605817
-14.5447 -1.3560456 6.6272068
-15.758097 -0.99783301 6.5450058
-15.956491 -1.6080822 6.6599679
-14.768676 -1.3656003 6.6423388
-14.844234 -1.3729142 6.6669431
-12.564238 -2.5459399 6.6152439
-14.342467 -2.532057 6.3985949
-14.150872 -1.3405552 6.6076198
-15.549482 -1.1127524 6.5744071
-14.352876 -1.3543559 6.6214972
-13.743119 -1.3669534 6.5632968
-13.985556 -1.3158407 6.5924888
-15.743401 -1.2023822 6.5876622
-12.27207 -2.5252542 6.2383957
-11.863749 -2.5518177 6.2151918
-11.773206 -2.5101516 6.1840539
-14.248336 -1.3555957 6.6155772
-15.26108 -1.6395246 6.6457143
-15.257852 -1.3281562 6.5995049
-11.61558 -2.5453501 6.1916747
-14.641245 -1.36273 6.6386681
-14.650045 -0.89936119 6.4854555
-14.361035 -1.3279029 6.5600615
-15.233568 -1.0995582 6.5642476
-12.650419 -2.599755 6.6328712
-14.641776 -1.5508134 6.6383843
-15.846758 -1.4024347 6.6130404
-15.955183 -1.2166394 6.5754538
-12.875175 -2.5690334 6.6931977
-14.865392 -0.7026633 6.3998475
-13.215462 -2.4424081 6.6771846
-14.923732 -0.69433272 6.4069505
-12.766325 -2.4277272 6.7033081
-14.495777 -2.6153171 6.4871974
-15.64872 -2.3613343 6.7750454
