# .PCD v0.7 - Point Cloud Data file format
VERSION 0.7
FIELDS x y z
SIZE 4 4 4
TYPE F F F
COUNT 1 1 1
WIDTH 1611
HEIGHT 1
VIEWPOINT 0 0 0 1 0 0 0
POINTS 1611
DATA ascii
45.918888 30.124617 54.207066
50.480129 30.375816 53.956944
49.768414 25.661358 54.306068
46.069969 30.482553 54.055195
50.402267 30.457922 53.990364
48.37524 30.487234 54.044746
49.96862 22.204489 54.346207
50.275383 30.260111 53.987755
50.644234 24.444778 53.980888
49.865334 26.304707 53.996704
50.097824 30.275095 53.99876
50.101196 26.881969 53.925041
49.968407 24.152576 53.998203
49.970768 25.935581 54.018692
50.273232 30.471523 53.977287
49.54126 23.011988 54.101273
49.477669 25.180719 54.075058
49.673401 25.986734 54.3186
48.473076 30.494709 54.038319
49.690086 24.250807 54.345898
49.13554 25.515326 54.201614
49.420925 25.087255 54.332336
49.805214 26.753454 53.977467
49.58094 24.540182 54.040306
48.945053 22.61775 54.151737
49.189327 21.821678 54.224476
46.372169 30.263905 54.067593
47.876183 30.203077 54.102577
49.758369 25.068491 53.961712
48.473034 30.166935 54.030903
49.265141 22.887417 54.074062
49.675629 23.652058 53.956245
49.678761 27.121218 54.045757
48.998482 25.366266 54.332985
47.776058 30.040573 54.068871
50.089748 23.873114 53.93269
49.873013 27.375917 53.988415
50.179436 28.361088 53.94381
49.676174 25.71476 54.373798
49.575768 23.169434 54.029213
49.604652 27.065788 53.994339
50.456638 21.940626 53.905037
45.686211 30.225151 54.186638
45.579136 30.1728 54.04583
50.169609 25.04801 53.929478
46.37701 30.032858 54.084637
50.184719 21.850698 53.902946
49.876217 25.23019 53.993626
49.680412 27.25688 54.037464
50.082207 21.87686 53.935287
48.990326 23.526726 54.262825
50.061478 24.474951 53.990761
50.175545 22.694742 53.912201
50.072033 27.068062 53.962513
49.576637 27.503803 54.032761
50.279613 30.142439 54.01746
50.165356 30.027739 54.002819
50.170467 21.716434 53.930065
50.266785 23.203232 53.93644
48.845333 24.331821 54.126179
49.970974 22.619846 54.01894
44.688831 30.041252 54.08585
50.572495 26.273092 53.990376
45.581726 30.263111 54.06551
50.271385 22.18379 54.348083
49.880459 26.759747 53.976143
47.573612 29.962879 54.05835
49.430618 24.058859 54.039371
49.790642 27.02482 54.361813
50.171829 26.538471 53.943787
48.272579 30.260216 54.054573
46.877968 30.128868 54.096039
46.673534 30.26222 54.067268
49.132946 28.994783 54.21104
49.498302 24.862984 54.341976
50.462212 24.269447 53.908417
46.570965 30.262238 54.06414
50.457062 22.578568 53.909023
48.473816 30.361082 54.057388
49.294964 21.693182 54.263535
48.670731 29.96863 54.035389
50.270283 26.407532 54.00174
46.973892 30.164747 54.055473
46.574112 30.165359 54.054092
49.946751 30.356161 54.015911
45.363125 30.080759 54.033813
49.985733 29.709518 54.339966
49.371643 26.486393 54.071228
49.583645 26.492119 54.032578
49.78949 26.616127 54.326183
49.023727 25.500282 54.162632
50.361328 23.196104 53.939854
49.877205 25.659182 54.302834
50.344986 27.430372 53.918125
50.226303 27.054497 54.020699
50.465595 25.792107 53.886951
49.077271 30.032867 54.044415
48.777153 30.359205 54.058277
49.855358 23.401228 54.001205
48.970001 30.354948 54.050678
45.001022 30.271118 54.078552
49.665291 26.574661 54.051868
50.564709 22.828474 53.891216
49.564407 26.601334 54.341057
50.056541 24.364382 54.339657
46.170547 30.033585 54.086445
49.616032 22.607561 53.986259
45.978477 30.13455 54.106922
49.684101 26.591806 54.32766
49.272507 30.457903 54.072025
46.164364 30.134789 54.106045
50.569618 21.757254 53.861168
49.779675 26.185722 54.017967
49.970688 24.281668 53.963669
46.783108 30.129168 54.10606
49.368011 30.388824 53.974243
49.374668 25.842838 54.37553
48.376907 30.262579 54.05196
46.573093 30.23801 54.131119
46.478756 30.258184 54.070866
46.472176 30.559599 54.085918
48.977352 30.392426 54.000813
46.986038 30.30558 54.151093
49.973503 27.482889 53.990189
46.972927 30.359119 54.076454
48.967197 30.139868 54.063011
46.771774 30.170624 54.052719
50.071297 26.399904 53.993958
50.280014 23.790945 53.907112
49.365147 30.150484 54.056736
50.175423 21.609756 53.914436
50.450199 25.59049 53.909851
45.369869 30.262463 54.075359
50.373543 24.019049 53.884701
45.601254 29.858215 54.005875
49.572353 22.963951 54.312447
49.072483 30.496023 54.014309
49.588516 27.133541 54.070324
45.579826 29.952982 54.07114
49.377419 26.167427 54.348213
46.165077 30.397816 54.045795
47.670628 30.225113 54.104294
49.388191 26.041441 54.25761
48.565655 29.965004 54.038807
45.397182 30.515032 54.011097
50.439713 23.870749 53.974918
49.878151 28.463737 53.984421
50.152554 26.389194 53.988388
45.17223 30.052122 54.090214
45.971607 30.393244 54.041145
50.163776 27.544926 54.358078
46.068829 30.394745 54.048721
45.114532 30.042934 54.104126
50.178139 23.028627 53.92778
49.515614 26.121613 54.173985
47.178589 30.128731 54.089497
46.168709 30.166845 54.050495
49.61208 25.759459 54.309422
49.902149 24.004391 54.043159
48.474125 30.136736 54.064411
49.558983 30.359646 54.038406
50.254738 21.996161 54.002918
49.57143 27.677898 54.051113
46.969753 29.818686 54.11253
48.874176 30.485874 54.026684
50.268993 26.435022 53.92865
50.092442 21.733093 53.955837
46.064636 30.141533 54.110119
50.172424 22.571869 53.937862
50.408066 27.466536 53.94965
50.363976 26.21674 53.910767
46.960403 30.214685 54.125584
48.17952 30.220449 54.105644
49.892738 26.372177 53.942062
49.273415 30.134848 54.05653
48.872532 30.455679 54.075668
48.778839 30.450556 54.077991
50.351124 30.138979 53.981174
50.579056 22.386404 53.892887
50.164036 24.15785 53.965233
45.672398 30.036524 54.087399
46.077297 30.037395 54.089645
47.875271 29.966833 54.053226
50.375401 26.431168 53.920357
49.979053 25.578201 53.944176
46.470936 30.036821 54.088638
49.140457 22.515213 54.148254
50.256504 26.344759 53.926975
50.076809 23.013189 53.932533
49.711075 27.733208 54.071419
50.178638 26.437647 53.932903
46.387241 30.233801 54.132362
47.902229 30.314886 54.131458
44.242332 30.329708 54.236252
50.368065 30.376823 54.006104
43.852131 30.434683 54.226639
50.266579 27.385595 53.936127
49.5783 25.103445 54.023102
45.596565 30.462626 54.121811
50.171268 21.716778 53.996292
49.340858 21.811752 54.305496
49.771126 27.15012 54.324318
50.088043 22.806107 53.945
49.186901 27.222281 54.093899
49.037575 22.692699 54.297844
45.390934 30.242943 54.144405
46.375996 30.165586 54.058823
50.159882 24.688885 53.965721
50.25222 28.349909 53.966618
46.762646 30.392393 54.04105
44.177368 30.317753 54.257229
50.273052 29.963003 53.966457
48.779255 24.517078 54.260529
50.075832 24.37888 53.959084
50.384209 22.698164 53.90258
50.46796 24.930569 53.900623
45.470154 30.256483 54.073097
48.571545 30.454002 54.075985
50.442814 29.943953 53.977001
50.641941 30.567078 53.828442
50.076534 26.433359 53.945175
50.270592 22.664457 53.948296
49.88295 25.414459 54.030746
50.48431 23.208647 53.917198
48.875099 30.13257 54.061985
50.294548 30.370693 54.016281
43.977421 30.472181 54.234886
46.371498 30.134109 54.113152
45.59602 30.433571 53.985397
48.171539 30.138216 54.068119
50.16774 26.690603 53.991867
50.641106 30.388508 53.968075
49.126995 23.621683 54.191113
50.364124 24.959906 53.902176
49.874638 27.076822 53.985783
50.269306 25.797806 53.913223
47.197815 30.217588 54.109253
48.574894 30.132303 54.067131
45.977951 30.031054 54.090267
49.789444 26.489246 54.363407
50.250198 26.301834 53.938728
50.580856 30.064749 53.977715
50.164322 26.577726 53.917011
49.945484 24.06167 54.314987
47.373909 30.038813 54.071026
49.971027 25.982193 54.314507
46.878502 30.362637 54.079124
46.677643 30.492935 54.06242
47.976681 30.135967 54.072056
49.474998 23.481407 54.369083
47.073318 30.169477 54.051533
48.271339 30.219566 54.096706
50.741261 29.974705 53.989491
47.677086 30.450148 54.088848
49.87413 26.565256 54.381088
45.671371 30.172251 54.054394
49.969646 29.278551 54.017822
48.975662 30.03985 54.045017
50.447739 26.300138 53.918793
50.178841 24.507467 53.931255
49.473305 30.374519 53.983295
50.474758 26.938082 53.897598
49.4487 25.278004 54.352615
46.07777 30.560614 54.085903
49.982643 26.31365 53.970039
49.480278 25.196808 54.032253
49.18309 25.939098 54.371166
47.573673 30.454882 54.089664
45.48373 29.961102 54.070148
50.137875 24.798193 54.00235
50.265923 24.406946 53.914413
48.893173 26.087574 54.088566
49.489204 25.483938 54.258736
45.175789 30.257088 54.077412
45.349911 30.124941 54.104168
44.986141 29.96352 54.104465
45.378735 30.388826 54.035511
49.510258 28.332552 54.077801
47.474716 30.132116 54.082752
50.463547 22.383944 53.888836
47.874783 30.040764 54.06472
49.779861 29.484386 54.343723
49.273075 30.039448 54.036991
48.573887 30.034769 54.058979
48.572422 30.257309 54.046909
49.979076 27.059355 53.968502
48.874008 29.96315 54.03231
46.465614 30.131828 54.109539
48.372307 30.17635 54.035686
46.762371 30.465723 54.119999
44.658749 30.230354 54.017708
50.226273 24.674105 53.955044
49.890961 25.813629 53.943508
47.571884 30.133802 54.081501
46.569996 30.556427 54.08564
46.573669 30.032475 54.079361
49.675636 26.185135 54.032753
45.371681 29.951952 54.065006
45.167011 30.205532 53.993382
47.673336 30.140491 54.076656
49.550919 24.860865 54.052547
49.468861 22.864601 54.031868
45.07354 30.109859 54.121639
49.887486 25.951721 54.031864
45.877247 30.363522 54.088181
49.180576 25.275585 54.304443
49.599705 24.59099 54.008175
49.866558 24.697639 53.99181
50.929062 30.228487 53.892174
49.14212 29.046801 54.317894
45.383583 30.054674 54.089664
50.266335 26.39127 54.348927
45.480549 30.026917 54.08326
48.814602 25.875906 54.140572
49.58913 21.618765 54.003273
49.570473 26.310148 54.034245
50.429489 26.650373 53.994728
49.368767 30.038786 54.027699
47.375362 30.135319 54.085651
50.179611 27.287212 53.946087
47.078293 30.363108 54.077133
47.575237 30.037378 54.069336
45.301739 29.916265 54.15435
48.371906 30.451773 54.074734
47.752815 30.314997 54.1437
49.86657 26.942966 54.008533
48.628853 25.052481 54.068581
46.578613 30.363363 54.09053
48.345951 30.297302 54.108971
45.768375 30.143467 54.107529
50.373714 21.637621 53.89896
49.808212 22.430168 54.336903
49.77161 25.967926 54.320793
46.678192 30.168674 54.055443
48.677162 30.226093 54.081951
49.885838 24.20649 53.965508
50.155037 26.934156 53.977375
47.374199 30.456331 54.096081
47.773449 30.136045 54.077278
49.601242 25.331982 54.337837
45.176994 30.058914 54.043552
49.872295 27.475672 54.004467
46.772472 29.969606 54.06654
45.574924 30.389746 54.039841
46.872734 30.035574 54.076538
46.179989 30.351107 54.09721
46.775043 30.034229 54.081039
49.183205 30.127317 54.056087
48.600994 25.07041 54.180775
48.955585 23.438307 54.061245
49.504856 26.995461 54.359879
49.362965 28.943808 54.379917
44.8657 30.393511 54.050941
49.07975 30.391727 53.991798
48.771168 30.137371 54.061729
50.486961 30.48966 53.956268
48.372757 30.360859 54.057098
50.184792 30.411905 53.922424
50.55846 24.41489 53.879349
49.490086 27.775969 54.027779
46.568394 30.136009 54.104233
49.675495 23.728037 54.038013
50.066364 24.143322 53.980175
49.976471 27.650309 54.37661
49.077675 30.358131 54.05722
49.684078 27.460457 54.030243
49.079334 30.138422 54.059185
45.373753 29.922585 54.140293
46.873047 29.96496 54.066986
50.144703 23.49453 53.904369
49.688057 23.839022 54.015533
47.073975 29.965797 54.062229
50.363224 26.125517 53.910015
50.077145 27.211281 53.94133
49.713573 26.015171 54.361771
49.866631 29.078407 54.322418
49.556908 30.264997 54.014938
50.269943 23.270134 53.965675
50.574692 23.037533 53.883514
47.274757 30.132463 54.086723
47.673546 30.04039 54.066914
48.371628 30.038319 54.060539
50.475063 27.693499 53.941177
49.687729 21.59351 53.996479
48.776131 30.035957 54.048302
46.07428 30.352467 54.09285
50.664791 22.339647 53.908836
49.968063 30.365963 53.948971
49.134613 24.762726 54.347271
49.099628 25.871128 54.147079
50.371334 26.53265 53.930019
49.969727 26.729942 54.003338
49.593136 22.658644 54.005215
49.670258 25.789684 54.092945
50.267422 26.116253 53.918282
46.794861 29.847225 54.124611
49.255325 26.015209 54.308266
49.669071 26.389778 54.335045
50.545444 25.812824 53.893845
50.330715 24.361713 53.924931
49.487617 30.139109 54.049393
48.176144 30.036263 54.060493
48.369793 29.965488 54.04285
50.373573 24.903858 53.939659
48.652557 24.390776 54.192932
51.098083 30.055193 53.976246
49.494255 28.754122 54.356297
50.269016 26.984886 53.932556
49.784309 27.663937 54.385132
48.971874 30.447563 54.077393
50.08226 21.622795 53.934528
50.057312 24.32765 54.36224
48.173965 29.965233 54.050533
48.868095 30.392569 54.004642
50.161205 24.358372 53.951557
47.772694 29.965061 54.053864
50.350597 24.063204 53.957954
49.757038 22.77256 54.005596
49.584579 25.093981 54.346054
49.320171 29.304409 54.393978
50.075207 26.537348 53.956238
50.110622 30.407034 53.969543
50.373093 25.05718 53.916618
49.425022 26.59989 54.047138
50.166317 25.791588 53.924171
48.870369 30.034546 54.045105
49.488724 22.478857 54.023258
48.674145 30.037586 54.053387
50.161606 23.800953 53.915806
48.773819 30.258284 54.041496
49.573059 30.395073 53.981438
44.524849 30.362846 54.046177
50.844292 30.45677 53.94619
46.963081 30.390251 54.040932
45.58371 30.519163 54.010159
48.771805 30.49147 54.032108
45.984039 30.566584 54.088043
47.365913 30.219059 54.10928
49.23959 28.981339 54.382278
47.369347 30.258181 54.061703
50.271908 21.732784 53.916153
50.077225 29.144371 54.399094
49.368717 30.354366 54.05175
47.875393 30.494795 54.049477
48.670521 30.262871 54.041077
50.487099 25.161985 53.871845
50.35952 25.804899 53.906158
49.585377 25.157576 54.021896
49.962826 22.525938 54.005692
44.724472 30.410435 54.023212
49.871517 27.56806 54.023525
49.274712 30.401535 53.991043
47.967884 30.451332 54.083134
49.670799 22.403559 54.330879
49.789158 29.2684 54.358551
49.555656 22.45915 54.001701
46.875507 30.169813 54.054256
49.863285 22.761545 54.008244
49.472759 22.525795 54.042461
50.102551 21.960007 53.945614
49.96521 24.70739 53.982578
49.564465 26.563612 54.368225
46.772236 30.36211 54.081562
49.86208 24.252686 54.026077
50.069283 24.095198 53.917175
49.149597 29.603916 54.368172
49.550739 26.551157 54.289642
48.955235 22.127459 54.05434
50.382401 22.076841 53.882488
48.273262 30.490824 54.04644
49.27211 30.485985 54.013634
48.181583 30.453117 54.074612
47.469666 30.034878 54.071037
50.070778 22.218187 53.982861
45.177841 29.887104 54.071842
47.973278 30.03804 54.064655
49.772675 22.297108 54.346333
50.364956 27.294691 53.931065
45.882633 30.114765 53.963181
49.373806 30.461632 54.068504
50.429623 23.520405 53.930862
49.971443 28.319252 54.349007
49.468922 30.25886 54.011936
49.972095 28.549149 53.992157
47.975281 29.967316 54.051167
49.774914 30.029196 54.015774
49.862381 22.29389 54.345184
49.594826 25.409077 54.353279
49.588722 22.793392 54.021637
49.976795 21.924856 53.938728
46.691231 30.244926 54.137203
49.162399 24.452246 54.221088
49.659191 24.122379 54.077385
50.176674 24.099018 53.916969
49.368717 25.671658 54.279995
48.762505 30.405621 54.011612
49.702629 22.298372 54.330544
50.261528 26.893454 53.926735
49.486492 27.575983 54.337036
45.773262 30.041555 54.087215
49.981304 24.473413 53.990402
50.574631 22.160675 53.899372
49.775192 22.670336 54.005211
49.277473 30.355343 54.049706
50.270782 27.286385 53.934101
46.4744 30.170218 54.057316
47.277554 30.457689 54.100582
49.766556 25.334717 54.018154
49.403458 29.259491 54.357498
48.072289 30.036488 54.060482
50.264248 28.852911 54.335049
48.598949 30.449692 53.82428
50.375965 24.87603 53.897499
50.382992 28.242794 53.932358
46.766129 30.213882 54.129463
50.379532 22.207382 53.971706
49.073814 28.004509 54.18626
50.180618 22.399433 53.904556
45.913975 30.369247 54.200653
50.182919 30.501043 53.984749
50.075741 30.02108 54.004379
46.174641 30.245213 54.152164
49.416752 24.585999 54.038227
50.382275 30.039293 54.004414
48.986732 22.273678 54.122059
48.671555 30.489965 54.028038
46.270618 30.030903 54.083633
47.271828 30.169079 54.054794
49.49855 24.582897 54.04118
49.76862 22.229839 54.002441
45.881371 30.033588 54.085526
49.761883 30.370268 54.013725
49.77396 28.111992 54.032413
49.374763 30.159798 54.00584
49.765587 25.771801 54.009201
49.882202 24.467165 54.003036
50.168331 22.668047 53.945362
49.982445 26.040625 54.380905
49.86536 22.68668 54.376301
49.584362 26.609371 54.022156
49.580437 30.118807 54.050919
45.879417 30.268776 54.065071
50.363148 22.371155 53.892925
50.065712 23.556005 53.924892
47.871246 30.263067 54.058418
49.738937 23.7519 54.01342
50.069954 27.287825 53.956566
45.001236 29.871729 54.097069
49.775871 27.551071 54.360352
50.470657 23.900812 53.886604
45.87751 30.495037 54.061451
47.070957 30.040264 54.075043
45.576511 30.035646 54.080338
49.170609 30.2626 54.021961
50.27441 30.049772 53.993343
50.172329 23.205254 53.947445
49.21907 24.5079 54.188995
49.26696 30.272554 54.018143
49.972603 23.201769 53.975029
47.063892 30.215364 54.120277
47.674385 30.490803 54.05397
50.45982 26.896986 53.916119
49.687107 22.32082 54.023491
44.196918 30.029362 54.325062
49.952011 22.221506 53.99757
45.779274 30.260502 54.068913
45.030468 29.893118 54.068756
49.592148 27.164001 54.322369
49.779148 21.692644 54.003578
50.240826 22.204058 53.954342
49.975548 21.690611 53.996101
46.773464 30.266363 54.061775
49.778233 29.614132 54.328934
49.586971 23.20751 54.015232
48.852543 22.394773 54.089359
50.662098 22.703587 53.872967
50.257999 22.135372 53.963097
50.372223 29.9503 53.970879
49.99614 24.550383 54.007774
49.813213 25.366896 53.980869
49.042233 25.491701 54.027298
50.069885 24.281702 53.946121
49.786346 30.264643 54.010399
46.800991 29.986958 54.003094
50.167679 24.90439 53.949787
47.475037 30.16889 54.05085
46.076969 30.166527 54.053303
45.476807 30.175531 54.046219
49.779625 23.839678 54.002163
46.9744 30.035721 54.078167
48.06517 30.399914 54.029842
49.390007 22.118481 54.245872
49.65966 30.135042 54.03532
47.873249 30.135334 54.075275
47.282291 30.403225 54.034103
49.248924 29.591421 54.374325
47.27734 30.495924 54.058537
49.91906 21.967852 53.947899
45.375805 30.183918 54.043411
47.969891 30.170502 54.04327
49.666203 30.356815 54.038437
48.26495 30.399765 54.025089
50.378807 21.957159 53.901028
47.574001 30.260855 54.060055
49.875183 24.568417 54.021534
44.659901 30.189274 54.064709
49.680737 22.254358 54.332581
50.203373 24.334061 53.90876
47.376236 30.496403 54.05434
49.473682 25.085972 54.070705
50.069588 25.750185 54.339413
50.819214 30.051495 53.985073
46.477146 30.353352 54.091034
49.471428 30.358973 54.036621
50.451324 30.157963 53.982037
49.674549 30.495695 53.998684
48.81213 23.822594 54.109653
49.987427 27.288147 53.965664
49.482491 22.670397 54.020573
48.967804 30.264877 54.032619
49.277424 25.637802 54.306362
46.877922 30.231316 54.124821
49.269321 30.162794 53.995422
49.174332 29.968452 54.02433
49.173561 30.392229 53.988522
45.193695 30.390074 54.049526
50.371002 22.67528 53.932392
49.876297 28.319372 54.345695
49.201389 22.172504 53.990749
50.098476 24.56958 54.010349
49.613766 28.722015 54.042152
46.176548 30.258204 54.066219
48.874306 30.259197 54.037457
50.058601 22.6507 54.321823
50.470325 24.332277 53.897728
50.078011 25.802694 53.932758
51.162006 30.240992 53.973343
45.086945 29.982315 54.01733
50.309616 30.399727 53.962055
48.174694 30.261131 54.052364
44.688705 30.06069 54.053524
50.970848 29.961269 53.852715
49.770729 29.062733 54.322762
50.186275 30.37438 54.005875
49.962101 25.720743 54.369862
49.982117 25.806799 53.941109
50.278015 24.34053 53.907803
49.088779 23.646662 54.329342
49.495083 28.088343 54.054699
50.079647 30.361912 54.014217
43.786518 30.464663 54.241261
45.387505 30.490885 54.046555
47.963928 30.073589 53.996838
50.434868 24.380501 53.892639
50.181812 24.408962 53.920582
49.568817 28.249439 54.022041
48.272316 30.318575 54.120438
49.977329 23.483879 54.360439
49.774387 25.094896 54.025604
49.666267 29.075502 54.327812
47.172871 30.393927 54.041275
49.787178 25.308451 54.343853
49.59441 25.19648 54.060799
50.074127 23.974039 53.941528
49.874798 25.677555 53.978771
50.414749 30.420574 53.998821
49.614288 23.112957 53.97332
50.346237 24.403275 53.91077
50.344044 25.942154 53.871227
49.872326 22.899546 54.319206
45.276794 30.400032 54.027851
48.170563 30.169146 54.042896
50.265354 24.505011 53.918919
49.572006 28.41588 54.055012
49.07262 30.458683 54.076313
50.861153 30.405352 53.960049
50.855793 30.205221 53.968983
45.294998 30.490009 54.050934
50.701656 22.815626 53.827835
50.256741 23.869583 53.915581
49.879608 26.680048 53.953014
50.164043 26.29538 54.325706
49.78175 23.255138 54.372177
50.188313 26.037161 53.916431
48.38876 30.409481 54.030125
47.383789 30.403387 54.036427
50.194828 22.001785 54.006439
47.412746 29.94838 53.968178
49.759357 30.502625 53.996761
50.423336 30.397806 53.880451
50.488255 24.97961 54.017521
49.671631 25.112791 54.030514
49.672256 24.049204 54.01376
50.489105 25.727108 53.911751
49.757236 24.903502 54.330738
49.670696 23.201366 53.994087
46.570889 30.388876 54.0443
48.987061 29.607819 54.354004
47.173965 30.17099 54.05302
46.479763 30.396463 54.045174
50.17054 27.158766 53.960747
45.483913 30.389055 54.037323
49.972092 24.909016 53.976101
47.977116 30.492485 54.043121
50.540207 23.544239 53.891022
49.21349 24.486269 54.23003
49.691765 26.815474 54.040981
49.967373 28.42795 54.015858
50.380329 21.916727 53.964958
49.955276 26.327513 53.914948
48.872383 24.41518 54.182392
49.677265 25.010798 54.346542
50.704716 30.010229 53.953442
50.361557 27.076635 53.926308
50.37487 23.797447 53.906071
49.045532 24.465885 54.299393
49.266033 28.048096 54.060581
46.679348 30.076611 54.036274
49.796352 22.308788 54.009098
49.873932 23.250681 54.369286
49.764858 26.810799 54.034821
49.435139 26.820316 54.035126
47.57452 30.492533 54.053596
49.584087 24.991877 54.340099
49.570717 24.685873 54.337982
49.905308 22.228325 54.00816
47.657185 30.547533 53.977291
49.967632 25.447388 53.9697
49.884972 24.993118 54.350475
49.56284 29.26849 54.380047
49.605877 26.966352 53.972439
50.065559 22.423813 54.340267
49.782024 24.682274 54.337391
49.804611 26.639353 54.393566
49.498886 24.850527 54.034988
49.868843 26.811203 54.031197
49.663486 24.875715 54.02972
50.246914 26.628735 53.957203
50.07338 24.062052 53.955421
49.384827 25.020159 54.36322
49.853897 26.991758 53.978775
50.170296 30.086004 53.941517
49.105003 29.036274 54.327393
50.381279 24.331678 53.900345
49.791073 27.187115 54.409531
50.353733 21.627335 53.977203
50.453281 23.768398 53.893036
47.683968 30.391024 54.035511
48.938469 25.948627 54.136337
49.319145 22.32814 54.315613
51.250278 30.390232 53.941479
45.186954 30.48395 54.077042
47.971699 30.260479 54.058556
50.489193 21.990606 53.847332
51.165573 30.084106 53.921219
49.982235 26.40605 53.998398
49.175831 28.032064 54.060207
49.700432 26.973331 53.973045
49.558868 29.085846 54.380817
50.287083 28.295309 53.929497
49.78503 26.934631 54.023869
50.177071 22.088209 53.894852
50.455742 24.579115 53.903744
50.252026 27.749546 53.91576
50.368507 27.741053 53.917515
49.772125 23.962805 53.980709
47.57206 30.393297 54.037922
44.918022 30.5065 54.057167
49.668751 25.680712 53.997093
50.480507 27.410379 53.904984
50.181061 25.684782 53.928883
44.964336 29.991575 54.043087
49.889015 30.059629 53.94532
49.880856 28.125259 54.020309
50.066051 28.442879 54.29467
49.857403 27.500151 54.406521
50.074696 27.151546 54.333
50.833332 30.032953 53.963593
50.54649 23.655258 53.890499
49.880653 24.385103 53.992493
49.552425 26.046408 54.062572
49.585873 26.002048 54.00708
49.387142 22.826359 54.279667
49.797592 26.992996 53.978294
50.290283 27.781796 54.004517
50.101128 24.339737 53.916786
49.778099 27.153624 54.014202
49.877522 24.327053 54.363186
48.764633 30.31863 54.121681
49.772923 30.059225 53.934574
50.260632 24.91538 53.947182
50.250076 24.469179 53.970356
50.073189 21.914799 53.977356
49.255711 21.792124 54.314011
50.186832 24.647577 53.917191
48.071609 30.259577 54.054066
49.784 22.658144 54.335167
49.779896 27.865866 54.362568
49.524746 24.538708 54.323925
50.272396 24.635525 53.908962
50.363411 24.640453 53.901573
49.986729 22.672482 53.983418
47.473534 30.496475 54.056007
49.874672 24.494467 53.966164
50.174747 29.212282 53.954041
50.466702 28.224279 53.933735
50.077137 28.108269 54.010956
45.085075 30.479568 54.056877
49.986111 23.525232 53.974026
49.175591 30.495211 54.011093
49.943829 30.479778 53.977425
50.071217 25.999245 53.955475
49.90453 26.257887 54.033989
50.470181 21.725544 53.909912
49.572933 27.667313 53.969311
49.774044 28.019241 54.022133
49.201805 24.943789 54.168522
49.46529 30.48642 54.004509
49.49754 21.809685 54.341831
45.975716 30.170301 54.049019
50.27779 22.067167 53.876781
49.596569 23.142752 54.344387
49.036015 23.801701 54.321796
49.981583 23.750626 53.972816
49.374184 22.351719 54.278259
46.472969 30.489166 54.061852
50.469776 27.206806 53.908978
48.771 23.240314 54.072369
49.776432 22.970894 54.340996
49.095375 29.70615 54.388836
49.855106 29.62863 54.434956
46.173065 30.578878 54.020859
49.369656 30.488531 54.01091
49.590439 22.831816 54.045685
48.966038 30.483669 54.025646
48.874474 24.918745 54.086571
49.589851 26.927259 54.025707
49.682472 27.030739 54.359463
49.776825 24.781351 54.354229
49.669563 24.836637 53.999931
49.682274 23.826851 54.332664
49.562176 25.620787 53.984894
49.664062 22.944929 54.31485
49.082108 23.590183 54.211414
50.067574 25.762327 53.967365
49.970421 25.777452 53.977173
49.781361 25.680717 53.990688
49.772434 21.792625 54.325478
50.177086 25.747406 53.944901
49.59478 25.742594 54.029072
44.122448 30.228035 54.258976
50.463829 21.633932 53.895515
50.279583 21.618103 53.906998
49.903896 21.733633 54.311928
49.278442 25.020802 54.358021
48.768372 23.533838 54.100494
44.483261 30.321819 54.270229
50.074856 23.522255 53.967289
49.984123 26.982872 53.960648
50.462158 27.871981 53.922478
49.99773 24.420666 53.938053
50.069851 28.145584 53.956974
49.761913 23.737375 54.314941
49.587162 28.650438 54.030941
49.780975 28.652128 54.027607
50.404022 30.080265 53.937592
49.570572 26.184958 54.034473
49.67725 26.724319 54.038383
49.688671 25.43248 54.038017
50.468082 23.987333 53.901993
49.874916 21.910658 53.990673
50.072224 25.041182 53.943584
49.676529 24.920351 54.32711
50.496059 26.245747 53.918152
50.365715 26.948299 53.925976
49.042568 25.783846 54.291859
50.072006 24.828001 53.944485
50.073734 30.068642 53.941383
49.683552 28.64043 54.341877
49.962673 22.962736 54.337749
49.700626 23.063662 54.334309
50.648952 21.810535 53.904598
49.562611 27.101358 54.378059
49.969513 21.815914 53.981525
49.321934 29.645016 54.353783
50.174095 26.962681 53.941746
49.343311 23.096291 54.269524
50.360645 21.81218 53.922134
49.863216 22.612331 54.03492
50.280006 22.359592 53.931149
49.890938 25.715508 54.368073
50.178566 27.743362 53.930695
50.162178 21.812384 53.959644
50.26902 23.967051 53.925594
50.181942 24.951794 53.926517
46.675205 30.033808 54.081272
49.888695 26.804445 54.376392
49.672703 23.74581 53.977119
50.26133 21.813112 53.94762
50.067806 21.80794 53.973793
49.454277 26.736797 54.060913
48.925014 25.327557 54.072887
49.966053 21.730637 53.954796
50.377316 21.731627 53.908424
48.74456 25.509647 54.081264
48.979076 22.314205 54.089771
49.876076 27.160126 54.000248
48.802704 23.613724 54.128674
49.549072 22.861004 54.30357
49.093872 22.925077 54.058678
50.071621 24.917183 53.956448
49.563087 24.249287 54.335598
45.083935 30.16819 54.054073
49.486626 22.596195 54.010563
49.969532 23.737593 54.296146
49.059017 21.771818 54.304428
49.400181 24.174387 54.189064
49.976471 25.683369 53.96244
49.497231 25.750874 53.964691
49.595127 27.570784 54.037514
50.55452 25.39024 53.870075
49.886574 25.775984 53.984032
49.36779 30.269176 54.024967
50.074085 25.674845 53.943562
50.365314 22.343348 53.925213
50.468761 23.130367 53.903152
45.021748 30.099457 54.124615
50.58326 24.656767 53.870392
50.058041 23.207705 53.961781
49.494926 27.054163 54.316315
49.968616 28.231373 53.981178
49.858727 23.112059 53.973656
49.968506 23.114468 53.957195
49.261883 24.223457 54.06892
49.988132 22.884224 54.289234
46.373913 30.496298 54.062084
49.455967 29.167616 54.358227
50.153965 22.980764 54.347069
50.541836 22.897205 53.887856
50.661964 21.733061 53.905655
50.524876 23.502325 54.026043
49.676727 24.258657 54.031422
45.574848 30.124542 54.113983
49.086201 24.733416 54.344238
49.971233 23.243858 54.364853
49.883846 25.102913 54.014595
50.263779 25.040524 53.924908
49.970802 21.592554 53.985825
49.78157 27.474304 54.018055
50.31538 21.69059 53.989239
50.003857 24.980591 53.944916
49.010254 24.96343 54.291641
50.263584 29.198444 53.973579
45.078609 30.077463 54.031162
49.972679 28.108612 54.014114
49.881603 26.703827 54.357536
49.981716 28.682701 53.967037
50.402004 22.613724 53.884521
49.148804 22.454857 54.113453
50.188465 23.559008 53.920647
50.075237 28.01088 53.97818
49.375084 24.693161 54.340057
49.870422 22.972775 54.33791
49.076965 30.269131 54.027676
49.866577 28.198984 54.03009
50.829956 30.129684 54.024517
49.859341 30.48933 54.000561
48.995987 22.973448 54.309147
50.165489 21.598015 53.969719
49.875713 21.608955 53.981228
49.141567 22.22444 54.046101
50.564323 24.932991 53.888073
50.085922 21.682058 53.990646
50.164036 22.224024 53.984737
50.269756 22.699747 53.910717
50.601437 23.954876 53.918377
50.478374 25.062569 53.899586
49.668392 26.005037 54.012665
50.281265 25.674736 53.930511
50.147575 28.400946 54.013645
50.168003 23.87289 53.928871
50.167698 28.007191 53.972076
50.258438 23.402054 54.001953
50.065269 23.375881 54.354408
50.264824 21.585638 53.955399
48.388405 30.074146 54.007992
49.781067 23.11685 53.980221
50.070004 23.128773 53.943596
50.270042 23.644491 53.926804
49.978081 25.999786 53.963047
49.870308 28.232113 53.996609
49.387352 29.387188 54.399166
50.58152 23.091005 53.90588
50.378963 23.128723 53.91346
50.269718 26.53006 53.928112
50.508953 21.573528 53.943459
49.78503 22.900526 53.988544
49.780212 26.843645 54.003433
50.100185 23.478813 53.907269
49.01572 25.556459 54.074139
49.873379 26.178844 54.01091
49.971615 28.009058 53.992134
48.088318 30.117861 54.158531
50.06955 26.72143 54.002789
50.368973 23.66238 53.911861
50.07933 22.942764 53.907654
50.175545 21.899796 53.976624
49.263714 23.17017 54.034569
48.948051 23.21102 54.053795
50.286877 21.895601 53.987747
50.169094 21.760883 53.890965
43.531082 30.207527 54.269405
49.372177 23.356943 54.340607
48.075027 30.492874 54.045403
49.675026 28.956804 54.035389
49.572159 27.429964 54.319118
49.687828 27.469698 54.318829
49.587723 26.708769 54.039131
49.864746 23.200552 54.326862
50.680519 22.895092 53.902489
50.272102 27.828827 53.93951
49.58683 28.633982 54.335503
49.886604 29.206291 54.408615
49.699184 23.401686 54.357342
49.2038 25.518616 54.141998
49.574863 27.889715 54.047451
50.271938 28.044176 53.934063
49.135998 24.055471 54.26833
49.473316 22.967875 54.082527
44.040913 30.391863 54.262001
49.082626 24.037931 54.322655
48.621918 23.890142 54.11655
49.8783 27.827173 53.966068
49.775307 24.145159 54.003021
50.176651 24.82683 53.931068
49.075806 24.543736 54.155842
44.563435 30.431246 54.244068
50.175041 27.815706 53.947334
48.953537 23.585438 54.042397
50.169579 28.049604 53.940151
49.298988 29.513666 54.33839
49.097389 30.304426 53.968903
50.17881 24.723782 53.927307
50.442215 27.091118 53.91198
49.965179 23.08489 53.99958
49.784443 26.039253 54.385677
49.047916 24.622942 54.20945
49.592678 25.933523 54.030666
49.77589 24.228445 54.020077
49.676437 22.045605 53.998089
44.134338 30.379536 54.248119
44.447632 30.408117 54.277752
49.468975 25.758089 54.3316
50.177158 23.752834 53.941303
50.066566 24.180527 53.936363
45.095886 30.436905 53.98106
49.710754 26.587204 54.383636
50.076138 28.24757 53.966076
49.97966 24.19429 53.950787
44.670166 30.436552 54.197899
50.378128 22.789167 53.905235
49.786545 26.576759 54.379501
50.173191 24.193636 53.928307
47.967102 29.8682 54.017162
48.915028 24.651085 53.98671
49.804802 24.749763 53.961063
44.763706 30.416115 54.208099
43.494827 30.106388 54.270622
47.675362 29.966421 54.056206
49.090622 23.013693 54.150833
50.461887 22.299492 53.868694
50.563583 21.827164 53.8885
50.328785 22.700792 54.371567
49.768394 28.428453 54.039711
50.069942 27.655544 54.381298
50.271099 28.024624 53.970512
49.89209 30.156672 54.041229
49.363888 24.983032 54.094959
49.989449 22.382885 54.356701
49.582794 26.932232 54.349174
50.078804 23.931751 53.9851
49.766449 25.451269 54.001686
49.502312 28.794344 54.341503
50.381062 30.140491 54.045685
49.387131 22.887854 54.232445
49.449989 25.359932 54.187271
48.948536 22.801188 54.064087
49.603107 22.823412 54.333023
49.319748 22.641787 54.312511
49.593945 25.362793 53.993099
49.683853 22.228218 54.003605
49.703556 25.951212 54.367165
49.776356 25.860159 54.011871
50.18232 22.164543 53.912125
50.467464 22.488146 53.903633
50.591415 30.389149 53.94334
43.889095 30.409542 54.297024
49.551899 21.983234 54.28949
50.477982 30.065861 53.971428
49.878277 25.354242 53.966011
50.550064 25.373882 53.890335
50.721886 30.272228 54.034924
49.614693 22.048004 53.99324
49.788479 27.339239 54.365395
50.275024 25.485794 53.909454
49.973125 24.324141 54.358803
47.862522 30.309433 53.956966
50.378643 29.102613 53.91383
49.769241 28.518957 54.049194
47.150562 30.082731 54.034645
49.684456 28.417223 54.036983
48.276424 30.072035 54.002388
46.463558 29.968544 53.996685
46.564602 30.071777 54.029152
49.974819 22.855131 54.349899
50.444988 28.360296 53.928677
46.564354 29.994232 53.993347
46.87104 29.971634 53.999355
49.521294 25.401854 54.366425
47.380459 30.296907 54.005978
49.694309 26.0623 54.327637
48.990265 23.100725 54.144646
47.574745 30.322971 54.005024
50.353973 27.613108 53.927143
48.93438 21.849983 54.348511
48.58186 30.087446 53.999344
49.068409 30.073309 53.980606
49.880421 27.331635 54.377254
50.068741 26.49861 54.007198
51.189892 29.984528 53.815022
45.08419 30.314638 54.012794
50.670841 30.171591 53.931023
50.167133 27.337084 54.369102
50.583603 30.115467 54.028778
49.288715 29.981791 53.944099
48.981506 29.988749 53.961166
48.162571 30.070631 54.005573
49.875057 26.908035 54.397999
47.268993 30.085299 54.018368
50.589252 30.05868 53.929432
50.166061 27.028143 54.362183
50.219692 24.851168 53.897938
44.594952 30.055586 54.066994
51.106621 29.981159 53.859299
49.895374 29.239176 53.980633
48.765671 30.083225 53.992695
49.165672 30.078068 53.983063
49.877846 29.350611 54.390034
49.959793 22.857494 54.009136
50.184937 29.488523 53.996788
48.668713 30.080803 53.996811
50.918655 29.919722 53.869484
50.686951 29.992386 53.896042
50.827206 29.984228 53.91531
50.139469 29.156628 53.938797
49.261791 30.084223 53.971573
50.361095 25.585506 53.903233
44.279785 30.379448 54.072323
50.780357 30.470234 53.940994
49.87199 26.345617 54.388676
50.333565 27.61132 54.396374
49.447189 25.634592 54.071129
49.459362 25.798189 54.108349
49.435299 24.742069 54.350922
50.051643 28.42738 54.021725
50.166927 24.338028 54.368137
49.948441 24.63331 53.921783
50.745815 30.242006 54.038841
44.506516 30.133049 54.196213
50.160072 30.253054 54.063206
50.076836 22.566341 54.009342
49.974407 28.782818 53.980324
50.389191 30.332516 54.092434
49.432713 22.260777 54.027863
50.637905 23.730337 53.874008
50.471352 22.167458 53.900124
47.516308 30.010902 53.981712
49.384174 22.366493 54.178936
48.712559 29.872065 53.889641
50.366226 26.744291 53.924973
46.172752 30.081108 54.03191
49.865204 27.793484 54.016132
49.75827 26.30382 54.009823
49.373653 25.644648 54.044067
49.447491 25.744553 54.080902
50.269276 25.137808 53.933846
49.755695 25.425659 54.043751
49.770077 22.547575 53.985474
45.973969 30.213299 54.0014
49.891529 22.573273 53.969311
46.876934 30.078579 54.033611
45.372711 29.991964 54.017342
50.25354 22.51247 53.996399
49.984207 23.301792 53.993633
46.081696 30.228445 54.002789
49.777412 23.297808 54.004311
45.190964 30.000881 54.009476
50.163265 28.645882 53.998718
48.973103 30.604345 53.968437
49.6828 25.123383 54.320187
47.397949 30.466986 53.923626
49.986584 25.121208 54.306633
48.81715 24.595528 54.123173
49.17012 30.605156 53.961597
44.080746 30.451305 54.236828
49.661621 30.44949 54.062614
49.619068 28.352331 54.410759
49.24807 28.783417 54.339741
49.263508 30.600155 53.961914
44.27158 30.427526 54.207348
50.166737 29.771639 53.961601
50.07238 27.337017 54.37188
50.187656 26.110472 53.924828
49.967228 24.378099 53.97422
49.870262 23.308184 53.996494
50.178516 29.849161 53.968575
50.076458 29.764706 53.961613
49.901176 29.727777 53.954147
49.771648 30.440102 54.065578
49.968529 23.025766 53.934628
50.356236 29.754492 53.943508
49.660137 28.476458 54.006306
49.980507 28.82061 54.389801
49.955055 27.350615 54.01989
50.201405 22.765059 53.983799
50.746681 30.05722 53.899952
50.028919 26.228533 54.30201
50.072197 29.10528 53.931484
50.263519 23.300285 54.334717
50.490219 23.245304 53.901707
50.165684 23.299135 53.972546
49.977219 27.037109 54.021973
50.082287 25.58251 53.939796
49.681126 22.137053 53.985794
50.149956 25.520582 53.983368
49.482399 24.560089 54.324944
47.672005 30.190268 53.942287
43.804382 30.495104 54.246326
47.980328 30.330137 53.985687
49.614307 25.620955 53.955814
50.856647 30.112518 53.94799
49.225422 25.807003 54.136044
50.012554 25.501987 53.933334
49.779049 24.913187 53.992443
45.973507 30.502544 54.006496
51.032856 29.923805 53.82048
50.096073 25.075396 53.999336
43.96067 30.318098 54.259708
46.980259 29.964157 53.999882
49.078594 23.13698 54.150234
50.287212 27.525475 54.397465
50.671329 23.169451 53.876144
43.8787 30.304214 54.274174
49.750195 29.230436 53.980686
50.678398 30.059683 53.943562
49.679398 21.991596 54.00547
45.659016 29.98245 54.018677
49.372463 28.064693 54.11713
48.582478 30.555071 53.923141
50.077209 22.352198 53.963879
50.080013 23.185001 54.305801
48.945099 24.014793 54.245163
49.682274 26.395695 54.024899
50.51318 28.806141 53.904018
50.286709 30.193396 54.06522
43.800434 30.156446 54.218212
50.566956 22.282164 53.892643
49.961891 22.570257 53.958576
49.739571 30.419519 53.86272
49.450146 26.417519 54.032013
49.979904 23.834923 53.983688
50.176247 27.389669 53.948635
48.257256 30.534744 53.951248
50.268097 26.756441 53.92931
49.791851 21.941692 53.96188
50.00634 30.407269 53.866005
50.470921 26.766197 53.912594
49.974541 28.333569 53.998192
48.363297 30.319302 53.978195
49.979965 27.429823 54.385815
50.140659 30.407639 53.88546
49.663349 22.349718 53.984444
49.582836 26.413269 54.03632
50.309288 23.997612 53.889442
49.701775 28.511091 54.05386
49.038876 23.425873 54.195492
49.865677 26.401754 54.007252
49.76265 21.806936 53.998585
49.983269 27.511946 54.403973
49.969406 27.3302 54.373192
50.062656 27.749933 53.941998
49.774719 26.501757 54.027065
49.176376 29.296743 54.29837
49.412159 28.378754 54.377426
49.892906 30.519384 53.91716
50.064053 28.336388 53.98328
49.24411 22.819586 54.124794
50.140823 27.563086 53.989338
49.549427 25.806078 54.218159
49.37067 24.781403 54.099651
50.284328 30.534687 53.920036
49.881706 29.626598 53.998116
50.053658 27.518969 54.407394
49.078983 25.137884 54.18148
49.382515 25.968594 54.300175
48.890732 25.129471 54.077599
50.332809 28.310234 53.976021
49.657673 26.203348 54.002083
49.879288 26.486097 54.022087
50.369034 30.485939 53.891861
48.786278 22.946331 53.996277
50.274982 27.936327 53.944145
50.16877 29.41288 53.972607
50.053551 30.523243 53.898716
48.776791 23.750315 54.20203
49.885593 29.403219 54.004913
49.884266 28.775282 53.992294
44.243149 30.213831 54.202805
49.891033 24.288277 53.981647
49.304344 27.936531 54.1003
50.174515 22.131996 53.96373
45.066898 30.312956 53.95129
49.794731 22.11986 54.331192
49.981129 27.924614 53.975502
44.874557 30.328966 54.160419
48.690933 24.336262 54.086727
49.671383 28.569998 54.023438
50.276985 22.161257 53.906487
49.047123 24.744619 54.01368
50.075531 29.096815 53.977642
48.981705 24.973732 54.084316
50.06892 28.639143 54.001087
50.170525 29.094893 53.967808
50.361759 28.564482 53.948605
47.161205 29.877802 53.921185
47.685925 29.781492 53.913925
49.28294 22.700178 54.109127
50.572563 26.145432 53.881062
49.461815 25.97114 54.061886
50.349998 28.020119 53.957348
50.345016 29.098072 53.953159
48.877422 30.093239 53.987129
49.878658 30.37694 53.968357
48.165123 30.40353 54.018803
49.184696 22.803493 54.083603
50.274857 28.998266 53.952343
46.869743 30.399382 54.042694
48.66993 29.972269 53.905357
49.371803 25.050026 54.257061
50.265388 29.085117 53.949455
50.151722 30.556484 53.930477
50.073174 29.003334 53.964371
49.76646 28.977543 53.9856
43.555984 30.334845 54.291142
49.691795 29.051199 54.064346
49.695404 29.005995 53.995312
49.890823 28.931164 53.96619
44.169922 30.149834 54.229694
49.991074 29.233255 53.968956
44.59959 30.488331 54.098915
49.439381 21.994898 54.34021
49.784687 28.337021 54.023113
49.120281 29.102316 54.240402
49.436642 25.828304 54.344208
49.970547 28.646338 53.993946
49.918472 24.12244 53.923084
49.100922 30.209845 53.934956
45.56308 30.563265 54.035847
45.489536 30.601898 54.023228
49.001938 23.265215 54.120022
49.438534 29.503012 54.398026
49.971321 29.502594 54.000183
48.722431 23.492176 54.160332
45.97612 29.996073 54.015366
46.984825 29.865219 54.020237
49.58511 29.0811 54.005722
46.867603 30.295492 54.008259
46.921146 30.226244 53.976254
46.177078 30.236187 53.983089
46.165657 30.306793 54.021961
48.071312 29.965248 54.053223
47.18174 29.867193 54.035343
48.127781 29.792002 54.003227
49.975979 28.995068 53.97802
46.274067 30.303785 54.023022
47.280861 29.877216 54.015125
49.774689 29.089069 54.009007
46.575649 30.30232 54.01791
47.464336 30.396646 54.032276
47.072521 29.896038 54.019737
49.263073 24.161737 54.187187
48.8764 23.678862 54.098751
48.882061 22.758095 54.141678
45.07642 30.522083 54.018799
45.158978 30.274607 54.019764
44.941021 30.446672 53.997112
45.473701 29.987047 54.004665
45.998951 29.881514 54.034077
50.165916 28.857151 54.352013
48.802479 23.063162 54.042793
49.795982 28.951847 54.349041
48.959927 22.745363 54.110683
49.062698 29.37398 54.347221
49.0853 23.007515 54.047611
48.468178 30.396418 54.009556
48.045666 29.870714 54.055279
49.334023 21.743231 54.289913
49.48074 24.165932 54.03233
48.86599 24.590492 54.247482
49.879055 28.84656 54.337303
50.081097 23.74703 53.943195
49.672192 28.937658 54.349064
49.553917 28.943663 54.345493
48.767105 23.700409 54.246811
45.271927 30.520056 54.012569
45.079807 30.217644 54.011795
48.717079 23.589828 54.267235
49.120316 21.886662 54.255135
46.879608 30.54167 54.00499
49.066574 24.833418 54.165874
49.966637 29.405905 54.333702
49.047405 25.77713 54.244228
49.100891 24.951014 54.21986
49.090729 23.048979 54.047073
50.183731 26.651821 53.930283
50.362385 26.641413 53.919834
49.250271 24.200356 54.323284
44.557175 30.334549 54.217865
49.289867 22.732224 54.062649
50.265732 23.741816 53.942932
49.417267 21.932735 54.297329
50.063328 26.118776 53.93959
49.368984 30.278149 53.948582
49.2616 25.331863 54.018936
50.063686 29.539272 53.968666
49.188908 30.322498 54.104198
49.304947 29.669558 54.416325
49.688541 28.407314 54.350269
49.074268 24.077362 54.178909
50.067619 23.30142 53.974678
49.310925 24.663622 54.209667
46.158939 29.988016 54.012295
49.878628 26.214132 53.972389
45.55637 30.20797 54.011745
44.988853 30.51466 54.014893
51.231441 30.455645 53.851391
45.008202 30.413767 54.028416
44.942997 30.575096 54.026783
50.373714 22.259663 53.90181
49.95031 29.606527 54.033634
49.877235 25.306726 54.357384
48.444561 30.332111 54.12265
45.580128 29.970346 54.019154
49.373806 22.719799 54.117744
45.476414 30.301573 54.016766
44.773922 30.555178 54.029121
50.677181 30.52564 53.942696
44.371365 30.389305 54.063187
44.353878 30.313095 54.054382
45.774815 30.596001 54.038532
49.128113 21.840565 54.115551
49.223293 26.445822 54.069382
49.989952 26.127808 53.940926
49.406494 23.781406 54.060646
48.961231 25.134552 54.148506
49.967808 28.856838 54.347954
48.917381 24.989485 54.132122
50.543739 25.480547 53.880398
50.350964 28.867437 54.340691
49.161945 25.030724 54.049431
48.992855 24.806959 54.092194
49.047939 25.662977 54.117558
49.286633 21.626196 54.192818
50.472012 22.794519 53.908806
49.686741 25.317448 54.350098
49.320938 21.839146 54.252686
49.419853 23.996061 54.084137
43.819843 30.271202 54.23037
49.786163 30.289043 54.104816
49.308136 29.663515 54.336479
48.848343 24.723061 54.104198
48.962341 24.65008 54.100491
48.898861 24.00679 54.235718
48.763809 24.406525 54.130856
49.103191 24.216682 54.265659
49.989971 22.785429 53.942135
49.099758 24.46916 54.099598
49.00753 22.939728 54.104092
48.949287 21.816414 54.043877
48.9538 25.226833 54.072327
50.251049 28.601486 53.93874
50.074581 28.858862 54.343018
49.090851 22.747627 54.126167
49.292423 23.787395 54.118778
49.877216 27.692225 54.332893
49.352383 26.270021 54.091232
49.680244 22.893293 53.994392
48.779896 22.267366 54.088692
48.707233 22.627928 54.126011
46.244381 30.516739 54.003269
48.849327 22.880369 54.085102
49.003239 22.830011 54.079384
45.946407 30.577326 54.031876
46.591251 30.597052 54.018257
49.021317 24.564869 54.229012
49.440285 28.491304 54.390606
45.27636 30.212337 53.997074
48.956627 25.261517 54.068951
48.986328 21.833904 54.123367
49.660221 26.620056 54.034626
49.385746 22.766367 54.042141
49.334717 26.328419 53.978996
48.90686 23.224092 54.163418
49.10709 27.265205 54.107758
46.258587 30.581728 54.02494
46.392414 30.59778 54.006863
49.183155 23.796425 54.205849
49.184978 23.841043 54.111385
49.173107 27.29051 54.075394
50.497215 25.120975 53.940979
49.194374 23.376755 54.172512
49.323772 24.30431 54.082527
49.471527 25.835051 54.03965
49.223564 29.425831 54.329182
49.224976 26.04751 54.08556
49.869518 26.618 54.004677
49.457817 25.283163 54.24604
50.360229 28.588825 53.925629
46.490246 30.603687 54.026165
49.336895 22.136669 54.34325
49.695442 29.088585 54.01899
50.062309 29.628401 53.978382
47.968845 30.404716 54.025036
48.454342 29.890882 53.984653
46.827995 30.124683 54.194389
50.288513 22.747591 53.958965
47.087971 30.582773 54.00346
49.867592 28.33136 54.014278
50.171272 25.487986 53.91626
49.881557 24.906876 54.325027
49.508083 28.366894 54.031723
49.692307 24.368685 54.325348
48.572311 30.405407 54.006569
49.775951 29.712374 54.33894
49.692513 28.321188 54.035629
50.257656 22.895561 53.926155
49.69453 27.660334 54.054676
49.587963 29.223101 54.299313
49.965191 25.218306 54.329323
49.573475 28.336382 54.018978
49.519962 24.09079 54.311676
49.780167 23.161146 54.032177
49.978088 27.991095 54.331738
49.870731 25.327555 54.010483
50.585915 22.894375 53.90934
49.163456 30.300858 53.970535
49.88208 23.508665 54.331276
49.871006 26.829617 54.321278
49.879406 28.013214 54.011204
49.875687 27.968498 54.038662
49.977406 21.791464 54.018776
49.573463 27.96072 54.053093
49.686768 26.293049 54.023109
49.788731 26.228596 53.98904
49.650158 22.372881 54.358772
49.873383 27.932882 54.000389
49.70113 25.138998 53.998917
49.9771 25.134205 53.97068
49.389019 25.215162 54.354229
50.065067 23.231049 53.909348
49.783939 28.468893 54.000389
49.834743 22.261591 53.969872
50.63279 30.507521 53.766987
49.365334 24.373602 54.32016
49.478325 24.398132 54.302048
49.666756 22.765303 54.006001
50.364788 23.252474 53.899487
49.989182 22.753565 53.992569
49.624443 21.739479 54.268318
49.432411 26.918619 54.351421
49.557873 28.678268 53.986908
49.667767 23.924208 54.333061
50.170517 28.877916 53.969322
49.511116 23.934845 54.354912
49.576859 28.858795 54.05608
49.427975 29.025766 54.371517
49.673908 26.158323 54.350388
49.486149 26.700434 54.381222
49.779797 23.920204 54.346771
49.556702 21.8235 54.290356
49.480217 24.964745 54.257359
50.177437 23.253956 53.918129
49.869995 27.891657 54.027515
49.568073 26.389475 54.32893
49.87204 28.808035 54.043083
49.560467 21.970535 54.246262
49.661152 28.778265 54.013485
50.022083 29.457878 53.957718
49.402611 25.589437 54.354095
43.845993 30.188402 54.23748
49.548534 21.780569 54.340401
49.682255 28.866156 54.020359
49.873451 25.987488 53.982792
49.598095 29.405302 54.347618
49.557648 25.105814 54.271446
46.684643 30.581869 54.015457
50.163864 25.447628 53.945629
50.068306 29.318344 53.968388
49.39167 24.181616 54.283218
46.369526 30.311054 54.023102
45.870007 30.583681 54.016716
