# .PCD v0.7 - Point Cloud Data file format
VERSION 0.7
FIELDS x y z
SIZE 4 4 4
TYPE F F F
COUNT 1 1 1
WIDTH 508
HEIGHT 1
VIEWPOINT 0 0 0 1 0 0 0
POINTS 508
DATA ascii
-10.437397 44.350777 7.2358122
-9.1108503 44.17503 7.1616063
-9.4453545 44.523472 7.2378755
-8.7492342 44.05183 7.0893598
-9.9606295 44.447811 7.2038774
-8.9306726 43.709942 6.9891124
-9.5544262 44.088829 7.1488957
-10.646935 44.242363 7.3702016
-10.224341 44.341179 7.287075
-9.6055574 44.469719 7.2319074
-10.048129 43.885361 7.137259
-8.9127455 44.109085 7.1389041
-10.217243 44.070721 7.1602116
-10.115687 43.775528 7.2978406
-11.052454 44.390789 7.4372549
-8.3319921 44.211842 7.3037114
-10.949526 44.068607 7.4136877
-10.175584 44.309742 7.4174418
-10.214016 44.344517 7.395112
-10.122304 44.373016 7.3531976
-10.758885 44.412113 7.3951349
-10.046205 44.101055 7.1727471
-10.741187 44.00272 7.327229
-11.075869 43.687248 7.1982017
-9.2308292 43.790527 7.2037797
-9.8189974 43.676083 7.1594081
-10.868397 43.915512 7.2832131
-8.2118406 43.660404 6.9742785
-9.6432829 43.679363 7.1667147
-9.3966341 44.455311 7.2106547
-10.869386 43.63184 7.0894523
-8.8017378 44.357674 7.088861
-10.935023 43.597542 7.1227779
-10.426901 44.127975 7.3095956
-8.0425873 43.58033 7.0562501
-8.628047 44.246586 7.2297139
-10.968636 43.901226 7.2864871
-9.70399 44.054653 7.1456289
-9.7460423 43.61454 6.995677
-10.618605 44.087967 7.2053614
-11.142524 43.638069 7.3078938
-10.344254 44.05928 7.1915746
-8.769022 44.227066 7.2341228
-10.336369 44.365711 7.3747644
-11.026183 44.004139 7.3590913
-11.204251 43.98756 7.3887577
-10.831866 43.844898 7.2933464
-7.8556905 43.556358 6.9491539
-9.2442818 43.922623 7.2044811
-7.8785815 43.629791 7.0857954
-8.8703413 44.430431 7.1584182
-10.522186 44.39539 7.2495279
-9.3431797 44.007187 7.252224
-8.950901 43.919678 7.154541
-8.8430128 43.934616 7.1555724
-11.285404 44.318008 7.4871459
-11.021329 44.218636 7.4308238
-9.441267 44.01041 7.2579837
-8.0560703 43.807983 7.0708804
-9.147234 44.029613 7.2552013
-9.2343178 44.020599 7.2619481
-8.3472118 44.010757 7.1215472
-7.9332724 44.049953 7.1751585
-8.1389666 43.948124 7.0792961
-9.9431524 43.686897 7.1654773
-8.4486828 43.923901 7.1799383
-8.0417204 44.077827 7.1412873
-9.3389463 44.042347 7.208446
-9.3184443 43.912449 7.1135025
-7.7710881 43.6124 7.0520778
-10.01878 44.063816 7.1391525
-10.211727 44.249752 7.3716583
-10.959675 44.142899 7.3734541
-9.9284115 44.110401 7.1549659
-9.9225311 43.612831 7.0196609
-7.9819026 43.550858 6.9678206
-7.927732 43.658768 7.1001472
-8.8277864 44.265484 7.2393804
-7.922534 43.512913 6.9755082
-9.6368675 43.779179 7.1753588
-8.0018101 43.533501 7.0309176
-9.1445913 43.779625 7.1199064
-7.7847676 44.197792 7.2168756
-10.458877 43.856148 7.2392311
-7.8288784 44.224979 7.2114606
-8.4290123 44.214069 7.2772818
-7.9336138 43.92384 7.1336622
-8.9218369 44.134117 7.23803
-8.4499865 43.797924 7.1721373
-10.847141 43.989731 7.3383994
-9.7277775 43.838821 7.1375389
-10.554749 43.809948 7.2117791
-10.054107 43.683826 7.1794467
-10.255304 43.851101 7.204597
-8.5463476 44.133511 7.3062263
-10.142694 43.851509 7.1885443
-8.6781788 44.215866 7.2619252
-9.2060843 43.910255 7.0883188
-9.819025 43.816921 7.1497951
-9.7473202 44.1157 7.1703596
-9.4326735 44.12748 7.2487898
-8.1115532 43.52187 7.009284
-10.135606 44.135803 7.2891026
-9.6345062 44.427044 7.3065987
-9.2371578 44.040932 7.2017775
-10.925295 44.222633 7.4217286
-9.9329453 44.123894 7.2852702
-9.7319622 44.135639 7.2724133
-10.226517 44.113884 7.3442078
-8.6254539 44.186363 7.158648
-9.7327099 43.677414 7.1584897
-8.3731585 44.049042 7.2349133
-10.332011 43.901108 7.1874843
-9.2166948 44.009045 7.1544642
-10.758099 44.062401 7.3787632
-9.7737398 43.805588 7.0190086
-9.0749464 43.798923 7.2213068
-10.443375 44.35342 7.4033413
-9.6587944 44.536446 7.2580075
-8.0525751 43.688343 7.1825709
-7.7173719 43.965675 7.0801959
-10.081215 44.283783 7.2241368
-9.522934 44.065636 7.3159089
-8.0347452 44.14534 7.1940227
-9.548296 44.117046 7.274435
-10.015283 44.121201 7.2627649
-9.4344225 44.009975 7.1575289
-9.3519249 44.300339 7.3454523
-10.990909 43.791943 7.2344074
-9.5524607 44.372105 7.3254237
-10.260629 43.987595 7.4305029
-9.1542635 44.233185 7.3451371
-8.0557756 44.370659 7.2404027
-9.2297564 43.855347 7.2665043
-8.5839214 43.722088 7.0264058
-10.072627 44.038963 7.3633857
-9.9330235 44.050045 7.346621
-9.4567099 44.053104 7.3269281
-10.328989 43.984211 7.4192462
-8.8390179 44.371315 7.2799807
-9.8507128 44.049603 7.3491597
-8.7555027 44.28981 7.3470101
-10.103546 44.063305 7.3576756
-9.0304432 44.065887 7.2881927
-8.8186302 44.010906 7.2054853
-9.6248322 44.364037 7.3065972
-9.125473 44.081707 7.2413187
-10.140821 44.415237 7.3234477
-8.8541269 43.683266 7.1082745
-9.2428942 44.421459 7.2670774
-8.6454611 43.674706 7.0953579
-9.4485197 44.392193 7.3288298
-8.0407829 43.604984 7.0293899
-8.5587196 44.087238 7.2519546
-9.2062263 44.207218 7.3230267
-8.2411022 43.601334 7.0335898
-7.8336873 43.579868 7.0497332
-8.3395348 43.578224 7.0735912
-10.247072 44.002014 7.1965222
-10.337402 43.984245 7.314786
-8.171278 44.152607 7.1846514
-8.3410645 43.605518 7.0413632
-9.2367668 44.282413 7.260921
-9.2538137 44.084198 7.3003788
-7.9760542 44.272537 7.1945572
-8.538537 43.600399 7.0497565
-9.1434088 43.999374 7.1474576
-8.4431477 43.604027 7.0442505
-7.5981188 44.309891 7.1378646
-7.939806 43.708954 7.0710835
-8.448101 43.686428 7.1138773
-8.8521662 44.076935 7.283792
-8.1434069 43.604359 7.0286322
-10.320814 44.427597 7.3205104
-9.0388575 44.020077 7.2297187
-8.339222 43.655113 7.1417117
-8.240159 43.580204 7.0714803
-7.8786545 43.728188 7.1244097
-10.031569 43.751617 7.1233697
-9.0600624 44.212265 7.2357402
-8.5485773 43.788841 7.146719
-10.525938 44.010494 7.3241792
-10.489568 43.762402 7.1609387
-10.19617 43.965103 7.3683677
-10.950731 44.008614 7.3512249
-9.8396854 44.371403 7.3346949
-8.7261829 44.113949 7.2263746
-8.7177601 44.089115 7.2838855
-9.1514845 44.057507 7.3046827
-8.0345716 43.686882 7.0559788
-8.756321 44.004383 7.2260108
-9.4344578 44.176521 7.2092557
-10.129669 44.184338 7.2611933
-8.5326853 43.696941 7.1023741
-8.1475077 43.697079 7.0780144
-10.734211 43.723072 7.1686702
-10.617723 44.452625 7.305541
-8.2331553 43.713181 7.0643401
-10.13812 43.988651 7.2024345
-9.217267 43.725693 7.067492
-9.0343628 43.692631 7.1183987
-8.3313627 44.355263 7.2648759
-9.9527054 44.549484 7.3100734
-8.2032623 44.288708 7.2741899
-9.3299026 44.132504 7.2480421
-9.500371 44.465954 7.221139
-8.8536129 44.134445 7.239624
-9.6159811 43.994987 7.1864333
-8.9338865 43.990894 7.1462402
-10.044724 44.171036 7.2464032
-8.7407112 44.230316 7.2935109
-8.2071838 44.181713 7.1688509
-10.034738 44.406757 7.3091674
-8.5274363 44.12619 7.2149172
-9.649929 44.345772 7.18718
-9.4767876 43.978115 7.2193623
-9.3093872 43.821133 7.1925268
-8.6413183 43.888741 7.1442194
-9.0513239 43.990162 7.1662164
-7.9277449 44.245106 7.2280712
-7.9523244 43.60146 7.0270805
-10.533389 43.923248 7.2132845
-7.7587395 44.352303 7.2467794
-8.2329416 43.903423 7.126338
-9.9557924 43.991196 7.1830888
-10.765661 43.90646 7.2941723
-9.7471895 43.662922 7.0430555
-11.185686 44.372696 7.4218421
-10.911583 43.944187 7.1963482
-8.1581306 44.426113 7.2153277
-8.2091427 44.216076 7.2209964
-8.4136362 44.160706 7.3070588
-10.3417 44.113586 7.2918162
-10.032547 43.807537 7.2445383
-9.2275715 43.662285 7.1357141
-7.7394028 44.05793 7.1378455
-10.027197 43.66713 7.0486774
-9.9965878 44.531731 7.2614446
-9.6571999 44.132488 7.256988
-10.250412 44.066723 7.3549275
-8.7304211 43.698818 7.0973043
-8.4765997 43.828228 7.215982
-8.6407003 43.773529 7.0638657
-9.8447218 44.137905 7.2729883
-9.1819973 44.25391 7.4162364
-10.230894 44.426056 7.3274326
-8.8212738 44.208534 7.2989774
-8.3160038 43.85014 7.0979128
-10.071223 44.002052 7.4195776
-8.351408 43.685226 7.0699863
-8.5540762 44.193436 7.2854328
-10.051052 43.980694 7.1874948
-8.5612335 43.909027 7.1467609
-8.2286425 44.153908 7.1865973
-8.9477949 43.686787 7.111146
-8.1612759 43.695942 7.0088115
-7.7105021 43.720493 6.9910698
-8.1357698 43.565968 6.98386
-9.8384266 44.00388 7.2888966
-9.1254349 43.838161 7.1404166
-9.8543825 44.02338 7.1683998
-10.035067 43.993576 7.2990742
-11.250484 43.83564 7.3109074
-9.5658407 44.429256 7.2892222
-10.127637 43.768379 7.1362576
-7.8884382 44.096214 7.1819811
-8.145669 44.352699 7.2441115
-10.553528 44.129818 7.344121
-7.8416462 43.688847 7.0585027
-9.5028458 43.892399 7.27108
-8.1914234 43.989582 7.1244326
-9.6307392 44.01112 7.2753549
-10.037866 44.279026 7.2871232
-8.6603937 43.699047 6.9749827
-10.143633 43.998684 7.2989335
-8.3347616 44.129131 7.2424555
-8.9268808 43.852654 7.1287789
-8.7892952 44.373631 7.1643987
-9.8541307 44.174648 7.2355084
-8.1458359 43.772175 7.0583959
-8.1426716 44.235073 7.2253084
-9.7716284 44.346794 7.2042603
-10.430381 44.034733 7.2810092
-9.0339813 43.772743 7.0793571
-10.874516 44.343422 7.2960281
-9.3216219 44.199738 7.2476974
-10.145209 44.270138 7.2976274
-9.1761627 44.320862 7.2513223
-8.558239 44.01511 7.2152357
-8.8409367 43.98724 7.1280737
-8.0619965 43.747635 7.0430369
-9.5404148 44.006027 7.261651
-7.85989 44.337151 7.2509274
-9.3486071 43.989361 7.1442008
-8.2183275 43.570518 6.97614
-10.223456 43.776634 7.1822901
-9.7430162 43.999676 7.2792144
-9.9396267 43.996365 7.2927051
-9.3382683 43.708141 7.0731268
-8.3309231 43.753498 7.0594115
-8.151783 44.268867 7.2185798
-10.237087 43.994377 7.3136773
-8.7771263 44.370861 7.1175127
-10.524604 44.051296 7.2530379
-9.8194361 43.955105 7.2150879
-8.6280518 44.146667 7.2273741
-9.256813 44.108147 7.2254691
-8.1403446 43.584229 7.0631967
-7.8380032 43.611378 7.02004
-7.9393187 43.57616 7.046134
-11.001386 43.811195 7.288403
-8.1295681 44.193607 7.170526
-10.222715 44.276108 7.3199282
-8.0612888 43.993244 7.1180558
-7.7589045 43.725521 7.064868
-7.9064207 43.804462 7.1135478
-9.0402851 44.315964 7.3612609
-9.9389629 44.42926 7.2883863
-9.1184416 43.911591 7.1868067
-9.6568928 44.200367 7.2569571
-9.3580313 43.942337 7.2362647
-9.0271225 43.932056 7.1831527
-9.2272797 44.135654 7.335485
-10.105765 43.998295 7.4006934
-8.7678871 43.944191 7.1218657
-8.308753 44.305347 7.1939917
-8.2371225 44.267498 7.2147336
-8.3423634 43.554214 6.9746528
-8.6707191 43.863754 7.1278977
-8.4682589 44.080734 7.277535
-9.4329996 44.262169 7.2761192
-9.5150661 44.259911 7.3005037
-8.6291065 44.073025 7.2515206
-8.1505136 43.91922 7.116704
-8.2369757 44.348331 7.2404909
-7.9619007 44.359013 7.2310028
-8.7363892 44.051586 7.1970181
-11.248583 44.435627 7.5134649
-9.3355646 44.257664 7.2676425
-10.497229 44.203884 7.3759351
-11.124925 44.059311 7.3396397
-9.6058359 43.819431 7.1846004
-9.6455469 44.057758 7.3247757
-8.1419821 43.830379 7.0725222
-8.2293215 43.841919 7.0901542
-9.6309977 44.264843 7.281539
-8.8225555 43.742062 7.0497098
-10.487432 43.763218 7.098175
-9.7460899 44.34362 7.3223219
-9.7470388 44.262207 7.2846341
-9.8622856 44.427177 7.2963042
-9.5366631 43.98307 7.3770022
-8.7404585 44.395359 7.2908888
-8.7405672 43.933434 7.1666961
-9.5462475 44.008125 7.1696968
-8.0320292 44.20422 7.2250896
-10.434313 43.959305 7.2554951
-9.1391039 44.365768 7.299437
-10.431795 43.994228 7.3005252
-9.2069139 43.795128 7.1498394
-9.9423246 43.926094 7.265913
-10.066009 43.934811 7.2526035
-9.9149141 43.673813 7.0539622
-9.9533997 44.266731 7.2971711
-8.9370785 44.373672 7.2870188
-8.0366516 43.926956 7.1337962
-8.058341 44.195377 7.1734962
-9.3385258 44.353714 7.3110766
-8.6368332 44.373966 7.2756882
-8.7300129 43.674339 7.0222826
-9.9593906 44.371582 7.3516812
-8.8073711 43.663349 7.0044947
-9.0376978 43.836086 7.1203523
-10.759666 44.427975 7.3548636
-8.2628689 43.516148 6.8934774
-9.8336887 44.301613 7.1973705
-9.8630819 43.660091 7.0501595
-9.8200474 44.253838 7.3034482
-9.3555269 43.860943 7.1968246
-8.4526262 43.848156 7.1155849
-8.8498259 44.415222 7.2413225
-9.9735661 43.775593 7.1690922
-10.341965 43.956791 7.2857976
-9.5266485 43.769447 7.1193285
-9.570406 43.865841 7.1775589
-8.8456593 43.841347 7.1198487
-8.9438305 44.045132 7.1876264
-10.524819 44.415428 7.320756
-9.4484186 44.412094 7.271018
-8.7582502 44.416149 7.2511721
-8.1344757 44.03981 7.149107
-9.8223076 43.717892 7.117691
-9.8447714 44.125031 7.180562
-8.6450691 44.059929 7.1570516
-7.8276868 43.859554 7.1021142
-9.2492485 44.197887 7.2107143
-9.1412344 44.045033 7.1992865
-7.8370452 43.999279 7.1462936
-9.43888 44.042351 7.2114606
-8.2315683 44.050049 7.1538534
-10.346338 44.052353 7.2731686
-9.1383705 44.003571 7.0526996
-8.6341867 43.974159 7.1174712
-7.8476944 43.954689 7.0565705
-9.7350025 43.94788 7.2287979
-8.390995 43.968491 7.0968375
-10.133204 44.037983 7.255712
-8.9351034 44.408527 7.2550464
-8.4208851 44.029919 7.1410708
-10.116426 43.920349 7.2250481
-9.9536943 43.844013 7.1893902
-10.049621 43.860821 7.1937242
-10.440413 43.983597 7.2326927
-10.608899 43.998077 7.3517528
-9.7395191 44.045082 7.2299066
-10.347931 43.966267 7.2193289
-10.603781 43.997799 7.2617064
-10.645045 43.716438 7.1349325
-9.5400639 44.041744 7.2218146
-10.622252 44.036728 7.2956629
-7.737998 43.574345 7.0009594
-9.2332392 44.382282 7.2991347
-10.075955 44.379154 7.3416114
-11.150322 43.997921 7.4005265
-9.9661684 43.809811 7.2476525
-10.811129 43.783024 7.1956363
-10.370358 44.252186 7.3832402
-11.048133 44.065571 7.3191233
-11.221895 43.854012 7.3683395
-10.562101 44.35556 7.3901739
-10.732668 43.827438 7.2204623
-10.303246 44.529949 7.2884097
-10.459836 44.312233 7.3484468
-9.4552088 44.182678 7.3236656
-10.973407 44.399506 7.425736
-10.120048 44.108257 7.2054486
-10.642384 44.101639 7.3386288
-10.645658 44.075073 7.3589454
-10.423084 44.436512 7.3122773
-9.6466379 44.105633 7.169867
-8.9394274 44.236629 7.2389007
-8.3062677 43.818729 7.1547503
-9.7233267 44.41959 7.3117476
-8.0462351 43.561008 6.9731112
-8.1534767 43.773006 7.1234493
-7.776195 43.818146 7.1256309
-8.5327148 43.654282 6.9915562
-9.3598328 44.104759 7.1465349
-9.7712164 43.918453 7.143168
-9.133337 44.413811 7.2595243
-8.6400547 44.415314 7.2404628
-9.2958364 44.441341 7.2450442
-10.037774 43.828598 7.0719705
-7.7683644 44.003719 7.1429763
-7.8753948 43.644821 6.9298172
-8.2082081 43.777382 7.0505815
-8.6600142 44.082516 7.0931687
-8.3546009 44.423508 7.230844
-8.944047 43.762505 7.0960412
-8.3695059 43.925819 7.155015
-9.0355215 44.235386 7.3167763
-10.26005 44.191029 7.2952366
-8.0724573 44.452217 7.198945
-7.8515468 44.404461 7.1931601
-9.715065 44.19751 7.2410021
-9.6243362 44.224068 7.3254642
-9.9632463 44.162441 7.2297044
-10.831104 44.05648 7.3130641
-9.9364233 44.039982 7.2372894
-9.0367565 44.039749 7.1922746
-10.692058 44.026505 7.3087258
-8.461668 43.919018 7.078311
-8.0355072 43.992661 7.1611366
-9.6410303 44.04155 7.224215
-9.650424 44.288254 7.3532004
-9.4042807 44.291935 7.3492355
-9.5296154 44.203796 7.291997
-9.8346148 44.043446 7.2316041
-9.5188332 43.835613 7.0661855
-10.241164 44.045017 7.2483568
-7.9218659 44.421829 7.198482
-10.034138 44.043491 7.2433958
-8.2357903 44.421425 7.2042079
-9.843049 44.21917 7.3265882
-8.0731688 43.5975 6.9185452
-8.6329622 43.789463 7.1438227
-9.4691 43.717312 7.0287294
-9.1035957 43.710697 6.9744792
-9.7322416 44.224922 7.3239627
-8.5463753 43.826313 7.1117506
-7.8374758 43.620045 7.1980448
-8.5458727 44.408619 7.2278223
-11.144348 43.886189 7.3582063
-9.4112902 44.128513 7.1676493
-8.4330921 43.564251 6.9868579
-7.6347485 44.279858 7.2450619
-8.8414402 44.050129 7.1864638
-8.9394112 44.200211 7.2931271
-9.0273428 44.119114 7.2841268
-8.2240791 43.977238 7.1510072
-8.1474457 43.99173 7.1426439
-8.4523182 44.008141 7.2114606
-8.7471333 43.828629 7.119379
-9.9302216 44.204433 7.3275542
-8.6569386 44.0242 7.2134862
-8.6250849 44.27969 7.3273482
-9.6343431 43.943184 7.2302833
-10.232925 43.928349 7.2635951
