# .PCD v0.7 - Point Cloud Data file format
VERSION 0.7
FIELDS x y z
SIZE 4 4 4
TYPE F F F
COUNT 1 1 1
WIDTH 657
HEIGHT 1
VIEWPOINT 0 0 0 1 0 0 0
POINTS 657
DATA ascii
46.395477 106.9428 -25.288942
46.278732 107.17709 -25.31142
46.262619 106.96688 -25.330551
46.173874 107.02291 -25.326586
45.529869 107.23708 -25.360281
44.800499 107.17104 -25.421591
44.831238 106.80885 -25.443087
46.265274 106.50791 -25.333918
46.06385 107.02415 -25.305536
46.140205 107.13325 -25.29998
46.227829 106.36201 -25.305851
46.218552 106.40289 -25.306698
46.180115 106.44725 -25.325033
45.79348 106.24108 -25.300686
45.959717 105.8794 -25.336994
46.243996 105.79256 -25.344456
45.780697 105.78455 -25.354591
45.689117 106.97354 -25.31238
46.268059 105.54372 -25.371174
45.868042 105.91903 -25.367043
45.895851 106.01176 -25.336969
46.302242 105.50234 -25.352001
45.838654 105.55119 -25.415939
45.56424 106.08678 -25.407173
46.099354 105.30362 -25.410559
46.164375 105.32526 -25.395006
45.756489 105.94392 -25.395794
45.574116 106.43895 -25.371967
45.310024 105.75417 -25.447746
45.385292 106.0781 -25.41806
45.462147 106.37679 -25.395674
45.403137 106.36296 -25.407902
45.784607 105.27654 -25.424021
45.7435 105.77238 -25.406897
45.105743 106.08789 -25.436161
45.477207 106.45899 -25.383965
44.883881 106.49954 -25.430601
45.279236 105.5432 -25.429375
44.617912 107.15666 -25.422672
46.084129 105.42327 -25.391981
44.956253 106.9418 -25.424759
44.849991 107.00325 -25.429306
45.076725 107.20528 -25.400419
45.616531 107.22189 -25.350512
44.340687 105.77724 -25.473297
44.746132 104.72524 -25.475113
44.745522 104.76363 -25.487112
45.69529 104.85454 -25.434622
45.154457 105.74522 -25.457361
45.601357 106.38461 -25.3885
44.591896 106.61287 -25.440575
44.585854 106.63993 -25.432096
44.879848 106.70225 -25.424671
44.674862 106.87045 -25.425789
44.684364 107.05283 -25.412863
45.365936 107.00166 -25.385839
44.602173 105.39275 -25.461737
45.490902 105.52486 -25.432499
45.476627 105.83457 -25.421453
45.410633 105.819 -25.425514
44.558491 106.76268 -25.43634
45.015079 106.76509 -25.431059
45.366306 104.88455 -25.453533
45.186058 105.53063 -25.449566
44.584068 105.59687 -25.452438
45.288761 105.60799 -25.438448
45.693836 105.83865 -25.406301
44.544884 106.21009 -25.436684
44.771996 106.27009 -25.417204
44.520836 106.39915 -25.424843
45.381329 106.47681 -25.39603
45.010403 106.71125 -25.4013
44.437412 105.0654 -25.501461
45.497181 105.29404 -25.436775
44.862705 105.34741 -25.462967
45.004429 105.49644 -25.473356
45.702747 105.61563 -25.401215
44.596352 105.95429 -25.440784
44.560612 106.03994 -25.440189
44.530857 106.35925 -25.432676
45.270077 106.3952 -25.407467
44.914825 106.84092 -25.407059
45.17979 104.76218 -25.460642
45.461349 104.83458 -25.431175
45.745834 104.86516 -25.434574
44.579453 105.26742 -25.464884
45.398495 105.28099 -25.435202
44.849106 105.77084 -25.445511
44.844711 105.89349 -25.456415
44.68663 106.00186 -25.465559
44.662277 106.37939 -25.466063
45.762623 106.47536 -25.360167
44.967361 106.57188 -25.410526
45.172947 106.61571 -25.420025
45.546833 106.9324 -25.366146
44.897079 106.9485 -25.42979
44.784164 107.02464 -25.430132
44.686142 107.17123 -25.436365
44.587997 107.20937 -25.447567
45.281307 107.22696 -25.376854
45.375736 107.29678 -25.365265
45.288525 107.31921 -25.375664
44.728813 105.44331 -25.464169
45.4034 105.60022 -25.418419
45.26844 105.85789 -25.420168
45.388538 105.92503 -25.414318
45.305695 106.45257 -25.393566
44.789108 107.23562 -25.418283
44.895111 104.76628 -25.481716
44.808414 105.24512 -25.472704
45.190983 105.29474 -25.454512
45.270065 105.92813 -25.412983
45.79847 106.0393 -25.377115
45.183628 106.16181 -25.416954
44.928959 106.30429 -25.42602
45.182098 106.37144 -25.419535
45.083 106.46793 -25.413376
45.495399 106.76771 -25.362808
44.895634 106.81542 -25.405542
44.87347 107.31754 -25.411812
44.602165 104.69884 -25.512703
44.659317 104.74212 -25.506693
44.991524 104.76524 -25.478231
45.088757 105.31128 -25.452589
45.028469 105.39424 -25.445398
44.98843 105.61945 -25.458727
45.114197 105.60744 -25.43508
45.009693 105.70935 -25.432755
45.093445 105.85474 -25.432478
44.989788 106.24266 -25.426947
45.061722 106.39655 -25.422377
44.786301 106.44305 -25.444075
44.710526 106.53784 -25.440535
45.087837 106.7716 -25.403391
45.283573 107.0054 -25.377947
45.0019 106.99313 -25.401463
44.972942 107.10301 -25.400805
44.893669 107.22511 -25.413563
44.985985 107.23189 -25.411114
45.178711 107.23221 -25.390673
44.878132 104.87988 -25.452785
45.092476 105.26138 -25.432182
45.151226 105.38564 -25.435955
44.72525 106.19769 -25.41057
44.872692 106.23856 -25.408768
45.185555 106.47895 -25.399149
44.775047 106.86936 -25.408941
44.756012 106.94498 -25.390114
44.659332 107.00262 -25.388754
44.806389 107.0891 -25.412983
44.893642 107.17134 -25.380148
44.991276 107.31097 -25.38875
44.897572 104.73539 -25.428747
45.168995 104.8822 -25.452284
46.186909 105.36115 -25.361784
45.776222 105.69804 -25.362885
44.699802 105.73503 -25.433764
46.217636 105.88465 -25.335096
44.995838 106.18292 -25.35815
44.612171 106.217 -25.380835
45.091053 107.39555 -25.296934
44.646458 104.72947 -25.457521
45.640999 105.25481 -25.377008
44.669632 105.28112 -25.412983
45.291672 105.38744 -25.431961
44.617561 105.69726 -25.397884
44.442207 105.8468 -25.404242
45.091255 105.96702 -25.36422
44.754036 106.28156 -25.365005
44.780708 106.67315 -25.35799
45.09034 106.88072 -25.380726
45.080818 107.07146 -25.330143
45.223274 107.35448 -25.295891
45.111355 105.58745 -25.38273
44.653469 105.6273 -25.410604
45.083286 105.92274 -25.422594
44.991783 106.42608 -25.374506
44.600124 106.80581 -25.352154
44.879333 107.09952 -25.394611
45.315914 105.24548 -25.4086
45.450943 105.311 -25.38357
45.162949 105.37105 -25.388155
45.288967 105.50489 -25.413336
45.185917 105.61652 -25.429657
45.366413 105.81007 -25.373821
44.685463 106.28814 -25.362139
44.703529 106.46616 -25.362093
45.022743 106.53078 -25.348221
44.828712 106.71482 -25.349983
44.730263 106.82718 -25.343483
44.45414 106.89257 -25.361786
45.010109 107.09443 -25.322969
46.136772 105.3054 -25.357578
45.184017 105.27271 -25.402559
45.372768 105.34018 -25.386358
46.002556 105.37955 -25.339115
44.676064 105.49078 -25.429171
45.189186 105.57091 -25.388792
45.099319 105.6502 -25.383204
45.491943 105.80164 -25.371773
44.437004 105.77852 -25.41707
45.4739 105.9386 -25.392744
44.820061 105.90697 -25.388798
45.889568 106.32877 -25.331015
45.073593 106.3381 -25.39362
44.993 106.67085 -25.363882
44.563389 106.88505 -25.410198
44.865128 107.32064 -25.329523
44.473465 107.25566 -25.335768
44.413601 107.21648 -25.333977
44.468266 105.04167 -25.453447
44.666172 105.03006 -25.430544
45.580235 105.25612 -25.385031
45.993168 105.3272 -25.354036
44.977947 105.36685 -25.404503
44.880245 105.45507 -25.41761
44.989143 105.48576 -25.431398
44.980862 105.65917 -25.387129
44.846684 105.8588 -25.387123
45.098202 106.02722 -25.404827
45.96973 106.52882 -25.287086
44.638432 106.51931 -25.354958
44.929043 106.65125 -25.380657
44.645939 106.59564 -25.351627
44.813618 105.26656 -25.428808
45.279129 105.34885 -25.390398
44.978607 105.25654 -25.408939
44.875957 105.56374 -25.400272
45.27364 105.70586 -25.407806
45.151085 105.64884 -25.382441
45.188278 106.02173 -25.401367
44.975834 106.34917 -25.355312
44.8848 106.41281 -25.357927
44.772289 106.43045 -25.363531
45.175125 106.75356 -25.342651
45.180447 107.10887 -25.372965
44.898434 106.96793 -25.36517
45.106506 107.1982 -25.362043
44.806877 107.30853 -25.396429
44.382271 105.72188 -25.451389
44.274342 107.28732 -25.352736
45.088181 105.39288 -25.43162
44.977844 105.91565 -25.409052
44.879124 106.0044 -25.406807
45.182144 105.94173 -25.405378
45.094223 106.2553 -25.404299
45.174194 106.56703 -25.383087
44.760101 106.55138 -25.378637
45.180473 106.66117 -25.353441
45.200649 106.78274 -25.389862
45.394695 106.78742 -25.373032
44.9758 106.94101 -25.357552
45.189148 107.00524 -25.394203
45.285831 107.09942 -25.36565
45.290844 107.04634 -25.317558
45.097767 107.33256 -25.382879
45.60207 105.79214 -25.369043
44.456955 105.7121 -25.409645
45.01096 105.80251 -25.41297
45.592197 105.92927 -25.385098
44.81041 106.07274 -25.41
45.272484 106.02067 -25.378738
45.019897 106.48179 -25.409569
45.295769 106.49594 -25.335903
45.272064 106.55735 -25.360317
45.107388 106.9581 -25.355309
45.279953 106.87122 -25.34836
45.091579 107.08572 -25.376545
44.988201 107.19154 -25.373327
45.386471 107.10357 -25.353294
45.104305 107.28786 -25.32807
45.983143 107.18906 -25.281578
45.010662 107.28972 -25.333076
44.995884 107.41928 -25.367722
44.828609 105.37453 -25.415627
45.100876 105.48172 -25.404762
44.55035 105.38749 -25.419281
45.18956 105.47549 -25.410833
44.702999 106.21458 -25.376951
45.150291 106.44397 -25.360598
44.713985 106.28807 -25.369459
45.285801 106.42552 -25.344515
44.609711 106.39989 -25.366102
45.094643 106.57678 -25.393333
45.581558 106.77756 -25.365253
45.086517 106.75427 -25.34024
45.373055 106.8735 -25.357313
45.003792 106.78642 -25.345228
45.186329 106.86534 -25.361906
45.194283 106.96732 -25.337721
45.199696 107.31812 -25.375937
45.268543 107.27905 -25.308977
44.763195 105.46864 -25.406397
44.596752 105.54922 -25.405624
44.894543 105.64005 -25.386744
44.646812 105.7827 -25.418575
45.085194 105.9037 -25.372879
44.690422 105.9071 -25.38867
45.391533 106.55882 -25.376305
44.912674 106.51 -25.341551
44.816174 106.57275 -25.346146
45.290501 106.7789 -25.370754
45.406506 106.82191 -25.309381
45.275139 106.97814 -25.323967
45.15918 107.06783 -25.320484
45.209663 107.27466 -25.312366
45.369358 107.357 -25.293024
44.79789 107.27631 -25.319103
44.575554 105.48251 -25.416769
45.244743 105.6503 -25.374245
44.992214 105.5699 -25.392685
45.193581 105.79311 -25.394028
45.99313 105.91744 -25.350718
45.690849 106.03434 -25.364485
45.387863 106.04279 -25.395039
44.872601 105.96473 -25.373964
45.697231 106.22825 -25.355522
44.760597 106.19001 -25.373419
44.800613 106.31238 -25.384718
44.988976 106.86954 -25.3645
45.490959 107.06915 -25.295252
45.381001 106.97258 -25.315903
45.502415 106.90807 -25.240847
44.917332 107.07437 -25.323582
45.193905 107.18655 -25.340723
45.295151 107.34921 -25.298094
45.102917 105.78825 -25.377235
45.195904 105.89024 -25.366034
44.979912 105.91506 -25.371145
44.96241 106.02515 -25.388977
45.289101 106.64799 -25.348539
45.383759 107.2951 -25.309425
45.960728 105.82601 -25.330938
45.260273 105.89197 -25.361813
45.294903 105.80535 -25.378111
45.683235 105.82523 -25.355644
46.099609 106.34983 -25.30949
45.483204 106.01393 -25.366362
45.477444 106.5595 -25.357052
45.183758 106.52054 -25.329931
45.095997 106.43787 -25.356668
45.083557 106.6471 -25.352798
45.387608 107.19298 -25.321804
46.069992 106.01766 -25.336523
46.08456 106.54797 -25.298666
45.942402 106.44988 -25.301104
46.167152 106.85875 -25.303543
46.054062 106.73289 -25.288441
45.368988 106.50988 -25.318819
46.078236 107.0652 -25.260614
46.201527 107.03425 -25.249962
46.179169 106.57635 -25.292791
45.786594 106.25941 -25.336594
45.878387 106.19477 -25.31609
45.673946 107.0585 -25.286539
45.669598 106.56023 -25.316071
45.857136 106.24628 -25.346624
46.128262 106.25003 -25.315573
45.598434 107.18691 -25.301579
45.607376 107.06737 -25.272694
45.58279 106.98302 -25.299313
45.468079 106.96464 -25.301304
45.46817 106.87814 -25.337429
45.380421 106.75081 -25.315231
45.396271 106.66355 -25.326719
46.074833 106.98038 -25.293577
45.769226 106.56107 -25.334312
45.858013 107.27668 -25.255482
45.998192 107.09198 -25.260944
45.885853 106.97236 -25.272587
45.771141 106.73999 -25.297373
45.998665 106.55894 -25.30813
45.975243 107.30949 -25.258928
46.08292 107.18774 -25.270161
45.880108 107.19692 -25.260849
45.87579 107.12763 -25.258966
45.874489 107.05856 -25.263098
46.308754 106.93948 -25.273962
45.96711 106.76217 -25.288586
45.710598 106.75954 -25.298851
45.908272 106.73343 -25.292751
46.234764 106.94196 -25.294239
46.039886 107.08704 -25.284216
45.984512 107.01721 -25.320374
45.977577 106.97734 -25.277773
46.178001 106.24844 -25.305397
45.993008 106.32985 -25.348593
45.892494 106.45519 -25.357635
45.594196 105.41333 -25.411173
45.883694 105.35905 -25.410812
45.679871 105.39771 -25.399839
45.792141 105.40465 -25.404062
45.375118 105.39888 -25.418015
45.500484 105.39665 -25.403217
45.688305 107.27631 -25.267731
45.615177 105.89828 -25.344582
45.666943 105.94375 -25.38217
45.451172 105.9099 -25.358768
45.568829 106.33051 -25.342466
45.482349 107.36501 -25.28401
45.665749 106.50309 -25.307867
45.484947 107.1588 -25.252451
45.499557 107.3326 -25.340748
45.499622 106.28344 -25.292427
45.388329 106.32574 -25.36212
45.60527 106.51814 -25.308111
45.100925 104.78561 -25.483559
45.58622 107.37119 -25.266237
45.511982 106.521 -25.316925
46.129883 105.92749 -25.320841
45.900726 105.81628 -25.347935
45.550037 105.81783 -25.414618
46.337471 105.82783 -25.346529
46.054871 105.77177 -25.327597
46.199951 105.80897 -25.343445
45.863411 107.22295 -25.353254
46.082191 105.84781 -25.354977
46.011784 105.84318 -25.376513
45.858299 105.81876 -25.383223
45.151817 105.84407 -25.447611
46.078548 105.53106 -25.338984
45.789185 105.49577 -25.362455
45.582104 105.47031 -25.395761
46.194569 105.5386 -25.358122
45.699371 105.48427 -25.391375
45.874413 105.49638 -25.329285
45.490246 105.49113 -25.396667
45.379425 105.4918 -25.40745
45.847279 105.22161 -25.373796
45.114872 105.51102 -25.45668
45.704521 105.30697 -25.421642
45.6119 105.29596 -25.42985
45.920479 105.27197 -25.405994
46.016953 105.257 -25.399288
45.365589 105.51943 -25.437452
45.789474 105.62004 -25.378178
45.801525 107.26389 -25.278194
45.281288 106.33289 -25.369883
45.594505 107.28641 -25.286556
45.725044 106.99633 -25.348894
45.495686 105.58939 -25.417545
45.175449 106.34766 -25.370392
45.895756 105.60282 -25.380733
45.591312 105.61995 -25.420652
45.551704 105.56187 -25.362789
45.503685 105.61131 -25.363363
45.279877 105.58382 -25.375498
45.406559 105.57148 -25.376192
45.489559 107.28604 -25.306204
45.662979 105.62173 -25.357944
45.484058 107.00246 -25.359413
45.816498 105.56429 -25.363808
45.861069 105.56399 -25.336754
45.654915 106.43127 -25.318176
45.470127 106.73479 -25.311384
45.547356 106.758 -25.296467
45.39077 107.05352 -25.301678
45.595531 107.09568 -25.330778
45.485733 107.15714 -25.391405
45.496422 107.19112 -25.31749
45.473324 107.09978 -25.341
45.776611 107.09267 -25.323559
45.984745 107.08714 -25.311607
45.884239 107.08349 -25.297886
45.674019 107.10184 -25.331278
45.751324 107.31261 -25.308338
45.491867 106.23727 -25.37278
45.194679 106.2636 -25.38868
45.280041 106.24217 -25.401228
45.584194 107.33092 -25.325958
45.385792 106.24377 -25.383215
45.90731 107.39417 -25.233828
45.779827 107.36021 -25.257883
46.196888 105.60696 -25.351328
46.27597 105.60359 -25.344706
45.681671 107.1675 -25.247496
45.783619 107.17662 -25.269781
45.559811 106.19507 -25.33099
45.939682 105.60823 -25.340694
45.684372 107.3446 -25.32877
45.577042 106.2503 -25.370529
45.876877 107.31346 -25.317097
45.762383 107.1313 -25.260368
45.733452 106.45261 -25.366266
45.859638 106.40868 -25.287512
45.862469 106.55687 -25.319954
45.705433 106.83981 -25.281172
45.573494 106.41756 -25.325485
45.775208 107.06946 -25.270391
45.382565 105.90049 -25.36112
45.405537 105.26188 -25.399502
45.784435 106.95391 -25.286695
45.49065 106.41044 -25.331829
45.402088 106.43882 -25.330523
45.773605 106.8353 -25.276745
45.668083 107.17297 -25.312086
45.59267 106.65147 -25.320118
45.675892 107.34348 -25.260344
45.786694 107.02359 -25.32423
45.691006 106.87095 -25.311224
45.37986 107.23568 -25.37299
45.772575 106.86849 -25.312326
45.977585 106.78813 -25.307888
45.374905 106.23023 -25.340609
46.073448 106.66956 -25.305586
45.889576 106.78549 -25.324289
45.447437 106.91928 -25.388603
44.545254 106.0649 -25.389175
44.993587 106.15108 -25.367722
45.077271 106.98887 -25.401295
44.647537 106.12831 -25.420012
44.896156 105.02421 -25.417555
45.503437 106.69262 -25.374826
44.621662 105.05573 -25.427137
45.21862 106.0791 -25.433538
44.775692 105.06669 -25.421101
45.106781 106.14483 -25.419979
44.808693 104.96419 -25.421745
45.087193 105.17151 -25.435028
45.278873 106.15262 -25.416153
45.081123 105.72095 -25.409164
46.106476 105.66527 -25.341307
45.224365 105.20292 -25.466007
45.085793 104.92534 -25.445971
45.171967 105.09098 -25.401907
45.175835 104.94735 -25.451635
44.593304 105.18031 -25.462704
45.956833 105.18549 -25.385057
45.546391 104.95263 -25.432575
44.672676 105.1246 -25.423563
45.037323 105.04958 -25.413906
45.978107 106.11018 -25.333706
45.268555 104.96656 -25.43828
45.200096 104.98827 -25.464224
44.681152 104.92721 -25.455048
45.095078 104.99776 -25.468252
45.597153 104.96185 -25.434551
45.27763 105.18649 -25.424751
44.720985 105.20523 -25.41387
45.385704 105.16292 -25.43885
45.360619 104.99559 -25.451963
45.902802 105.22189 -25.406387
44.997467 104.97301 -25.480911
45.505817 106.11361 -25.361036
45.284691 105.07835 -25.447704
45.189682 106.10995 -25.374258
45.763981 106.79202 -25.348421
44.971298 104.95053 -25.429485
45.002037 105.03871 -25.414431
45.27948 106.12132 -25.361593
45.572811 106.10199 -25.351963
45.589405 106.57426 -25.343525
45.268631 106.2076 -25.34873
45.111706 106.21737 -25.360994
45.669971 105.1592 -25.406937
45.496822 105.18155 -25.42313
45.396645 106.14449 -25.411528
45.473274 106.13979 -25.41003
44.911503 106.55782 -25.413158
45.882523 106.16531 -25.347361
45.380993 106.12315 -25.35807
45.182098 105.14639 -25.418325
45.9907 106.8672 -25.296267
45.474976 105.01898 -25.443937
45.553875 105.19697 -25.442186
45.78294 106.43926 -25.317759
45.0825 106.69792 -25.412182
45.901382 106.105 -25.327391
46.045494 106.1321 -25.317144
45.474773 106.19874 -25.331608
45.565746 106.1627 -25.386772
44.786873 104.79985 -25.43063
45.124611 105.13044 -25.388037
44.607834 105.78384 -25.38921
45.005684 104.84098 -25.471003
45.785526 106.33672 -25.325722
45.504898 104.93981 -25.429857
44.899708 105.15854 -25.421511
46.167725 106.76373 -25.338589
45.807964 106.49722 -25.306299
44.803226 105.14699 -25.418421
45.279182 105.04984 -25.402601
45.484463 106.34762 -25.344196
45.786968 105.16358 -25.393621
45.582203 105.0408 -25.386885
45.674393 106.78361 -25.3293
46.418652 106.79892 -25.31942
45.357567 104.95838 -25.437021
44.782173 106.10818 -25.388212
45.776577 106.12704 -25.332695
45.588982 107.0136 -25.346102
45.720383 106.66808 -25.374189
45.295052 104.98138 -25.454947
45.877464 106.68475 -25.364124
45.384617 106.68325 -25.392052
45.868858 106.86533 -25.297777
45.562981 106.02348 -25.36384
45.577816 106.87132 -25.330702
44.95118 106.14791 -25.432077
45.785896 105.21576 -25.430147
45.201023 105.09171 -25.452929
45.180126 105.97485 -25.351768
45.173687 106.23587 -25.350723
45.085815 106.50913 -25.351065
46.294731 106.33968 -25.344837
45.705288 106.65697 -25.30751
45.9837 106.64883 -25.301359
45.184624 106.68922 -25.400805
45.358978 105.22875 -25.455437
46.229576 106.00339 -25.314863
45.687832 106.33102 -25.325907
44.888847 106.11659 -25.382345
45.106888 106.10873 -25.37524
45.678722 106.1379 -25.390949
45.287846 106.75011 -25.327
45.300724 106.65667 -25.408972
45.766682 106.69549 -25.350101
46.201378 106.13946 -25.314161
45.785664 106.64677 -25.315439
45.47501 105.06346 -25.439386
44.490967 104.8022 -25.438721
45.092793 105.37583 -25.393261
46.123768 106.71244 -25.344826
45.571449 105.70283 -25.398834
46.003342 106.71616 -25.340473
45.492611 105.70908 -25.392431
45.756477 105.11487 -25.404095
45.289425 105.31614 -25.442007
45.498531 106.65092 -25.327581
45.549095 106.81158 -25.301155
45.475285 106.82024 -25.276712
45.377689 105.70513 -25.407562
45.676636 105.72406 -25.376474
45.274529 107.18121 -25.326345
46.052917 106.83751 -25.293686
45.70417 107.22933 -25.342566
44.591236 104.83917 -25.432615
45.186359 105.70927 -25.40814
44.889771 104.96785 -25.444078
44.677773 104.87126 -25.455154
44.581203 104.8469 -25.446609
44.764481 105.10214 -25.464193
45.387486 105.07716 -25.435547
45.297173 104.85924 -25.461699
45.871548 106.67001 -25.300283
44.95129 105.04141 -25.456919
44.586777 105.04958 -25.473484
45.077366 105.07107 -25.449982
45.096565 106.94366 -25.417479
45.0886 104.86788 -25.451757
44.782284 104.82288 -25.480238
45.170715 106.89979 -25.419722
45.394718 106.92604 -25.388018
44.849831 105.67523 -25.449131
45.278023 106.91222 -25.395609
46.150642 105.75185 -25.353415
45.107613 105.44063 -25.481916
