# .PCD v0.7 - Point Cloud Data file format
VERSION 0.7
FIELDS x y z
SIZE 4 4 4
TYPE F F F
COUNT 1 1 1
WIDTH 1134
HEIGHT 1
VIEWPOINT 0 0 0 1 0 0 0
POINTS 1134
DATA ascii
14.982716 2.1964424 17.902782
15.538334 1.7112772 17.792259
14.161831 0.78889477 17.773399
15.003086 1.8228277 17.907799
14.180229 1.9177784 17.770538
15.291923 1.8058933 17.837278
15.066099 3.8465428 17.985247
13.968562 2.0078564 17.751471
14.172324 1.3516771 17.696121
14.143023 1.2929941 17.670151
14.988363 1.3037997 17.757723
14.036969 1.9141468 17.756071
14.356681 1.2232267 17.72065
14.266533 1.9381776 17.770708
13.859721 0.17974855 17.586176
15.205389 1.5727011 17.822193
14.340802 2.9814241 17.88102
15.141004 3.885915 17.996193
14.336841 0.80165368 17.734783
14.144562 0.46982884 17.671143
14.105835 2.2940602 17.799786
15.634195 2.9035754 17.949425
14.096075 2.7222757 17.845114
14.107907 2.7845466 17.857889
14.204659 0.31692195 17.804464
14.967254 2.4380348 17.859703
15.101347 1.7976844 17.946182
15.076843 2.3686428 17.837944
14.171988 1.220214 17.713453
14.066467 2.0191548 17.764042
14.013121 2.238133 17.801527
15.06716 3.4023781 18.064346
15.154754 2.7224216 17.946421
14.547826 3.1550858 17.890791
15.566182 1.8372748 17.909668
15.439281 1.8880358 17.897221
15.307678 3.3847275 18.088022
15.374166 3.3834949 18.096601
15.160708 3.3856525 18.06531
15.551647 3.5566034 18.064747
15.493239 3.5487692 18.011463
13.282631 1.3045965 17.621035
15.643375 3.3921435 18.070957
15.543523 3.389756 18.105873
15.505204 3.5921328 18.000385
13.388251 1.1177828 17.636433
14.610811 1.4315126 17.810825
15.766666 3.3668709 18.140932
15.475529 2.6856608 17.915703
15.840208 2.5382049 18.000378
14.593575 2.0941019 17.789001
14.468551 2.1920891 17.835405
13.642143 2.6791584 17.765141
13.162409 2.443958 17.683525
14.238288 0.8111456 17.749897
14.540279 3.5525866 17.961432
15.762252 1.0845742 17.91918
14.963017 3.3589416 18.119947
15.256399 3.541435 18.01041
15.159232 1.2932671 17.865032
15.186245 1.7819853 17.95476
15.784664 2.6704206 18.038927
15.470787 2.4697385 17.820597
15.489971 1.7812673 18.000502
15.480124 2.7071538 18.000404
15.176367 2.0720055 17.956608
14.192095 2.2985647 17.796652
14.152012 2.7716713 17.861065
15.29573 1.7878513 17.989132
13.781027 2.682241 17.771135
14.351313 2.2079856 17.792881
14.358323 1.9643446 17.78404
14.453818 0.67246079 17.726288
15.185869 3.0536764 18.025005
15.760083 3.7869833 18.095331
15.073955 3.6201296 18.054777
15.160493 3.2843361 18.108669
15.603258 1.3671111 17.939329
14.906519 3.0540323 18.003283
15.473188 3.917006 18.031746
15.787129 3.0732672 18.03569
14.11967 3.0098507 17.870239
14.446529 0.75328237 17.724178
14.954585 3.3969395 18.050722
14.083014 3.0191314 17.868567
14.868514 3.4092832 18.054901
14.977389 1.7832899 17.966944
15.268227 3.1722157 17.955465
14.875001 3.886214 17.988344
15.161982 2.0271592 17.811516
14.246427 2.2192514 17.845629
15.985479 1.8190274 17.938374
15.720233 0.60000473 17.860239
16.057407 1.7513077 17.929863
14.150804 2.1742835 17.846712
14.584741 1.325356 17.747356
15.335253 2.0590491 17.974848
15.544769 2.2441249 18.015137
15.572369 1.4709852 17.845108
15.474781 1.396497 17.967916
16.066858 1.7350941 18.054993
15.301382 3.0960503 18.076433
15.07803 2.6776993 17.91773
15.583121 2.3229034 17.924208
16.164473 1.7347565 18.050138
15.05756 1.7024769 17.926001
15.370762 1.4162966 17.852009
15.547894 2.4133441 17.955906
14.301096 0.58329499 17.591318
14.161907 2.197089 17.786764
14.255933 2.6240172 17.78059
14.735396 2.8686051 17.904167
14.254959 2.0797567 17.793991
14.995151 3.2748611 17.918743
15.409125 1.7764647 18.015839
14.390269 1.348693 17.770082
14.342726 2.1498828 17.851311
15.372829 0.86929089 17.791035
14.083418 3.0989571 17.856695
15.290407 1.5735846 17.849726
14.370369 0.34080797 17.68434
13.170506 2.4237158 17.726536
15.531773 0.81033397 17.840696
14.79892 2.6929119 17.892874
14.868951 3.8034589 18.041128
15.530336 0.63039541 17.827967
15.358706 1.5549341 17.857761
14.984784 2.8579724 17.924379
15.17111 1.7130827 17.934284
15.278271 1.2893425 17.929983
15.442572 3.1462023 18.011978
15.113825 1.2659197 17.898727
14.158331 2.7383468 17.845987
15.979699 2.2274289 17.980274
15.071411 1.8280554 17.887918
14.019837 0.3823072 17.658115
15.294745 2.2180951 17.922396
16.034685 0.35838038 17.932978
14.297285 0.3991999 17.687834
14.348819 0.58256733 17.694815
14.376353 1.3591311 17.736105
14.280983 2.9978192 17.896959
15.667992 0.90099788 17.833038
15.358227 2.9947219 17.932016
14.345718 2.1437807 17.786625
15.658094 1.0620102 17.904808
15.350804 3.1358712 17.97942
15.363928 2.2268639 17.89476
15.280602 2.2827246 17.902325
15.389773 3.7918661 18.043932
14.450712 1.9698911 17.799776
15.055088 1.3845215 17.840347
14.380664 2.2871792 17.825912
15.667295 1.3853993 17.946983
15.09105 0.59513968 17.758308
14.147781 1.9759051 17.777994
15.215096 3.8375854 18.007021
15.570255 1.2286021 17.839258
15.066835 1.7596965 18.016726
15.004916 0.57564229 17.760317
15.322031 1.3911059 17.851244
15.857252 2.6534026 17.983976
15.248859 1.6085663 17.810022
15.773746 2.4813299 18.036503
15.117187 1.9091029 17.839108
15.176769 1.3386548 17.803095
15.171572 1.4546072 17.811375
14.26594 2.2257595 17.78652
15.377056 0.53862053 17.847172
15.264236 1.3797839 17.821562
15.135908 3.1103871 18.037861
14.36528 2.0899718 17.808529
15.379041 3.6225643 18.040297
15.389625 1.6117476 17.855751
15.183232 1.114786 17.811504
15.550198 3.7613218 17.998373
16.262123 1.7427633 17.962208
14.482868 2.2605164 17.892765
14.961202 1.3593837 17.836924
15.414698 1.4149029 18.011927
15.080828 1.3504251 17.809015
15.954325 2.5749352 17.998339
14.959649 2.1403191 17.792311
14.845439 0.821262 17.787615
15.140013 0.22825153 17.715973
15.174257 2.4274869 17.876921
15.93816 0.84254712 17.841091
15.172815 3.174228 17.959946
15.641369 0.15492643 17.847734
15.488487 0.25810713 17.818045
15.055583 1.4598407 17.794752
14.164347 2.9241097 17.854948
14.995296 2.0574741 17.907791
16.081844 1.075511 18.066351
14.844456 0.117613 17.756054
15.565845 2.1387861 17.902952
14.364463 2.3630645 17.905331
15.576514 0.26313925 17.826363
15.077566 3.1184218 18.013319
16.163013 0.36824134 17.986305
15.120605 3.2994137 17.947058
15.152215 2.3896885 17.918812
14.202402 2.4480336 17.80064
14.475126 0.55830175 17.754581
16.217876 1.6103326 17.965742
14.289158 1.9070542 17.780289
15.345246 1.8772458 17.825272
14.840029 0.67210591 17.761389
15.36817 2.439348 17.894354
15.064649 0.44056574 17.772942
15.466578 1.4702075 17.85532
15.66695 1.6489205 17.888918
14.391157 0.3073777 17.691637
15.666125 3.2316518 18.059963
15.78143 3.660646 18.158991
13.230998 2.7102778 17.72294
15.155699 2.5905287 17.946531
15.543407 3.1581099 17.983923
14.35106 0.463085 17.697613
15.281954 0.47915232 17.814163
15.575208 1.6005777 17.854498
14.37478 3.0594816 17.871574
15.261534 3.6334298 18.042881
15.54466 1.3536752 17.892756
15.171764 0.83672822 17.773758
14.995266 2.2880483 17.870197
15.361331 3.2380373 18.021467
15.367583 2.3174956 17.91338
15.163645 1.8402839 17.922495
15.379401 3.2659528 17.960932
14.35058 0.5817681 17.730568
15.056355 1.1340269 17.806574
15.246299 2.0942755 17.864388
14.257867 3.0570655 17.84634
15.123553 3.5936718 18.078321
14.276737 0.51535594 17.75296
13.963265 1.8905152 17.673256
14.090008 3.3087308 17.824718
15.541994 3.7874637 18.084917
15.141009 2.1511865 17.876167
15.26576 2.2218182 17.881912
15.532573 1.8329523 17.841839
15.101336 2.9509516 17.903795
13.898119 2.158345 17.715313
15.086353 0.37455332 17.763229
14.252859 2.9828832 17.835333
15.007351 2.9259136 17.882034
15.44772 2.9805419 17.961102
15.272532 0.77345371 17.845133
15.190359 2.1999907 17.862049
15.261855 2.7917888 17.974983
15.525823 3.0944083 18.128506
14.033161 2.2266545 17.775043
15.163297 0.7795285 17.805622
14.277452 0.50062788 17.665375
15.316035 1.3211101 17.717672
13.380009 2.5826237 17.750799
15.272394 2.4251893 17.884945
14.2651 2.5809832 17.843897
15.056033 3.3740578 18.142771
15.434134 1.7673701 17.805185
15.215038 1.7489545 17.802877
14.173456 2.8234677 17.835482
15.165226 3.6208458 18.132372
15.572032 2.6075931 17.989758
15.447516 3.7599003 18.052496
16.122282 1.1359068 18.042253
15.336003 3.1328907 18.079189
14.987666 3.0945077 18.004807
15.170605 3.7771542 17.993006
15.221887 1.525999 17.991198
15.500685 2.4472687 17.912239
15.430333 2.424859 17.945789
14.801924 3.5576649 18.003717
15.156494 2.7846696 18.015207
14.343522 2.82832 17.861887
14.365525 2.3952639 17.846416
15.232258 1.0780917 17.886269
15.58266 0.47785276 17.864403
14.154372 1.4180008 17.799971
15.454749 2.9788084 18.08482
15.432981 2.046268 18.002075
15.505056 0.82034761 18.018156
13.866148 2.5643847 17.807194
15.560276 1.5399036 17.869953
15.580959 0.83812892 18.030756
15.066798 1.5490934 17.850254
15.062665 3.1578238 18.132162
14.521406 3.1066833 17.949474
15.569188 2.6829703 18.005877
14.980885 2.7150877 17.936674
14.645986 2.7191708 17.929062
15.279821 0.69939381 17.823946
15.596786 1.5378109 18.036373
15.736479 1.2518438 18.00363
15.438699 1.5826952 17.884901
15.481564 2.860893 18.052748
15.536892 2.4498191 17.892441
15.303467 1.1655549 17.82325
15.650474 1.8240365 17.998421
15.676809 1.2980142 17.969398
15.562598 2.3581028 18.083303
15.072979 3.2174325 18.069729
15.150128 0.46525815 17.801985
15.969059 1.701975 18.094898
15.659631 3.2223363 18.130987
14.833203 2.2951925 17.877949
15.270321 3.2802987 18.127275
15.216984 1.2373329 17.77482
16.058887 3.653317 18.169594
14.460857 3.5550599 17.938725
15.490099 1.6003059 18.004791
15.770414 1.6228329 17.972366
14.842958 1.8525742 17.88793
15.373636 1.2311398 17.835337
14.957186 0.67571431 17.798012
16.184223 2.4784312 18.14945
15.446251 2.8023145 17.995657
15.870798 2.4704411 18.046701
15.969186 0.93362874 18.079287
16.032854 2.0136814 17.946707
15.246061 1.6204695 17.986761
14.680448 0.68663377 17.752426
15.455965 3.2752001 18.135801
15.482297 1.2406502 17.863014
16.060646 0.79111922 17.939537
15.47373 3.2169225 18.110149
15.174669 2.0793736 17.88603
15.867233 0.76725829 17.967236
14.929855 0.80869466 17.850515
13.868789 0.90637231 17.747683
15.270544 2.8315241 17.934742
16.144766 2.0777085 17.988396
14.576478 2.8153644 17.886719
15.014058 2.7398741 17.847387
15.548534 2.9060242 18.014277
16.050688 2.5665734 18.094601
13.270965 1.1014795 17.625574
13.946043 2.6540439 17.855051
15.759372 2.6096117 18.000391
15.072891 2.5850291 17.939384
15.07022 2.08549 17.89649
15.165558 2.8624821 17.940424
14.459113 1.2076788 17.752911
15.572424 1.6835063 17.876757
15.340265 2.5037634 17.788664
15.684937 2.6204152 17.991583
15.103887 2.8538284 17.90765
16.150627 0.074319445 18.030769
15.381626 3.9075787 18.02976
14.871601 3.0307927 17.920422
14.20662 1.9528326 17.83506
15.229886 2.8816669 18.016947
13.251149 1.0444695 17.604755
15.040113 0.60625559 17.815197
15.353102 2.8306255 17.948729
15.717627 2.3034005 17.948889
14.659696 1.1918874 17.849201
15.454908 0.97372884 17.789438
15.619031 0.94766736 17.770027
15.959959 2.9418747 18.13838
15.432108 0.37129697 17.827066
15.844627 0.96834147 17.989923
13.766801 0.96694934 17.70388
15.167538 0.89730459 17.872139
16.113136 0.60146046 17.944063
15.390501 1.9169582 18.086525
15.160405 2.7356155 17.901304
16.167768 0.97722894 17.956936
13.655893 1.1101851 17.608181
15.364838 2.4914215 17.988581
14.710821 2.2489104 17.863363
15.78871 3.4215117 18.063662
15.543283 3.351826 18.14411
14.377117 1.9295951 17.869276
15.366463 2.6981096 17.9582
15.957881 2.4599414 18.028769
14.259825 0.72012234 17.701124
15.449547 2.9885836 17.997583
15.071219 1.6640811 17.839046
14.253782 2.4233134 17.764866
16.009972 3.650321 18.187246
14.583672 2.921344 17.885883
15.786385 2.0176272 17.99283
15.881485 1.7366401 17.943974
15.381687 0.23647825 17.804214
15.882312 1.7082703 18.006371
15.956876 2.5911872 18.093266
15.271038 3.0078855 17.968805
14.176099 2.5345647 17.814924
14.685553 0.24680535 17.746668
15.66851 1.9083138 17.91328
15.868476 1.6816486 17.916225
14.907684 1.3379601 17.852928
15.652073 2.4731743 18.086308
15.383211 3.0812171 17.959564
15.496984 2.2295542 17.993214
14.269254 2.5507505 17.909903
14.370541 0.041097026 17.745232
14.664618 0.11861095 17.732084
15.95272 0.90416831 17.887867
14.372378 0.90745521 17.797064
15.899591 2.660985 18.143883
14.567823 0.042671878 17.763786
14.380461 0.83361316 17.713362
16.077923 0.96275097 18.019115
15.537615 2.2394261 18.07782
15.93953 0.50525665 17.902678
14.878633 3.3556602 17.937548
15.638911 0.79911172 17.875757
14.870279 0.9580363 17.879885
15.198503 3.4208164 18.008215
14.16468 2.7132454 17.812601
14.582118 0.091874085 17.78949
15.271269 3.2086914 17.877066
15.353838 3.1969886 17.868517
15.460405 0.53739154 17.921846
14.175474 2.5716844 17.837957
15.559607 1.7062285 17.972652
13.661646 2.5835657 17.771107
15.554022 2.9709411 17.946325
15.343126 3.4629035 18.00107
14.998356 3.4082625 17.992558
15.369928 3.2986267 18.135172
13.388995 2.7019312 17.769958
15.956052 0.62110126 17.943251
15.758968 2.2625153 18.020851
15.880224 2.2923627 17.978483
14.276987 2.935616 17.862282
15.3003 2.702441 17.966022
14.373221 0.12250913 17.704964
15.613197 1.93618 17.874641
13.958589 0.091056667 17.72023
14.437887 0.253362 17.715
15.381107 2.77898 17.936895
14.484447 0.64153469 17.773787
14.493297 2.8391011 17.870075
15.261234 3.4278307 18.005604
15.470076 2.8219955 17.932426
15.05784 3.246407 18.013073
15.648277 2.0341144 17.951214
14.973236 3.6325638 18.040319
14.963902 0.48277313 17.788725
15.079315 0.092198394 17.841982
15.882879 1.0078475 18.107903
15.651669 3.3669331 18.013159
14.181057 0.48352584 17.654673
15.367464 1.7129344 17.962202
15.663291 1.1424805 17.841042
15.582064 2.2274773 17.899395
15.07108 2.9127214 18.032598
15.463249 0.82529527 17.815359
14.915505 3.8210282 18.048307
14.373237 2.5360348 17.843477
15.768275 3.3673036 18.026541
15.655246 2.266923 17.990406
15.922994 1.4707648 17.959072
16.04615 1.0144821 17.934311
15.074979 3.4614129 18.019888
15.86064 2.5728807 18.073025
15.244526 3.6272471 17.975641
15.061667 0.68213391 17.862612
14.561181 0.40207475 17.74124
15.751323 0.10415908 17.920633
16.122623 1.8959794 17.946054
14.167511 0.079342693 17.66666
15.571091 2.5584211 18.033886
15.642522 3.3336265 18.101294
16.110594 1.641394 17.909826
14.560959 1.9216943 17.841957
13.878842 2.3213999 17.786747
15.277015 0.61530083 17.79076
15.444927 2.1214561 18.03013
15.370393 0.10427821 17.874594
14.282694 0.28017983 17.672108
15.761051 0.96791965 17.974882
15.46438 0.95777333 17.929815
14.495986 1.9191577 17.820103
15.868322 3.3362787 18.148685
15.165301 3.3180292 18.040726
14.871216 0.90102029 17.846624
15.64307 0.82790226 17.824533
15.731839 0.58138508 17.920364
14.467639 0.9055078 17.807217
14.462379 3.0372908 17.903074
15.259314 1.7095526 17.945518
15.056118 0.89701575 17.868271
15.197084 0.25482586 17.781845
14.556101 0.068281092 17.703203
15.164544 0.95358008 17.905855
13.443481 2.5772076 17.77512
15.172531 1.6428142 17.907972
15.740174 2.0898185 17.952223
15.224248 3.7453504 18.0355
16.017458 0.83804768 18.023376
14.767004 0.90485966 17.841873
14.066421 0.089169644 17.734438
15.366012 3.2095914 18.106884
15.470833 0.57773674 17.797192
13.965341 0.91149992 17.755199
15.672854 1.2205482 17.938745
15.361946 0.89904279 17.899771
15.256284 1.9975411 17.883619
14.186291 2.3747334 17.784575
15.265173 0.61758953 17.890924
15.361048 2.156214 17.919397
15.643344 1.7681677 17.837189
15.287144 1.3219727 17.867643
15.949413 0.93482769 18.029058
15.535919 3.411797 18.045109
15.079927 3.66752 17.996721
15.966034 0.58158648 17.908766
13.96632 1.3644303 17.734287
14.16662 2.505676 17.878775
14.653577 0.47493985 17.741056
16.182838 0.40901262 18.01642
14.361294 2.7231066 17.859892
15.092704 1.3188802 17.856857
14.47805 0.41159567 17.705915
15.924008 1.6913453 17.944735
15.456377 2.1771913 17.905731
13.257932 2.5820887 17.74905
16.023813 2.1751928 18.076042
15.328671 1.14437 17.973362
15.108645 0.83762705 17.81477
15.486537 2.152144 17.92577
14.771793 1.3351352 17.814787
15.591675 2.1539378 17.953104
13.138534 2.7427104 17.707499
15.735138 2.213711 17.98073
14.014866 0.3040849 17.701948
14.966444 1.5508965 17.861671
15.055794 2.4226732 17.935656
15.472267 3.4981408 18.027761
15.964705 1.6338161 17.980303
15.169293 3.2435033 18.015673
15.257975 1.6457479 17.908001
15.748095 1.6793913 17.911873
15.573612 0.95989686 17.946611
14.264448 2.5020137 17.888582
15.185325 1.9814372 17.839954
15.262465 0.89850688 17.889143
15.294142 0.42400751 17.870056
14.474386 0.098835655 17.773281
14.857153 3.6307819 17.984102
15.469309 3.6519313 18.037437
14.227556 2.6885104 17.884731
14.59374 0.3106252 17.685947
14.370183 0.088496931 17.764889
15.462805 1.6754844 17.87219
15.076 2.004513 17.841242
14.067729 0.10867264 17.680779
13.744884 0.81087911 17.643461
13.865376 2.5090141 17.8515
14.061315 2.4112699 17.868406
15.663931 3.629777 18.128839
15.459622 1.6340063 17.934429
14.882409 3.5796278 18.018114
15.560477 0.89531535 17.922886
14.170921 0.11703923 17.689503
13.348831 2.6313238 17.696533
13.599872 2.6196024 17.714848
13.999907 2.7773714 17.778517
15.582051 3.8438077 18.068027
15.952576 2.1847501 18.012173
15.071449 1.9508333 17.915581
15.255842 3.2512207 18.026163
15.297453 3.5385194 17.916557
15.291206 1.0347247 17.971434
15.89093 0.62274313 17.953579
14.965901 1.6420339 17.877819
15.975041 1.3803966 17.996935
15.569211 1.3375459 17.861589
15.261633 1.6691957 17.858829
15.5496 1.032118 17.981043
15.448998 1.0549953 17.8127
15.351027 2.9396858 17.950407
15.624538 3.8866246 18.058029
14.953118 0.96730781 17.881796
15.06964 0.99002135 17.8456
15.063137 0.96186888 17.902922
15.169842 0.54156148 17.846045
15.472941 2.5304346 17.939751
15.273344 1.900016 17.843088
15.763712 0.8875823 17.938065
15.666775 0.95869058 17.964233
15.064017 1.6382773 17.895365
16.173069 0.96452296 18.03277
15.35067 1.0333593 17.966021
13.867935 0.95251483 17.76037
15.664312 0.49348915 17.870373
15.457487 3.2586362 18.041004
15.165691 1.4081228 17.891304
15.269758 2.491725 17.979115
15.56675 3.6525986 18.084965
15.669552 1.6378444 17.943798
15.153864 1.0331652 17.953838
14.357836 0.072315209 17.689535
15.067028 1.2388307 17.834665
14.06512 0.073227718 17.660202
15.350334 2.5184879 17.928913
15.266582 3.2174761 18.100567
13.142062 1.1624138 17.610954
14.963807 3.5574946 18.034845
15.471483 3.2666419 17.964088
15.866329 1.0286642 18.022493
13.672846 0.92645615 17.686464
13.578381 1.161604 17.650835
14.297335 0.37295046 17.806097
14.794819 3.145813 17.996145
14.268888 0.046588685 17.733692
15.373363 2.5599651 18.016422
14.069483 0.052178629 17.711788
13.966528 0.051015075 17.696278
15.291208 0.55432642 17.759851
13.767509 0.92623347 17.694744
15.181269 1.0468329 17.773891
15.459259 0.97817254 17.880905
15.290308 3.8354435 18.046438
15.221581 0.76559842 17.777632
15.468463 2.4905078 18.001265
15.261301 2.5195019 17.917801
15.028185 3.6192448 17.98518
15.082077 0.49056756 17.732208
15.658419 1.7176167 17.994081
13.969632 2.5066085 17.860159
15.484512 3.8790524 18.099628
14.396897 0.49967137 17.677647
15.266405 1.8587264 17.898361
14.466517 0.95516437 17.834145
15.67531 2.3922369 17.992891
15.869634 0.8856051 17.949217
14.980264 3.2840517 18.088179
15.375539 3.7016125 18.04328
15.970729 1.0075114 17.948439
15.757584 1.0868901 18.018908
15.573614 1.8088346 18.056082
15.571424 2.494525 18.017435
15.882042 0.70030159 17.880154
15.266949 0.021756351 17.832897
14.333113 0.4886983 17.821087
14.272484 0.25163883 17.710243
15.164367 2.4949446 17.968172
15.264618 3.361939 17.985071
14.934113 0.84630454 17.761238
14.960215 3.3320284 17.943117
14.669185 0.045186572 17.774107
15.076502 0.033174813 17.81571
15.268729 1.9741 17.939587
15.073271 -0.0056291181 17.882822
15.354736 0.14125279 17.806362
15.574419 3.6878209 18.04221
13.96762 0.93077499 17.71456
15.176967 -0.021308424 17.886547
15.37346 3.3425686 18.168501
16.140625 0.53992414 17.925364
16.048544 1.7484059 18.10104
15.149965 2.90186 17.877565
14.964909 3.6463196 17.956121
15.468054 1.7183305 17.96837
13.764717 0.91309601 17.741768
15.48319 3.4053779 18.128786
13.865261 0.091375537 17.704834
14.26742 0.11991199 17.700209
13.86594 0.92790771 17.703806
15.098602 3.3839779 17.982779
15.162881 2.5202181 17.909212
14.285025 2.7218945 17.805326
15.857427 0.10040276 17.935225
15.269789 2.7608006 17.936701
14.900259 2.102025 17.92433
15.059118 2.7924664 17.879169
15.910449 0.42786318 17.864544
15.898404 2.0901656 17.970663
13.962851 2.536123 17.810144
15.659771 1.0127232 17.900145
15.567937 1.6382201 17.95359
14.912212 0.54629558 17.797785
13.875547 0.31477264 17.699331
15.263016 0.98905325 17.856354
14.571898 0.11479781 17.728418
15.65941 1.5954024 18.026735
15.378752 3.3829858 17.99914
15.53748 3.3823252 18.015537
15.343903 0.35775226 17.779493
14.196436 0.35917974 17.664022
16.129709 1.7407035 17.95718
13.868301 0.96855468 17.720652
15.773076 1.7161922 18.004473
15.5618 0.018659271 17.857222
15.169395 2.1207054 17.855175
15.267031 2.5579071 18.002562
15.366304 1.6383202 17.919317
13.968086 0.96694738 17.72769
13.963264 2.5422821 17.880156
14.469859 0.043895606 17.752413
14.569978 0.92524219 17.767876
15.466646 0.64049852 17.838095
13.196201 2.745863 17.746611
14.978575 1.5186461 17.777695
15.269928 2.922461 17.95561
15.564378 3.3244703 18.094767
14.967075 0.92285556 17.804249
14.065569 2.8181376 17.842098
15.431038 0.27023235 17.769846
14.368759 2.5024629 17.90045
14.447469 0.28791538 17.691544
15.668467 0.57024717 17.894125
15.068309 3.2787263 18.092155
15.261597 3.2350338 17.943817
14.315616 2.0618122 17.875547
13.478149 2.7363179 17.80039
15.463259 3.3170116 18.082714
15.969894 0.514162 17.837656
15.169117 2.5591133 17.999134
15.660454 2.5658994 18.056646
14.869253 0.096375503 17.823048
15.364477 3.3275311 18.057335
14.972048 0.099962018 17.829607
14.968244 3.308388 18.017963
13.769196 2.528353 17.78273
15.065273 3.3166163 18.031446
15.785685 0.99049288 17.907072
14.264062 3.2553883 17.935122
15.555061 2.540725 17.946033
13.359562 2.5339336 17.752144
14.067865 2.5492554 17.87982
15.350554 3.1215951 18.145546
15.257922 0.10318502 17.865902
15.065729 2.4939606 17.962982
14.962974 0.032673668 17.799967
13.762225 2.589921 17.785643
16.003805 0.30648121 17.896584
15.205626 3.8653769 18.02672
15.842566 0.9999398 17.928846
14.975864 0.58551234 17.80669
15.85779 1.8380972 17.900583
14.284399 2.8425069 17.831963
15.367397 0.92698765 17.848253
14.878349 1.2149016 17.767448
15.163996 0.99485958 17.851049
13.964765 1.1561337 17.762991
14.743923 0.54537028 17.754438
14.251208 1.2199332 17.740126
15.36016 1.7461613 17.90823
15.082149 0.083616748 17.759747
13.82935 1.1835805 17.831331
14.952556 1.237064 17.803686
15.552795 1.0615568 17.83275
15.334428 1.2810857 17.815784
15.168724 3.3545294 17.988775
15.151259 1.9381151 17.928015
14.58028 2.2831221 17.81703
16.137392 0.13475908 17.942104
15.479174 3.3546846 17.997429
14.232651 2.8197248 17.912336
14.917109 2.838259 17.980301
15.476124 0.14799345 17.818211
14.478417 0.60592806 17.714016
15.822906 0.61355561 17.88048
15.569706 2.8010154 18.015778
15.675138 0.88678044 17.926088
15.359036 0.99153912 17.87759
15.155445 3.6533248 17.985506
14.258464 0.074355602 17.677866
14.165596 0.046787433 17.720778
15.420272 0.75573283 17.934021
16.047419 2.1243532 18.103271
15.979217 2.1232736 18.078003
15.264929 3.3218753 18.046631
13.434973 2.5679834 17.614992
15.253643 0.15117891 17.779966
14.612306 0.2384847 17.777414
14.956553 0.1291305 17.764761
15.15429 1.7382851 17.87874
15.119226 3.4560277 17.929972
15.061915 1.7428476 17.864145
14.592365 0.54702073 17.742941
15.704111 1.0289228 18.005787
15.571741 0.14854048 17.813761
15.66255 3.6709807 18.07188
15.992949 2.512044 18.012794
15.867481 1.2127047 17.887348
14.361983 2.0206599 17.875599
13.897834 2.377383 17.789824
14.965561 0.98885173 17.830158
15.454776 1.1465424 17.821754
15.654753 0.50320679 17.814072
15.47246 3.0817645 17.974861
15.265821 0.92137277 17.828274
15.171586 0.9208526 17.818398
15.908641 0.59244931 17.888788
15.2729 2.5883861 17.952169
15.175886 0.13736559 17.779585
14.839586 2.205543 17.827595
15.075811 0.29946497 17.74177
15.07407 0.92315918 17.816826
14.696242 0.37964606 17.749094
15.052341 3.7490695 18.01199
15.248143 3.0662727 17.940842
16.044376 3.672368 18.102106
15.242214 1.731456 17.87636
15.572555 1.7456261 17.918938
15.468261 1.7416537 17.909302
15.157744 1.2326931 17.828655
15.373542 1.6791297 17.867159
14.959411 1.3625902 17.757996
14.971542 0.89932597 17.851212
15.271527 2.3827441 17.917627
13.524089 2.4920909 17.653488
15.107973 2.0832305 17.95134
15.683409 1.7680283 17.923332
14.776029 0.13090187 17.745398
15.969046 1.7020754 18.042734
15.665504 2.4745042 18.030243
13.874516 2.5260689 17.798487
14.066719 2.5665932 17.830765
14.579638 0.59763491 17.72109
15.171734 0.37635127 17.77483
15.095661 0.17454697 17.701174
14.983936 0.2364016 17.814381
15.132248 3.5830419 17.876926
14.17407 2.5698502 17.725212
15.177471 3.5764678 17.94993
14.98954 0.66285318 17.825914
15.483052 2.0056138 17.9491
13.970758 2.574621 17.823805
14.272079 2.5329266 17.825916
15.324254 1.3025628 17.849312
14.359749 2.5860472 17.867895
15.971249 3.7612829 18.185156
14.314089 2.2453892 17.8183
16.024567 0.86069649 17.903162
15.072113 0.82030189 17.775843
15.154203 1.6756023 17.845398
15.567339 0.90277594 17.848145
15.870991 0.92712134 17.8881
14.333371 0.25590822 17.715349
16.148161 2.2045929 18.042343
15.198893 0.69213104 17.792372
14.063339 2.5108361 17.863237
15.463096 0.91785783 17.854183
14.174064 3.0601599 17.858259
15.342138 2.112016 17.846859
15.173948 0.10175245 17.862741
14.136105 2.8561304 17.891388
15.15404 2.853833 18.025606
14.08621 3.0761051 17.793898
16.126005 2.1414132 18.08865
15.929474 3.3264461 18.215666
15.766217 0.69077969 17.863918
15.035917 3.6094661 18.121284
15.473646 0.89688116 17.900232
14.870171 0.038175032 17.788963
16.060225 2.5950019 18.056173
15.753454 1.7768309 17.937441
15.364195 2.591068 17.967255
16.284176 1.0790924 18.143301
15.646591 1.9720409 17.919613
15.503151 1.5913355 17.853439
15.679892 1.8302488 17.925022
15.571149 0.83903205 17.835424
15.365067 1.124074 17.822939
16.168301 1.0165792 18.07419
15.860451 0.25535664 17.89209
15.127684 1.4929302 17.988014
14.481853 0.078072235 17.698383
14.660892 2.1532331 17.881874
15.07798 2.5125773 17.904768
14.084673 2.5323849 17.8132
15.347103 1.9952046 17.877287
15.552891 2.0838935 17.945423
15.179509 1.8958781 17.824753
15.339725 2.0781095 17.907803
14.787583 3.0373061 17.971544
13.970315 0.94961828 17.771208
15.383436 2.3775241 17.969431
15.862877 2.4145169 18.022396
15.749718 2.3925486 17.971678
15.551902 0.99618131 17.905291
14.45118 2.4061737 17.842979
15.457465 2.1029878 17.919542
13.26822 2.5257852 17.737808
15.946061 1.7798012 18.055239
15.268425 0.95370924 17.926216
15.194783 1.0906656 17.855204
14.783487 3.0611105 17.920084
15.438437 2.3198526 17.912361
15.071194 2.9109643 17.940765
15.366268 0.022588864 17.844919
14.264808 1.1542069 17.729208
14.381104 2.9282682 17.882259
15.768456 2.568084 18.068151
13.900158 0.26721576 17.688602
14.322229 2.7848577 17.939688
14.995375 2.9309049 17.951464
15.161465 3.0717609 17.933043
15.171086 0.026019283 17.824848
15.163454 0.7490921 17.736313
15.724274 1.877978 17.938284
15.258404 3.6954336 18.034548
15.658974 1.5678889 17.934034
15.563455 3.2898872 17.990435
15.459091 2.5607545 18.031254
13.371634 2.5070662 17.798435
15.466742 2.6060171 17.978218
15.153935 1.5692867 17.856775
14.467394 0.11706641 17.710945
16.00395 1.1951499 17.991833
15.080049 2.1441398 17.936878
15.148314 0.33934271 17.849476
15.166226 2.3050988 17.896236
13.427993 2.7957153 17.793133
15.196609 0.59640563 17.785301
14.684985 2.4131317 17.894167
15.7337 1.6901852 17.824072
16.014971 1.1532574 17.799807
15.359478 1.07555 17.886526
15.561815 1.5987066 18.037216
15.3574 1.6241052 18.014647
15.777544 1.5977395 18.048203
15.60116 3.1012266 18.158783
15.355536 0.48579502 17.813654
15.27039 1.4296856 17.815989
15.067202 2.1964643 17.873552
14.420332 1.922592 17.924429
14.778364 0.2272871 17.780415
14.656604 0.58397979 17.684731
14.547747 2.9769642 17.856819
14.580643 0.72644931 17.699249
14.553983 2.202425 17.808325
15.094679 0.14848538 17.746006
15.572315 1.959502 17.923769
16.023821 2.0254338 17.984272
14.431134 3.1069293 17.931051
14.494296 2.9154167 17.884739
13.753705 2.4435499 17.791872
14.484711 2.6808469 17.904055
14.473106 2.0800545 17.839619
14.462466 2.7731838 17.903633
15.763404 0.9055559 17.894558
14.566242 2.1008937 17.841154
14.564384 2.1736431 17.847012
14.564999 2.7206852 17.899961
13.078317 1.2129309 17.613079
14.47838 1.4131446 17.801466
14.534591 0.7883231 17.746717
14.549935 1.2292776 17.775545
14.59162 0.67922723 17.736814
13.862077 0.79067838 17.656576
13.990561 2.7750823 17.855225
15.522776 1.4076384 18.042812
15.315987 0.1949916 17.885794
13.145796 1.0308039 17.57659
15.78136 0.76918083 17.865671
14.705401 2.89219 17.932484
14.007176 2.1589816 17.743954
15.009312 0.31471431 17.710812
14.657911 0.79843169 17.771809
15.992071 0.36543465 17.848623
15.587334 0.38651368 17.831009
15.639812 0.61436445 17.843956
15.801792 0.16753989 17.968163
15.375221 0.74350691 17.857222
15.768332 1.5827485 17.923258
15.986927 0.77592462 17.901209
14.584869 3.0327027 17.952356
15.656426 0.36316437 17.813
15.656952 0.27940956 17.853064
15.861581 0.7737844 17.88752
14.077549 2.9005194 17.847334
14.918558 0.38146812 17.686806
14.624897 1.296221 17.797224
14.797478 0.32403016 17.74057
15.194911 2.9085994 17.978682
15.634503 3.5664446 18.076593
14.953679 3.0780809 17.892445
14.763983 2.883142 17.900368
15.059601 3.0214396 18.006496
15.881033 0.45511186 17.95414
15.879356 1.9094925 18.026159
15.870801 0.29239133 17.922716
15.835981 1.3037068 17.980797
16.059105 2.6267397 18.121952
15.958929 2.8573732 18.129051
16.143476 1.0652658 17.980881
15.928036 1.8686713 18.006733
15.639264 0.73895717 17.83252
16.028368 1.2359067 18.032974
16.05332 2.8835199 18.161619
16.07934 1.6975411 18.117283
16.195784 1.3578533 18.082052
15.057413 3.8534956 18.066669
16.055021 1.8696262 18.084961
16.182425 1.7043173 18.141602
15.690348 2.8013408 18.005669
16.090221 2.0547438 18.100521
15.359419 -0.0020297098 17.893585
15.978512 2.2252753 18.078461
16.195633 0.49427316 18.020731
16.073162 2.4575047 18.06703
15.246585 2.2533114 17.993759
15.277922 1.6647447 18.015169
15.968393 1.5837924 17.95505
15.831594 1.5661387 17.975595
16.079758 1.5980153 17.908941
16.209461 0.58622175 18.020596
15.914045 1.8315948 18.024534
16.155148 1.6291369 18.022467
15.638731 3.6261747 17.994171
14.671461 3.8306439 17.996529
14.840883 0.48255998 17.789318
15.874783 1.6253155 17.969452
15.978907 1.6107651 18.049183
15.887203 2.0686405 18.026709
15.405745 0.34412372 17.8279
15.272402 0.74228114 17.77564
14.734954 3.5675347 18.08634
13.268347 1.1910446 17.613035
14.683544 2.9680276 17.958336
15.320244 3.5850291 18.004078
15.766593 3.550904 18.135092
15.284923 2.9946182 17.931623
15.389788 3.0268798 18.017601
14.176482 1.8693894 17.766809
15.069543 2.2760034 17.852648
14.42612 1.3857735 17.770433
15.695837 2.7169662 17.941374
15.417091 1.8984275 17.905731
15.561432 1.1305852 17.842287
15.396158 0.70910168 17.809563
15.250883 0.40338185 17.796799
14.695333 1.4416059 17.786032
15.05412 0.70884305 17.787884
13.958051 0.49229303 17.657284
15.623796 2.4034295 17.876434
14.445137 0.49602726 17.696503
14.362252 0.7187537 17.691639
15.739416 1.1659511 17.84868
15.718054 0.27338415 17.796057
13.986362 2.9045687 17.854218
14.261334 0.57528174 17.682201
15.513596 1.0923623 17.901392
15.100758 2.4052463 17.857723
15.125253 0.53412825 17.733604
15.761347 0.84045541 17.841658
15.62944 0.31634432 17.821789
14.75787 0.19066459 17.849663
13.978925 1.1101089 17.743486
13.866552 2.6037591 17.688414
16.237061 2.4449883 18.17742
16.064808 1.6236069 18.061001
15.866421 0.88826466 18.028378
16.057728 1.0428036 17.882603
16.213322 1.5998466 18.068184
15.894892 1.5904831 18.0473
16.502644 2.4884 18.286272
16.155605 2.4527447 18.053715
16.190069 1.566964 17.995075
13.737307 0.78499305 17.661119
16.078053 0.88621151 18.006737
16.147142 0.87971747 18.007072
16.050957 1.0508401 17.966202
15.972867 0.87950969 17.970295
15.96049 1.094231 17.945602
15.263509 1.2342855 17.848305
16.267315 0.86725003 18.068529
13.609402 2.7826853 17.82156
15.762629 1.9213065 17.959711
13.767432 2.8131485 17.858044
16.037745 1.6256179 18.026907
16.013231 1.5415524 18.059706
15.92173 2.4467657 18.001123
15.75285 2.4571004 18.077637
16.172949 1.9900163 18.100481
16.080626 2.4149301 18.046936
14.785815 0.69918847 17.767557
15.586523 0.71687961 17.829309
15.965195 0.68978733 17.871269
15.977264 0.24138278 17.853088
14.867516 1.1300602 17.848166
15.666288 1.2507455 17.900084
13.237096 2.7525809 17.802919
15.766794 2.5146418 17.979279
13.290491 1.2368124 17.579853
15.560712 0.34084606 17.933189
16.161093 3.0943756 18.058975
15.546173 0.25348008 17.779127
15.69903 3.1660926 18.055346
14.699431 2.0788147 17.843864
15.608625 1.0903463 17.890396
14.663043 2.129797 17.811459
14.660711 1.2302126 17.815912
16.079388 0.18550114 17.96384
15.104246 3.5721657 17.983902
13.343304 1.2680619 17.669847
14.059237 0.4685303 17.69405
15.874104 0.16989389 17.994425
14.135264 2.0981498 17.841017
15.267212 0.30543754 17.752316
14.666665 0.31309375 17.729242
15.840365 1.1637661 17.868
14.912387 1.3149192 17.785269
14.832382 2.1277211 17.886015
16.095469 1.1441742 17.923399
14.797384 2.1883209 17.858074
16.137915 1.3081844 17.915504
14.052894 1.4359432 17.863743
14.859091 0.23641941 17.857485
15.753424 1.6006062 17.880154
14.103422 0.38318563 17.717789
14.135309 2.2818122 17.84395
14.74099 0.55796176 17.715677
14.187613 0.70836323 17.697121
14.033585 1.2636679 17.722042
14.791826 0.46334162 17.762018
14.176191 1.2798421 17.903023
14.42161 1.1176964 17.765518
15.017682 0.34969953 17.816822
14.086481 1.50244 17.808521
15.014762 2.2038615 17.849422
14.2619 1.4122745 17.852104
14.249296 0.45374084 17.722151
15.002179 2.0405817 17.933834
15.442936 2.2020144 18.041975
16.047398 2.2565975 18.100492
16.057972 1.8459657 17.940981
16.229794 2.4108992 18.065186
16.04641 1.4945728 17.927027
14.550209 2.003799 17.821325
16.189957 1.5428958 18.027353
16.036036 1.2758702 17.848108
15.701829 2.4976335 17.969063
15.161467 0.29744026 17.765261
