# .PCD v0.7 - Point Cloud Data file format
VERSION 0.7
FIELDS x y z
SIZE 4 4 4
TYPE F F F
COUNT 1 1 1
WIDTH 1613
HEIGHT 1
VIEWPOINT 0 0 0 1 0 0 0
POINTS 1613
DATA ascii
32.618645 57.738701 43.735207
33.551464 58.940536 43.786602
33.165165 57.122574 43.738503
32.505905 54.614578 44.007034
33.937366 54.804501 43.475407
33.370789 52.424599 43.769581
33.648293 56.914631 43.760414
33.548061 58.486961 43.820728
33.652756 57.518234 43.587975
33.602879 59.108829 43.831158
33.692284 57.018661 43.787247
33.774452 58.507206 43.801178
33.765289 58.396019 43.564415
33.622997 57.543121 43.601315
33.667053 59.476673 43.812641
33.667027 55.0172 43.607494
33.665894 58.721127 43.586468
34.328835 58.13905 43.752029
33.944256 58.603168 43.78381
33.52935 58.742855 43.513283
33.724655 55.322952 43.614815
33.508888 56.935848 43.840832
33.480556 54.279804 43.544445
34.55743 55.383644 43.597939
34.343533 55.160587 43.695366
34.117958 55.246941 43.674828
34.333134 52.652836 43.703152
34.134819 53.232758 43.703758
34.390614 52.837593 43.688282
34.408661 52.777088 43.715405
34.322311 53.263771 43.688046
33.655544 56.258842 43.828167
33.714008 56.350845 43.785309
33.630142 56.184135 43.775352
33.626366 55.503937 43.558002
34.151997 57.736 43.747616
33.97945 57.631985 43.775612
33.539188 57.309349 43.774925
33.679176 52.461155 43.798626
33.490757 54.873451 43.632538
34.254086 52.80117 43.748684
34.068623 52.670952 43.761478
32.759998 58.055637 43.838837
34.14299 52.313583 43.815857
33.679798 58.429928 43.782337
33.54702 58.423336 43.801445
33.381767 54.759083 43.595123
33.596611 58.350254 43.551926
33.673977 52.987331 43.794289
34.002953 53.87624 43.763977
34.237503 58.503796 43.788544
34.261116 53.368908 43.826061
34.103035 53.440968 43.84697
33.969955 58.395203 43.775665
34.246529 58.389587 43.75045
34.121162 58.555187 43.773933
33.787769 59.529392 43.789898
34.070633 54.645878 43.833199
34.242519 52.947273 43.815567
34.264778 53.204239 43.819893
34.104988 53.134651 43.84449
34.17934 52.768742 43.763325
33.673397 53.88665 43.791405
33.749237 58.422264 43.787319
34.050098 58.640999 43.755367
34.138107 58.629646 43.771835
34.139393 54.171398 43.621216
34.203712 54.542419 43.76844
33.866508 58.511471 43.810852
34.229095 58.600479 43.789455
34.190735 58.515152 43.801117
34.063263 58.620136 43.812874
34.178623 52.862232 43.785675
34.170818 52.967056 43.793369
33.952682 58.532642 43.80249
33.989525 58.800846 43.796204
34.206844 54.517708 43.6609
34.084026 52.761707 43.772709
34.078178 58.761143 43.786198
34.070229 58.827801 43.768253
34.132168 58.904491 43.764149
34.268921 52.715073 43.664532
33.806263 52.813648 43.843872
33.91814 58.981106 43.786297
34.179424 52.570179 43.836685
33.246162 52.598366 43.613522
33.953098 59.014267 43.798981
34.163029 52.768337 43.844814
34.1614 52.650532 43.824387
34.090744 59.015125 43.783943
34.300064 52.478741 43.741722
34.034248 54.919781 43.780476
33.68 54.910553 43.813721
33.984135 52.827915 43.85236
34.178558 53.178802 43.800461
34.145264 54.921776 43.809452
33.961708 54.142612 43.82476
34.065018 52.951176 43.83646
33.975407 52.556988 43.802635
33.983025 52.747501 43.83342
33.664124 54.777081 43.599133
33.587486 52.874489 43.824337
33.977055 52.969891 43.82148
33.598797 54.770405 43.59631
33.022175 54.694149 43.726501
34.067276 53.185482 43.812855
33.177425 54.085697 43.633533
33.476444 56.726215 43.745975
33.438507 54.990807 43.593033
33.48225 55.383945 43.612644
33.676064 54.172215 43.819401
33.973381 53.283504 43.829556
32.973545 53.997837 43.641819
33.871811 53.814865 43.828568
33.959934 53.609684 43.830475
33.569145 55.944752 43.790295
33.982418 55.93063 43.77689
33.597942 54.898895 43.810677
33.41988 56.135696 43.649578
34.145584 55.968521 43.756748
33.772007 53.595707 43.83234
33.579506 55.437725 43.490269
33.380848 54.006226 43.792557
33.476734 53.951374 43.804203
33.876846 54.13995 43.822922
33.600437 54.062263 43.837711
33.410576 55.428726 43.619629
33.963448 54.264782 43.858444
33.674805 53.945099 43.804211
33.588684 54.799454 43.807243
33.591492 56.13673 43.606613
34.502087 54.472176 43.49361
33.577862 56.574917 43.647465
34.274799 57.684307 43.490833
33.980358 54.662766 43.825935
33.523392 53.859432 43.599888
34.44767 57.904686 43.460693
34.068214 54.957966 43.623825
33.969231 58.281857 43.601234
34.192635 59.285034 43.743053
33.872406 55.907471 43.652084
34.161469 60.024586 43.693817
33.771889 56.033298 43.641201
33.865833 55.177273 43.630978
34.29985 58.199112 43.537495
32.470581 57.969589 43.911911
33.870155 57.831722 43.645958
33.866005 57.735439 43.631603
34.145584 57.3587 43.368114
33.966072 59.446819 43.607773
34.070343 57.452785 43.527615
34.113789 57.407005 43.394455
32.809357 57.968819 43.686424
33.773941 56.441711 43.653877
34.271366 53.802849 43.516891
33.816414 57.710602 43.533569
33.493195 57.725945 43.902264
32.576813 57.972214 43.899937
33.849197 53.250175 43.577442
33.799961 54.918484 43.527569
34.067764 54.639549 43.610744
33.373878 58.050457 43.682999
33.582874 54.120544 43.580429
34.469109 55.144749 43.588348
33.412655 56.245491 43.899418
33.667728 53.402752 43.61237
33.769352 53.809425 43.91013
34.736797 57.355156 43.504868
33.871033 58.194187 43.582123
33.972038 57.961323 43.595573
34.469563 58.292351 43.492279
34.279621 54.777546 43.535507
34.042606 52.393631 43.636108
34.069279 58.900063 43.449341
33.960781 55.176643 43.609249
33.956287 52.306087 43.618919
34.079567 55.103199 43.553772
33.872463 53.471657 43.633488
33.898136 58.067108 43.55162
33.646393 58.136913 43.493397
33.56271 55.008522 43.959419
33.579563 55.074814 43.628124
33.516277 59.711102 43.752735
34.179649 59.850624 43.584778
33.773048 55.18335 43.643246
33.4617 56.27911 43.847672
33.774128 55.052841 43.65744
33.887131 54.987656 43.559517
34.084019 53.605701 43.540051
34.035397 58.541481 43.640114
33.495674 57.508762 43.676456
34.180359 58.001629 43.506359
33.962086 52.942139 43.625725
33.878433 58.596985 43.625854
34.088512 58.00552 43.526939
33.870075 57.433777 43.600777
34.392216 59.472118 43.495152
33.570229 60.07822 43.870453
33.68615 56.295456 43.677586
34.567371 57.635834 43.460693
33.68084 53.803032 43.915993
33.41291 55.022953 43.935776
33.951439 58.025227 43.54113
34.43924 59.452442 43.476982
33.488045 59.762966 43.667664
33.132809 54.586128 44.003864
33.406803 53.014496 43.742912
33.771107 55.722736 43.637146
34.083042 55.722317 43.578438
33.68269 57.965801 43.623096
33.783405 54.440681 43.829624
33.07732 58.051884 43.85825
34.073708 56.2533 43.559525
34.261658 56.27784 43.540627
34.015842 56.970245 43.834526
33.796856 59.849304 43.636425
33.683685 57.475552 43.542381
33.708035 53.286415 43.595806
32.576111 57.890335 43.866844
33.483051 57.026447 43.920162
33.65556 54.213501 43.897377
32.8634 58.001553 43.794865
33.115253 55.145042 43.760803
34.038773 55.493214 43.824314
32.575203 54.53529 43.959503
33.065521 57.853912 43.720722
33.763481 57.611179 43.772152
33.487175 59.800133 43.699226
33.871941 57.653877 43.783203
34.083813 55.646107 43.551281
32.9865 57.909809 43.673771
31.878281 57.90863 43.842384
32.844185 57.918644 43.692516
34.28368 54.239346 43.541489
33.971531 57.567501 43.770317
31.977631 57.902512 43.834175
33.590248 59.353954 43.847439
34.159111 56.028431 43.564739
33.381485 57.869461 43.86438
33.669548 59.864052 43.649776
33.470608 57.954212 43.642693
33.956398 55.145065 43.672516
33.277294 55.595589 43.764839
33.771111 57.897129 43.767944
33.570858 57.898743 43.782825
33.373222 57.931492 43.719177
33.568085 57.948364 43.625683
31.975382 57.883923 43.90567
34.388687 58.594032 43.547928
33.415543 55.06752 43.76717
33.493572 54.410599 43.775558
33.587368 59.55312 43.880615
33.57872 54.538879 43.69392
32.517162 57.961819 43.730068
33.05645 54.00634 43.676464
33.191349 54.043331 43.661068
34.193069 54.431957 43.537205
33.379883 57.93795 43.648209
33.946194 57.884792 43.768066
34.148941 59.371895 43.766739
32.979401 57.917419 43.751484
34.356033 56.022934 43.560154
34.352558 53.505672 43.598228
34.493279 57.586498 43.575375
34.172241 58.105518 43.5121
33.985878 56.332344 43.841305
33.272156 57.956161 43.654873
34.384212 53.505882 43.659935
34.105808 60.259335 43.631908
33.880444 57.607735 43.654175
32.074947 57.900101 43.823425
34.752872 53.474007 43.548347
33.857159 57.882759 43.751049
34.766277 55.152794 43.558998
34.069309 55.179829 43.567692
34.380173 55.17337 43.554516
33.377598 55.296741 43.824848
34.51115 56.146534 43.5812
33.637413 57.621841 43.788277
33.876274 57.599926 43.763245
34.164333 57.544998 43.761105
33.375957 55.005131 43.926193
33.739578 52.276405 43.864761
33.373737 52.88839 43.63644
33.479408 57.313831 43.679665
34.382549 57.074486 43.586323
33.041466 57.160152 43.72834
32.762321 58.217419 43.734856
33.375919 56.906281 43.680511
33.17524 54.504974 43.818081
32.668995 57.817429 43.892548
32.376244 57.884876 43.877728
34.170971 57.609726 43.607201
33.214504 54.734947 43.718384
33.467442 56.033913 43.652493
33.376919 56.56694 43.667408
34.074451 58.026848 43.792816
33.315075 54.421989 43.780827
33.378651 54.985558 43.686054
33.295166 53.955986 43.685768
34.078979 57.723724 43.64864
33.38567 53.108665 43.708771
33.102104 54.829544 43.753078
33.167393 53.648983 43.717369
33.282921 57.953087 43.901337
33.989914 54.977695 43.834145
33.25251 53.662903 43.696533
32.796883 57.81147 43.886055
33.373173 53.657845 43.694519
33.077423 54.532009 43.751034
31.949881 57.86446 44.082462
34.175079 55.165314 43.555477
32.967598 57.856934 43.895042
34.64859 57.107178 43.49762
33.287529 53.496159 43.653301
31.869753 57.78093 43.963188
33.452168 60.240986 43.71328
32.983223 57.828167 43.810989
31.776093 57.82423 43.881325
32.775211 57.867466 43.912941
33.034061 55.513245 43.699295
32.470367 57.890587 43.870117
32.474781 57.823383 43.83709
32.071854 57.95686 43.988503
33.077587 57.058701 43.715157
32.468861 57.859234 43.932934
32.821083 57.63414 43.746304
32.910362 57.725487 43.738491
33.075157 58.037159 43.712296
31.985636 57.799923 43.949764
32.182377 57.824848 43.854134
32.874031 57.856167 43.740685
33.488365 56.67345 43.91293
33.402763 56.43092 43.682377
33.610714 57.806522 43.941608
33.306854 52.516937 43.708309
34.067783 53.501518 43.818363
33.762375 59.620419 43.641644
32.806198 58.168648 43.739868
34.062355 60.12722 43.573952
34.688095 53.960499 43.45718
33.358498 54.214916 43.917202
34.352295 54.061264 43.696373
34.37854 53.66584 43.63279
33.570152 56.800602 43.622086
32.18224 57.988728 43.843033
32.187462 58.078739 43.974022
32.96883 54.503063 43.843224
33.178219 54.799278 43.764122
33.696766 60.076782 43.563221
32.474503 57.648445 43.812675
33.373833 52.541332 43.791367
33.677067 54.977921 43.852863
33.570511 57.829052 43.738083
32.969257 54.477459 43.910503
32.373825 57.829487 43.838425
33.868061 53.034599 43.646446
33.575344 59.94426 43.669613
32.869678 58.050655 43.873074
33.87711 53.344471 43.651581
33.873154 59.554089 43.631557
34.057812 57.424332 43.583218
34.186283 56.562489 43.553051
34.073792 57.82674 43.618336
33.31591 53.496792 43.576172
33.891224 52.936283 43.555344
33.771572 53.281212 43.582325
33.863674 57.786354 43.738178
33.319618 54.989269 43.936283
33.822739 53.24966 43.467476
33.36565 53.69062 43.637283
33.580215 55.273861 43.667591
34.16423 57.946129 43.63459
33.586887 52.750229 43.597305
33.679043 55.270802 43.663891
33.557781 52.994049 43.582222
34.275612 54.045769 43.50753
34.243252 53.705528 43.494167
34.204853 53.547764 43.521679
33.472893 57.859402 43.859928
33.857658 59.822544 43.765953
33.965702 55.274033 43.633595
34.270134 53.561459 43.633915
32.976208 57.854271 43.729744
33.545284 52.890583 43.531898
34.058273 55.807953 43.63369
34.266457 57.088791 43.613472
33.96291 52.330025 43.814388
34.193588 53.654385 43.653648
33.480373 52.998215 43.600033
34.166458 54.049934 43.526897
34.131084 53.759598 43.53091
34.459278 53.944725 43.530487
34.474998 53.210426 43.501137
33.690819 55.060349 43.666386
34.705647 53.867764 43.52142
34.83231 53.824726 43.414024
33.489422 55.053181 43.699383
34.953262 53.816071 43.444328
33.390446 53.514004 43.582615
34.96994 53.222286 43.468037
33.471092 52.87817 43.644505
33.561604 59.333656 43.911404
33.605751 57.66069 43.804447
34.076454 53.828617 43.538609
34.102024 53.040516 43.534904
34.338448 53.851494 43.485374
34.341122 53.478458 43.510574
34.740688 53.774162 43.438831
34.549934 53.537506 43.482521
33.575523 53.189663 43.568161
33.702644 52.341003 43.825439
33.830826 53.517769 43.56889
34.073383 53.920589 43.546436
34.491768 53.429806 43.469028
34.154911 59.484715 43.513775
33.509571 53.517925 43.545712
31.868687 57.939278 44.007175
34.255203 53.521633 43.531658
34.95771 53.471237 43.454243
33.574211 57.923016 43.696503
33.478661 54.772606 43.924118
34.266895 56.56345 43.636822
34.292698 57.20369 43.571831
33.674622 56.614803 43.712978
33.081463 57.806339 43.872574
33.788998 60.179607 43.846516
33.794216 56.625652 43.708424
33.589317 58.117199 43.756538
32.789108 56.788593 43.752399
34.730492 56.615688 43.443531
34.370296 58.246323 43.661476
33.861904 60.24622 43.659931
33.974281 56.792572 43.575237
33.396046 56.469208 43.902584
33.871254 55.44619 43.674786
34.653984 55.248314 43.581543
34.074234 57.920208 43.633488
32.151917 57.960346 43.744545
33.251976 54.337349 43.739841
34.563839 56.683506 43.547291
33.977585 56.621578 43.678982
34.480694 59.067677 43.448292
33.686626 55.114651 43.818035
34.382862 59.144817 43.519768
33.482307 52.947136 43.674454
34.075325 52.370972 43.693542
33.372887 53.201714 43.669315
33.862381 56.536037 43.660854
34.387978 57.418987 43.543308
33.864117 57.198483 43.634705
33.963825 56.581135 43.815418
33.976105 53.607841 43.566555
33.558529 54.741837 43.89537
34.890926 53.473732 43.505989
32.457886 57.790455 43.910099
32.308826 57.788368 43.9711
33.880436 55.8736 43.555275
33.675171 56.447506 43.656677
34.244663 57.408993 43.380951
33.876884 60.055244 43.635059
33.483849 54.199093 43.697563
34.266376 55.204502 43.556416
33.895088 57.043411 43.546947
34.466564 55.631252 43.537048
33.897549 53.632732 43.583298
33.88324 56.622982 43.685394
33.753742 56.630501 43.819393
34.062382 60.057159 43.622871
33.45676 53.909073 43.585293
33.872082 53.164524 43.629559
34.359291 59.008484 43.612545
33.516193 56.595192 43.77121
34.184105 53.772587 43.633091
31.983906 57.945076 43.990932
34.261909 52.931923 43.626244
33.543537 56.345348 43.926353
34.462479 53.675087 43.632809
34.174545 60.178768 43.649532
33.568192 59.316269 43.799603
31.876518 57.961845 43.952156
33.709873 59.496086 43.788944
33.782024 53.161949 43.637993
33.878773 53.992882 43.665668
33.871174 54.072956 43.683956
33.999031 55.016808 43.767456
33.26614 54.566616 43.673908
34.445507 53.117149 43.615513
34.251911 57.719669 43.649208
33.957127 52.525681 43.850899
34.229446 53.408592 43.727314
34.250038 59.226883 43.584782
33.883377 59.857296 43.638306
33.570942 53.160973 43.636627
34.362679 59.072403 43.463139
33.184002 52.222336 43.899654
33.792137 53.918571 43.59491
33.969376 53.162483 43.637489
34.074123 54.368515 43.53257
33.574951 54.33202 43.646709
32.769592 58.038147 43.912365
33.586685 55.215961 43.746487
33.514736 59.349949 43.834332
33.661098 59.994308 43.836964
33.731022 58.938919 43.56987
33.278332 53.631443 43.584003
34.721073 55.789402 43.498642
34.353031 58.134819 43.80249
33.16853 59.664707 43.71553
34.171177 57.300655 43.614422
33.762848 59.996445 43.819565
34.368256 58.904308 43.569359
33.077461 54.582581 43.856476
33.97411 53.919128 43.562222
34.164181 53.914528 43.539116
33.488949 53.453987 43.703033
33.456261 57.26704 43.809582
34.246094 54.107014 43.526634
33.17207 54.532372 43.74929
33.765862 54.058189 43.693394
34.069172 59.441391 43.589252
33.864925 58.466496 43.647583
33.962227 57.10667 43.588135
34.345638 53.933708 43.519779
33.577145 57.432106 43.650841
33.509972 57.954342 43.551247
33.685684 57.89558 43.773636
34.065346 52.333099 43.816319
34.266674 57.11071 43.550091
34.551823 57.105766 43.545525
33.629322 60.118839 43.796181
34.471497 56.69883 43.494804
34.264107 57.48819 43.645565
34.068951 57.523022 43.620022
33.49926 55.268829 43.675274
34.31419 59.017765 43.461811
34.103512 53.726723 43.522812
33.870472 57.930885 43.661026
33.278339 57.924496 43.735516
34.05101 53.207874 43.719048
33.686684 59.227795 43.649906
32.274254 57.883919 43.883575
33.787685 60.159592 43.772064
33.786728 55.856884 43.574516
34.467854 56.937801 43.485081
33.700596 52.130817 43.792439
34.171707 53.150723 43.553894
34.889404 53.180305 43.545483
33.56712 56.062576 43.873367
34.099762 57.004162 43.542038
33.77792 56.07983 43.706264
33.87257 52.047638 43.681927
34.52924 59.142246 43.503601
33.668087 57.855556 43.858551
32.375076 57.949532 43.689095
34.355217 56.897305 43.48724
34.37743 56.567471 43.656208
34.059364 52.237877 43.782867
31.879877 57.831367 43.878544
33.766842 56.322281 43.886871
32.072464 57.964268 43.93322
33.986591 57.216789 43.539364
33.469723 57.439655 43.668114
34.198811 53.903084 43.652798
34.478481 57.262833 43.556786
33.780769 54.294197 43.672325
33.953705 60.167789 43.634148
34.169762 54.088428 43.603855
33.670792 57.9818 43.816509
33.374668 54.533157 43.719868
34.536724 56.970806 43.454144
33.958363 55.902557 43.657116
34.16404 57.705799 43.667885
33.689854 60.337997 43.711632
33.459538 53.163292 43.632183
33.573456 54.197098 43.679081
33.669312 57.802727 43.750202
33.695396 57.022015 43.589237
33.944012 53.283554 43.561176
33.579796 57.84528 43.667896
33.868492 59.318691 43.640812
32.786564 57.952629 43.933727
33.776207 58.820446 43.607948
33.373249 58.054283 43.849922
34.160275 59.021404 43.608971
33.324909 56.691727 43.894753
34.149563 58.013599 43.828419
34.078144 56.925591 43.524734
33.777649 54.55534 43.633846
32.49828 58.008968 43.729279
34.463253 57.835396 43.659992
33.583637 55.916771 43.670467
33.871193 52.937206 43.640205
34.284706 59.33218 43.772602
34.37529 54.225796 43.537243
33.862377 53.857288 43.558533
34.304695 56.821369 43.460007
33.998779 59.363544 43.77449
32.26012 57.949715 43.973309
33.378128 57.98251 43.826717
33.596519 58.270851 43.614414
34.482574 53.764343 43.564281
33.878433 54.296482 43.672573
32.876183 57.910297 43.760929
33.784912 57.032368 43.578117
33.478268 54.534481 43.710487
33.459057 53.294548 43.599239
33.585007 57.712074 43.682495
33.482574 55.074242 43.926605
34.558159 57.305908 43.556461
33.763042 60.09462 43.837898
33.378525 57.848118 43.684025
34.075569 57.108822 43.557892
34.269943 57.028843 43.531723
34.703209 56.889378 43.44286
34.371662 57.962601 43.557301
34.646996 57.634216 43.532997
32.680668 57.979488 43.722794
33.675854 52.848759 43.618622
33.465027 56.32523 43.935097
33.180618 53.844639 43.619923
34.66803 53.950237 43.588261
34.491093 57.962414 43.570671
32.273643 57.990456 43.83839
33.17812 57.939156 43.667725
34.085918 58.283672 43.589828
34.177197 54.138691 43.535316
34.259144 57.955975 43.558743
33.590172 52.361954 43.836288
33.796497 54.162296 43.571854
32.671513 57.88364 43.855953
34.531151 56.520691 43.46899
33.079422 54.604412 43.775593
34.40139 57.091595 43.556095
34.560318 53.61858 43.587734
34.184536 52.736217 43.655987
33.591362 58.92527 43.544239
34.449905 57.132313 43.525864
34.177143 57.006058 43.524734
33.974686 53.822231 43.544647
33.772484 57.483166 43.706135
34.389946 55.851746 43.535732
34.168629 57.246372 43.5182
34.079361 54.145958 43.542828
34.515297 57.031708 43.42326
34.098312 54.462246 43.602631
33.682957 54.354649 43.833237
34.56097 55.74358 43.483097
33.351997 53.869156 43.593983
32.980423 57.970024 43.858105
33.883896 54.989185 43.818901
33.976902 54.146393 43.5532
33.793358 52.334972 43.82925
33.678406 57.514755 43.654469
34.160126 59.117374 43.585773
34.396408 59.232056 43.596478
34.062138 55.830223 43.540184
33.592609 56.659107 43.747566
34.138329 52.38467 43.612812
32.779278 57.891754 43.841068
34.312733 56.042725 43.554943
33.563736 57.974174 43.814606
33.607132 56.705151 43.760803
32.989525 57.891853 43.826653
34.248756 57.29948 43.60078
33.671532 57.828964 43.653214
33.471573 57.897137 43.787739
33.648163 53.844189 43.580467
32.871849 57.786522 43.909714
33.667843 58.377407 43.914551
34.362061 57.305401 43.577057
33.937721 55.758537 43.539612
33.497051 55.699009 43.623692
34.34631 53.760941 43.484718
33.681644 54.199875 43.668564
34.200787 56.851997 43.507378
33.970665 57.733425 43.607826
34.076797 56.892757 43.58279
33.893639 54.130016 43.559654
31.880608 57.888561 43.913727
33.771633 53.08144 43.6134
34.47414 57.013447 43.495972
33.867218 53.254948 43.643196
34.158863 56.916084 43.51796
34.574814 56.997879 43.522892
33.861012 59.397472 43.782963
34.074009 59.220455 43.601669
33.794609 54.983501 43.839905
33.967426 52.284389 43.650761
34.075108 59.122692 43.582939
34.173271 53.829746 43.527733
33.701664 56.902119 43.560616
33.537586 53.831734 43.571892
33.582184 57.385349 43.670227
32.187187 58.092274 43.864811
34.486252 53.434528 43.726665
33.791553 53.82008 43.561195
34.937881 53.894207 43.448223
34.094318 58.991341 43.611996
33.778919 53.727524 43.822014
33.68671 55.372669 43.663502
33.871593 57.991261 43.799061
34.165398 59.647987 43.566326
33.466679 54.153427 43.60635
33.859219 53.886982 43.651371
33.980873 55.77668 43.675941
33.576855 58.012348 43.738041
34.302193 56.975502 43.599869
33.86018 52.162201 43.799355
34.106266 53.497883 43.534004
34.48539 57.941593 43.613934
33.289265 57.850769 43.705341
34.288055 57.132137 43.456497
33.670719 52.501842 43.674526
33.487926 60.204903 43.68409
34.262409 54.422501 43.625675
33.979267 53.709198 43.572952
33.960163 56.586346 43.609032
33.865345 57.293552 43.648403
33.495571 56.595821 43.696579
33.683983 58.076702 43.825764
33.807194 52.779049 43.614944
33.863983 53.945751 43.806824
33.909294 56.586594 43.79575
34.054741 52.442547 43.822983
33.862724 53.434719 43.676353
33.886795 57.233776 43.559074
33.761971 59.590477 43.791321
33.58506 55.715714 43.647881
33.201435 54.295258 43.730785
33.981735 53.520252 43.544815
33.304081 53.573952 43.682346
33.969482 53.570366 43.641193
34.296913 58.807819 43.48753
33.875706 54.572166 43.799725
33.673363 57.197628 43.65535
34.168842 59.220642 43.602673
33.575768 59.473225 43.854332
33.64616 59.539909 43.872211
34.656948 56.991436 43.497944
33.579628 56.533527 43.675484
33.974464 57.924545 43.666431
34.600712 53.656433 43.585346
33.531265 56.451035 43.799717
33.769436 56.331322 43.681549
32.862988 54.800175 43.795807
33.981892 53.935005 43.799671
34.347176 56.181293 43.505421
34.185863 57.871929 43.522305
33.489052 54.759773 43.681004
34.272018 59.01339 43.585205
33.741596 59.890438 43.86285
33.375481 54.71756 43.698624
33.996403 57.349392 43.542221
32.072784 57.833469 43.857197
33.503052 53.334541 43.692669
33.061321 57.834122 43.79353
33.073532 57.970955 43.854912
33.186329 57.836067 43.786621
33.181423 57.895054 43.810242
33.678345 60.069069 43.639847
33.270191 57.897438 43.804615
33.362537 54.898109 43.751202
33.382393 57.897076 43.793026
33.520569 52.748604 43.588116
33.78051 60.259201 43.659904
34.165306 58.854313 43.484787
33.590199 60.067596 43.658928
33.887672 59.042988 43.550888
34.035305 52.530643 43.845894
34.272984 56.907665 43.514183
34.079533 59.347221 43.569965
34.012245 60.282265 43.656509
32.665817 57.856342 43.911743
33.49218 54.828526 43.692486
34.181583 57.200291 43.582642
32.662521 57.832253 43.829395
33.682449 52.038864 43.699337
33.850693 52.528591 43.862137
33.670361 60.271488 43.668873
32.988125 54.54623 43.674522
33.879032 60.044201 43.672058
33.395294 59.114872 43.838612
34.698006 55.32074 43.533562
33.850719 59.767868 43.551964
33.971924 57.701717 43.663746
34.572933 56.58643 43.528915
32.868633 57.832859 43.806705
33.975529 57.788025 43.7257
34.371883 59.146362 43.480644
33.974796 56.911297 43.532928
33.681049 52.937336 43.661118
34.353546 56.811043 43.480766
33.912567 56.836544 43.528725
33.473248 57.9254 43.713459
34.072712 56.60841 43.655109
32.973469 57.943619 43.924484
34.271229 57.42683 43.561432
34.460976 54.321262 43.547352
34.375648 56.807709 43.521629
34.095577 53.695309 43.564968
34.710899 56.821499 43.445549
33.424 60.262047 43.69553
34.800785 53.965858 43.513256
33.678593 55.717335 43.646885
34.274319 58.239098 43.648312
32.870937 57.890121 43.834484
33.979599 52.528595 43.610909
34.866249 55.801296 43.525219
34.275494 57.225784 43.51405
34.735699 57.019829 43.446262
35.000256 53.28484 43.459316
34.055687 59.83699 43.624249
33.603149 59.310104 43.669144
34.677002 55.7183 43.521866
33.577576 58.053844 43.847797
33.868706 58.148621 43.646896
33.589741 56.61425 43.851776
33.779667 58.04377 43.830219
33.683815 57.424648 43.644104
33.767391 53.637966 43.603409
33.271732 58.056236 43.861607
33.974148 59.140362 43.529289
33.462204 59.525829 43.651169
33.485954 57.043625 43.633141
34.176922 55.073517 43.635899
33.683643 57.618313 43.6605
34.256012 59.144821 43.485405
33.776127 53.700657 43.624615
33.77784 58.14299 43.661304
34.542114 59.164608 43.494686
34.440578 59.167789 43.459362
34.27018 53.917389 43.523586
34.156963 59.406868 43.502632
34.47467 54.859055 43.558315
34.279518 53.507019 43.817959
32.608871 54.75045 43.959736
33.177807 54.580173 43.849506
33.591343 53.9431 43.815979
33.383888 56.60358 43.86142
34.460266 57.204479 43.547626
33.568214 55.682835 43.92448
34.16431 54.418564 43.613392
33.592331 58.455143 43.666782
33.337482 56.607967 43.74157
34.381401 54.764011 43.504608
33.555592 56.685238 43.885078
34.167198 57.964241 43.550808
33.377563 54.543072 43.906643
34.379356 57.150349 43.480053
33.179211 57.292656 43.709076
34.175037 59.750343 43.580357
33.79044 54.77095 43.865002
33.865299 60.294312 43.624397
33.862141 53.79002 43.636402
33.091278 57.288605 43.723152
33.862556 55.684731 43.663948
32.780979 57.974438 43.882507
33.776783 57.295742 43.650925
34.139118 57.14386 43.516357
33.685238 55.362869 43.834682
33.990379 52.244156 43.809692
34.286442 55.632416 43.522831
33.969715 57.01688 43.55378
33.379036 56.985386 43.683838
34.355873 57.03059 43.520905
34.087498 60.174847 43.625462
33.69046 57.114101 43.631409
34.170025 57.107056 43.554821
32.670937 57.972801 43.897385
33.733444 58.276985 43.888466
33.815002 56.947487 43.555126
33.881409 57.112957 43.579056
33.66996 53.702728 43.646313
34.164341 57.150333 43.637623
33.49678 53.71056 43.629654
34.282356 58.799625 43.550175
34.040806 54.060654 43.539574
33.176075 58.039436 43.86924
33.46825 58.062122 43.860401
33.776722 59.131191 43.626873
33.471382 58.00169 43.749088
33.970951 58.061832 43.809139
33.520889 58.343945 43.928852
33.764889 54.683388 43.750439
33.789528 60.276257 43.627407
33.2715 57.972027 43.840855
33.541512 53.747353 43.565525
32.471169 57.720619 43.867531
33.479301 58.545444 43.67662
33.601173 59.199554 43.657509
33.380127 58.006031 43.754349
33.935867 59.458702 43.520725
33.233662 59.644089 43.676689
33.985188 59.3759 43.588856
34.071869 59.683506 43.561329
33.677509 57.939751 43.684254
34.07798 59.746494 43.603523
33.75835 59.231712 43.815884
33.469875 57.969864 43.814884
33.771515 59.040596 43.588539
33.679157 58.69487 43.64967
32.17664 57.966629 43.929863
33.592075 58.854748 43.600178
33.482018 58.078403 43.779873
33.485352 54.976105 43.922028
33.176414 58.000195 43.771206
33.179798 57.973568 43.841782
33.769012 54.419807 43.656734
33.774895 59.826584 43.759212
34.074085 58.384571 43.607685
33.873161 59.62883 43.641785
34.507938 56.28138 43.530224
34.171539 54.686188 43.713917
33.976788 56.226913 43.649036
33.578491 54.689331 43.773445
33.497204 59.996964 43.854691
33.767719 58.214607 43.852043
33.872517 58.69519 43.636238
33.075512 54.648788 43.877014
33.880981 58.017605 43.690807
33.724541 60.175377 43.571411
33.992805 59.6287 43.629898
33.973297 53.3666 43.843155
33.976162 54.075352 43.537277
33.77177 57.105843 43.62384
33.238823 53.712086 43.624378
34.528278 53.526863 43.532928
34.060848 57.303246 43.631485
33.386967 54.381989 43.582504
33.864853 53.706463 43.617855
34.359047 56.365143 43.569149
34.458958 54.546425 43.523788
34.298729 55.293839 43.586491
32.418556 57.725716 43.886814
33.645996 59.19846 43.537914
34.790043 55.534237 43.388798
33.551651 56.498795 43.611088
34.033783 60.316032 43.543747
33.578495 60.17461 43.654575
34.066708 54.7075 43.732849
34.270401 54.723793 43.702667
34.065491 57.199085 43.611603
34.371098 57.217255 43.567024
33.963596 57.46637 43.679523
34.37394 59.03154 43.509415
33.970798 57.190182 43.622681
33.897816 54.076363 43.55484
33.30048 52.340702 43.865952
32.866657 57.859997 43.902111
33.769753 57.390587 43.666801
33.286121 53.916973 43.630325
33.396774 54.115437 43.602947
34.066261 58.028637 43.690502
34.233185 54.607399 43.679447
34.573647 57.490658 43.555122
33.870892 57.387398 43.660572
33.408382 53.880272 43.611248
32.380447 57.855602 43.936615
34.255615 58.584484 43.58791
34.176334 58.054546 43.602299
34.7043 54.140995 43.501862
33.882679 53.925636 43.577854
33.396931 52.327106 43.890186
33.585548 53.927765 43.608505
33.882877 59.435905 43.624435
33.151375 58.430271 43.728161
33.62849 59.259239 43.580109
33.688782 55.082672 43.626461
33.653225 53.652618 43.499985
33.501518 55.195 43.653252
33.606205 53.690762 43.630703
34.738628 53.582584 43.569538
33.77647 54.323223 43.644356
33.949669 59.401733 43.653652
33.978687 52.365009 43.712723
33.783337 52.233887 43.802349
33.685192 53.933723 43.602509
34.191433 57.05732 43.623882
33.269211 58.091812 43.786621
33.267159 58.007034 43.764393
34.299847 52.893158 43.674759
33.134857 54.34053 43.668541
32.874546 57.975624 43.875519
33.865467 52.782276 43.788383
33.589104 53.496006 43.562061
34.270424 57.743614 43.586624
33.603027 52.468021 43.792976
33.87151 53.763474 43.689594
33.565048 55.749249 43.814789
33.832397 59.676971 43.53096
33.88805 53.903641 43.834408
33.566395 54.546761 43.905903
34.176899 54.614773 43.711102
34.086712 57.466156 43.648758
33.511147 60.302601 43.644562
33.598717 59.907726 43.865253
34.668861 55.520054 43.542278
34.234745 59.89389 43.571743
34.742889 53.264393 43.547184
33.759594 59.567841 43.81884
34.38166 54.137775 43.50724
33.869926 56.669533 43.639576
34.321072 52.523449 43.637993
32.681335 57.955059 43.949417
34.75016 56.788162 43.407349
33.78138 58.902321 43.644802
34.230343 52.349609 43.733032
33.771564 56.66592 43.64352
33.783871 56.564137 43.621246
34.183277 55.46497 43.421886
33.040848 57.418953 43.685013
34.161163 57.611275 43.788532
33.778683 59.541668 43.639107
34.152737 59.538837 43.606934
34.034809 57.678333 43.741192
34.082565 59.629341 43.729782
33.876026 57.760571 43.799137
33.501007 57.219368 43.666687
34.554066 58.374577 43.483734
34.298973 59.545208 43.615364
34.271961 59.732037 43.663086
34.171951 57.423229 43.576721
34.282185 55.086891 43.547871
34.445847 57.332298 43.531021
34.47094 53.216911 43.590603
34.072323 58.82103 43.575516
33.96991 58.018719 43.686043
33.905117 59.47588 43.800735
33.957916 54.552608 43.589489
33.690701 59.036789 43.582916
33.873013 55.817238 43.637035
33.689011 59.531872 43.651737
34.16008 52.525738 43.649235
33.595154 59.385239 43.617779
33.884678 57.661995 43.560322
33.867245 54.210255 43.653713
33.968723 59.045788 43.57375
33.702904 59.338688 43.604115
33.490967 55.164249 43.924034
33.506737 53.547329 43.931931
33.476124 54.45821 43.873013
33.572926 58.917553 43.86586
33.27631 57.829872 43.779346
34.612869 57.226707 43.520245
33.972591 59.970108 43.601753
33.489719 57.719536 43.708412
33.980026 57.641209 43.553677
33.602425 52.426697 43.871609
33.790077 57.826073 43.653522
33.97488 58.677654 43.630581
32.978493 57.997894 43.787891
34.075611 58.715317 43.540771
33.770943 57.930347 43.671158
34.069393 59.049091 43.58448
33.77784 59.404659 43.801891
33.957886 58.932671 43.812588
34.001415 53.226261 43.540695
33.368656 52.532261 43.620819
33.889061 55.726807 43.787678
33.981033 59.749489 43.622314
33.868916 56.76619 43.807991
33.973576 56.761314 43.644978
33.862354 57.076649 43.655418
33.643929 52.541691 43.635216
33.590282 52.932064 43.659763
34.062157 59.288746 43.805809
34.193787 55.311451 43.543201
33.584511 58.992325 43.663666
33.849472 59.396095 43.654247
34.186092 56.437241 43.616642
33.859997 54.695312 43.746742
33.762939 54.607658 43.719433
34.073654 52.944054 43.628971
34.13155 59.614613 43.748383
34.187515 55.41293 43.542622
34.071297 54.614479 43.692963
33.285542 52.895962 43.656929
33.872478 59.51458 43.86829
34.055222 54.527596 43.853355
34.186413 59.184048 43.772682
34.272995 55.410213 43.541355
33.372124 54.605263 43.75404
34.16544 58.721176 43.525642
34.174305 54.990547 43.70599
33.068352 58.001225 43.774742
34.073902 58.425758 43.547581
34.100914 54.283508 43.674217
33.174713 57.858292 43.883133
33.975025 57.554787 43.545181
33.67477 57.660347 43.613171
33.483986 55.619072 43.902428
33.871853 53.504208 43.822712
32.991341 58.078564 43.817493
33.965794 58.191555 43.554375
33.970894 53.780121 43.624809
33.071983 58.060673 43.823536
33.785519 57.204494 43.647278
33.875336 58.806759 43.601482
33.678879 58.008293 43.725002
33.877731 54.598846 43.692951
33.777771 52.94133 43.65152
34.253452 53.003033 43.51659
34.382175 53.205914 43.47168
34.365055 59.946033 43.532269
34.380508 55.8223 43.590633
34.339745 53.588623 43.542828
34.058975 53.420364 43.659416
33.164501 58.071823 43.788548
34.073925 53.290531 43.624359
33.294006 52.400707 43.901043
33.411751 58.100811 43.791
34.258804 57.647995 43.545616
34.30204 52.569283 43.623932
34.151569 58.028931 43.687969
34.465519 55.051113 43.579754
34.174515 52.779388 43.64558
33.977959 53.386478 43.574482
33.88324 52.538345 43.615963
33.969097 59.891819 43.574032
33.974953 53.114647 43.661079
33.870209 53.570774 43.646183
33.763611 54.51609 43.669922
33.679901 56.344479 43.653912
34.276672 59.665924 43.560127
33.523781 59.712231 43.872265
33.586353 59.510246 43.64233
34.092148 56.068367 43.614113
34.27718 56.795853 43.534363
33.794353 60.350285 43.764168
33.869381 52.280304 43.664612
33.589195 52.365604 43.740116
32.671463 57.913036 43.775021
34.202919 54.494244 43.776222
31.868267 57.807369 44.089252
33.966702 58.923832 43.606678
33.679165 60.180256 43.872944
34.72049 56.094425 43.548328
33.758251 55.764011 43.678688
34.627651 54.504696 43.498665
33.602562 60.211517 43.878246
34.387653 54.589855 43.673725
34.715008 54.580639 43.62236
34.703339 53.321163 43.486835
34.816978 55.374401 43.454029
34.631702 54.867046 43.57164
33.808567 59.48431 43.534615
34.567661 55.931793 43.544937
34.455494 54.614319 43.674454
34.361828 58.034378 43.673519
34.338486 53.722923 43.523617
34.474457 57.984531 43.468788
34.166542 58.907738 43.584732
34.437592 53.431 43.499748
34.531868 54.242504 43.568966
33.873276 58.080532 43.731655
34.357124 55.109722 43.53595
34.39085 53.256416 43.67445
32.974445 57.394699 43.725563
33.372932 54.645744 43.855492
33.275276 54.605839 43.76667
34.45118 55.483913 43.552608
33.984829 57.842396 43.62978
34.271561 54.526817 43.639885
33.477959 57.851086 43.674324
34.478279 58.184189 43.508102
33.679684 59.440819 43.623726
33.373589 54.507645 43.806122
34.298637 54.567379 43.54356
33.469696 54.599796 43.743721
33.978455 54.60561 43.692322
34.15485 53.09684 43.560966
32.589825 57.840473 43.81448
34.343388 59.496441 43.734371
33.566456 54.299965 43.707794
33.279137 58.200932 43.852787
34.183105 58.819145 43.573875
34.34174 53.140732 43.649879
34.175056 56.990669 43.622639
33.98547 53.90292 43.818939
33.983509 56.982113 43.637878
33.774456 53.037277 43.851944
34.187809 56.88139 43.573872
33.224552 58.231556 43.82188
34.173626 58.406921 43.764442
34.285583 53.359047 43.659882
34.164131 53.779961 43.660736
34.374325 56.258492 43.544495
33.774914 54.835617 43.665306
33.676529 56.886681 43.644394
33.776978 55.589077 43.656128
33.687325 57.742207 43.641312
33.473629 57.818752 43.753483
33.400154 54.561089 43.665024
33.853737 55.426559 43.803539
33.970108 54.516335 43.656021
33.778404 56.128674 43.650345
33.675278 54.662781 43.833839
33.545658 56.761887 43.902428
33.571899 53.314022 43.606468
33.773006 55.015575 43.80196
32.712112 57.746593 43.739819
33.876198 55.501873 43.633686
33.876694 59.61911 43.777119
33.042942 54.779991 43.913818
33.589066 54.125702 43.877602
33.590031 53.611237 43.600491
33.652359 53.706112 43.825027
33.195889 53.777412 43.633961
33.675659 54.035301 43.831306
33.688461 59.962723 43.709953
33.47596 53.351776 43.914059
34.072807 54.973064 43.813408
33.663979 55.453197 43.82539
33.570107 55.806801 43.663929
33.887974 54.766766 43.583565
34.072327 55.49696 43.575787
34.182365 52.924248 43.605042
34.462383 53.844982 43.476181
33.459526 53.350933 43.636414
34.56258 53.304508 43.526924
34.550255 56.096153 43.445976
34.485592 56.216209 43.576611
33.782272 54.668156 43.822464
34.087162 57.09322 43.640789
33.527569 59.608883 43.655251
33.985855 54.455044 43.824001
33.977566 56.441814 43.647263
33.669487 54.769123 43.880264
32.672684 57.993378 43.808258
33.293079 53.127571 43.673576
33.875828 56.234398 43.655228
33.567554 54.659412 43.837639
33.569786 54.602974 43.744091
34.1731 53.263851 43.535683
33.574524 52.640846 43.91008
33.972439 54.644451 43.610744
34.256775 53.281578 43.515396
34.19286 54.645119 43.59544
33.573368 54.572826 43.815414
34.698608 55.475094 43.455402
33.86293 54.662521 43.828197
33.775623 54.501816 43.792099
34.688969 53.837559 43.565731
34.809528 53.240353 43.490482
34.152615 57.494831 43.75771
34.595451 54.674339 43.66024
33.605289 52.867432 43.631912
33.481953 54.682644 43.781208
34.648655 55.904697 43.512165
34.455544 58.07795 43.558491
34.567032 54.630219 43.534863
33.344101 55.297134 43.662506
34.399807 56.446327 43.59853
34.158352 57.339565 43.541843
34.360291 54.323013 43.582664
33.773579 53.796841 43.65097
34.745937 53.843601 43.530182
34.460304 54.889473 43.618019
34.168556 55.296829 43.619854
33.477608 54.503887 43.792496
34.540718 54.551414 43.65118
34.547405 54.643101 43.637978
33.855286 57.478466 43.716305
34.60775 58.70599 43.50172
34.776691 53.156933 43.536701
34.264843 59.95425 43.637249
33.685978 54.525822 43.673107
34.9161 55.824265 43.439579
33.868057 53.390617 43.60553
34.89127 53.279449 43.414116
33.336426 56.724957 43.841156
34.959244 53.686211 43.452831
34.373081 53.317356 43.469353
33.776875 55.27256 43.658138
34.337639 54.566574 43.631721
33.369827 54.673912 43.780041
34.56879 56.39489 43.489735
34.584404 57.895256 43.534489
33.677769 54.563702 43.814865
34.646564 54.529278 43.557613
34.477154 58.37064 43.52739
33.96806 54.721043 43.722874
34.476131 54.245907 43.533649
34.180271 53.374275 43.527046
34.679153 56.885933 43.519299
34.648537 58.91354 43.512669
34.388817 58.998718 43.69466
33.558659 57.112686 43.896507
34.244976 53.803642 43.611263
33.790031 52.851902 43.627361
34.007492 59.454739 43.726696
34.629818 55.02734 43.631069
33.585434 52.56424 43.591568
33.277115 54.584843 43.841331
34.461449 53.6231 43.525238
34.474659 54.547802 43.638218
34.122311 58.049553 43.758297
32.078312 57.862576 43.958889
34.053497 54.587341 43.804413
33.695751 54.864338 43.907532
33.775017 58.399055 43.848709
33.776379 54.576607 43.805458
34.196827 58.229698 43.633049
34.346039 53.801918 43.662746
33.588924 53.515701 43.73502
32.97583 54.53072 43.761917
33.829624 58.922749 43.539268
33.985016 59.2607 43.755241
33.665588 53.540543 43.718346
33.5811 53.981281 43.688229
32.695816 54.640129 44.010815
33.589207 53.671234 43.682407
33.486092 52.896492 43.717415
33.305508 54.931728 43.865837
33.783211 52.409439 43.656242
32.873112 54.525894 43.769936
34.44191 59.381096 43.60239
33.691906 52.232231 43.818264
33.172245 54.604324 43.768761
33.375431 58.78104 43.687912
33.284935 53.799049 43.679478
33.399612 52.412266 43.565105
33.288326 54.721085 43.696613
34.549686 53.685417 43.54591
33.685299 53.670914 43.671455
33.993729 59.943638 43.752567
32.7701 54.507622 43.860306
32.259548 57.838055 43.848629
33.208027 54.794144 43.852558
33.285885 54.472816 43.883411
33.271179 54.531906 43.731579
34.307732 57.612885 43.612343
33.69561 52.223125 43.625881
33.67588 56.758698 43.661491
33.683792 53.793549 43.659847
33.47905 54.090874 43.928795
33.679962 53.570332 43.661404
33.878292 59.353241 43.570766
33.357559 53.787781 43.653095
33.950481 56.152519 43.838848
33.183453 57.855762 43.710541
32.374821 57.856098 43.784161
32.464245 57.858364 43.773647
32.88126 54.816357 43.860188
34.288048 57.503571 43.567089
33.981876 52.13369 43.764202
33.877232 59.915562 43.781517
33.683922 59.631664 43.651402
32.837875 56.790104 43.756996
32.076092 57.885914 43.89563
34.185596 53.725895 43.541775
33.001457 57.774391 43.703911
32.781151 54.777954 43.941547
33.550022 56.826843 43.863728
31.974657 57.96096 43.94611
32.175991 57.883541 43.89225
32.974564 54.584663 43.867092
33.791172 56.185154 43.870808
33.17868 52.408707 43.914055
33.467155 56.436703 43.765579
33.57682 53.447407 43.684536
34.312611 53.481506 43.666435
33.109112 57.367336 43.867268
33.068169 54.647129 43.711842
32.997955 54.650528 43.712788
33.239571 57.210899 43.815269
33.087208 54.538864 43.930302
33.777378 57.979576 43.781834
33.669483 58.510155 43.83083
33.489727 56.194134 43.811031
33.617748 58.186085 43.628502
33.7994 53.357758 43.839699
33.795582 54.41468 43.800629
32.576675 57.905045 43.780949
33.468517 53.571754 43.673817
33.794056 53.532967 43.739288
33.807114 59.586288 43.603256
33.591179 56.291454 43.696426
33.712952 55.260536 43.981079
32.673817 54.644627 43.911194
33.872112 53.375092 43.847599
32.768074 57.832317 43.812294
33.761967 58.8447 43.796478
33.68671 54.801315 43.813507
33.583019 55.370235 43.671871
33.421791 57.577339 43.923836
32.560284 57.788685 43.921814
33.580711 55.495461 43.660492
33.802601 57.790501 43.748596
33.590244 55.206482 43.868542
33.864639 59.688103 43.794842
33.616589 57.153732 43.68972
34.117081 58.891251 43.525967
34.384937 55.652466 43.606182
33.47921 56.032124 43.922131
32.97353 54.608421 43.78994
33.108299 53.791 43.64188
33.402374 52.25565 43.936817
33.045895 54.435612 43.788303
32.727955 54.693764 43.76664
33.605755 54.926823 43.699886
33.478626 54.285175 43.727329
33.587425 53.79372 43.658581
34.087269 53.790024 43.608963
33.79834 52.528343 43.855114
33.66922 53.38517 43.884445
33.577641 56.494537 43.877869
33.496655 56.937908 43.741127
33.456696 57.383522 43.707268
33.46104 52.402458 43.948975
32.27594 57.904053 43.80909
33.405487 56.324402 43.718864
34.51226 53.948799 43.67931
34.528141 53.813671 43.540218
33.764526 57.947205 43.613247
33.171654 54.675163 43.806004
33.776157 53.75193 43.68314
33.863865 58.439423 43.76511
33.870224 53.606441 43.794212
33.180454 57.921089 43.734505
33.881557 57.699581 43.666142
33.27528 54.642902 43.863647
33.873116 59.13868 43.933895
33.879829 59.000359 43.637444
34.038109 54.484047 43.850143
34.075928 56.988026 43.626652
34.163689 54.777954 43.537304
33.771492 54.78067 43.600956
34.163063 58.367775 43.591896
34.160049 55.604053 43.621227
34.06868 55.903046 43.629177
34.042797 56.107098 43.731754
34.106552 59.983971 43.718475
33.577496 54.508823 43.792969
34.064095 53.398209 43.555531
33.963131 54.327709 43.613827
33.982513 57.288624 43.643028
33.978935 54.741013 43.641365
34.282352 56.218349 43.622654
34.092022 54.531586 43.665985
34.139286 56.948795 43.679058
34.069862 55.300438 43.544582
33.963139 54.851036 43.664371
33.676289 54.61042 43.71273
34.356297 56.620525 43.471111
34.423634 54.787949 43.606152
34.261375 55.923683 43.533768
34.192764 56.139542 43.689236
34.145897 60.260235 43.582829
34.173374 52.466938 43.775497
34.079849 54.905834 43.683147
34.079952 53.660553 43.647076
34.25967 55.705357 43.64481
33.780994 57.205231 43.908321
33.897388 56.636074 43.54237
33.281601 54.506374 43.813389
33.967136 53.900478 43.648418
34.266243 53.694832 43.527618
34.086845 56.793285 43.542099
34.114227 60.22604 43.736897
34.180035 52.552612 43.755058
33.672779 54.495331 43.788254
34.346619 53.923847 43.586769
34.292171 54.291245 43.634781
34.168209 52.415203 43.807426
34.787708 54.588474 43.538357
34.06208 53.542881 43.632874
34.27013 59.759327 43.735821
34.069031 53.30611 43.546101
34.345169 58.80608 43.675911
34.144772 60.004341 43.506725
34.262966 58.676502 43.603794
34.355103 55.416302 43.53788
34.191078 54.546448 43.562664
34.386478 58.004547 43.48576
34.246803 54.708923 43.637917
34.061493 59.550205 43.564499
34.087521 57.869473 43.551895
34.184753 56.808758 43.528378
33.96246 55.052448 43.652042
33.771835 54.637756 43.644768
34.250553 52.772266 43.816879
33.868774 54.523174 43.665539
34.0811 53.723385 43.816719
33.778267 59.347382 43.59547
34.199764 56.380917 43.720982
33.468056 54.577526 43.822651
34.240685 54.849693 43.749146
33.546333 54.401897 43.583511
34.284302 53.68494 43.662254
34.172318 57.776749 43.518871
33.577076 53.085899 43.823139
34.264191 60.175343 43.603886
34.477943 52.943184 43.753819
33.784569 54.036491 43.824368
34.543118 53.298702 43.579945
34.364262 59.932491 43.67466
33.469463 54.666679 43.85112
33.862297 55.273739 43.647762
34.554245 54.952293 43.574982
34.547668 58.790638 43.516808
33.577072 54.424156 43.671883
34.605045 55.668427 43.601746
33.657341 57.206444 43.566467
34.385235 58.657894 43.572136
34.262012 55.845444 43.53091
33.872189 55.059589 43.651329
34.381718 58.339767 43.72406
34.450714 54.768673 43.53685
34.6096 58.01088 43.447201
33.595478 52.186207 43.678722
33.221024 54.75663 43.628872
34.479069 54.173702 43.701229
33.779385 54.478218 43.612614
32.967213 57.800617 43.876179
34.257095 58.056694 43.587387
33.684437 59.678623 43.607807
34.18013 59.963177 43.657753
34.068829 54.512516 43.777592
32.182819 57.77911 43.939007
32.787174 57.853909 43.745918
32.172676 57.904259 43.8139
34.0928 56.606434 43.524502
32.001244 57.767281 44.033939
31.9744 57.862427 43.964394
34.287842 56.610592 43.493122
32.320568 57.755741 43.797531
34.272514 57.846889 43.592972
34.254131 54.650799 43.590889
34.582935 54.019714 43.571232
32.743225 57.780193 43.718422
32.073029 57.85606 43.809418
33.523663 54.72525 43.613068
32.73679 57.666973 43.799255
33.394714 57.831612 43.762314
34.378178 54.577602 43.554447
33.97361 59.315796 43.636913
33.869831 57.866673 43.557625
34.74276 56.647831 43.50589
34.689445 56.682396 43.483807
32.376583 57.940792 43.975067
33.672287 58.096146 43.757908
34.345989 58.16452 43.73579
34.327408 54.036263 43.50243
33.862225 54.770554 43.795864
34.280697 56.682823 43.527752
33.678318 56.571903 43.643833
32.166393 57.858368 43.953705
33.669174 54.69009 43.774693
34.256195 56.664524 43.573772
34.28743 58.746567 43.689049
34.356636 56.684143 43.598778
33.591137 55.059437 43.671993
34.173649 57.4814 43.525703
34.360912 58.154217 43.61401
34.294071 57.928986 43.598633
33.875896 54.64328 43.627716
33.87075 54.56089 43.606808
34.366131 56.743191 43.490112
33.846119 56.732273 43.768314
33.585171 58.888523 43.65279
32.87355 57.95549 43.932018
33.388458 56.694881 43.902252
33.478539 56.657383 43.923912
33.963352 56.707558 43.824154
33.84565 56.309532 43.796383
33.652122 55.826683 43.566418
32.682846 57.856491 43.756592
34.537025 56.715832 43.402733
32.381134 57.906368 43.799564
33.478325 56.621662 43.9058
34.190704 56.702984 43.524044
32.578014 57.862114 43.922432
33.577347 54.970901 43.665501
32.577991 57.94437 43.94521
32.578606 57.858982 43.766018
33.322327 54.922066 43.702961
34.602684 56.784584 43.518421
32.576073 57.994186 43.8167
33.77607 58.085735 43.748344
33.783764 58.013809 43.694496
33.79562 52.551849 43.624775
33.683887 53.169544 43.63443
33.422752 55.198692 43.627949
31.972773 57.988983 43.858086
31.976904 57.860455 43.819435
33.368996 54.580612 43.836472
33.686577 52.720348 43.668915
33.59922 53.083874 43.617668
33.59045 52.427067 43.604263
33.681637 54.956848 43.662552
34.18243 53.393387 43.832245
32.274036 57.965538 43.925758
32.271793 57.856106 43.94693
33.685467 59.788094 43.84956
33.478756 53.615944 43.585022
33.683617 58.316402 43.822014
33.680553 55.488663 43.654713
33.870026 52.84137 43.6213
33.627541 52.445633 43.520023
33.279736 54.63813 43.696472
32.468399 57.991688 43.82378
32.477093 57.956242 43.960777
33.569435 56.00098 43.691532
32.061661 57.798195 43.934803
33.966904 52.644958 43.821564
34.157753 58.11721 43.757828
33.286835 54.674465 43.786144
33.944881 52.400276 43.627174
33.570881 53.597034 43.898384
33.484657 57.441742 43.823391
33.420109 53.330273 43.703732
