# .PCD v0.7 - Point Cloud Data file format
VERSION 0.7
FIELDS x y z
SIZE 4 4 4
TYPE F F F
COUNT 1 1 1
WIDTH 1509
HEIGHT 1
VIEWPOINT 0 0 0 1 0 0 0
POINTS 1509
DATA ascii
-13.286053 20.269346 -20.091639
-12.012353 19.207302 -20.583469
-11.889599 19.769438 -20.56163
-11.690028 17.964581 -20.610258
-11.901989 21.216166 -20.526094
-11.894423 20.993725 -20.539286
-12.32129 20.752695 -20.289141
-12.284627 21.222166 -20.396235
-11.368208 17.978586 -20.743631
-13.149136 18.860659 -20.211119
-11.500134 19.653934 -20.515345
-12.794298 19.080519 -20.3792
-12.451681 20.282198 -20.411947
-12.448799 21.1908 -20.404657
-13.394502 19.07827 -20.147968
-12.841824 18.355558 -20.374655
-13.192874 20.258026 -20.036194
-12.169201 21.211479 -20.277483
-12.916973 20.326437 -20.181231
-11.79213 19.908863 -20.432487
-12.673206 20.222837 -20.188036
-11.885159 20.478525 -20.295132
-12.38377 20.335634 -20.413588
-12.562515 20.249683 -20.219152
-12.302929 20.161156 -20.32185
-13.108259 20.294186 -20.037962
-13.318301 18.24316 -20.156513
-13.199208 21.303308 -20.061054
-12.223431 19.435289 -20.402107
-12.397499 19.288233 -20.382406
-12.309832 20.354729 -20.331161
-11.911894 19.481014 -20.491671
-11.999282 19.292543 -20.547796
-12.316953 19.300171 -20.411129
-12.958189 19.432089 -20.112986
-10.796011 17.189787 -20.876579
-11.032888 17.824612 -20.788485
-10.818116 17.219597 -20.774801
-10.720186 17.18211 -20.915207
-11.291109 18.244558 -20.744389
-11.323 18.141994 -20.750551
-11.177387 17.658548 -19.516857
-10.964015 19.300188 -20.788849
-11.474208 18.637014 -20.650589
-11.914149 18.288008 -20.484348
-11.597743 18.246229 -20.625219
-11.573841 19.319176 -20.553997
-11.274544 19.274141 -20.681416
-11.984047 18.022306 -20.484682
-12.10465 18.473816 -20.373056
-11.106628 17.692013 -20.785414
-11.369794 17.864374 -20.747
-11.963849 19.158466 -20.379728
-12.289227 19.198942 -20.233946
-11.869797 19.469501 -20.401043
-11.885221 17.995449 -20.489399
-11.005362 18.918339 -20.821692
-11.381405 18.797119 -20.661442
-12.081952 19.6525 -20.264637
-11.126233 18.407215 -20.782722
-11.483727 18.225128 -20.650776
-11.733614 18.545391 -20.501068
-11.769971 18.422764 -20.485491
-11.023938 18.877127 -20.786427
-11.280232 19.084284 -20.660492
-11.616152 19.020689 -20.521736
-11.970059 18.905443 -20.375593
-10.938123 19.290451 -20.78105
-11.546033 19.445686 -20.5091
-11.918469 19.305502 -20.381704
-11.821866 19.576973 -20.395546
-11.846495 18.436749 -20.49206
-11.768105 18.733749 -20.506943
-12.098063 18.68932 -20.369091
-11.390013 19.122147 -20.628141
-11.67639 19.300341 -20.495487
-11.328917 19.43145 -20.629827
-12.225325 18.778139 -20.336483
-11.907118 18.729553 -20.464703
-12.202314 18.915743 -20.331604
-11.512495 19.21184 -20.589916
-11.801008 19.398067 -20.457203
-11.810225 19.309603 -20.461966
-11.184431 19.277084 -20.723339
-11.409086 18.347713 -20.725544
-11.970121 18.778862 -20.455914
-11.673918 18.717239 -20.544199
-11.886524 19.024445 -20.444342
-12.188998 19.221474 -20.297743
-11.289555 19.209068 -20.68049
-11.856321 19.430494 -20.441618
-11.794439 19.612297 -20.447147
-11.695346 20.280025 -20.422907
-12.685194 18.774097 -20.181936
-12.002741 18.915487 -20.420849
-11.375271 18.92823 -20.683863
-11.567703 19.407101 -20.553185
-11.56288 19.627581 -20.57749
-11.178541 19.993137 -20.72028
-11.811079 20.021843 -20.445885
-11.775869 20.076799 -20.430433
-11.974073 20.984377 -20.300772
-11.911879 21.427855 -20.290329
-11.919325 21.371811 -20.292562
-12.53314 18.029062 -20.404764
-12.752714 18.697617 -20.257641
-12.325377 19.223606 -20.390215
-11.965849 19.462406 -20.513901
-12.23834 19.691124 -20.392555
-12.14514 20.257706 -20.384769
-12.671568 20.988239 -20.107943
-12.568892 18.016689 -20.42581
-11.830549 20.237553 -20.53758
-12.764753 20.422087 -20.148813
-11.753584 20.700499 -20.51568
-12.829924 18.048391 -20.309383
-12.828154 18.096149 -20.290846
-11.596838 18.021408 -20.803568
-12.215216 19.79587 -20.418797
-12.456388 20.143715 -20.294376
-12.174009 20.064856 -20.406725
-12.011175 21.008377 -20.392036
-12.219206 21.681675 -20.266233
-11.454176 17.995586 -20.854084
-12.358961 18.126162 -20.497545
-11.914564 20.288155 -20.499178
-11.600203 21.048973 -20.562368
-12.842848 21.332565 -20.041662
-11.986317 18.414209 -20.615341
-11.800587 19.687958 -20.577518
-12.085455 19.855293 -20.460526
-12.039857 20.168226 -20.455261
-12.639116 20.45323 -20.187752
-12.296131 20.671505 -20.301928
-11.996701 20.842239 -20.410057
-12.71438 19.450893 -20.214241
-12.077173 19.482872 -20.470211
-11.66836 20.289505 -20.565334
-12.271387 20.54772 -20.301245
-12.199865 21.258997 -20.284937
-11.868824 21.323687 -20.422741
-11.537317 21.368492 -20.550583
-12.447325 18.409756 -20.411484
-12.196331 18.315741 -20.518389
-12.441526 18.463341 -20.40621
-11.786427 18.477177 -20.613531
-13.049376 18.683769 -20.145159
-12.324339 19.470213 -20.363125
-11.693296 19.507082 -20.619761
-11.668028 19.735704 -20.610588
-12.167784 21.033264 -20.287802
-12.139647 21.27676 -20.279486
-11.522062 21.223728 -20.530067
-11.505552 21.349901 -20.536997
-11.823729 21.316492 -20.404423
-11.811186 21.419462 -20.40802
-11.488768 21.508251 -20.535387
-12.496994 18.115025 -20.415104
-13.005099 18.91489 -20.168388
-12.592534 19.646326 -20.262772
-11.976137 19.848389 -20.492962
-11.984129 20.08713 -20.465797
-12.529391 20.742706 -20.208189
-11.899631 20.772259 -20.459843
-12.192913 20.918457 -20.310375
-12.259622 18.102621 -20.521399
-12.476369 18.325428 -20.417852
-11.875062 18.335857 -20.642859
-13.118294 18.867928 -20.141333
-12.187006 18.887131 -20.499273
-11.855881 18.891983 -20.626215
-13.099739 19.124676 -20.118582
-12.158943 19.124031 -20.495098
-13.077614 19.307781 -20.124088
-12.418106 19.501629 -20.347864
-12.066287 20.058464 -20.451168
-12.099006 20.274759 -20.422153
-12.001638 20.549948 -20.434725
-12.287046 20.967276 -20.286045
-11.681801 21.225142 -20.490973
-11.670235 21.354183 -20.492506
-12.290321 21.399435 -20.238291
-11.672127 21.4077 -20.475218
-11.977974 21.469255 -20.351131
-12.28199 21.584208 -20.222214
-12.272606 17.524546 -18.502102
-12.366724 19.750416 -20.319899
-12.187408 19.645315 -20.556362
-12.888123 18.09321 -20.382942
-12.117676 19.333891 -20.602861
-12.176526 18.966337 -20.629568
-13.325086 21.453278 -20.020569
-11.432297 18.651894 -20.681404
-12.586477 18.101606 -20.509552
-12.331779 19.429459 -20.452993
-12.491232 21.462227 -20.290794
-12.148939 19.931467 -20.310383
-12.93975 19.80603 -20.192144
-12.153055 19.402039 -20.577629
-12.544964 19.176258 -20.294046
-11.178635 19.59717 -20.701349
-12.709699 18.824816 -20.137653
-11.830205 18.136208 -20.503778
-12.374556 18.049673 -20.491829
-11.993159 19.136463 -20.577656
-12.684722 19.493795 -20.29471
-12.467135 18.146011 -20.452301
-12.352375 21.678431 -20.266613
-11.589537 19.741657 -20.498758
-13.325318 19.879072 -20.03627
-13.273277 21.605234 -20.001282
-10.703726 17.865953 -20.872944
-11.483522 17.212791 -20.482752
-12.977407 20.558931 -20.056458
-11.780142 19.801092 -20.430508
-12.058331 19.743788 -20.578356
-12.239407 19.909473 -20.470907
-11.931767 18.62532 -20.467701
-11.704466 19.77857 -20.605293
-12.102835 20.240032 -20.52459
-12.475969 20.40984 -20.390198
-11.461452 18.688473 -20.643335
-11.759054 18.897638 -20.652771
-11.675016 18.624832 -20.59371
-11.411079 18.75358 -20.661873
-11.787 18.34417 -20.486843
-12.33073 19.161501 -20.524275
-12.715793 18.701164 -20.295399
-11.907626 20.616133 -20.449053
-13.109175 20.347076 -20.013079
-11.501904 21.626554 -20.525108
-11.582914 21.675396 -20.518414
-12.190187 19.15926 -20.473228
-11.08849 18.723232 -20.79331
-11.96711 21.626247 -20.346548
-11.925715 21.128309 -20.473131
-12.425623 21.129774 -20.280186
-12.534458 21.154942 -20.202398
-12.211021 17.579025 -18.49901
-12.387281 19.428328 -20.43339
-12.016363 20.955671 -20.40167
-11.841208 21.227211 -20.553635
-12.078176 20.662621 -20.385021
-12.709791 19.929605 -20.20886
-12.014404 18.751869 -20.695881
-11.899609 18.206673 -20.651945
-12.680824 19.062103 -20.282759
-12.424156 17.508764 -18.477041
-12.254843 20.222359 -20.490845
-12.663633 19.271313 -20.234669
-11.924479 18.807117 -20.617243
-11.953566 19.226461 -20.455212
-12.140511 19.329739 -20.486904
-12.608196 19.285746 -20.323668
-11.348013 17.868216 -20.637554
-13.156643 19.588392 -20.141718
-12.89431 20.007963 -20.228258
-12.483448 19.305738 -20.332775
-11.788368 19.860468 -20.585257
-11.859406 19.28359 -20.590454
-12.026929 21.012936 -20.529938
-11.790131 18.630905 -20.508043
-12.380812 18.650862 -20.323566
-12.991346 19.169674 -20.290148
-11.009817 17.249956 -20.743137
-11.211132 18.430389 -20.769579
-11.377255 18.610426 -20.666708
-13.10964 19.114525 -20.243158
-12.719801 18.711712 -20.159126
-11.469312 19.777029 -20.529551
-11.420218 19.787624 -20.577023
-12.543362 19.869362 -20.349974
-11.815695 18.766157 -20.752645
-11.791546 18.979404 -20.617243
-12.661375 19.41889 -20.310896
-12.839535 19.053709 -20.316519
-12.678915 19.929554 -20.332552
-12.305311 19.09024 -20.441799
-12.723017 19.371628 -20.219717
-13.114878 18.024584 -20.353285
-11.11987 19.844545 -20.697426
-12.31703 18.990784 -20.321384
-11.591734 18.128313 -20.624891
-12.490709 19.022079 -20.495369
-12.681274 19.676291 -20.344751
-12.476014 19.202337 -20.357487
-12.494568 18.052481 -20.57329
-12.394909 18.091364 -20.558435
-11.806887 18.603868 -20.506077
-11.568812 18.324833 -20.640604
-11.82057 18.204901 -20.598162
-12.642203 18.192566 -20.444798
-11.722037 19.651882 -20.678625
-12.363857 21.111706 -20.383497
-11.787153 19.993124 -20.405672
-11.933498 18.467886 -20.713291
-12.634696 19.903166 -20.299076
-11.932278 19.10874 -20.658249
-11.654902 21.592152 -20.490828
-11.814741 21.24424 -20.306704
-12.232449 18.423063 -20.60471
-11.752745 18.90752 -20.500519
-12.506817 20.252216 -20.200762
-12.774961 19.206652 -20.386641
-11.74577 21.642265 -20.493458
-11.70889 18.636114 -20.512276
-12.255827 18.772985 -20.464523
-12.788821 19.886578 -20.228661
-11.76824 20.610588 -20.508314
-12.192992 18.737041 -20.527962
-12.915866 19.909391 -20.118109
-11.315712 17.272308 -20.640427
-12.405023 21.181437 -20.348339
-12.078991 20.133188 -20.534786
-11.683643 18.370321 -20.598186
-12.109696 18.749325 -20.664165
-12.320599 18.934973 -20.548922
-12.2431 19.053656 -20.237629
-13.011923 21.057644 -20.136518
-12.567774 20.666473 -20.176367
-12.401794 19.976238 -20.42658
-11.875082 20.688885 -20.594776
-11.026881 19.04472 -20.814993
-11.84723 21.405535 -20.48522
-12.013418 18.459345 -20.643339
-10.73251 17.550837 -20.932869
-12.10372 19.165871 -20.632416
-13.296157 19.749611 -20.08762
-13.183291 20.209795 -20.038269
-13.177708 18.246355 -20.266119
-11.218641 18.815809 -20.755667
-12.507507 18.148466 -20.562878
-12.140077 21.315105 -20.384886
-11.837995 18.461897 -20.493906
-13.070967 20.554451 -20.013508
-12.636649 20.182495 -20.2761
-12.33095 18.247309 -20.493217
-11.59664 17.241173 -20.47665
-11.961622 20.679876 -20.454794
-11.345074 18.902737 -20.795086
-12.470381 20.239283 -20.278893
-12.770462 19.105358 -20.237722
-12.364418 18.14871 -20.50975
-11.389976 17.127928 -20.618004
-12.859571 21.103535 -20.076338
-11.862061 20.623541 -20.578762
-10.97212 19.208055 -20.761848
-12.479168 20.871191 -20.177711
-12.350428 18.219223 -20.465006
-12.61641 18.934231 -20.332323
-11.599058 19.689604 -20.499844
-12.464979 19.421043 -20.346176
-12.105711 18.674421 -20.519392
-12.947684 18.248098 -20.322971
-11.687151 18.820362 -20.71413
-12.103172 19.240772 -20.616144
-12.958076 20.851225 -20.036196
-11.802429 19.788179 -20.665371
-11.869494 21.113909 -20.414059
-12.295958 19.423796 -20.224882
-12.011465 18.200033 -20.737112
-13.282848 20.14299 -20.094341
-11.778158 19.709566 -20.44458
-12.604343 18.377033 -20.4995
-12.667589 18.383398 -20.479504
-12.637634 19.059908 -20.412039
-12.326377 19.044476 -20.489693
-12.219252 19.515572 -20.322403
-11.8596 20.974928 -20.418999
-11.913742 19.916784 -20.586138
-11.585939 19.133533 -20.528143
-12.655699 21.094065 -20.103916
-12.061482 18.62879 -20.690821
-12.041485 19.348141 -20.617739
-11.932972 21.013391 -20.421345
-12.857852 21.43265 -20.081202
-11.591808 21.606188 -20.517792
-12.99379 19.117884 -20.132151
-13.369951 18.810738 -20.175064
-12.199806 19.834215 -20.518158
-12.080126 20.003517 -20.477188
-11.696488 18.897772 -20.715805
-12.052855 20.829058 -20.368046
-11.815176 21.002045 -20.584641
-11.778345 19.396141 -20.594044
-13.180698 18.669968 -20.235828
-12.011121 20.909422 -20.528885
-12.951713 18.347412 -20.300695
-11.762646 20.499004 -20.561018
-12.73521 19.583 -20.357504
-12.561308 18.81127 -20.343353
-13.012838 18.417543 -20.344923
-13.295047 18.123951 -20.169516
-12.216576 17.659035 -18.505686
-12.662527 20.521637 -20.173679
-12.922621 18.863594 -20.330206
-11.349134 19.016493 -20.73517
-12.061994 18.789642 -20.379627
-12.466493 21.616592 -20.224501
-12.116953 20.176624 -20.477695
-12.19455 20.128223 -20.519255
-11.655331 19.039738 -20.537378
-12.215621 21.044502 -20.310724
-13.26115 19.588015 -20.131327
-11.592961 18.056553 -20.622984
-11.686399 21.089365 -20.497364
-12.838806 20.117044 -20.268215
-11.718085 20.826077 -20.525509
-12.23293 20.982752 -20.435753
-12.099596 21.085979 -20.404734
-13.179463 21.227455 -20.079002
-11.989458 21.138445 -20.39023
-11.711622 18.774946 -20.599815
-11.935116 19.630108 -20.612087
-12.417807 19.138672 -20.50807
-12.515413 18.999184 -20.362736
-12.502709 18.915791 -20.420357
-12.577662 21.602625 -20.171753
-12.524583 19.093124 -20.331656
-12.636222 19.848103 -20.298222
-12.109559 20.274851 -20.49777
-12.731465 19.031815 -20.396181
-12.300823 18.420052 -20.599863
-11.735716 18.980545 -20.647041
-13.15743 21.120708 -20.09095
-12.716635 20.302822 -20.259073
-12.915594 20.61784 -20.055723
-11.405075 18.122784 -20.852125
-11.650601 18.860178 -20.524593
-13.378702 19.58732 -20.102383
-12.162985 20.423464 -20.50485
-10.725317 17.647272 -20.878912
-13.187674 18.317616 -20.284128
-13.086853 21.454832 -20.102501
-10.845896 17.515053 -20.815964
-13.121712 18.816668 -20.146854
-13.041321 19.552288 -20.241024
-12.073516 20.60483 -20.452076
-13.313184 21.403109 -20.02792
-12.687254 20.882555 -20.112791
-12.135824 18.204462 -20.678967
-12.036084 21.062286 -20.526527
-11.295751 18.97526 -20.672289
-12.636501 19.353098 -20.370609
-11.527159 21.142708 -20.541077
-12.161755 20.587713 -20.481133
-11.661009 19.377689 -20.495741
-12.082979 20.436298 -20.402151
-12.013867 18.126745 -20.753656
-11.820374 20.080454 -20.640938
-13.204453 18.246458 -20.303997
-11.90447 20.229691 -20.468292
-12.527418 21.223825 -20.186226
-12.160762 18.633358 -20.561838
-12.270459 20.749174 -20.442724
-12.689226 18.29944 -20.471014
-12.794426 18.482096 -20.396776
-12.466386 18.865084 -20.400887
-11.044691 18.860146 -20.827707
-12.759989 19.572269 -20.3475
-12.220968 21.117117 -20.28558
-11.991925 19.070196 -20.382641
-12.089048 18.833376 -20.504858
-13.364491 19.177486 -20.155439
-11.935848 18.34391 -20.71986
-12.770537 21.656765 -20.117241
-11.761055 20.19322 -20.571257
-11.46544 18.313339 -20.646269
-13.108772 18.970793 -20.136818
-11.332698 19.112661 -20.675701
-12.766802 18.889975 -20.403055
-12.50255 18.641487 -20.448723
-12.327215 20.318768 -20.423126
-11.582546 17.232805 -20.437078
-12.920376 18.316822 -20.40085
-13.299938 20.346325 -20.064472
-10.771538 17.702478 -20.816769
-13.138082 19.572107 -20.209167
-11.964429 20.701086 -20.565331
-13.502759 19.534231 -20.084198
-11.783018 18.777132 -20.639801
-12.165625 19.276087 -20.476696
-10.907804 19.205622 -20.820889
-12.997283 20.288809 -20.066288
-12.441775 17.963873 -20.515463
-12.325217 19.606232 -20.447802
-11.133763 18.345898 -20.78763
-12.086276 18.753847 -20.541357
-12.484243 21.003086 -20.157427
-11.501455 19.573658 -20.537447
-12.294134 21.051472 -20.378147
-13.077144 20.917004 -20.030991
-12.925654 20.393524 -20.126459
-12.162672 21.625055 -20.363825
-12.655384 18.148861 -20.373571
-12.653556 21.101187 -20.189035
-11.427533 18.443327 -20.656504
-11.53494 19.291456 -20.534988
-11.609425 21.122063 -20.531075
-12.333304 20.689426 -20.359543
-12.890259 18.190195 -20.379627
-12.317826 18.457544 -20.504383
-11.84721 21.56782 -20.361088
-12.990377 20.905428 -20.161493
-13.077029 19.822149 -20.121317
-13.106405 20.930283 -20.11512
-13.315797 19.62554 -20.064283
-12.960342 19.378731 -20.132389
-11.711739 20.904537 -20.508083
-12.60951 20.607262 -20.199938
-12.529054 20.852652 -20.271879
-13.249432 19.372055 -20.156103
-12.200841 20.810528 -20.298237
-13.019993 19.911785 -20.128546
-11.701689 20.366344 -20.427855
-12.645948 18.292088 -20.371193
-12.189413 20.925022 -20.444128
-12.306177 20.24777 -20.305069
-11.852194 20.168985 -20.653313
-11.947536 18.70867 -20.593027
-12.490114 20.531404 -20.375891
-11.701439 18.807611 -20.519354
-13.237835 19.102154 -20.182617
-11.40353 18.212191 -20.839678
-12.841037 20.832342 -20.073097
-11.883871 21.374395 -20.521379
-12.336539 20.219807 -20.389141
-12.909058 18.536036 -20.345055
-12.488913 21.034454 -20.331583
-12.617657 18.907314 -20.435171
-12.42309 21.077362 -20.327604
-11.837626 21.381973 -20.542276
-12.718152 18.729643 -20.44696
-12.300315 19.466703 -20.531658
-12.00435 18.810131 -20.594057
-12.232664 20.344652 -20.322037
-11.879852 20.11499 -20.48609
-13.159634 19.812284 -20.12254
-12.097863 18.954967 -20.649031
-12.670654 21.638885 -20.136917
-12.179253 18.802179 -20.506618
-12.483109 19.162397 -20.495987
-12.313942 21.115498 -20.254198
-12.384901 18.810608 -20.413237
-12.522995 18.432827 -20.40461
-13.072286 20.74337 -20.151424
-11.576077 20.4123 -20.430099
-12.334769 20.583364 -20.364706
-12.99347 19.420572 -20.217329
-11.786234 19.414013 -20.672724
-12.021437 18.360313 -20.705074
-13.064291 20.245749 -20.175159
-11.721046 18.359911 -20.801474
-12.053343 19.00839 -20.363075
-12.407885 19.596405 -20.342604
-11.936703 18.640333 -20.688168
-12.945731 19.640432 -20.187519
-12.347071 19.930643 -20.314667
-12.782043 20.918985 -20.205696
-12.686728 18.527155 -20.459967
-11.874464 19.674891 -20.448139
-12.508016 20.904417 -20.342791
-12.744691 21.083422 -20.166122
-12.376503 20.201019 -20.351524
-13.008479 20.677181 -20.07156
-11.895163 21.115982 -20.547739
-12.274839 17.453985 -18.484125
-13.007511 19.081312 -20.294085
-12.890576 20.900011 -20.219452
-13.084145 18.431091 -20.175297
-11.256361 18.685452 -20.745064
-12.395741 20.683851 -20.311152
-13.108198 20.241482 -20.061012
-12.309389 21.050215 -20.263954
-12.759848 20.339657 -20.28931
-12.371115 19.337399 -20.473936
-12.192625 18.991798 -20.484844
-12.799713 20.191868 -20.283703
-12.076374 19.084408 -20.509329
-12.280672 21.626553 -20.300842
-11.473935 19.687775 -20.54534
-11.889612 19.860523 -20.637278
-12.153425 17.430864 -18.542339
-13.197075 18.203722 -20.297037
-11.604558 20.357483 -20.434505
-12.384062 18.963346 -20.377878
-12.775757 21.507488 -20.183357
-12.612009 18.481684 -20.488026
-12.378454 19.867418 -20.318224
-11.474771 18.545849 -20.65695
-12.691822 20.689913 -20.195753
-11.296385 19.587557 -20.637722
-11.808374 19.111731 -20.620924
-13.176697 20.279099 -20.131577
-13.454224 20.12113 -20.036283
-12.784985 20.024729 -20.297117
-12.959851 19.894829 -20.274576
-13.229086 18.900278 -20.216875
-12.815521 18.211485 -20.447937
-11.089653 18.522621 -20.794415
-12.450377 18.623888 -20.37826
-12.192207 20.967934 -20.350395
-11.88728 19.341534 -20.375391
-11.894941 18.836905 -20.471182
-12.819705 20.007355 -20.206364
-12.72644 20.396778 -20.250526
-12.696297 20.206884 -20.190094
-12.498556 21.137756 -20.310749
-12.967135 19.274708 -20.151783
-11.825483 21.191694 -20.300196
-12.259352 18.635429 -20.307985
-12.151205 18.410265 -20.656454
-11.975328 19.032635 -20.594995
-12.721744 18.309967 -20.37063
-11.404165 18.554539 -20.726351
-12.102451 19.766899 -20.460773
-12.392488 20.465502 -20.313383
-12.396349 19.970985 -20.335953
-12.642621 20.658199 -20.200087
-12.378683 18.340717 -20.586155
-12.944999 18.45121 -20.302874
-12.632507 18.972033 -20.436031
-11.726249 20.118994 -20.633427
-11.160093 18.656347 -20.77807
-12.881185 19.8423 -20.293299
-11.819849 19.012722 -20.627842
-12.390646 20.892063 -20.377131
-12.610016 20.512232 -20.336187
-12.370369 18.99814 -20.423084
-11.90579 19.159239 -20.440041
-12.313646 18.74379 -20.566895
-11.186976 18.514004 -20.774881
-11.555691 17.929382 -20.729973
-11.408192 18.292892 -20.816187
-12.39045 20.150238 -20.315348
-11.733512 21.435247 -20.534367
-11.887709 18.781895 -20.453514
-13.311086 18.892683 -20.194567
-11.86672 20.219927 -20.615515
-12.263746 18.69401 -20.491388
-11.383143 17.897123 -20.740829
-11.766417 18.854576 -20.492144
-12.271985 19.0791 -20.230959
-11.836942 19.361683 -20.405531
-13.285072 18.692011 -20.231186
-12.426535 19.635168 -20.47637
-11.930386 19.257605 -20.651237
-12.292902 19.653349 -20.535664
-11.837637 19.552004 -20.697836
-12.900851 20.125603 -20.105547
-12.638509 20.089321 -20.35573
-10.796491 17.619713 -20.865437
-11.824759 21.101492 -20.575813
-13.119998 19.968597 -20.083288
-13.524434 19.974419 -20.039145
-11.835287 19.453466 -20.705853
-11.320477 19.301184 -20.7791
-12.716574 18.066614 -20.475105
-12.234646 18.226797 -20.619293
-12.233988 20.082058 -20.503691
-13.304617 20.225357 -20.062162
-11.623439 18.168945 -20.619541
-12.32119 18.995623 -20.44249
-13.023143 19.35718 -20.266695
-12.375143 18.286983 -20.593739
-11.781161 18.700348 -20.675673
-12.843349 18.580198 -20.348612
-11.880244 18.679087 -20.658466
-11.440045 19.847559 -20.563309
-12.306702 18.554783 -20.577765
-12.189016 20.697989 -20.307894
-12.994021 18.171013 -20.286715
-11.832762 20.207603 -20.511246
-11.987995 20.179621 -20.518669
-12.282713 19.573759 -20.39019
-12.307631 19.042952 -20.319818
-12.885989 21.538172 -20.054968
-12.204724 19.107883 -20.608757
-13.023132 20.168129 -20.174187
-11.963741 19.141901 -20.433275
-12.470304 21.134268 -20.163017
-12.156168 19.452805 -20.578394
-12.417894 18.778994 -20.54455
-12.567402 18.71665 -20.35807
-12.670614 18.233206 -20.495537
-12.19171 18.187243 -20.524332
-11.785584 19.769279 -20.584272
-12.286831 19.963348 -20.342846
-13.119869 21.466347 -20.042627
-12.292156 18.194424 -20.484486
-11.939199 18.964085 -20.431524
-13.405351 19.247675 -20.145046
-12.020255 19.955807 -20.54607
-11.754393 20.572796 -20.359081
-11.972788 18.849361 -20.456934
-12.907748 20.016123 -20.113386
-11.076393 18.645164 -20.80818
-13.139961 18.555374 -20.173906
-12.623537 18.418184 -20.36293
-12.684634 21.005577 -20.238201
-12.228603 19.165798 -20.54731
-11.292715 18.789688 -20.714375
-12.577177 19.445986 -20.299147
-12.660006 19.360199 -20.344307
-12.616101 21.006741 -20.30687
-12.118913 19.590902 -20.477041
-12.129334 20.95722 -20.410698
-11.818754 20.157455 -20.548512
-12.387459 20.990492 -20.353462
-12.51812 19.458269 -20.43479
-12.323311 20.919205 -20.276745
-12.230543 21.646339 -20.252033
-12.675161 19.833975 -20.322523
-12.964788 18.500511 -20.325958
-12.024039 20.056376 -20.528854
-12.096997 21.317434 -20.475178
-11.551929 21.601637 -20.591604
-11.833323 21.602158 -20.378269
-12.162153 20.186712 -20.402935
-12.946036 18.548695 -20.288328
-12.998007 18.766701 -20.328884
-12.567014 19.026268 -20.349869
-12.936993 19.238386 -20.287046
-11.935574 18.272362 -20.728071
-12.459321 19.466393 -20.336214
-11.934841 19.306976 -20.635941
-12.929395 21.055542 -20.189329
-11.516533 18.434912 -20.645037
-12.096344 19.04723 -20.641762
-12.589399 18.210562 -20.531477
-10.703771 17.229275 -20.845791
-13.150488 21.664991 -20.01829
-13.416009 19.926363 -20.070814
-13.086914 19.972523 -20.187223
-12.281354 18.924803 -20.24147
-10.915981 17.189754 -20.764145
-12.645053 18.431374 -20.351801
-12.801765 18.919437 -20.254457
-12.562256 20.219841 -20.360594
-12.908325 18.486292 -20.345446
-13.189347 18.464548 -20.250044
-12.199741 21.081839 -20.402864
-12.170179 19.826944 -20.30298
-11.635465 18.883009 -20.529354
-10.983151 18.85725 -20.820522
-12.981283 19.539177 -20.230961
-13.322389 19.980429 -20.040367
-12.709503 20.047947 -20.304789
-12.979225 18.606321 -20.351337
-13.104443 21.110268 -20.083811
-12.662192 21.437061 -20.15979
-11.724174 19.1133 -20.715191
-12.001619 18.275848 -20.733477
-13.269604 19.939869 -20.117321
-12.584996 18.60174 -20.351208
-12.770224 18.739805 -20.398237
-12.746407 19.537052 -20.228746
-12.448469 20.343142 -20.285671
-11.556361 18.374477 -20.631453
-12.027081 19.03574 -20.653957
-12.327426 19.329824 -20.458799
-13.154568 19.487391 -20.152563
-12.52522 20.615604 -20.374582
-11.722465 19.167652 -20.715122
-12.930319 18.96653 -20.306761
-13.513753 19.927946 -20.048082
-13.055 19.588253 -20.108374
-11.821114 19.639208 -20.668772
-13.065775 19.526031 -20.224487
-12.941073 19.511829 -20.152739
-11.92857 19.271587 -20.534737
-12.497029 19.395754 -20.470863
-12.280298 20.444094 -20.302326
-11.819592 19.753525 -20.679144
-12.088577 19.182568 -20.493551
-12.231796 20.424988 -20.336
-13.187882 19.668034 -20.193903
-11.87907 20.461351 -20.448387
-13.026915 18.898737 -20.124783
-13.285842 19.339342 -20.118866
-13.390421 19.692886 -20.094212
-13.157436 19.886921 -20.123604
-12.143527 18.246649 -20.561232
-12.910427 20.359867 -20.067434
-12.629874 19.548828 -20.331411
-13.062005 19.642525 -20.228367
-12.463473 18.519955 -20.464371
-13.031199 21.413033 -20.105934
-13.122702 19.260965 -20.228712
-10.610928 17.536386 -20.892038
-13.064527 18.950521 -20.305744
-12.098043 20.404366 -20.49534
-12.243896 20.109911 -20.488094
-12.605342 18.497969 -20.356476
-12.036372 21.464619 -20.368767
-13.177979 18.562679 -20.272108
-12.595611 21.463478 -20.172876
-12.995118 19.642759 -20.245014
-12.992401 19.251768 -20.270439
-12.121846 18.602591 -20.361128
-11.680128 18.440704 -20.59396
-13.128702 20.005806 -20.166567
-12.025133 19.017193 -20.369568
-12.680916 20.36409 -20.189402
-12.922254 19.697638 -20.293552
-12.090918 18.526058 -20.372423
-11.112317 18.460119 -20.790903
-12.334881 20.381712 -20.393993
-11.790811 20.07065 -20.558094
-12.956482 19.048555 -20.311663
-12.525988 21.51169 -20.20606
-12.119932 21.486446 -20.272493
-11.985664 21.311819 -20.365463
-11.316326 19.378872 -20.774435
-12.602703 21.716986 -20.189255
-13.045845 19.742859 -20.093182
-11.838867 20.376373 -20.617313
-12.66194 20.137787 -20.333509
-12.414816 19.287758 -20.511179
-13.177747 19.47331 -20.219557
-12.370047 20.69264 -20.396486
-12.696503 19.623709 -20.305981
-11.500624 18.240398 -20.715914
-11.571703 21.190174 -20.540159
-13.028728 20.218988 -20.150469
-12.152344 20.525408 -20.472364
-12.782286 20.306839 -20.121969
-12.4378 18.539679 -20.453779
-11.992781 20.363869 -20.44132
-12.814543 20.914963 -20.033314
-12.583485 20.898228 -20.172201
-11.869375 20.493666 -20.60858
-11.576239 21.302896 -20.553991
-11.875145 19.364454 -20.56744
-12.681028 20.935591 -20.106276
-12.96797 20.336296 -20.084007
-12.780193 19.950691 -20.301807
-12.62967 20.385618 -20.237879
-11.954663 20.649624 -20.570015
-12.411503 21.282717 -20.343267
-12.897511 20.943527 -20.049173
-12.894484 20.878429 -20.068878
-12.076829 18.563791 -20.687351
-12.89398 19.683451 -20.122393
-12.456849 21.484367 -20.244919
-12.961966 20.629522 -20.184607
-12.391653 18.580856 -20.558125
-11.878962 19.091362 -20.592516
-12.762877 20.411694 -20.124695
-12.255208 21.114502 -20.428951
-12.65669 19.854492 -20.384653
-12.952384 20.271753 -20.135012
-12.284484 21.422802 -20.29829
-11.94673 18.727087 -20.607437
-12.118513 20.373434 -20.39916
-12.915507 18.777397 -20.339045
-12.777121 20.641478 -20.252542
-11.561353 17.927876 -20.617321
-11.456068 18.043421 -20.823967
-12.70207 18.948929 -20.295588
-12.007754 20.360874 -20.497026
-12.155783 18.460648 -20.649458
-11.77965 19.131021 -20.740234
-12.60791 18.81424 -20.474993
-12.152723 18.823896 -20.336296
-11.911604 21.612476 -20.389805
-12.995657 18.813951 -20.322912
-11.893414 21.297115 -20.520601
-12.190496 19.379148 -20.437445
-11.832296 19.28237 -20.717402
-12.987976 19.77037 -20.224873
-13.15148 20.162735 -20.150108
-12.449525 21.380003 -20.261106
-12.197144 21.161852 -20.409986
-12.050123 18.705795 -20.457438
-13.205792 18.944181 -20.209034
-11.84518 18.494137 -20.500713
-11.933743 18.566664 -20.702896
-13.147403 20.107983 -20.076738
-11.857374 19.778772 -20.444086
-11.452707 17.186974 -20.589172
-11.071126 18.613285 -20.796068
-12.34653 19.214441 -20.406357
-11.733641 20.677582 -20.363506
-12.720711 19.84507 -20.215523
-11.45056 18.808985 -20.633774
-12.595396 18.368948 -20.474445
-12.019552 19.181252 -20.53105
-12.031263 18.863716 -20.389441
-11.638303 18.827196 -20.535868
-12.480726 20.806637 -20.339455
-12.019512 18.962585 -20.672649
-11.607395 19.225754 -20.529594
-12.034771 19.241287 -20.634722
-12.994516 18.998352 -20.29932
-12.69347 19.732168 -20.346132
-13.171015 18.04179 -20.337326
-12.906055 20.736664 -20.057125
-13.330403 19.011127 -20.183889
-12.149808 19.42347 -20.264248
-12.723814 18.787685 -20.25281
-12.382 19.804573 -20.434566
-13.063314 20.29612 -20.177561
-12.930441 20.359564 -20.217749
-13.192844 19.170923 -20.185091
-13.113707 19.172216 -20.246119
-12.174845 19.607323 -20.559828
-11.203871 18.294977 -20.802929
-12.839748 19.128859 -20.30987
-12.450949 20.232113 -20.41362
-12.234102 18.930336 -20.514462
-12.68272 20.263975 -20.297928
-13.067591 19.198362 -20.092455
-12.262891 19.389187 -20.564083
-12.759217 21.445356 -20.137569
-12.872486 21.154001 -20.040924
-12.165548 18.669998 -20.642818
-13.139364 20.061918 -20.153271
-12.211815 19.348742 -20.554659
-12.192079 19.96475 -20.379032
-12.540064 20.927494 -20.164999
-12.212257 18.535709 -20.523272
-12.490499 18.948898 -20.490461
-12.202237 21.462217 -20.388712
-11.987112 20.743431 -20.431801
-11.482204 19.625263 -20.573755
-11.599927 19.185772 -20.513073
-11.353322 19.62841 -20.615673
-11.832026 20.749668 -20.515379
-12.898508 19.865185 -20.108105
-12.458448 20.03236 -20.16713
-13.054504 21.254709 -20.115284
-13.000155 18.963673 -20.165316
-13.121176 21.262615 -20.067398
-12.725904 21.46254 -20.224174
-13.459004 19.637846 -20.081261
-13.56062 19.873476 -20.067457
-12.496901 21.583155 -20.261625
-12.761278 21.56439 -20.196442
-13.100666 21.585716 -20.069963
-13.149719 21.601185 -20.013697
-12.357991 21.599178 -20.354097
-12.493752 21.599134 -20.306679
-12.162058 21.611523 -20.430159
-13.097982 18.527683 -20.173788
-11.690901 19.19083 -20.502375
-13.132101 21.51886 -20.052567
-12.733533 21.509159 -20.224375
-12.948323 21.528172 -20.131762
-12.180223 21.320078 -20.288189
-12.277311 21.315718 -20.261038
-12.39503 20.498844 -20.397127
-12.090292 19.107538 -20.638342
-12.874876 19.788172 -20.122318
-13.283163 19.554213 -20.110077
-11.240129 17.8857 -20.784941
-12.349805 19.814579 -20.503141
-12.589116 19.784626 -20.253054
-12.40045 19.667877 -20.330679
-10.92616 19.342329 -20.784729
-13.381029 18.884275 -20.164942
-12.998352 19.846563 -20.206743
-13.293142 19.815058 -20.085758
-12.306111 19.925301 -20.495731
-12.101747 19.836617 -20.558075
-12.989477 19.931673 -20.228142
-12.985399 20.034708 -20.195749
-13.144727 19.282026 -20.232399
-12.247571 19.296568 -20.569551
-11.856609 20.397686 -20.608526
-12.261076 20.043402 -20.342937
-11.389595 18.873583 -20.670408
-11.806845 18.87282 -20.777733
-12.245296 21.18239 -20.331663
-11.910686 19.001984 -20.614141
-11.991238 20.601259 -20.421495
-12.830203 20.051649 -20.20027
-12.908464 20.292242 -20.095264
-13.093977 21.389524 -20.077326
-12.380291 20.210691 -20.417702
-11.618544 19.268826 -20.604486
-12.012258 19.10603 -20.550156
-13.071243 19.740948 -20.212755
-11.312359 19.454082 -20.770182
-13.2848 18.980421 -20.201061
-12.311719 20.959541 -20.422802
-12.991209 19.168861 -20.11908
-11.90074 19.223499 -20.413486
-11.633099 19.070999 -20.672037
-13.082858 18.248093 -20.192326
-11.984387 20.802568 -20.554493
-12.114625 20.780067 -20.448387
-12.203845 19.255697 -20.584341
-12.502869 19.913742 -20.414022
-12.614572 18.341463 -20.369595
-13.084749 20.437029 -20.159296
-12.644975 18.197834 -20.388634
-11.414327 18.53528 -20.643423
-12.819054 19.270956 -20.328594
-12.234402 18.178581 -20.625549
-12.391977 19.606606 -20.424833
-11.703398 19.243528 -20.643635
-11.569439 18.429682 -20.752932
-12.132014 18.498102 -20.575983
-12.072077 19.627239 -20.574076
-12.06514 18.912907 -20.532694
-11.885986 20.942883 -20.539747
-13.538228 20.023462 -20.024504
-11.373306 18.037571 -20.740711
-11.727256 20.9489 -20.574802
-12.225277 18.850475 -20.555202
-12.325577 18.878824 -20.520884
-12.400472 18.851652 -20.538635
-12.026178 18.839497 -20.672663
-11.689548 19.622526 -20.641283
-11.934902 19.43116 -20.626539
-12.982382 20.805298 -20.164478
-11.866648 18.522697 -20.666792
-12.592939 19.541222 -20.270176
-12.2925 19.85568 -20.506159
-13.298352 21.330994 -20.033678
-12.194084 20.644884 -20.308834
-11.555249 19.393934 -20.514004
-12.566585 21.239416 -20.189053
-11.724051 19.38229 -20.693167
-12.886207 21.031235 -20.044212
-12.557264 20.99835 -20.1901
-13.100642 20.988514 -20.012674
-12.661898 21.625216 -20.235596
-12.488289 18.833649 -20.465771
-12.563063 20.942356 -20.195681
-12.390318 20.725836 -20.238483
-12.509703 20.742933 -20.172451
-12.317322 18.701384 -20.557827
-10.903671 17.255062 -20.770681
-13.434082 20.015154 -20.05092
-12.574696 20.757969 -20.18144
-12.66374 19.170023 -20.28912
-13.286878 21.257223 -20.031588
-13.000549 21.123013 -20.14049
-13.249433 21.130466 -20.067118
-12.806641 21.220888 -20.174065
-13.114452 21.189505 -20.065659
-11.529371 18.084524 -20.71908
-13.199231 20.947382 -20.110296
-11.891838 20.828777 -20.436626
-11.734092 21.3573 -20.53614
-12.078276 20.041426 -20.539547
-12.035828 20.460686 -20.47501
-12.578076 18.046736 -20.564371
-13.008701 21.210035 -20.13228
-11.521176 18.077051 -20.652075
-12.138266 18.279514 -20.678442
-11.721949 19.287447 -20.660006
-12.032656 18.22472 -20.645861
-13.259952 17.980177 -20.200052
-12.185865 19.203815 -20.472754
-12.306221 18.497423 -20.583086
-12.462802 18.195967 -20.440069
-12.616545 18.256016 -20.377565
-12.213404 18.239618 -20.538082
-12.402804 18.238209 -20.506422
-12.718336 20.625519 -20.13184
-12.312292 19.218889 -20.434935
-12.292451 18.196774 -20.636255
-12.424836 19.705475 -20.343107
-12.377459 18.477503 -20.592314
-10.957241 17.209225 -20.704241
-13.267376 19.856615 -20.120752
-12.712292 19.533285 -20.33441
-11.699356 21.050686 -20.523989
-12.747283 19.728022 -20.24749
-13.048727 18.441553 -20.321434
-12.843899 19.631027 -20.265802
-13.327912 20.105135 -20.026062
-12.952182 19.432762 -20.146603
-11.376731 17.224209 -20.547842
-12.620115 19.206146 -20.347593
-12.561781 19.406826 -20.191969
-12.299824 19.099874 -20.509243
-12.921387 18.833183 -20.32674
-12.390526 19.074492 -20.38583
-12.416136 18.870146 -20.54331
-12.120242 18.308334 -20.607706
-12.913991 19.964775 -20.25703
-12.718546 19.213717 -20.384192
-11.93362 19.207794 -20.646723
-12.385587 20.852255 -20.310452
-12.839504 18.978561 -20.322578
-12.764892 21.658436 -20.20924
-10.697281 17.560768 -20.866699
-10.798218 17.502623 -20.783283
-13.338819 21.503925 -20.009459
-11.379021 17.178005 -20.605484
-12.519634 19.634769 -20.271875
-13.23 21.477634 -20.05262
-12.290152 18.084444 -20.616785
-12.229887 19.610422 -20.428825
-11.997435 19.56554 -20.48926
-11.81124 19.577919 -20.609127
-11.977392 21.548969 -20.400438
-12.551073 21.560034 -20.1721
-11.887049 21.503719 -20.460876
-12.202349 21.433561 -20.340706
-12.191551 21.367483 -20.387167
-12.280254 21.244755 -20.287556
-12.663995 21.573347 -20.142405
-12.353784 21.526556 -20.266916
-12.291348 21.531298 -20.252895
-11.994929 21.364384 -20.421366
-12.287044 21.326077 -20.302992
-13.043391 20.773863 -20.03883
-12.100179 20.668039 -20.441517
-12.975688 20.598352 -20.098087
-12.084529 20.553083 -20.404425
-12.306189 20.282187 -20.363256
-12.104465 19.506617 -20.503633
-12.091171 21.547297 -20.314623
-11.915184 20.06155 -20.515596
-12.66415 18.048037 -20.39464
-12.208256 21.557858 -20.386339
-12.107274 21.501551 -20.452785
-12.706006 21.387228 -20.24165
-12.693067 21.313608 -20.243629
-12.091019 21.193895 -20.477404
-12.65083 21.162058 -20.284601
-13.184068 21.032759 -20.088236
-12.606966 20.794821 -20.280643
-12.375164 19.945581 -20.464787
-13.552716 19.776461 -20.054308
-12.943006 19.796181 -20.279665
-12.317662 19.749432 -20.508902
-12.300672 19.555061 -20.530653
-13.158649 19.406553 -20.198339
-12.848828 19.367325 -20.350813
-13.466138 19.365232 -20.109964
-12.200993 19.175407 -20.592581
-12.161389 18.898199 -20.643438
-13.305005 18.626709 -20.235897
-12.104021 18.356916 -20.68712
-13.185135 18.136087 -20.308674
-12.889029 18.095381 -20.422974
-12.570763 18.001474 -20.547417
-12.039205 21.474234 -20.47368
-12.632833 21.477785 -20.251427
-12.610677 21.401295 -20.27672
-12.564961 21.171083 -20.30282
-11.974935 21.165478 -20.522141
-12.32665 20.023912 -20.478155
-13.191487 19.849113 -20.173079
-12.279805 19.810104 -20.522024
-12.187597 19.5462 -20.56724
-13.419087 19.441139 -20.111113
-13.410481 19.392597 -20.116066
-13.091512 19.356199 -20.249544
-13.085164 19.307812 -20.249969
-12.096706 18.83502 -20.653189
-12.676229 18.747784 -20.443256
-12.507639 17.99917 -20.582821
-11.792683 20.328959 -20.53616
-11.89998 21.55443 -20.506903
-11.891012 21.47986 -20.518173
-12.210799 20.010504 -20.514843
-12.175293 19.74715 -20.555794
-12.109619 19.537201 -20.582476
-13.293938 19.458023 -20.133694
-12.333252 18.913523 -20.563885
-11.989075 18.586643 -20.718538
-13.105591 18.107134 -20.340174
-13.082642 17.987776 -20.367538
-12.794067 21.557573 -20.168623
-11.839823 21.430662 -20.548464
-12.967203 20.986618 -20.154207
-12.504837 19.746922 -20.409597
-13.335917 19.270428 -20.146149
-12.994263 18.902145 -20.312449
-13.177286 18.009533 -20.316837
-12.162252 21.423565 -20.410759
-12.827444 19.359167 -20.337881
-12.476522 18.802914 -20.509228
-12.176565 18.743868 -20.62303
-13.011516 18.198515 -20.359329
-13.329062 18.11021 -20.242685
-12.709921 17.988491 -20.486191
-13.15033 21.550756 -20.006413
-12.793072 20.997305 -20.204348
-11.834351 20.326811 -20.624762
-11.81543 20.006645 -20.647945
-11.79084 19.69379 -20.64509
-11.7724 19.348082 -20.713488
-12.956909 19.32539 -20.268745
-12.054443 19.195696 -20.62019
-11.777127 19.031738 -20.742184
-12.293709 18.278545 -20.612099
-11.865797 19.726824 -20.446047
-12.366598 19.546505 -20.46072
-13.183811 18.544035 -20.234743
-11.865286 20.294287 -20.619053
-12.446859 20.08186 -20.423708
-11.848837 19.923779 -20.663656
-12.135824 19.679502 -20.576513
-13.021383 19.292826 -20.280252
-12.409079 19.035814 -20.526552
-11.820883 18.978935 -20.745638
-12.371786 18.189713 -20.6043
-11.580406 21.537209 -20.54911
-11.547791 21.442953 -20.601061
-12.717286 20.521921 -20.229652
-12.594753 21.613861 -20.208033
-11.937771 19.555429 -20.610273
-12.842678 19.530413 -20.275284
-12.840542 19.329491 -20.293558
-11.737479 21.588028 -20.517654
-11.700287 21.525257 -20.497812
-12.655417 21.179983 -20.18264
-11.98396 20.257723 -20.501696
-12.021842 19.798666 -20.55233
-12.006055 19.68536 -20.539221
-12.930101 19.695318 -20.151857
-12.628837 19.278015 -20.353439
-12.945609 18.802032 -20.259501
-12.63964 18.59333 -20.399599
-12.324601 18.544666 -20.484583
-12.008024 18.330902 -20.618027
-12.159557 21.487206 -20.255253
-11.865749 21.469364 -20.355959
-11.865969 21.396736 -20.401682
-11.547964 21.006687 -20.537666
-11.891399 20.750254 -20.427664
-11.872967 20.564041 -20.435709
-12.515219 20.444506 -20.194263
-11.597332 19.750607 -20.632803
-12.514318 19.798496 -20.278004
-11.924421 19.682606 -20.520906
-12.225301 19.7204 -20.384121
-11.608022 19.648865 -20.642139
-11.913049 19.561661 -20.531931
-12.23399 19.23115 -20.414469
-12.547039 19.074816 -20.308416
-11.967754 18.533377 -20.574051
-11.663128 18.493885 -20.715763
-11.373028 18.353018 -20.840927
-11.681988 18.26548 -20.716629
-12.227013 17.752354 -18.509703
-11.699827 18.322456 -20.73218
-12.465515 21.342995 -20.3312
-12.37126 20.810205 -20.266079
-12.770244 20.697554 -20.238035
-12.474508 20.738287 -20.363594
-12.376631 19.979542 -20.143929
-12.399361 19.892668 -20.342262
-13.278262 18.050617 -20.182758
-11.889849 20.481817 -20.529106
-13.09725 20.750902 -20.107483
-12.16741 20.144327 -20.394341
-12.715944 19.684807 -20.286592
-11.69282 21.242914 -20.534882
-12.139588 21.238668 -20.385508
-11.821708 18.525234 -20.50613
-12.314498 20.846643 -20.288948
-12.248375 17.630598 -18.508629
-11.797323 20.428289 -20.517239
-11.851461 20.045149 -20.655901
-12.52969 19.573025 -20.400179
-13.152248 19.689466 -20.145596
-12.386257 20.592051 -20.377348
-11.958616 19.477064 -20.367628
-11.638182 19.506702 -20.496656
-13.307755 18.771734 -20.220642
-12.288296 19.485744 -20.428335
-11.892332 19.847517 -20.524719
-12.363417 20.089691 -20.333733
-12.106169 19.841461 -20.298868
-12.885069 20.107374 -20.086472
-11.960125 21.241739 -20.420807
-12.81732 20.09716 -20.126923
-12.382923 20.563471 -20.301836
-13.05957 20.571465 -20.125837
-12.520777 20.568872 -20.195423
-12.54939 20.694452 -20.34687
-12.331168 20.90435 -20.344971
-12.583468 20.062822 -20.249222
-11.527632 19.103188 -20.601212
-12.607603 19.73592 -20.225914
-13.070442 19.436243 -20.109264
-11.940001 19.483898 -20.579243
-13.263409 19.694763 -20.127216
-12.592349 20.299845 -20.275816
-12.072443 18.993727 -20.530678
-12.754823 21.187883 -20.143621
-12.203291 19.871693 -20.39283
-13.049417 19.448183 -20.247686
-12.646933 20.466991 -20.307522
-13.073019 18.699533 -20.286522
-12.676901 20.761116 -20.280312
-12.847866 19.731794 -20.251051
-13.157681 19.937597 -20.120583
-12.703065 20.065945 -20.269381
-11.531754 19.504913 -20.538715
-12.585144 20.377241 -20.353365
-12.613841 19.130373 -20.359232
-12.773102 19.861864 -20.311838
-13.123482 18.763096 -20.156748
-12.477201 20.029707 -20.292677
-12.536848 19.875614 -20.283381
-12.307293 19.892015 -20.340498
-11.993176 20.854006 -20.552448
-13.021097 21.337292 -20.111259
-11.802679 19.510838 -20.439037
-11.844687 19.723503 -20.6768
-12.654605 20.539167 -20.23081
-11.819506 21.127943 -20.501814
-11.871033 20.704782 -20.560923
-11.734427 21.155466 -20.544695
-12.76178 20.62438 -20.230537
-12.798277 20.201935 -20.128048
-12.492964 20.951532 -20.217905
-12.565123 20.148697 -20.206615
-12.298482 21.300547 -20.391111
-12.069654 18.599817 -20.459238
-12.557088 19.708313 -20.425526
-13.07455 21.321228 -20.098995
-12.701384 20.059767 -20.19417
-11.60856 19.127678 -20.561163
-12.035139 20.911394 -20.389023
-11.840498 19.163813 -20.462015
-12.892355 18.688745 -20.374996
-12.980843 20.637478 -20.034866
-12.380693 18.673046 -20.569365
-11.440244 18.373707 -20.663496
-11.902424 20.325365 -20.467161
-12.469191 21.301952 -20.316345
-13.109068 21.059303 -20.040447
-12.245079 17.715359 -18.507732
-12.300448 19.738329 -20.385147
-13.248364 19.762245 -20.158901
-13.076367 18.99682 -20.294088
-13.176839 19.764801 -20.180323
-13.408731 19.800959 -20.072901
-13.007166 19.721903 -20.061045
-12.605122 18.290216 -20.494694
-13.346579 18.291574 -20.21427
-12.082334 19.622025 -20.258577
-13.037178 19.794409 -20.101168
-13.166829 21.175087 -20.088995
-12.834944 18.281893 -20.408186
-12.760257 19.767279 -20.247118
-12.893982 18.23938 -20.372137
-11.257154 19.531897 -20.730219
-11.68273 19.104891 -20.513298
-12.255737 20.16358 -20.475571
-12.660514 21.355268 -20.165335
-12.319345 20.425571 -20.440535
-13.214681 21.402403 -20.060635
-13.085037 19.847914 -20.199713
-12.131006 21.170338 -20.39196
-12.351371 21.246567 -20.293558
-11.877008 20.789585 -20.577425
-12.19841 19.944607 -20.418377
-11.803053 19.090618 -20.469053
-12.297545 19.992682 -20.382513
-11.812744 19.933016 -20.649321
-12.91945 19.350954 -20.168009
-11.133795 17.736362 -19.518717
-12.500105 19.98447 -20.272001
-12.010038 18.534195 -20.45903
-11.917997 19.073782 -20.449791
-11.977308 19.0872 -20.460911
-11.912107 19.33779 -20.448387
-13.423108 19.19718 -20.149914
-12.132631 20.89518 -20.410696
-12.575378 20.324579 -20.360889
-12.465544 19.369537 -20.341597
-12.123853 18.683199 -20.664114
-12.122775 18.395132 -20.565819
-11.995399 19.376284 -20.50593
-12.190472 18.392004 -20.511467
-13.024203 18.755293 -20.171713
-11.813423 19.500551 -20.623089
-11.203077 19.841087 -20.727171
-12.307429 19.379879 -20.397139
-12.494549 20.509516 -20.191566
-11.257589 17.88332 -20.779175
-11.809065 19.345871 -20.460884
-12.243528 20.205843 -20.337685
-11.85217 19.982405 -20.392664
-13.120535 21.033392 -20.098806
-12.298399 18.403696 -20.474909
-11.442533 18.408213 -20.646971
-11.808462 20.903362 -20.586302
-11.608412 20.966253 -20.572721
-12.74646 20.423859 -20.249535
-12.646476 20.945667 -20.212393
-12.794289 21.364168 -20.095732
-11.901801 20.90646 -20.428432
-12.917619 19.098211 -20.206795
-12.032178 18.709303 -20.353437
-12.296768 18.62068 -20.487778
-13.038412 21.26116 -20.109339
-11.558668 18.924702 -20.601578
-11.626661 18.528145 -20.609282
-12.491719 20.849585 -20.362148
-12.49284 21.3937 -20.306627
-11.224424 18.34849 -20.769976
-12.685864 18.558603 -20.468962
-12.203573 21.254663 -20.415115
-11.871214 20.890692 -20.530991
-13.404104 18.9781 -20.140343
-12.087954 20.473038 -20.438326
-12.249798 18.929733 -20.434111
-12.396339 18.872339 -20.381342
-12.703022 20.878012 -20.196856
-11.994629 18.658886 -20.721922
-11.857679 18.306599 -20.503794
-13.247815 18.339966 -20.278923
-12.99078 20.084288 -20.057873
-12.188749 19.362326 -20.305586
-12.956228 20.533764 -20.183979
-13.22337 18.754103 -20.215736
-11.290419 19.379089 -20.712469
-12.427646 18.446255 -20.432947
-12.640006 20.538469 -20.246716
-11.90296 19.718081 -20.594656
-11.364589 19.006598 -20.666925
-12.535917 19.690552 -20.333569
-11.320662 18.461561 -20.743963
-12.113831 19.389856 -20.611763
-11.964188 18.600428 -20.579268
-11.699575 18.939123 -20.514797
-13.086209 20.11421 -20.1775
-12.78392 21.283518 -20.155514
-12.303373 19.64163 -20.354971
-12.934221 19.026247 -20.279202
-12.219778 19.942139 -20.506762
-12.126148 19.625694 -20.444221
-12.527113 19.615999 -20.182499
-12.714718 19.463268 -20.364553
-12.394043 19.460873 -20.486071
-12.644043 19.13372 -20.400774
-12.023366 21.399675 -20.486441
-12.686478 21.289246 -20.195368
-11.726554 20.821947 -20.583855
-12.7644 20.886436 -20.15089
-11.559921 21.22311 -20.57844
-12.091106 19.408693 -20.52438
-12.547315 19.330614 -20.462017
-11.691861 18.674919 -20.520508
-11.627483 19.17091 -20.666061
-12.973104 18.136412 -20.38629
-12.783407 20.79147 -20.240648
-13.087997 20.836367 -20.124998
-11.677458 19.191593 -20.675163
-12.719118 20.77177 -20.194109
-13.063963 20.803913 -20.073515
-12.864429 19.46896 -20.297009
-12.631888 19.385237 -20.337809
-12.820577 19.490812 -20.337748
-12.441221 18.600849 -20.396202
-12.915323 20.42392 -20.22331
-13.055786 20.498447 -20.128035
-12.992785 19.987919 -20.118958
-12.974142 20.705256 -20.168272
-12.095451 19.72538 -20.533695
-12.000711 18.154228 -20.745003
-12.948564 18.316111 -20.26018
-12.220854 19.66205 -20.429041
-10.825157 17.517473 -20.873852
-12.288683 19.733072 -20.420078
-12.276628 18.157513 -20.591206
-13.194077 18.381758 -20.274097
-11.899134 18.447859 -20.633905
-12.997906 20.418888 -20.170742
-11.718562 18.135853 -20.735401
-12.110302 18.158983 -20.658684
-12.57887 20.848558 -20.334772
-12.681662 20.835756 -20.280668
-13.079908 20.476648 -20.025763
-11.626341 19.549118 -20.500219
-12.56856 18.106215 -20.547766
-12.861697 20.171635 -20.176489
-12.497131 18.101425 -20.576944
-12.893347 20.533161 -20.068672
-12.18668 19.080774 -20.607277
-12.55798 17.908203 -20.566854
-12.012755 19.507242 -20.537188
-12.087559 19.897781 -20.540527
-11.905445 21.219963 -20.418858
-11.854168 21.240772 -20.391291
-12.910898 18.582121 -20.374846
-12.1695 20.854813 -20.431461
-11.891188 19.571939 -20.452999
-11.93301 19.059114 -20.660332
-12.96111 20.472469 -20.086605
-12.464563 18.877071 -20.370775
-11.947857 18.870729 -20.566
-11.749695 18.958321 -20.749754
-12.429117 21.386126 -20.317377
-12.232204 18.52223 -20.594927
-13.475301 19.732811 -20.073437
-13.207929 19.592831 -20.192087
-12.115735 21.391943 -20.457905
-12.273664 19.253107 -20.237057
-10.885016 17.532387 -20.868662
-12.118898 18.448311 -20.57844
-12.406678 20.360142 -20.365341
-12.030331 18.950985 -20.631834
-11.716913 19.075495 -20.680252
-11.931377 18.933521 -20.651474
-13.322511 20.282593 -20.035275
