# .PCD v0.7 - Point Cloud Data file format
VERSION 0.7
FIELDS x y z
SIZE 4 4 4
TYPE F F F
COUNT 1 1 1
WIDTH 1611
HEIGHT 1
VIEWPOINT 0 0 0 1 0 0 0
POINTS 1611
DATA ascii
41.516556 56.648991 43.080124
41.237267 57.564941 43.177059
41.216152 57.476578 43.000118
41.416355 57.565117 43.093658
41.428761 56.014584 43.119469
41.231819 55.016323 43.233562
41.213947 55.815105 43.051205
41.229759 57.47028 43.184864
41.792889 55.473675 42.973328
41.539635 55.377209 42.948879
41.142715 58.737064 43.032322
41.133656 54.418205 43.129898
41.082607 56.871513 43.049397
41.045868 58.935356 43.049397
41.223877 57.013424 43.000416
41.216599 59.315277 43.117764
41.228458 59.18816 42.95607
41.226101 58.507957 43.232769
41.199337 58.345016 43.10342
41.225235 56.371372 43.228893
41.150661 58.292145 43.222187
41.209892 54.620686 43.084652
41.544655 56.530334 43.0956
41.702587 55.271317 43.032379
41.32338 56.918625 43.167526
41.133381 58.255131 43.042038
41.202583 54.548786 43.080956
41.148418 57.952393 43.201283
41.702858 55.178509 43.019894
41.222656 54.829197 43.256535
41.338551 56.726913 43.181438
41.702553 56.72324 43.003239
41.610718 55.000328 43.074997
41.226967 55.840752 43.228867
41.514572 55.72578 43.102581
41.712528 55.003963 43.031223
41.135536 57.032204 43.253246
41.133232 56.976475 43.067814
41.145172 59.84502 43.167732
41.233498 59.116222 43.173431
41.237679 60.17968 43.161758
41.381851 55.592213 43.039234
41.237831 59.688969 43.125252
41.230103 53.793381 43.312664
41.227299 55.074963 43.291664
41.108925 55.461609 43.106487
41.054329 56.982937 43.099873
41.18227 55.457111 43.0667
41.230522 54.921509 43.255219
41.130112 56.653446 43.291737
41.107685 59.663116 43.184368
41.140995 59.589767 42.960964
41.210049 55.102848 43.066708
41.22319 57.182358 43.004536
41.237782 56.281628 43.261372
41.238003 58.006897 43.047184
41.228813 56.660221 43.224754
41.207642 56.626389 43.037067
41.200775 55.357113 43.0704
41.421303 54.991058 43.172596
41.422897 57.374081 43.103188
41.312424 54.088371 43.265049
41.285835 55.896599 43.269646
41.709061 55.862347 43.060371
41.856659 57.121319 42.960468
41.327309 54.537373 43.235802
41.320141 56.534756 43.214977
41.324936 59.868446 43.064178
41.715485 55.631714 43.045841
41.221985 57.448051 43.232407
41.141499 56.116741 43.27668
40.92841 57.973408 43.120789
41.331871 55.692398 43.145351
41.226624 54.541088 43.292984
41.468956 56.424892 43.073444
41.704884 57.489067 42.936913
41.044949 55.686684 43.190727
41.728706 56.80724 43.000202
40.924683 55.72646 43.447971
41.798462 59.34005 42.917233
41.026291 55.697563 43.408504
41.31142 56.414993 43.020618
41.237804 55.100719 43.24239
41.819729 56.436935 43.0028
41.621742 54.342571 43.089958
41.501904 57.405907 43.021713
41.419018 54.841213 43.161774
41.512917 54.917278 43.119919
41.13652 54.926918 43.286552
41.611404 58.479076 42.976044
41.21616 59.988991 42.959801
41.314701 58.138477 43.108307
41.235275 55.729183 43.245346
41.04771 57.959126 43.105057
40.893158 54.937775 43.436546
41.424782 54.18441 43.180202
41.297665 60.003372 42.927643
41.142971 58.49791 43.208439
41.694057 59.620979 42.917282
41.298077 59.855354 42.877728
41.524063 54.644215 43.117554
41.242043 60.213337 43.122524
41.313995 54.040447 43.186798
41.609917 60.213615 42.929604
41.597099 53.641594 43.096714
41.39204 54.906334 43.017464
41.520618 55.242256 42.962101
41.418354 53.599411 43.058777
41.631008 58.383797 42.979927
41.240124 60.089756 43.000153
41.226009 54.994808 43.275127
41.097717 55.072285 43.34626
41.515038 57.947311 43.022083
41.610317 55.325314 42.900505
41.046528 57.702358 43.149776
41.1991 59.480228 43.163879
41.082939 60.070068 43.012337
40.859871 58.196732 43.308365
41.104008 53.379143 43.409203
40.919521 58.309376 43.135803
41.739765 53.466202 43.066338
41.417645 53.680485 43.078583
41.017426 56.244122 43.199959
41.210041 54.90884 43.079491
41.039108 60.150066 42.957523
41.345806 56.569431 43.158718
41.421585 56.950916 43.087254
41.107342 60.030636 42.982307
41.213894 59.462914 42.951683
41.458519 56.052788 42.991467
41.108112 58.20256 43.044872
41.41431 56.213341 43.111465
41.51667 56.790791 43.096725
41.408592 56.786598 43.176319
40.810547 55.493458 43.357513
41.230583 55.197079 43.261028
41.065739 57.522255 43.174618
41.111805 59.724445 43.014278
40.715302 54.21822 43.406078
40.889164 55.204494 43.432323
41.020935 54.325691 43.494644
40.887211 58.349499 43.216797
40.689213 59.799389 43.214428
41.023827 55.916286 43.120548
41.51157 57.023689 43.055279
41.148216 60.044182 43.022449
41.117367 56.358196 43.343483
41.094887 57.016994 43.391571
40.905293 55.606995 43.316521
41.691452 56.53878 42.982304
41.016926 57.96571 43.269596
41.590874 53.629021 42.97578
41.230137 53.704613 43.118301
40.963097 58.194965 43.135822
41.144093 54.68227 43.278629
40.753929 54.050613 43.621941
40.835121 54.000977 43.493336
40.886612 58.690147 43.215313
41.321449 56.214897 43.156261
41.026703 53.707546 43.243809
41.430069 58.186066 43.096943
41.346684 60.104668 43.087246
41.026836 56.157181 43.166183
40.869308 59.928345 43.1404
41.128895 59.464546 43.007076
41.912235 53.701797 43.046955
41.57708 56.929802 42.98402
41.427074 59.212162 43.046776
41.328228 57.297325 43.139301
41.813984 54.448532 43.015533
41.353409 56.067524 43.020817
41.920197 53.613865 43.029591
41.106709 54.396225 43.210938
41.709358 54.282738 43.050137
41.701275 54.449635 43.035046
41.419205 54.454151 43.182533
41.323612 60.221603 43.075375
41.218285 56.463139 43.247322
40.938435 54.90015 43.236362
40.945499 57.111904 43.124813
41.453239 54.484615 43.11515
40.905972 55.277405 43.41185
41.620754 54.721695 43.077763
41.433937 58.263752 43.122585
41.498585 54.188587 42.956848
40.838543 53.881149 43.311184
41.402752 54.131023 43.056335
41.161865 54.29829 43.112511
41.308113 54.127628 43.114094
41.330643 58.482208 43.110897
41.710377 59.851063 42.865116
40.93354 59.736523 43.120899
41.297855 58.814331 42.932526
41.216309 56.081013 43.04435
40.809078 54.133003 43.382122
41.523445 56.683693 43.036953
40.94482 54.380005 43.473305
41.430275 56.334412 42.990009
41.323879 60.238419 43.131775
41.033554 55.788452 43.211239
41.224213 56.915047 43.227589
41.299858 59.728691 42.906376
41.629566 59.874683 42.922428
41.457123 57.135792 42.833439
41.492325 58.611073 43.015251
41.519371 53.523197 42.987713
41.150513 54.356899 43.12537
41.040535 59.724503 43.072906
41.129398 56.717087 43.106785
41.321102 54.101868 43.220837
41.877403 54.305202 43.022911
41.513752 57.650749 43.056812
40.909317 58.370583 43.124668
41.016907 56.444176 43.130505
41.606361 55.753635 43.031509
41.692699 54.195232 43.040073
41.722507 53.790169 42.875244
41.406097 53.785194 43.048954
41.298878 59.628128 43.12553
40.821819 56.488224 43.508286
40.786331 53.799278 43.29866
41.517941 58.946243 43.000683
41.366608 59.71994 43.152992
41.021652 58.43198 43.074017
41.134888 53.704056 43.186821
41.223724 53.548203 43.098976
41.326069 53.305527 43.195652
41.326462 55.094086 43.026119
40.998497 59.673733 43.078552
41.729408 56.536549 42.874016
41.238003 59.400902 42.944771
40.82217 53.524273 43.35955
41.616699 55.995514 43.050903
41.489952 55.404434 43.167267
41.436691 58.398876 42.858128
41.620934 54.631638 43.066761
41.005562 54.932739 43.147778
41.732357 55.990784 42.995049
40.850643 59.076412 43.254486
41.256142 56.704956 43.178833
41.345825 59.487381 42.906906
41.607979 55.834873 43.038471
41.223991 53.214447 43.174862
41.420166 55.993412 43.151051
41.22715 56.356327 43.039444
41.143253 53.989544 43.344021
41.129074 54.085381 43.124252
40.95232 55.920528 43.132439
41.704353 54.702274 43.123787
41.042995 53.287567 43.295437
41.379612 55.064667 42.994316
41.144543 57.349442 43.065544
41.352695 58.396103 42.912903
40.622974 53.428722 43.576496
40.842682 55.259995 43.499092
41.276337 57.779251 43.091755
40.93536 54.384014 43.21983
41.229816 59.943951 43.132019
41.151997 56.009426 43.311005
41.12421 56.279282 43.279415
41.128532 55.893593 43.108021
41.71273 56.199677 42.988789
41.44252 55.996307 42.963985
41.608856 56.187096 43.046345
41.434555 60.331394 43.005001
41.42791 55.266132 43.166775
41.014023 56.079891 43.15057
41.042068 59.755806 43.145626
41.424583 60.110657 43.048092
41.618305 57.666344 42.975456
41.429134 57.783054 43.125191
41.11742 54.728279 43.341518
41.02647 54.537315 43.176598
41.513859 55.641689 43.099907
41.588787 54.53706 42.922504
41.520851 54.529224 42.979309
41.225815 58.461143 42.980381
41.226059 58.095173 42.961662
41.623066 56.228378 43.008423
41.509857 57.842224 43.039803
41.120724 54.137249 43.207352
41.709743 57.560219 42.967216
41.684269 57.6605 42.929142
41.223927 54.469402 43.056686
41.12162 54.363762 43.382156
41.223293 56.712097 43.056076
41.355053 57.98143 42.921486
41.441467 58.588539 43.010193
40.975208 58.202171 43.109173
41.44733 59.514725 42.986786
41.432262 58.048077 43.02393
41.110985 54.827488 43.122536
41.202003 54.807537 43.070164
40.921528 56.472782 43.438232
40.913589 58.445282 43.220081
41.617451 57.562416 43.0014
41.020058 53.118446 43.295609
40.607738 54.034264 43.498486
41.013607 59.263554 43.093079
41.60817 54.775028 43.160156
41.622597 56.33931 43.082462
41.487396 56.104916 42.912041
41.194134 56.390228 43.312984
41.50626 58.746552 42.93475
40.921295 53.1213 43.357025
40.693111 54.504578 43.420418
41.297768 55.96603 43.004963
41.253685 58.616901 43.135368
40.759048 55.50095 43.251186
41.010586 54.764111 43.307213
41.627682 59.192631 42.974972
41.021088 57.491856 43.333614
40.678169 58.123787 43.364269
41.218052 59.313866 42.930714
41.335949 56.311337 43.034264
41.223385 54.133232 43.152695
40.94149 53.897129 43.209969
40.876461 55.484032 43.462051
42.193336 53.656551 42.903557
41.51836 59.561752 42.995907
41.000828 55.462772 43.364723
41.010742 58.599533 43.203495
40.768608 58.191177 43.319302
41.150219 59.558708 43.215858
41.068905 59.225662 43.107121
40.910942 54.534748 43.219734
40.979427 57.328621 43.384457
41.226467 59.92625 42.93874
41.510441 55.566032 43.095898
40.910675 57.909336 43.202793
41.512272 54.100403 43.127354
41.415649 56.62125 42.965221
40.589378 58.12471 43.440876
41.445518 53.301987 43.126587
41.511013 57.325798 42.978428
41.203678 56.33091 43.110615
40.756943 58.075623 43.221889
40.99612 54.968475 43.43364
41.205402 54.33889 43.086811
41.511692 57.984493 43.072693
40.936447 54.187496 43.476013
41.530136 54.757957 43.081287
41.706573 54.538342 43.011532
41.514851 54.874367 43.147606
41.408981 57.684319 42.984959
41.116699 53.395618 43.228104
41.710514 60.203758 42.877041
41.04208 58.824295 43.083778
41.110413 57.110287 43.287731
40.858818 56.705692 43.471859
41.624241 57.971123 42.843307
41.411896 54.383308 43.176834
41.224594 59.890934 43.155647
41.113274 59.444126 43.099277
40.902855 54.718575 43.279198
41.511013 55.759487 43.084068
41.379791 53.693722 43.256714
41.250446 60.1199 43.114384
40.703182 54.391048 43.352806
41.598709 56.028664 42.886288
41.513218 59.481575 42.994694
41.431995 57.99297 42.964474
41.702667 53.32534 42.970192
41.123978 53.574696 43.147087
40.821198 58.05357 43.216652
41.523418 59.824677 42.994503
41.60181 55.531658 43.079185
41.521721 54.027748 43.081512
41.727562 58.119045 42.900738
41.721817 58.446285 42.962055
41.411991 58.135292 43.060249
41.046272 59.572273 43.073502
41.515736 55.557388 43.00729
41.385117 55.047985 43.029091
41.637554 53.694626 42.915688
40.825203 55.593224 43.344353
41.797012 55.368134 42.978603
40.924717 54.278927 43.38398
41.048222 54.173748 43.398033
41.291279 57.053864 43.015156
41.33012 58.024143 43.121899
41.564739 57.688988 42.871624
41.142399 53.72604 43.401474
41.143982 57.813267 43.139736
40.816257 54.539906 43.35458
41.131386 54.271732 43.334324
41.010128 54.261806 43.171463
41.315948 58.611198 43.101624
40.648743 59.796196 43.317619
41.609138 59.088074 42.77092
40.866089 59.077858 43.114967
41.035995 54.281349 43.453381
41.720894 58.559681 42.9198
41.297138 58.165863 42.992855
41.19109 55.217258 43.063747
41.229729 59.799549 43.091705
41.520416 58.375721 43.033886
41.736702 60.133308 42.847656
41.026436 54.667198 43.259228
41.807377 60.128304 42.853176
41.231339 58.268639 43.222824
41.525375 54.631714 43.15123
41.402493 53.594322 43.225601
41.518696 53.76355 43.221275
41.062229 60.056877 43.035149
41.333019 54.692062 43.073662
41.428173 55.554211 43.132156
41.40374 57.726307 43.130692
41.615406 57.827545 42.999306
40.928295 55.804409 43.277786
41.147926 58.000053 43.219234
41.099327 58.68866 43.108833
41.136822 54.627277 43.354259
41.129845 58.467903 43.254704
41.300621 55.486 43.082783
41.492233 54.905491 43.041084
41.053581 58.032242 43.277405
41.218834 57.920773 42.993389
40.6777 54.015976 43.363152
40.802773 55.082325 43.352089
41.322422 53.626984 43.272873
40.918217 54.668285 43.321556
41.87709 59.819359 42.815086
41.60804 53.299374 43.01667
41.236649 53.532364 43.288818
40.857861 54.639423 43.531082
41.295143 55.801342 43.021252
40.920612 55.05328 43.287418
41.114948 54.047302 43.213631
41.600582 58.178257 42.78344
41.147137 53.560772 43.33123
40.932934 59.545841 43.110886
41.129845 58.16917 43.241699
41.42057 58.528076 42.908257
41.640015 57.790031 43.019222
41.222958 57.281425 43.004463
40.814842 59.575581 43.203087
41.227623 58.927574 42.975525
41.331898 57.02589 43.144123
41.316105 58.550377 42.94532
40.885269 55.546963 43.227299
41.138302 58.213303 43.181343
40.966797 56.812443 43.427086
41.61438 54.491413 43.157303
41.666649 56.750763 42.789005
41.070454 59.588619 43.061085
41.620461 60.392948 42.919384
41.282326 59.643726 42.917267
41.615562 56.564606 43.020859
41.321976 58.373554 43.137539
40.88052 54.012161 43.248295
42.094761 53.853508 42.962376
40.940689 53.29726 43.352203
41.526253 54.386978 42.933174
41.515007 60.157574 43.010525
41.648834 59.319492 42.784496
41.147816 58.131531 42.994446
41.225498 54.767166 43.108261
41.620689 54.616791 43.131653
41.815445 55.550083 42.967426
41.606758 57.136063 42.97937
40.635021 53.760876 43.469505
41.010448 54.372513 43.351551
41.370941 57.116779 43.201717
41.310616 56.090004 43.016312
41.700378 58.677307 42.918507
41.078407 53.279064 43.269226
41.232437 58.610523 43.01115
41.333965 54.294003 43.201477
41.536114 57.124985 43.012283
40.635197 53.959061 43.479458
41.243774 60.088615 43.135723
41.609749 53.886063 42.980762
40.813705 55.544323 43.278343
41.322956 60.044842 43.036171
41.141407 54.240852 43.171894
41.302944 59.538441 42.948627
41.425175 53.705406 43.029785
41.213943 54.966358 43.100761
41.421997 59.133495 43.039768
41.313881 58.649227 43.138306
41.429558 56.868935 43.042831
41.212616 54.570156 43.267097
41.407059 54.693447 43.017254
41.394428 54.242363 43.039185
41.797108 60.256027 42.82925
41.392632 57.215294 42.92778
41.514046 60.067902 42.964672
41.607056 56.103554 42.832176
41.615955 55.19009 43.060066
40.919888 59.453255 43.169071
41.022411 55.430965 43.197186
41.291779 54.839161 43.012272
41.506611 59.804565 42.959335
41.428036 59.297173 43.046982
41.225391 59.394268 43.135124
41.448219 58.375496 42.88723
41.228168 56.581394 43.213657
41.641533 54.420841 42.895458
41.215572 55.986439 43.249134
40.914921 55.080673 43.489811
41.848438 60.138367 42.797001
41.121616 56.579155 43.164562
41.613564 54.553295 43.040428
40.802147 55.067284 43.554012
41.1147 58.630287 43.248634
41.430462 54.292866 43.152153
40.879166 55.448071 43.311626
41.932129 54.43536 43.01651
41.427471 55.527046 43.162209
41.014248 53.322128 43.285431
41.231071 58.541359 42.984741
40.749786 59.810455 43.268143
41.120773 54.931919 43.219559
41.135937 59.038071 43.198921
41.512524 60.327686 42.964584
41.697235 59.216434 42.902939
41.519325 58.211567 43.021595
41.322117 54.179131 43.224411
41.157009 59.328297 42.965267
41.113026 54.284443 43.28931
41.437393 59.094238 42.907032
41.129166 56.576988 43.263199
41.62455 58.644329 42.981018
41.673332 59.341351 42.809887
41.42239 57.732895 42.898785
41.422981 57.819527 42.923401
40.864708 58.384735 43.225075
40.906116 59.285076 43.147629
40.93364 56.126152 43.135765
40.948311 59.84684 43.137966
41.646278 54.011036 42.994965
41.316261 58.74437 43.171959
41.51762 56.001728 43.099323
41.563076 58.107506 42.778751
41.051704 58.039474 43.190716
41.235451 59.509155 43.081516
41.401047 58.337177 43.054024
40.808002 54.288803 43.400116
41.500122 58.355198 42.854851
41.219566 57.626251 43.014462
41.397076 55.445255 42.997055
41.320698 55.997452 43.206173
41.151329 59.275936 43.207729
41.329144 59.564701 43.093174
41.233517 54.198753 43.275913
41.222828 58.087906 42.991901
41.32275 56.692421 43.017307
41.296284 55.247795 42.9897
41.417511 55.83107 43.137527
41.130581 59.485371 42.965767
41.606205 60.060879 43.018078
41.00827 53.992779 43.174618
42.012753 53.879883 42.998856
41.517151 54.56456 43.106152
41.510605 55.522362 42.955784
41.329033 59.295681 43.099842
41.335846 55.637398 43.183201
41.316658 57.61763 42.971588
41.385345 59.438042 42.916805
41.130764 58.808281 43.028465
41.413498 58.026775 43.082344
41.709507 58.110416 42.948921
41.331238 54.383743 43.025253
41.210861 59.160278 43.188255
41.314182 59.608681 42.928692
41.231117 55.773544 43.089684
41.236919 54.592751 43.32132
41.318184 53.700005 43.090458
41.130135 55.457901 43.139214
40.61478 53.380348 43.503735
40.847523 59.63541 43.135559
41.121517 55.697197 43.131062
40.910942 55.268288 43.298454
41.047771 57.979534 43.31646
41.847122 59.558506 42.795448
41.117222 58.595905 43.044407
41.130554 55.242313 43.104797
41.591797 54.183159 43.099319
41.520939 58.45023 43.046627
41.326618 57.277496 43.1917
41.2304 58.105698 43.186478
40.980717 55.190525 43.273792
41.404469 55.698486 43.089985
41.791035 58.838284 42.879959
41.136978 57.61388 43.09063
41.015995 57.283234 43.104557
41.579292 56.343788 42.893925
40.999844 55.237854 43.254696
41.109932 55.49678 43.36327
41.521633 53.664047 42.980778
41.411404 59.787708 43.011539
40.978085 60.008945 43.089348
40.956165 53.353554 43.415085
41.410641 54.274708 43.194668
40.851952 58.902832 43.222469
41.109974 53.944832 43.223843
41.226254 53.409149 43.162605
41.327503 57.109631 43.15015
41.592419 57.208366 43.004227
41.231682 54.300106 43.248608
41.330742 59.948269 43.0793
40.919548 55.692017 43.267151
41.707062 55.374798 43.011932
41.516151 54.409973 43.014362
41.51651 53.602139 43.182827
41.124344 56.797852 43.327126
40.912521 53.948505 43.336029
41.613434 59.028675 42.957825
40.76561 53.426826 43.406693
41.663177 59.236042 42.794022
41.615982 60.305923 42.907795
41.563675 54.50732 43.185253
41.099178 55.238281 43.18858
41.323723 53.938732 43.118439
41.720581 57.850723 42.937351
41.710831 53.698502 43.120564
41.523365 60.028877 42.980808
41.275883 56.758945 42.975403
41.331223 60.020023 43.081844
40.830338 53.414986 43.384464
41.517475 59.400532 42.988441
41.326035 60.090164 42.934177
41.041039 54.213722 43.271507
41.612659 56.415154 42.877483
41.427544 59.392513 43.033871
41.319969 59.790562 43.051754
41.282318 56.895012 43.009701
41.158375 56.736237 43.040287
41.01918 54.13055 43.271133
41.768547 56.342628 42.99659
41.139263 55.93848 43.056797
41.205753 55.239517 43.095238
41.222588 53.732323 43.296341
41.617294 57.099964 43.008137
41.297691 54.870377 43.279167
41.319126 58.452061 43.151104
41.201073 53.389549 43.304569
41.993561 53.711319 43.005058
41.328175 54.625122 43.260914
41.441647 58.715244 43.095161
41.503422 57.216377 43.042137
41.576679 57.58197 42.858768
41.533279 54.834118 42.937973
41.429813 60.209053 43.021156
41.13221 57.077541 43.059887
41.543999 56.318584 43.103283
41.669159 59.485741 42.861717
41.130486 54.190136 43.317848
41.413544 57.607258 42.931492
41.713421 54.611526 43.083088
41.704758 56.826809 42.97113
41.209351 56.745857 43.013325
41.316509 55.239464 43.06274
41.52319 55.346493 42.912251
41.323444 54.351112 43.262985
41.045677 54.034687 43.290283
41.715919 60.01778 42.882908
41.607597 60.372322 42.960625
41.430695 54.349312 42.989796
41.41663 60.380383 43.045414
41.609848 60.293392 42.933105
41.515358 58.833061 43.019947
41.423645 54.936306 43.068211
41.117535 55.773109 43.161465
41.215244 59.547207 42.954552
41.008049 54.545773 43.437832
41.688454 53.384811 42.941757
41.235405 53.599506 43.306843
41.066765 56.559784 43.325714
40.901699 57.38739 43.454731
41.015923 58.521423 43.091888
41.624977 54.299713 43.019566
41.201157 57.056892 43.310905
41.29694 53.898987 43.082226
41.359947 58.695938 42.958714
41.507504 60.479542 42.995411
41.525631 54.296364 43.105438
41.021183 54.049328 43.262764
41.14085 59.759613 42.951031
40.880249 54.968864 43.458294
41.707344 60.375721 42.900047
41.523415 60.366959 42.992664
41.784431 56.793556 43.039284
41.132622 53.516216 43.209229
41.506306 53.875961 42.970459
41.422237 58.450413 43.104542
41.715679 56.4394 42.990208
41.128529 54.529648 43.331985
41.531773 55.167217 42.940861
41.029877 55.993492 43.136219
41.221775 59.17334 42.99752
41.703522 58.389328 42.943748
41.000175 54.337029 43.438763
41.244633 59.382103 43.16367
41.519897 58.567177 43.023537
41.754505 53.721649 42.822594
40.977467 59.304214 43.187931
41.61607 60.141624 42.925102
41.204212 56.007214 43.04232
40.864193 56.443745 43.303802
41.216797 59.066063 43.005226
41.212181 55.242302 43.060905
40.847569 58.507244 43.229065
41.424103 58.103668 43.084564
41.109608 59.271832 43.093307
41.637947 54.099686 43.051407
41.244995 54.248291 43.292904
41.109364 53.871716 43.220959
41.224575 56.28857 43.211681
41.414021 60.059006 43.014194
41.045475 59.852509 43.034222
41.234821 56.040936 43.09668
40.802109 56.049438 43.220886
40.911457 57.267647 43.164703
41.433128 55.384727 42.968643
41.498135 59.267559 42.887978
40.978996 59.106316 43.095695
41.227497 57.183041 43.219444
41.318066 59.372494 43.124073
41.037106 56.393635 43.35125
41.488262 56.040127 42.971142
41.490696 54.510616 43.113487
41.222126 53.329147 43.1632
41.605743 58.102623 42.991749
41.129398 54.892326 43.126976
40.920963 59.217743 43.11375
41.526154 57.070995 42.881638
41.128689 55.1464 43.183186
41.219261 57.148506 43.051033
41.332497 55.269753 43.21735
40.919769 53.079235 43.425514
41.122517 57.822639 43.254379
41.52422 56.146389 43.041348
40.902225 57.086258 43.205761
41.350018 57.058578 43.208
41.6082 58.156944 42.831474
41.62431 57.278427 42.807415
40.929199 54.714966 43.462479
41.13649 57.73402 43.02581
40.801254 56.446358 43.503017
41.327187 58.308086 43.055614
40.9398 58.117489 43.152527
41.716988 59.035526 42.905952
40.779922 55.223042 43.566528
41.325397 56.183933 43.187248
41.418018 56.560364 43.120911
41.617355 57.652679 43.003143
41.608856 57.79158 42.894577
41.228672 57.095531 43.032349
41.51582 55.335583 42.972347
41.564148 58.97858 43.01955
41.493401 54.053131 42.988056
41.32967 54.384281 43.220093
41.208603 55.70808 43.08316
41.500359 54.812984 43.14399
41.545853 55.166679 42.970016
40.945301 55.228107 43.303101
41.003662 54.945 43.285576
41.194782 54.216183 43.200634
41.858265 53.895493 43.081409
41.231445 58.124676 43.139774
41.035503 54.642387 43.36393
41.419403 54.881443 43.208206
41.030556 55.350838 43.174362
40.930565 54.181927 43.259003
40.749172 54.179554 43.352348
41.24744 59.235542 43.027771
40.857788 55.160206 43.523067
41.213497 57.231277 43.084736
41.435265 54.201096 43.051456
41.332603 58.622993 42.934254
41.41613 56.187469 43.138851
41.002052 53.872017 43.285934
41.165283 57.0476 43.328842
41.400085 54.958317 43.029125
41.426739 53.136158 43.074253
40.7575 53.981255 43.367863
41.12616 56.175663 43.29372
41.319729 56.464993 43.184036
41.227177 59.294552 43.157917
41.021172 54.253078 43.234707
41.042385 57.442535 43.117241
41.43232 59.646118 43.055523
40.925915 53.401489 43.331802
41.13866 57.747341 43.234859
41.030396 54.400768 43.433693
41.316765 54.230762 43.135975
41.109638 57.416676 43.112873
41.422756 60.128319 43.018703
40.856594 54.18985 43.261868
41.217121 54.641819 43.273857
41.247616 54.591949 43.129265
41.203968 54.507175 43.382301
41.508999 58.182404 43.05846
41.419163 53.518604 43.055202
41.035294 57.220703 43.365578
41.51606 60.399559 42.966717
41.513123 58.132877 43.009323
41.752529 60.074181 42.846684
41.22369 57.544506 43.235653
41.627533 58.156361 42.958828
41.324192 54.575584 43.20377
41.216946 58.836208 42.94862
41.220421 59.21431 43.152119
41.142136 56.31654 43.128975
41.198509 59.750381 42.914967
41.47366 53.859787 43.008263
41.86058 58.312263 42.91478
41.024757 53.486046 43.293026
41.20187 59.051819 42.95644
41.019943 54.421532 43.264412
40.935379 53.490009 43.331711
41.602882 60.032627 42.94025
41.266178 56.790092 43.267673
41.02269 57.502808 43.110676
41.323078 55.754272 43.170208
41.121048 60.25193 43.154354
41.612938 58.190899 42.998047
41.048431 56.452862 43.354805
41.213818 58.198975 43.215633
41.101097 58.759144 43.122902
41.308739 54.994659 43.319016
41.124607 58.079304 43.1614
41.512093 54.186737 43.133282
41.603516 59.015217 42.845219
41.250221 57.887447 42.991676
41.515285 56.292126 43.074585
41.22747 58.297466 43.175587
41.310169 58.790367 43.077953
41.117889 54.199524 43.231998
41.638481 60.116558 42.945911
41.529449 60.102158 42.987373
41.326725 58.932034 43.133198
41.512001 56.914772 43.074287
41.00531 54.886665 43.18988
41.237843 56.119751 43.17836
41.385868 56.888195 42.954693
41.319626 59.490627 43.09248
41.02261 55.100235 43.161983
41.518654 56.220253 43.060703
41.616806 53.393604 42.988682
41.737259 56.161041 42.927868
41.025139 55.387726 43.234283
41.230366 54.046474 43.13855
41.321758 59.40617 43.084667
41.273693 55.681175 43.285149
41.390308 57.550179 43.022491
41.326843 57.320667 43.250626
40.832378 58.145679 43.321373
41.395782 59.220867 42.873692
40.828434 55.688896 43.315929
41.188465 55.135834 43.344467
41.021301 54.549179 43.35099
41.894558 53.850281 43.057785
41.105324 55.400105 43.210552
41.233063 59.636997 42.943905
40.94104 55.175518 43.504147
40.655048 54.703915 43.575886
40.8885 57.976398 43.248081
41.332432 59.030376 43.104523
41.301464 56.787872 43.208172
41.133987 55.281528 43.278252
41.212883 56.185127 43.207264
41.537548 58.709469 43.032516
41.326118 56.236313 43.030174
40.81197 54.398888 43.378193
41.795765 56.342606 42.990021
41.611435 58.715275 42.820461
41.404709 57.165508 42.944561
41.712418 57.22657 42.946712
41.343777 56.410748 43.232605
41.515862 55.535694 43.120392
41.55843 55.428631 42.924038
41.744675 59.219673 42.814636
41.515453 57.109989 43.063053
41.142014 56.092506 43.090443
41.223331 57.126835 42.996803
40.916859 54.291214 43.467281
40.753368 54.802769 43.53159
41.624077 58.938725 42.951565
41.301559 54.40802 43.112419
41.55373 57.782398 42.894482
41.518345 60.295387 42.983395
41.350357 58.064705 42.93935
41.438381 57.868889 42.854397
41.263748 59.660046 43.042999
40.933243 54.048908 43.305965
41.51326 60.218655 42.979061
41.323219 54.234665 43.09338
41.084423 55.755848 43.345482
41.016975 54.32177 43.266926
41.201077 54.262032 43.087051
40.926189 54.409248 43.31609
41.38105 55.318439 43.019299
41.612213 54.61417 42.960102
41.552872 57.159176 42.886635
41.494865 57.81324 42.875324
41.301842 57.148933 43.039101
41.709114 54.10989 43.01379
41.536663 59.067265 42.965088
41.042694 58.050484 43.341942
41.420959 55.644444 43.146896
41.328606 54.046501 43.097965
41.53933 54.65353 42.970749
41.215462 57.790722 43.104443
40.666267 58.222069 43.34203
41.253765 57.862209 42.957432
41.229271 57.106247 43.21384
40.93401 56.731285 43.421574
41.245884 60.055832 43.096367
40.919987 53.705097 43.266701
41.542938 53.933838 43.015938
41.219231 55.891335 43.062099
41.154171 55.828217 43.079212
40.924095 57.773262 43.360184
41.194267 55.92968 43.041775
41.519554 56.183659 43.081451
41.595303 55.371098 42.9077
41.228611 57.754166 43.190147
41.035969 55.222645 43.434052
41.204048 54.686939 43.178246
40.798294 53.646965 43.563477
41.521854 57.632271 42.886963
41.331345 53.532082 43.242756
40.829609 54.9706 43.355461
41.417736 54.046482 43.037102
41.419086 58.834454 43.066269
41.520607 54.228168 42.97646
41.510689 59.329342 42.978962
41.423386 58.796104 43.020832
41.211533 53.926941 43.186871
41.007442 57.823555 43.32645
41.16975 58.849747 42.965538
41.528603 55.463799 43.101158
41.212429 57.824589 43.208576
41.409771 53.89315 43.024017
41.398743 55.433842 43.06683
41.413654 54.643681 43.175823
41.125881 58.237209 43.283245
41.6231 57.923389 42.99781
41.618557 58.213566 42.974178
40.86742 58.853989 43.134357
41.152161 54.342129 43.312317
41.12735 56.456024 43.309128
41.536655 55.072987 43.137573
41.425541 56.918404 43.116722
41.410702 54.57177 43.162781
41.321022 57.66441 43.119701
40.845715 55.462894 43.471832
41.141056 57.170254 43.124439
40.997952 58.530632 43.260372
41.023548 53.95113 43.285034
41.109917 54.774414 43.193027
41.612457 58.617062 42.948105
41.010029 57.191948 43.176582
41.240944 54.794762 43.269634
41.133568 57.26825 43.062698
41.212887 57.345493 43.032478
41.523148 59.139324 42.987728
41.726021 54.52594 43.116001
41.034023 55.24688 43.393696
41.317398 55.868958 43.021027
41.425842 53.545177 43.199669
40.873253 55.169254 43.29998
41.736351 54.402611 43.115173
41.319801 56.856224 43.079216
41.442242 54.339321 43.17931
41.122749 54.967381 43.16674
41.214214 58.452183 43.212997
41.040974 57.214752 43.282543
41.608116 57.745846 42.998283
41.229385 54.078785 43.086983
41.422985 55.817471 43.169857
41.69442 54.414341 42.928783
41.75383 58.256649 42.942528
41.713421 53.535748 43.065479
41.015636 53.790703 43.260242
41.418667 59.291595 42.881451
40.838467 55.209518 43.378796
41.616001 56.527664 43.059338
41.512001 56.373211 43.078175
41.240955 57.652203 43.193775
41.701691 56.371723 42.99601
41.622936 56.374367 43.027653
40.940907 59.034004 43.17683
41.15197 57.054615 42.972485
41.306267 57.865978 42.968777
41.373199 58.037731 42.919964
41.138622 59.20731 43.191204
41.607426 60.032478 42.889942
41.196442 56.605152 43.292103
41.600426 58.264122 42.775215
40.997467 54.727024 43.164822
40.825691 57.90189 43.244968
40.854576 54.98719 43.326237
41.23978 56.184128 43.234348
41.511063 57.562496 43.051407
40.910973 55.495266 43.456207
41.252121 59.271992 42.945541
41.311081 55.418427 43.068272
41.208099 55.542984 43.055756
41.244686 56.475269 43.189568
41.221462 53.863758 43.156307
41.121983 53.772766 43.204788
41.130386 56.031708 43.145145
41.617104 56.813725 43.062492
41.647427 58.636093 42.795391
41.230309 58.932392 43.146805
41.420486 59.484905 43.040573
41.606422 56.461742 43.047962
41.412716 55.225487 43.10815
41.220455 55.432186 43.080364
41.713898 57.100147 42.970482
41.215782 54.728176 43.279224
41.417164 53.976772 42.962627
41.009354 54.149574 43.446167
41.06802 53.610893 43.132362
41.425549 60.29155 43.026855
41.231297 57.728241 42.995106
41.336349 53.86216 43.095535
40.839211 54.231361 43.517986
40.861488 58.55938 43.128994
41.686996 58.084404 43.010399
41.501564 55.710651 42.957207
41.217056 59.349945 43.00663
41.247742 56.757072 43.190144
41.224293 53.995338 43.285217
41.618156 56.107498 43.029121
41.702522 57.375088 42.966537
41.411797 57.674366 43.079807
41.80452 60.311699 42.837532
40.97847 57.332752 43.206821
40.736771 53.84885 43.444927
40.790428 54.370705 43.285423
41.580452 53.818012 43.196617
41.041214 56.314709 43.190269
41.132111 59.500347 43.212704
41.137409 60.183105 43.073639
41.311985 55.537273 43.025974
41.61499 55.646019 43.046486
41.027477 54.070148 43.17025
41.354248 57.973675 43.141109
41.629333 53.799446 42.908512
41.145042 59.121933 42.994137
41.335796 56.749214 43.151409
41.316193 55.107288 43.201355
41.212135 54.705563 43.096962
41.520042 58.638687 43.03149
41.422863 58.642796 43.082977
41.126431 57.239979 43.119793
40.992477 53.511044 43.470207
41.427338 59.596466 43.015934
41.02383 55.053455 43.248142
41.849136 55.952915 42.95961
40.928242 57.85141 43.35059
41.41695 60.029774 43.032875
41.053028 59.515732 43.335072
40.807404 53.334042 43.397655
41.117905 55.049786 43.19503
40.809772 54.229382 43.398811
41.220486 60.035309 43.146385
41.084801 53.482323 43.24968
41.59481 56.619606 42.901077
41.066463 53.660496 43.416267
41.725971 59.394463 42.887142
41.129261 56.429508 43.103207
41.023678 53.397861 43.282623
41.235207 58.992752 43.101604
40.74865 53.296021 43.448353
41.068913 58.616543 43.061844
41.632965 57.98621 43.005306
41.806816 57.304661 42.950001
41.307426 55.083538 43.246635
40.634892 53.846024 43.492207
41.425377 56.135338 43.042881
41.132782 57.688805 43.217953
41.324829 56.025272 43.171967
41.121704 54.827911 43.2887
41.293686 57.949364 42.939888
41.391769 55.160637 43.219677
41.235313 53.477364 43.1856
41.619156 54.478916 42.961906
40.868614 57.985062 43.25098
41.320923 58.40572 43.110271
41.504246 56.470287 42.923229
41.622353 53.623482 43.13253
41.412357 54.400063 43.057793
41.007156 57.061131 43.172531
41.200859 55.620731 43.075802
41.392876 53.368916 43.036518
41.713238 58.293125 42.933525
42.020237 53.792278 43.001587
41.609207 57.090466 42.842758
41.334751 53.471729 43.118809
41.684784 54.272205 42.857117
40.944538 54.416092 43.255497
41.564972 58.094604 42.820801
41.626247 53.707493 43.184559
41.409767 55.787205 42.986099
41.538055 58.401882 42.807476
40.847004 55.58868 43.528755
41.558846 58.040131 42.814285
41.225754 56.018684 43.210533
41.21703 53.632069 43.110088
41.224277 58.186993 42.994827
41.725853 57.780109 42.943176
40.948257 53.643173 43.229424
41.325161 58.220882 43.11301
40.97913 56.645035 43.130009
41.522415 57.753353 43.032543
41.211037 54.242462 43.131268
41.31662 57.753792 43.129482
40.93866 53.416409 43.446621
41.325447 60.133198 43.068058
41.514294 58.809277 42.835609
41.143726 54.711452 43.154503
41.241226 56.60767 43.081165
41.398064 58.601562 42.923199
41.041794 54.701633 43.20208
41.498371 58.46487 42.845974
41.432922 57.138672 43.062973
40.921345 55.473686 43.309032
41.517944 60.12574 42.97401
41.104713 56.179157 43.223652
41.131008 53.894382 43.17271
41.245121 55.562611 43.226727
41.540909 57.189274 42.849735
41.320114 55.563019 43.186501
41.725182 55.839039 43.003742
41.122715 56.922916 43.284718
41.77187 58.72345 42.893429
40.864063 54.4118 43.529602
40.927803 53.605774 43.334049
41.117218 54.588249 43.315853
41.132225 54.666252 43.199314
41.045559 59.766243 43.290211
41.423763 59.758923 43.03373
41.159752 59.113647 43.026588
41.138615 59.280563 43.029034
41.075817 55.851833 43.182579
41.221371 55.853344 43.123863
41.554482 54.594891 42.951118
41.616535 56.028996 43.021667
41.016598 58.164886 43.229744
41.151501 55.454803 43.294689
41.150684 58.121056 43.226616
40.958027 54.513378 43.502007
41.725128 60.287743 42.870712
41.605354 56.731239 42.858303
41.289104 55.94928 43.069843
41.607845 59.403542 42.944191
41.408478 58.290707 42.897308
41.932148 58.095047 42.839981
41.51627 58.109528 43.036259
41.328922 58.188721 43.150635
41.725807 58.188469 42.951431
41.68158 54.672325 42.89521
41.111931 57.567787 43.159851
41.883896 58.173218 42.912018
41.010979 57.026634 43.177105
41.070042 59.09243 43.143318
41.317612 58.109005 43.131966
41.160549 58.362507 42.994301
41.3144 53.224079 43.10302
40.848217 60.041214 43.148399
41.350761 55.70673 42.964809
41.227818 58.198959 43.165527
41.417175 57.752823 43.086342
41.539276 58.168777 42.830734
41.577179 53.918999 42.998913
40.860802 58.036098 43.259521
40.739037 57.175987 43.380943
41.300125 58.272552 42.951416
41.51738 58.250881 43.065125
41.408012 56.338097 42.969105
41.511719 59.865108 42.979065
41.121632 59.98851 43.014854
40.82304 53.935673 43.400509
40.825958 55.36755 43.537537
40.819168 53.598408 43.405613
40.920433 53.505493 43.325592
41.283203 57.240086 43.040382
41.018875 53.985039 43.417236
40.837189 54.213188 43.540268
41.008759 54.221554 43.450726
41.002846 54.992321 43.153114
41.33387 58.941826 43.093536
40.812641 53.475105 43.406982
41.417435 57.919201 43.10252
41.620575 56.732975 43.040764
41.605801 58.788422 42.812752
40.920441 55.863518 43.135902
41.228298 57.664299 43.163048
41.614693 58.723736 42.809078
41.229206 57.39502 42.985867
40.919952 53.67931 43.329586
41.133797 56.912453 43.097191
40.812206 53.872044 43.39146
41.2309 53.756336 43.194839
40.929291 53.221069 43.346622
41.125038 54.605354 43.193336
40.915745 54.860939 43.31546
41.197132 60.037811 42.939575
41.503994 53.461823 43.149246
41.212738 54.322929 43.14716
41.320587 55.523254 43.219887
40.658901 54.870541 43.555374
41.301071 57.871723 43.116043
40.623638 59.85733 43.344658
41.029121 55.279861 43.312912
40.967224 57.018108 43.195259
40.930191 54.238216 43.356174
41.136757 58.454941 43.021183
41.089451 56.406513 43.385944
41.225822 53.511097 43.146702
41.011433 53.502743 43.269127
41.048191 55.135742 43.23983
41.209621 56.163708 43.068981
40.925213 55.526146 43.290394
40.831196 56.34956 43.488045
40.856159 56.934349 43.508644
40.911148 56.914383 43.436543
40.832832 57.620037 43.363029
41.230759 59.84182 42.918987
40.752106 58.326336 43.318642
41.41264 58.756138 43.064793
40.692978 53.747952 43.460468
41.435661 59.063225 43.006248
40.819397 55.413372 43.51791
41.129036 59.864063 42.987354
40.936234 53.872028 43.313553
40.930031 54.592072 43.412315
41.558861 55.165653 43.040047
41.099995 55.358696 43.372334
41.15691 59.908192 42.999016
40.847946 58.660744 43.261822
41.117146 53.597561 43.216667
41.214478 53.59478 43.157875
40.925747 55.336361 43.48513
40.805042 54.390839 43.344006
41.398861 56.490334 43.117416
40.888985 56.246479 43.245815
40.968117 57.72823 43.36879
41.240601 57.681908 43.01416
41.233036 57.739117 43.215542
40.620609 53.588909 43.484814
40.903873 59.893204 43.119728
40.979774 55.613598 43.414288
40.752335 58.271255 43.312126
41.009544 54.770065 43.256275
41.330463 54.646412 43.211548
41.116444 55.503883 43.174927
41.231884 55.201366 43.213539
41.011879 57.749523 43.085083
41.238457 56.944752 43.178242
41.21278 58.567947 43.174885
41.118111 56.390858 43.302959
41.225368 55.364296 43.250706
41.508915 56.942574 43.042259
40.891739 56.224907 43.168774
41.320122 55.187263 43.20768
41.21722 58.272301 42.990356
41.421635 58.530445 43.135632
41.138832 55.164948 43.313286
40.904774 53.7528 43.350742
41.018913 56.190186 43.128666
41.115631 55.257038 43.334904
41.140045 57.811943 43.052265
41.215107 55.459106 43.259632
41.123783 56.535984 43.14727
41.535442 58.715508 42.831272
41.195541 55.682964 43.189579
41.221722 57.813732 42.999027
40.995667 56.975502 43.206272
41.038795 56.704025 43.372429
41.139324 55.764393 43.27766
41.328377 57.409317 43.120644
41.3353 57.150677 43.112537
40.930305 57.434952 43.33107
41.128242 57.140156 43.200188
41.007278 57.409752 43.277119
41.476063 57.785648 43.099575
41.126167 56.941326 43.246876
41.325436 56.951633 43.140987
41.779186 57.212894 42.909988
41.726929 53.783546 43.129871
41.156269 57.03598 43.137318
41.276833 56.103992 43.127975
41.213074 56.509949 43.085667
40.934689 56.492336 43.272419
41.304775 57.817368 42.964836
41.493927 57.885391 43.031223
41.333584 59.784149 42.870686
41.441631 57.405334 43.064304
41.766331 58.703777 42.92511
40.939323 55.265434 43.434406
41.129864 57.395885 43.213211
41.321129 57.836025 43.140587
41.614395 57.722649 42.792202
41.425404 57.832264 43.08683
41.618748 57.884041 42.959999
41.38242 57.907391 42.961418
41.316917 53.811195 43.264515
41.509487 53.803936 43.163639
41.699776 53.803864 43.063156
41.414268 53.807735 43.201462
41.616871 53.811829 43.103855
41.230038 55.439548 43.332882
41.385284 58.34544 43.164879
41.139835 54.152813 43.145046
41.720352 53.870922 43.112026
41.470161 56.074184 43.140789
41.386086 56.087654 43.199718
41.23135 56.125652 42.997341
41.325314 57.525185 43.179943
41.736298 56.067066 43.014153
41.12727 58.917091 43.233879
41.326824 58.836021 43.112972
41.332638 58.753925 43.104958
41.200264 58.832558 43.064991
40.912704 60.035152 43.140945
41.488956 53.391518 43.012985
41.007065 54.151062 43.218796
41.64167 54.429008 43.149109
41.549 54.404789 43.170734
41.521587 54.353333 43.153202
41.498505 54.708118 43.217941
41.528957 57.511677 43.075432
41.613274 53.375599 43.088902
41.310459 56.057583 43.227371
41.583855 56.08807 43.089672
41.451897 57.525539 43.116524
41.21106 58.827995 43.177307
41.394547 53.410881 43.076721
41.424377 53.452843 43.194782
41.310871 53.398499 43.132702
41.610767 54.252087 42.91198
41.1875 56.207142 43.045349
41.427219 58.904415 43.074284
41.107239 55.578236 43.18816
41.515205 53.56897 43.010181
41.611805 53.452034 43.098969
41.320702 54.17049 43.063549
41.219398 58.685455 43.15136
41.138409 58.545349 43.033451
41.329193 55.376797 43.193874
41.325104 53.583477 43.092594
41.229488 56.271519 43.026985
41.416401 57.652027 43.104549
41.328709 57.641903 43.14296
41.502571 58.901665 43.042767
41.595085 58.945831 42.997952
41.223301 58.749931 43.164871
41.517826 58.754101 43.00935
41.171829 54.388557 43.361385
41.040932 55.371643 43.345898
41.418129 55.367798 43.152786
41.774937 53.818695 43.027794
41.134258 55.376289 43.28487
41.515522 55.371784 43.103825
41.51199 55.33939 43.137383
41.104801 57.624622 43.275932
41.61689 58.84005 42.968136
41.607334 58.741272 42.973724
41.408478 55.337265 43.197418
41.677334 53.384933 43.0578
41.627937 55.352348 43.076206
41.71809 57.527489 42.984303
41.106148 55.826336 43.370663
40.903698 55.67424 43.307392
41.805244 54.35939 43.053017
41.312229 55.349529 43.25444
41.13858 55.994919 43.052353
41.613388 55.374844 43.051102
41.610672 55.799557 43.072895
40.960686 57.373867 43.345905
41.015358 58.996674 43.089088
41.101795 55.680084 43.218662
41.208878 59.891392 42.871349
41.319813 54.971878 43.073254
41.23592 55.906834 43.239128
41.503391 57.675892 43.02618
41.12059 55.620354 43.116016
41.689556 55.329086 43.034874
41.701584 58.856735 42.930576
41.242809 58.647236 43.176971
41.080631 56.222828 43.063095
41.5116 58.672703 43.005665
41.042259 56.500301 43.238914
41.119587 54.861214 43.201542
41.430298 58.672192 43.047737
41.117424 54.996967 43.349136
41.103561 55.550228 43.302521
41.32338 56.998806 43.018425
40.999763 57.078094 43.361637
40.932369 57.944874 43.353909
41.033745 54.80822 43.399906
40.824585 53.822754 43.438557
40.849339 59.890907 43.357891
40.890858 55.595139 43.443245
41.018505 56.620865 43.355366
41.623283 55.142555 42.945446
40.945492 56.393692 43.25687
40.965233 57.206238 43.363853
41.11396 57.208294 43.277084
41.051895 59.518082 43.204391
41.131226 55.908188 43.296131
41.057453 59.226837 43.287518
41.043858 57.13702 43.231274
40.932968 57.029022 43.422035
41.312103 59.923046 42.905132
40.987259 59.836597 43.31982
41.319004 57.946281 43.119865
41.329056 54.914787 43.210144
41.219666 56.553768 43.285549
41.222908 54.091503 43.269985
41.430744 59.569786 43.039131
41.221828 55.289673 43.23777
41.023338 55.85461 43.214123
41.309414 58.539249 43.025303
41.153442 58.851536 43.196758
41.044621 56.906925 43.331299
41.323563 54.455601 43.21907
41.544083 59.037399 42.779179
41.51759 56.101929 43.081768
41.521362 53.835098 43.123085
41.525242 53.899914 43.183567
41.603809 59.766666 42.896229
40.929211 53.805885 43.533112
41.50602 60.530918 43.015846
41.228603 58.42482 43.017227
41.416668 55.462643 43.152496
41.319096 56.100483 43.179005
41.317242 53.91713 43.236897
41.320847 56.486935 43.159538
41.2313 54.484203 43.182079
41.222874 58.04195 43.118107
41.227196 55.492924 43.215797
41.403461 53.835457 43.171326
41.408222 57.476513 43.088181
41.418217 55.02755 43.142227
41.32531 55.803455 43.22221
41.213703 54.765812 43.228737
41.534035 55.926826 42.901215
41.641411 57.61478 42.934818
41.611908 53.57486 43.041821
41.31041 58.448036 42.940197
41.329639 59.243835 43.009476
41.232014 59.058216 43.106262
41.099319 53.913479 43.330769
41.207458 55.5947 43.137691
41.327335 57.56855 43.139957
41.41423 54.723747 43.177803
41.488842 54.232258 43.085899
41.414429 54.738701 43.137924
41.527683 56.75872 43.051582
41.317532 58.417179 42.970276
41.32996 56.346294 42.999535
41.515911 53.91008 43.136036
41.509239 55.091404 43.110287
41.515076 57.297466 43.049023
41.527454 56.665512 43.135094
41.405674 53.559086 43.181442
41.427204 56.518288 42.957314
41.479755 53.759945 43.107418
41.334713 55.854836 43.121731
41.593025 55.49181 43.017216
41.609722 53.736858 43.003212
41.619152 56.482601 43.004177
40.917912 57.432186 43.347782
41.156845 59.328972 43.133007
41.044933 58.902683 43.093201
41.514668 54.36235 43.12611
41.516392 58.949261 42.898155
41.536293 54.890888 42.909893
41.415577 58.976959 42.898132
41.613651 55.113121 43.060978
41.508926 56.021873 43.077702
41.511776 53.678802 43.011551
41.417397 54.037403 43.137272
41.511986 55.296906 43.098152
41.506901 53.491047 43.06683
41.621826 55.979439 42.889053
41.517845 53.777908 42.990334
41.517155 56.839901 43.065979
41.542259 55.034012 43.082329
41.498714 53.340893 43.008282
41.599258 56.752491 43.014675
41.517452 54.833271 43.110363
41.420555 58.095776 42.910568
41.669796 56.22665 42.863815
41.618469 54.215424 42.998653
41.705917 56.104786 42.98243
41.680275 53.32515 42.955357
41.437283 53.369228 43.17963
41.404995 53.478161 43.150421
41.71822 55.109516 43.007469
41.206963 58.871483 43.012775
41.705917 58.940849 42.912281
41.485558 57.214729 42.954403
41.540062 55.946064 43.051075
41.416756 56.102757 43.130497
41.439194 55.83881 43.025768
41.512436 55.91349 43.095619
41.630981 57.1464 42.865349
41.632236 55.298809 43.032948
41.506031 55.00209 43.123699
41.416061 56.381416 43.133663
41.33194 56.284393 43.166756
41.327915 54.571499 43.101551
41.324348 56.838581 43.16481
41.208691 55.033096 43.107719
41.311764 54.811218 43.235691
41.515583 57.252369 43.089958
41.329105 56.647614 43.174065
41.398956 59.349586 42.912369
41.212463 58.916164 43.183342
41.068703 55.060192 43.300518
41.128292 53.319324 43.214985
40.907558 53.320942 43.338543
41.807152 53.785835 43.088528
41.63026 56.893585 42.951199
41.419453 57.273064 42.935432
41.048618 57.412773 43.385193
41.311348 57.358955 42.980312
41.611637 55.216686 43.022549
41.624237 58.577473 43.060894
41.629848 59.325748 42.909626
41.413479 55.101364 43.158634
41.232834 56.794655 43.090961
41.511219 55.943867 42.957928
41.678699 59.829147 42.800953
41.260571 55.339851 43.275291
41.714497 59.434917 42.787418
41.579582 59.949303 42.877014
41.680431 59.031902 42.837902
41.613605 59.829659 42.945145
41.872746 59.801373 42.713848
40.918205 53.439552 43.284298
41.399391 58.976849 42.986454
40.909088 55.655342 43.191975
41.735497 58.989689 42.752209
41.602989 58.302601 42.982372
41.287571 53.95689 43.314621
41.1404 55.208447 43.211044
41.621685 59.374798 42.957191
41.423275 58.208572 43.065239
41.329456 58.886379 42.95269
41.690315 58.797634 42.743828
41.329231 58.957428 42.973026
41.007477 55.490051 43.138229
41.328159 59.206993 43.095234
41.125439 58.356209 43.047783
41.147266 58.431591 43.065681
41.520786 59.375561 43.010197
41.223827 59.001827 42.976608
41.398464 59.160992 42.932449
41.125439 59.348942 43.032436
41.484783 58.42635 42.877171
41.21912 58.354115 42.995255
41.320927 58.296658 43.122921
41.034416 55.314796 43.23555
41.72731 55.461597 42.995594
41.234898 58.373577 43.179478
41.796635 58.289425 42.907135
41.527325 58.891834 42.841236
40.828556 55.403069 43.345749
41.006226 56.106922 43.356747
40.916729 59.167618 43.174889
40.916634 58.964985 43.196495
40.924576 58.903053 43.166958
41.149727 58.991699 43.106754
41.409023 58.916294 42.938744
40.938087 59.511787 43.178314
41.212154 59.426121 43.034801
41.026249 59.177483 43.104782
41.191868 56.231407 43.103054
41.117519 58.354889 43.242527
41.01535 59.831711 43.099865
41.220848 59.806351 42.972294
41.426678 59.837708 42.881916
41.225315 59.739784 42.961269
41.331364 59.70697 42.955406
41.242596 59.62569 42.97427
41.045963 59.635921 43.110569
41.320133 59.829102 42.934956
41.006695 59.881969 43.134342
40.848843 59.804512 43.198677
40.888611 59.762772 43.207653
40.910042 59.702656 43.202145
40.739407 59.629749 43.258915
41.141174 59.692921 43.093918
41.205448 59.592682 43.120895
40.824261 59.941471 43.236813
40.829651 59.898537 43.213749
41.135193 59.888287 43.068096
41.095818 59.811626 43.067493
40.671124 59.708702 43.322105
40.907654 59.947063 43.182831
40.923073 59.87875 43.184662
41.185261 59.966053 43.040287
40.731342 59.94928 43.267563
41.186028 59.9077 43.017738
41.018028 56.056911 43.216522
41.406975 57.868851 43.063259
41.297493 55.59269 43.081509
41.127785 56.627277 43.10318
40.894657 57.326588 43.266865
41.322845 53.318447 43.108833
41.603039 53.237103 42.937153
