# .PCD v0.7 - Point Cloud Data file format
VERSION 0.7
FIELDS x y z
SIZE 4 4 4
TYPE F F F
COUNT 1 1 1
WIDTH 521
HEIGHT 1
VIEWPOINT 0 0 0 1 0 0 0
POINTS 521
DATA ascii
15.023886 34.161434 10.065928
14.578927 33.606277 10.490177
14.562203 33.615662 10.531525
14.819092 33.636459 10.45699
15.704371 33.484089 9.6746111
15.012438 33.369385 10.186956
15.543777 33.258018 9.7489967
15.040908 33.269405 10.238308
15.449625 33.151546 9.8616457
15.499013 33.058884 9.8679342
15.703232 33.739929 9.9106903
15.16786 33.714943 10.34802
15.217697 33.689255 10.306611
14.85911 33.676449 10.680454
15.35283 33.645599 10.209282
15.345429 33.627056 10.212757
15.308418 33.610416 10.255329
15.343381 33.58083 10.246407
15.025893 33.591618 10.535728
14.996463 33.596527 10.539968
15.009791 33.21806 10.262513
14.839807 33.829906 10.177902
15.514637 33.389462 9.6752739
15.480765 33.418156 9.707509
14.569406 33.607327 10.512524
15.572706 33.852234 9.5185575
15.044265 33.269024 10.222213
15.558457 33.088779 9.8292971
15.032477 33.700005 9.856266
15.024975 33.990528 10.095219
15.540874 33.885227 9.5042858
15.337471 33.780262 9.6403189
15.147609 33.748543 9.768589
14.764383 33.842747 10.233953
15.140697 33.760559 9.8554163
15.086171 33.235348 10.179707
15.583231 33.84354 9.4562998
15.139932 33.834118 9.8903341
15.304545 33.769138 9.7713013
15.569583 33.090084 9.8102684
15.547326 33.841763 9.5108347
15.359485 33.766277 9.6995068
15.348866 33.890087 9.6847439
15.546555 33.485687 9.8485527
15.179537 33.887356 9.863719
14.937203 33.838009 10.076913
14.80377 33.487602 10.30147
15.08611 33.21796 10.174059
15.378326 33.993053 9.7307978
15.238571 33.987392 9.8717165
15.156019 33.994514 9.9451914
15.383148 33.993275 9.744648
14.950039 33.987564 10.122889
15.408032 33.129147 9.9040775
14.944562 33.655632 10.153378
15.288351 34.126232 9.8178949
15.032553 34.143791 10.034657
14.837668 33.759689 10.123984
15.133905 33.77409 9.7800779
15.117346 33.815243 9.8093777
15.333103 33.89299 9.7256327
15.29744 33.686615 9.752141
15.22407 33.662518 9.6894617
15.254187 33.815838 9.7796812
15.343896 33.858467 9.6573954
15.419841 33.834343 9.6134386
14.958643 34.019833 10.113706
15.314663 33.726105 9.6396761
15.576385 33.080444 9.7740955
15.047853 33.880787 9.9686899
15.411203 33.813389 9.5803566
15.358911 34.123013 9.755477
14.733082 33.416409 10.464477
15.329676 34.127811 9.8002291
15.232696 33.945782 9.8285446
15.031907 33.683205 9.8799086
15.45721 33.89838 9.6073332
15.360279 33.911003 9.6964531
14.881125 34.074165 10.198521
15.152009 33.729641 9.8174562
15.134118 33.756378 9.839407
15.0496 34.07336 10.026021
15.017238 34.009411 10.062322
15.461803 33.701069 9.4938993
15.081894 33.730694 9.813283
14.757322 33.933064 10.268706
14.650477 33.825222 10.332435
14.858881 34.023811 10.211447
15.669156 33.672215 9.9460955
15.04022 33.995922 10.041983
15.282642 33.552067 10.308864
15.494657 33.81287 9.5848389
15.256814 33.859249 9.7684879
14.851177 33.965828 10.211368
15.314818 33.724846 9.4877195
14.94442 33.938469 10.100459
14.697989 33.434013 10.490731
15.430925 33.93309 9.6508751
14.735458 33.817501 10.245515
14.915546 33.75156 10.066508
15.041853 33.812946 9.893158
15.037972 34.103096 10.011901
15.237299 33.65604 9.7353029
14.83245 33.860592 10.159725
15.23535 33.758675 9.7410345
14.785916 33.852695 10.204392
15.115309 33.660885 9.8607569
15.016958 33.778599 10.010681
14.937246 33.729149 10.024858
14.773381 33.803577 10.187682
14.954342 33.803955 9.9818068
14.969451 33.800991 10.000687
15.03945 33.872395 9.96171
14.467428 33.737724 10.786286
15.026739 33.741249 10.012809
15.321952 33.67168 9.5791149
15.311661 33.6777 9.7197781
15.429275 33.946991 9.692297
14.955027 33.967178 10.113976
15.167667 33.800175 9.8050327
14.611027 33.587105 10.498433
15.320509 33.713428 9.6717625
15.405711 34.119175 9.7059097
15.226822 33.837147 9.8081369
14.755099 33.761185 10.228081
15.134488 33.706467 9.8618212
14.849647 33.800114 10.114182
15.422548 33.854294 9.5880375
15.453082 33.836102 9.6304989
14.842735 33.812183 10.148165
15.269068 33.834488 9.7128172
14.959278 33.758202 10.006268
15.359014 33.711689 9.6639853
15.444653 33.966064 9.6598949
15.248655 33.707706 9.7537766
15.02692 33.836514 10.016254
14.932544 33.715282 10.067194
14.949744 33.827549 9.9869499
15.166479 34.119209 9.9382114
15.03415 33.779659 9.8876085
15.23362 33.782707 9.7819777
14.741652 33.755821 10.216166
14.95377 33.974033 10.09646
15.143848 33.751354 9.797327
14.964275 34.016293 10.129772
15.339187 33.971867 9.785409
15.144317 33.728447 9.8009768
15.048245 34.016827 10.047407
15.204863 33.654789 9.7481318
15.334806 33.832668 9.694747
15.524669 33.93586 9.5674486
15.237377 33.709377 9.699563
14.972568 33.733074 10.012148
15.008143 33.174057 10.245153
15.009142 33.381622 10.201408
15.045516 33.973137 10.033487
14.838626 33.781292 10.101009
15.55166 33.48196 9.8323927
15.323398 33.63731 9.611495
14.938049 34.036911 10.172206
15.276896 33.804085 10.005037
15.337647 33.936604 9.7447224
15.320882 33.752441 9.6514339
15.05235 33.730492 9.9134026
14.926726 33.703156 10.046414
15.114294 33.775436 9.834754
15.156932 34.124752 9.9629297
15.043865 33.934299 10.00051
15.406793 33.868183 9.6690121
15.351983 33.975441 9.7639732
15.247379 33.753483 9.5778809
15.250142 33.937546 9.8546801
15.051048 33.171188 10.183558
15.372836 33.715038 9.4294195
15.250521 33.727436 9.6731415
14.975313 33.935078 10.120638
15.252472 33.982155 9.8365364
15.04817 33.781548 10.192913
15.203075 33.6768 9.7417259
15.283611 33.763523 9.6575546
15.068432 33.922699 9.963788
15.370024 33.810989 9.6899643
15.464793 34.108994 9.6449909
15.360703 33.785618 9.6738281
15.564787 33.805676 9.5006504
15.047434 33.831486 9.9739628
15.35204 33.754848 9.5959435
15.552253 33.807919 9.5324907
14.84456 33.737083 10.119121
14.761893 33.762573 10.245969
14.751818 33.392941 10.46101
14.824255 33.732761 10.159418
15.015874 33.703777 10.27758
15.043079 33.888638 10.021159
14.207155 33.863857 10.964417
15.046652 34.113838 10.02638
15.142502 33.816509 9.8785629
15.340638 33.77784 9.6064177
14.568915 33.732918 10.710812
15.146405 33.708195 9.8271227
15.607334 33.897987 9.4865456
15.281266 33.842358 9.7747841
15.022162 33.801449 9.941865
15.246157 33.973263 9.8571587
15.37175 33.669472 10.173657
15.435952 33.822136 9.6150856
15.238071 33.73444 9.6586008
15.348787 33.835636 9.7112007
15.044201 33.861809 10.022946
15.45214 33.809811 9.6043158
15.250581 33.968311 9.8312683
15.423921 33.727257 9.5005846
15.388152 33.851578 9.6671991
15.540421 33.764931 9.4105473
14.763965 33.728992 10.164329
15.143112 33.829113 9.9012833
15.342376 33.949104 9.7600689
15.147838 33.767796 10.105824
14.825085 33.957283 10.21199
14.954381 33.15934 10.294664
15.14192 33.728333 9.8489151
15.147024 33.675888 9.7659426
15.035937 33.752754 9.9336491
15.033031 33.957855 10.007864
15.170292 33.652664 9.7234592
14.748526 33.72905 10.240696
14.939139 33.725193 9.9952402
15.068428 33.815727 9.9424305
14.977027 33.828232 9.9990568
15.160897 33.771595 9.8663712
15.253524 33.707024 9.6694822
14.625834 33.76403 10.610675
15.429069 33.740498 9.4847088
15.425192 33.899681 9.6635895
15.004785 33.761562 10.004447
15.034814 34.04789 10.055865
14.885048 33.818535 10.120102
14.66151 33.775742 10.284196
14.680769 33.814861 10.299089
14.705802 33.435123 10.470046
14.83478 33.547081 10.345449
14.854413 34.050594 10.259037
15.629257 33.810055 9.4374199
15.142002 33.726711 9.7569551
15.637857 33.844105 9.4530897
15.470475 33.700829 9.3504038
14.948796 33.808876 10.042439
15.102848 33.939293 9.9653072
15.140037 34.175148 9.9471378
14.934837 33.888153 10.128231
15.006606 33.700729 10.29999
14.856789 34.112408 10.230459
15.0547 33.945385 10.014039
14.505334 33.834949 10.476569
15.486153 33.774651 9.5025053
15.060183 33.729679 9.9249249
14.92169 33.962452 10.176811
15.559431 33.716858 10.030143
15.160334 33.724163 9.5798092
15.347302 34.075325 9.7575254
15.53581 33.797939 9.4878683
14.75261 33.994667 10.311155
15.69553 33.493458 9.7044334
15.038964 33.971279 10.064096
15.370386 33.681728 9.5567675
15.222427 33.817398 9.8208399
14.741076 33.72068 10.267898
15.32472 33.742413 9.7144213
15.067866 33.821926 9.9816513
14.813993 34.04882 10.256294
15.351761 33.761368 9.6667604
15.017565 33.366783 10.169337
15.504965 33.977367 9.6168518
15.244718 33.877712 9.8468704
15.152253 33.937939 9.8966866
15.315898 34.100475 9.7805328
15.230702 33.818394 9.7821016
15.154746 33.711269 9.7935362
15.397332 33.96122 9.6968298
15.142665 33.969467 9.9595127
14.964059 33.805302 9.955678
15.461343 33.723099 9.5172033
15.425909 34.045635 9.7269287
15.344883 33.730495 9.5745859
14.948156 33.780064 10.037431
14.949795 33.719151 9.9668922
15.141227 33.65237 9.7702341
15.265157 33.739399 9.5749969
15.268467 33.735584 9.7600632
15.355638 33.719421 9.634038
15.050161 33.753048 9.9442806
15.492334 33.811192 9.5235052
14.941009 33.81675 10.067923
14.973273 33.852467 10.03044
14.826682 34.064171 10.247065
15.128391 34.037159 9.945673
15.455061 33.15411 9.8302221
15.359494 33.67672 9.6335526
15.321018 33.732956 9.5808363
15.605716 33.906868 9.5056257
15.075568 33.726456 10.218627
14.870154 33.708241 10.106776
15.037657 33.807049 9.9552374
14.885796 33.726521 10.122732
15.496019 33.66753 10.119619
15.14618 33.781464 9.8272028
15.24069 33.705673 9.5482416
15.049992 33.751472 9.8653574
15.510196 33.853657 9.5375586
15.23078 33.7528 9.7939911
14.952015 33.700718 9.9526892
15.050538 33.776817 9.941062
14.658194 33.799137 10.293795
15.142956 33.756813 9.8767233
15.046028 33.680191 10.479386
15.148544 33.807579 9.8963194
15.451988 33.786861 9.5742931
15.161843 33.963726 9.922369
15.034287 33.937134 9.9878054
15.249257 33.731331 9.5735474
14.921997 33.519966 10.182775
15.373073 33.748878 9.4701872
15.567035 33.730869 9.3953285
14.938799 34.073101 10.136166
15.318131 33.958088 9.7731695
15.324753 34.036659 9.781168
15.266587 34.04348 9.8423223
15.122134 34.046116 9.9849348
14.865076 33.786266 10.118893
15.277261 34.175934 9.8357439
15.074718 34.039917 10.041443
15.138844 33.707672 9.7524614
15.163858 34.031296 9.9703827
15.330982 33.889576 9.7652311
14.938643 33.947559 10.126908
15.290477 33.936703 9.7952042
14.849784 33.941936 10.2114
15.295081 33.711731 9.7515039
15.182695 33.924324 9.9137869
14.939564 33.923489 10.11996
15.057692 33.882679 9.985302
15.186169 33.899563 9.8465271
14.48568 33.735962 10.742809
15.231831 33.676918 9.6858435
15.028769 33.681023 10.514974
14.931181 33.747623 9.9768744
15.27656 33.878235 9.7559595
15.081416 34.017597 10.033099
15.53939 33.772118 9.438302
15.343964 34.040783 9.7383642
14.852359 33.880405 10.18992
14.89875 34.048309 10.200735
15.418927 34.186039 9.685153
15.497173 34.189716 9.6282396
15.357759 34.176525 9.7520685
15.557172 34.171257 9.5693235
15.532193 34.180534 9.6079159
15.415561 34.174328 9.7186527
15.521399 34.149509 9.6009226
15.37064 34.171062 9.7550068
15.022142 33.706066 9.9479923
15.339108 34.152397 9.773674
15.176479 34.15501 9.9319668
15.42358 34.157074 9.7003212
15.359436 34.151035 9.7734404
15.600499 34.146713 9.5315266
15.228026 34.099407 9.8666563
15.044508 34.075077 10.066546
14.92765 34.045033 10.147138
15.08042 34.093887 10.005037
15.085182 34.099113 10.013282
14.803616 34.037384 10.273188
14.989561 34.0895 10.085964
14.918682 34.099491 10.166968
15.137365 34.029255 9.9588394
15.272928 34.018253 9.8360586
14.780084 34.04245 10.286272
15.426013 33.999039 9.6564264
15.23008 33.734447 9.7767782
15.33094 34.01638 9.7670231
14.904425 34.061604 10.215106
15.483307 33.983685 9.6200094
14.819609 33.993069 10.262849
14.8387 34.021004 10.253022
15.244231 33.987701 9.8775454
14.975091 33.999142 10.11579
15.001461 33.998745 10.093868
15.376075 33.918999 9.6998854
14.858237 33.911053 10.181503
15.409252 33.914776 9.6614408
15.057304 33.916439 9.9922323
14.959258 33.907532 10.08384
14.861937 33.8834 10.149223
15.12736 33.917484 9.9159412
14.868003 33.862457 10.146076
15.515091 33.905376 9.5238371
14.939338 33.918159 10.079811
15.230912 33.917313 9.7971725
15.144615 33.939922 9.8841496
14.73909 33.85836 10.272286
15.05378 33.722122 9.8869886
14.939826 33.860531 10.077653
14.696504 33.877071 10.299225
14.9384 33.888065 10.067929
14.854926 33.913704 10.157655
15.151097 33.916969 9.8695993
14.86295 33.936543 10.153836
15.134262 33.862812 9.8906517
15.545555 33.903564 9.5278597
15.050255 33.858063 9.9665756
15.459712 33.861637 9.5697412
14.838116 33.838993 10.153323
15.240595 33.885498 9.8145447
15.52691 33.86655 9.5366812
15.262078 33.858006 9.7914257
15.398139 33.869667 9.6546869
14.936767 33.885971 10.10577
14.93629 33.835136 10.056253
15.332074 33.855801 9.7018709
15.231386 33.779068 9.8251886
14.851348 33.859238 10.181554
15.025276 33.856113 10.021683
14.934776 33.86742 10.103819
15.099356 33.85268 9.9741697
15.114708 33.853962 9.934598
15.112017 33.740734 9.9124184
14.963949 33.788521 10.005037
14.853872 33.785316 10.105312
15.483674 33.79007 9.5690212
15.368585 33.794121 9.6428595
14.649533 33.855244 10.354135
14.584256 33.793274 10.360115
15.129737 33.828037 9.8789921
15.324947 33.768921 9.6711435
15.048541 33.778584 9.9223576
15.050684 33.759632 9.8899632
15.245337 33.774616 9.704217
15.052214 33.782143 9.8968916
14.961534 33.783199 9.9679384
15.020788 33.824619 9.9356289
15.448217 33.773643 9.4975252
14.885107 33.80822 10.049361
15.236272 33.773674 9.7444334
14.987402 33.773426 9.9136992
15.155096 33.803913 9.7861185
15.520392 33.724865 9.4521999
15.237247 33.732246 9.7099314
15.276967 33.744621 9.7124996
15.346913 33.696487 9.6393909
15.233698 33.731544 9.7400351
15.30638 33.65202 9.6164188
14.829698 33.69804 10.139725
15.238529 33.672348 9.7551918
15.239038 33.708126 9.7407036
15.345469 33.618851 9.5590868
15.342136 33.674809 9.6125565
15.151633 33.68092 9.7882595
15.168685 33.755894 9.7225046
15.075345 33.681438 9.8718758
15.255435 33.759995 9.6186209
15.43983 33.731556 9.4449596
15.266137 33.753185 9.5818806
15.417065 33.733902 9.4451914
15.06835 33.765553 9.7343216
15.165817 33.750755 9.6259537
15.059042 33.749748 9.7352467
15.018535 33.756611 9.7417612
15.332788 33.742714 9.484149
15.261117 33.714302 9.511569
15.344197 33.704323 9.4294958
15.460257 33.91375 9.6490088
14.718951 33.832237 10.25696
15.459646 33.119659 9.8445625
14.867476 33.737911 10.074219
15.157389 34.002293 9.9949074
15.420815 33.999344 9.7407465
14.898855 34.019958 10.208497
14.285105 33.8587 10.715959
15.114579 33.775059 9.9669361
15.013974 33.830574 9.9722309
15.021767 33.686176 9.9727316
15.023968 33.661144 9.9573622
15.010826 33.640938 9.957015
15.487541 33.409634 9.6893454
15.051239 34.072983 10.005033
15.350116 33.702042 9.578249
15.456264 33.76017 9.5215187
15.22882 33.727806 9.5571213
15.025289 34.084602 10.097413
15.281575 34.073837 9.8420277
15.160726 33.957088 9.8523216
15.231465 33.928589 9.7634745
14.58973 33.613281 10.465524
15.237473 33.738827 10.275174
14.889139 33.520737 10.203999
15.331557 33.722984 9.7279444
14.96128 33.764427 9.985363
15.263783 34.048256 9.8608627
15.309646 33.733818 9.6828079
15.278602 33.771084 9.6504059
15.332251 33.657101 9.6141825
15.285633 33.64587 9.7306814
15.431852 34.023262 9.7019358
14.764981 33.772156 10.238073
14.907227 33.534195 10.221126
15.221944 33.920704 9.7874479
14.697019 33.716408 10.315699
15.433508 33.701923 9.4666042
15.399524 33.711552 9.4669218
15.348129 33.756767 9.5838013
15.064219 33.669868 9.9014473
14.824648 33.540016 10.369609
15.357587 34.050232 9.7765484
15.228391 33.732151 10.278931
15.24465 33.752827 9.6509438
14.576362 33.727146 10.691796
15.273433 33.729961 9.6007099
15.328364 33.584885 9.9922056
15.054487 33.70639 10.448777
15.074347 33.711689 9.9136229
15.392065 33.772583 9.5438137
