# .PCD v0.7 - Point Cloud Data file format
VERSION 0.7
FIELDS x y z
SIZE 4 4 4
TYPE F F F
COUNT 1 1 1
WIDTH 959
HEIGHT 1
VIEWPOINT 0 0 0 1 0 0 0
POINTS 959
DATA ascii
29.750721 -18.68634 17.413933
29.991961 -18.718597 17.480438
29.890728 -18.87261 17.151102
29.828104 -18.786654 17.288527
29.789713 -18.676737 17.46117
30.130196 -18.828892 17.24531
30.062996 -18.67543 17.506897
30.016283 -18.648127 17.577944
29.999151 -18.785231 17.297377
33.2085 -19.054909 17.286921
29.928835 -18.9683 17.20693
33.500778 -19.070148 17.247614
30.169851 -18.678747 17.472525
31.95155 -18.549204 17.497046
30.247744 -18.559036 17.601702
33.040844 -18.814013 17.366447
33.687214 -18.808353 17.39533
31.829554 -18.57494 17.597916
32.693691 -18.536728 17.73514
31.868395 -18.520315 17.754082
32.51955 -18.900324 17.636694
32.179165 -18.538002 17.58069
34.98629 -18.587467 17.965178
35.18063 -18.618326 17.973984
33.962032 -18.496393 17.735098
31.600861 -18.513859 17.744377
34.36734 -18.517654 17.824919
33.395496 -18.916615 17.552719
31.449219 -18.538813 17.751406
34.833668 -18.579191 18.017946
34.805099 -18.685055 18.081024
35.472069 -18.620256 17.815414
35.215927 -18.642641 17.834711
32.313366 -18.889833 17.600428
32.540695 -18.906914 17.546335
33.911373 -18.819468 17.353878
32.580635 -18.969452 17.120073
33.781677 -18.811102 17.368004
34.087494 -18.778755 17.485537
33.363716 -18.782911 17.389088
33.749409 -18.70994 17.454079
33.381962 -18.762936 17.568548
34.495693 -18.758051 17.514482
34.475727 -18.81004 17.428366
33.588783 -18.758799 17.581213
34.281723 -18.759655 17.600994
34.296009 -18.803005 17.394333
34.291729 -18.755808 17.503363
34.891693 -18.759672 17.532513
33.192856 -18.773985 17.570353
33.600792 -18.778728 17.323093
33.604523 -18.698683 17.54944
33.506073 -18.786381 17.440454
33.394962 -18.810225 17.266769
32.004765 -18.919695 17.626791
33.302227 -18.794949 17.457605
33.288784 -18.778637 17.560158
32.192169 -18.914042 17.508436
33.99432 -18.783899 17.606934
33.299133 -18.931376 17.568071
32.868546 -18.883055 17.16556
32.40926 -18.906317 17.613588
35.272934 -18.616476 17.915106
34.815666 -18.605602 17.890484
31.420799 -19.045187 17.29566
34.89193 -18.625832 17.897928
33.987549 -18.794706 17.50592
30.987827 -18.946543 17.328821
34.494732 -18.775705 17.586527
33.502571 -18.706593 17.508959
31.358112 -18.745817 17.38839
34.981861 -18.789198 18.02541
30.797363 -18.803631 17.533836
32.57325 -18.926048 17.650066
35.408321 -18.925583 17.371454
33.893948 -18.908247 17.630354
32.296917 -18.777733 17.51428
32.795406 -18.782639 17.544014
32.700382 -18.710993 17.442526
31.590513 -18.62985 17.729342
32.895962 -18.780275 17.533081
31.1919 -18.80365 17.356865
33.402958 -18.678045 17.536264
33.423119 -18.770447 17.42869
31.779818 -18.91046 17.494789
32.396038 -18.635227 17.702797
30.553457 -18.782171 17.346266
32.597809 -18.79619 17.443584
32.491367 -18.776628 17.528414
32.590214 -18.624647 17.72348
32.696468 -18.777174 17.53985
31.992771 -18.786051 17.396366
32.789238 -18.790394 17.454542
34.48534 -18.814529 17.697742
33.509537 -18.915163 17.566416
34.205101 -18.906387 17.305452
31.569527 -18.646894 17.477154
31.561348 -18.718105 17.349171
32.213509 -18.656637 17.520012
32.387985 -18.773941 17.520857
33.268456 -19.064253 17.277197
31.863588 -18.702122 17.400597
33.951935 -18.900854 17.650173
33.364601 -19.078955 17.285496
31.791918 -18.801176 17.41396
32.968773 -18.952065 17.141768
33.028355 -19.083506 17.268726
32.891243 -18.775913 17.423353
32.359852 -18.795561 17.434473
33.896225 -18.62142 17.677866
33.282055 -18.945026 17.181196
31.903282 -18.91798 17.502481
34.790371 -18.754288 17.52997
33.593178 -19.08091 17.32089
33.491386 -19.050476 17.334888
33.988956 -18.908176 17.600965
32.793056 -18.783127 17.723227
32.957108 -19.00054 17.176321
33.795807 -18.915052 17.558884
30.290459 -18.794201 17.345463
31.787508 -18.783138 17.488091
34.686844 -18.668167 18.097422
29.987976 -18.869625 17.209032
30.993038 -18.851862 17.352066
29.873686 -18.701744 17.459608
34.885487 -18.655317 17.689955
34.306801 -18.906319 17.292543
35.210373 -18.801687 17.64996
30.092949 -18.758625 17.401688
30.112289 -18.724262 17.496336
30.093777 -18.683714 17.59153
30.707554 -18.787794 17.356993
30.799675 -18.859814 17.340588
31.106817 -18.983185 17.269878
31.995045 -18.903368 17.311886
31.039106 -18.802694 17.388216
31.996231 -18.775824 17.497265
33.382332 -18.999201 17.198515
30.390224 -18.8118 17.376352
31.19445 -18.779825 17.46068
34.194035 -18.778975 17.494406
33.282352 -19.050896 17.124693
34.187027 -18.761356 17.56008
31.257008 -18.799387 17.356876
32.734146 -18.776323 17.463774
32.192963 -18.773565 17.507584
33.099579 -19.024609 17.189651
31.087301 -18.93833 17.34919
33.100689 -18.769037 17.549185
32.091236 -18.911303 17.318769
32.062252 -18.800146 17.413956
30.192924 -18.832582 17.307514
30.212837 -18.808899 17.41926
30.192791 -18.68795 17.56823
30.981926 -18.902567 17.261391
30.901823 -18.948389 17.237402
30.505573 -18.893045 17.232965
29.951174 -18.997372 17.101778
30.39455 -18.884056 17.236145
30.394545 -18.722908 17.500345
30.499088 -18.85091 17.313335
31.692602 -18.907965 17.29665
30.595236 -18.779678 17.422621
30.758289 -18.810513 17.347662
29.871441 -18.74251 17.383043
30.88369 -18.897076 17.264111
30.295216 -18.881256 17.220274
30.286293 -18.717142 17.496328
31.69838 -18.775896 17.496429
30.188911 -18.805561 17.309818
30.094631 -18.866648 17.21295
30.083691 -18.782558 17.313641
30.596464 -18.898651 17.237122
30.497141 -18.797264 17.333471
30.415632 -18.791224 17.484085
31.892647 -18.784653 17.496025
32.982853 -18.787424 17.558897
33.711014 -18.803656 17.476048
33.098434 -18.791084 17.48205
30.291006 -18.768372 17.399424
32.581615 -18.7794 17.531322
31.497171 -18.787155 17.409979
30.375561 -18.76919 17.413403
30.380659 -18.807644 17.325359
33.790302 -18.78038 17.468382
30.68483 -18.764347 17.44198
31.886631 -18.913551 17.302109
30.297787 -18.839483 17.308186
31.497 -18.899145 17.285664
31.861208 -18.815151 17.360979
29.997835 -18.642223 17.4946
32.085369 -18.776819 17.50635
33.098831 -18.932913 17.265236
32.388264 -18.933502 17.240023
34.748314 -18.650661 17.75712
32.585186 -18.668442 17.621855
33.379097 -18.675596 17.620623
32.880638 -18.831713 17.224655
33.584187 -18.7826 17.479544
31.697119 -18.635946 17.684752
33.102055 -18.960535 17.16399
33.300129 -18.673986 17.613874
33.187531 -18.806259 17.473186
33.68047 -18.62779 17.762072
33.88752 -18.779829 17.779226
30.704226 -18.659969 17.599924
31.887123 -18.637543 17.683527
30.702194 -18.89496 17.251217
31.290268 -18.906281 17.282921
34.766407 -18.670511 17.700239
34.685471 -18.628157 17.689964
31.999962 -18.63492 17.696856
30.793329 -18.903461 17.254679
31.373493 -18.930719 17.341105
32.764248 -19.076956 17.327221
35.30513 -18.68812 17.687546
34.883045 -18.633238 17.791834
32.698895 -18.92231 17.26119
35.38652 -18.642677 17.833647
34.699631 -18.68088 17.57163
33.286175 -18.93734 17.282034
32.188721 -18.966024 17.313087
34.787575 -18.946922 17.429285
32.891567 -18.983486 17.272383
33.282486 -18.914076 17.379553
34.587551 -18.954926 17.418545
31.388464 -18.906895 17.287794
30.161404 -18.974035 17.325747
30.1777 -18.807587 17.549114
35.390957 -18.804033 17.542826
33.491982 -18.962837 17.377581
30.597521 -18.852034 17.323387
31.890179 -18.812075 17.589062
33.38797 -18.962395 17.36828
33.691792 -18.787701 17.758863
34.987858 -18.914778 17.451687
31.493813 -18.834576 17.470934
31.995106 -18.837381 17.496258
34.378052 -19.00223 17.344421
35.263939 -18.946478 17.433455
32.590969 -18.93907 17.429665
30.380184 -18.697519 17.601786
33.594475 -18.760889 17.672659
32.074329 -18.641859 17.61409
35.207253 -18.722057 17.816242
32.70121 -18.63051 17.724751
31.919628 -18.617643 17.596045
30.671062 -19.03525 17.238344
30.679369 -18.959064 17.326057
31.966505 -18.645012 17.60037
31.791233 -18.632978 17.68045
31.097256 -18.7383 17.538187
33.29578 -18.988297 17.296083
34.89542 -18.696409 17.912142
32.220531 -18.663708 17.567232
35.611862 -18.900707 17.487839
32.99659 -18.986412 17.279503
34.068665 -19.029076 17.255716
33.292233 -18.965034 17.364403
32.286583 -18.964962 17.324013
33.744942 -18.616535 17.646862
32.396011 -18.962105 17.325096
33.689896 -18.989321 17.31286
33.99012 -18.906509 17.410744
32.589493 -18.982134 17.256845
34.29007 -18.934954 17.498175
31.277971 -18.775644 17.463827
35.090485 -18.85388 17.635551
33.988232 -18.99061 17.328663
33.879757 -18.767515 17.585052
33.48093 -18.927475 17.289255
33.490196 -18.988512 17.304922
34.992256 -18.795992 17.944294
34.888645 -18.789639 17.932959
32.987614 -18.939079 17.44487
30.940382 -18.635132 17.535353
30.246235 -18.862118 17.384325
31.578047 -18.841982 17.475941
32.775146 -18.991999 17.179798
34.993793 -18.77553 17.609968
35.301704 -18.75951 17.648848
35.283405 -18.862619 17.542875
33.090481 -18.760071 17.641546
34.99411 -18.787828 17.823658
35.698761 -18.783331 17.671827
35.696507 -18.683323 17.843693
31.198475 -18.964071 17.282461
30.672201 -18.664558 17.549185
34.285698 -18.807646 17.692923
34.390602 -18.725325 17.795177
32.494473 -18.93968 17.418148
33.788357 -18.732666 17.759136
33.788425 -18.782112 17.772789
32.602135 -18.789625 17.709276
32.778645 -18.816814 17.354908
33.693806 -18.963955 17.383896
31.286892 -18.96883 17.377567
31.229836 -19.082199 17.277885
31.790213 -18.902466 17.308893
32.189602 -18.707842 17.699804
35.086128 -18.69442 17.993048
31.694973 -18.961893 17.290819
35.793121 -18.745644 17.668264
30.277805 -18.653152 17.582056
34.58606 -18.779007 17.790859
34.188202 -18.851421 17.596956
35.597939 -18.774433 17.649302
34.48365 -18.962133 17.423899
35.575787 -18.683199 17.838329
33.391663 -18.988398 17.30048
32.284588 -18.954176 17.421749
35.079918 -18.775547 17.536522
33.495121 -18.936239 17.470814
33.994862 -18.811037 17.677364
34.70298 -18.997259 17.344282
32.296463 -18.795872 17.703466
34.28772 -18.995676 17.338877
34.786407 -18.690548 17.901346
34.886185 -18.952892 17.448952
30.619022 -18.883972 17.549185
31.589159 -18.792051 17.38464
32.788815 -18.983122 17.267479
30.491386 -18.694654 17.604042
35.40226 -18.771635 17.640753
35.400822 -18.840481 17.548763
35.399506 -18.882614 17.464523
35.367474 -18.815714 17.638382
30.488657 -18.945969 17.394842
33.187813 -18.987335 17.288643
32.692478 -18.982996 17.261015
34.281773 -18.892073 17.517435
35.185707 -18.945086 17.457264
30.994923 -18.81255 17.542025
33.091522 -18.918655 17.543341
35.593628 -18.870804 17.52796
35.784405 -18.625977 17.842083
35.282406 -18.821737 17.638666
35.20433 -18.964247 17.375034
35.009499 -18.946024 17.421846
29.883926 -18.789312 17.279732
33.401108 -18.931124 17.469343
34.098663 -18.99489 17.338923
33.889946 -18.929363 17.319956
32.699017 -18.918581 17.355736
33.994125 -18.92881 17.491434
34.505127 -18.908094 17.436026
33.984982 -18.931383 17.322149
31.005552 -18.822601 17.447773
35.101269 -18.69146 17.927906
32.381943 -18.935938 17.4107
30.474766 -18.873253 17.510658
35.086342 -18.790009 18.035744
32.479298 -18.929327 17.251881
33.890587 -18.910065 17.397945
34.39521 -18.867891 17.516489
35.063892 -18.958466 17.368155
34.506779 -18.974674 17.353029
34.586876 -18.727692 17.802036
34.080009 -18.780478 17.584099
34.932598 -18.986818 17.361156
34.999397 -18.981205 17.356678
34.986355 -18.861883 17.541622
33.593941 -18.986794 17.308386
31.799623 -18.948084 17.407295
35.283539 -18.701874 17.943123
34.185856 -18.990883 17.337679
33.088734 -18.935238 17.44285
31.988865 -18.964622 17.302542
34.389286 -18.902758 17.41275
33.091404 -18.984854 17.28244
32.46254 -18.994581 17.169056
32.185024 -18.749847 17.5991
33.393875 -18.760714 17.656261
31.170692 -18.797298 17.555407
30.990232 -18.776121 17.450518
32.094116 -18.981373 17.229343
33.171009 -18.630331 17.634741
33.891678 -18.760157 17.686478
34.297413 -18.756922 17.706255
35.291424 -18.899864 17.481821
34.092628 -18.899643 17.418156
32.492062 -18.752632 17.616716
31.39299 -18.780001 17.468939
34.585678 -18.754351 17.718105
30.89999 -18.848373 17.357309
35.205048 -18.911589 17.431065
34.69175 -18.857922 17.543772
32.394588 -18.788965 17.708693
34.092094 -18.886681 17.512028
32.888115 -18.884331 17.44438
33.191353 -18.76111 17.652758
32.297001 -18.678009 17.585508
34.788651 -18.864557 17.536526
34.09317 -18.936911 17.489151
34.589676 -18.871353 17.522327
30.503166 -18.826899 17.415802
33.791538 -18.932266 17.483749
33.693054 -18.890423 17.487785
30.168564 -18.706398 17.506027
30.178457 -18.751965 17.394255
35.170876 -18.645197 17.912104
33.189644 -18.883417 17.464314
33.294884 -18.934734 17.45307
31.49551 -18.775482 17.473902
34.39114 -18.972715 17.413973
33.39753 -18.804949 17.648699
33.187355 -18.934574 17.452297
34.382576 -18.918564 17.319811
30.797327 -18.779022 17.445032
31.987665 -18.874298 17.398268
32.895641 -18.761635 17.634007
30.894032 -18.767857 17.455605
31.580875 -18.918978 17.481024
32.295074 -18.755293 17.60397
34.491848 -18.734787 17.795362
32.38755 -18.760786 17.602234
35.001968 -18.710049 17.81381
30.890856 -18.792583 17.543983
33.69001 -18.764414 17.675962
34.506256 -18.874813 17.518154
33.783302 -18.882303 17.495573
34.78434 -18.758253 17.717405
33.494373 -18.756844 17.660957
34.38567 -18.747601 17.703363
32.789867 -18.913263 17.350958
33.791595 -18.843515 17.583126
34.097771 -18.757774 17.692587
32.791656 -18.881714 17.439398
34.997993 -18.699457 17.91548
35.081936 -18.858801 17.550655
34.884747 -18.710266 17.813425
33.99297 -18.846003 17.592705
30.500713 -18.733267 17.511583
32.002506 -18.939737 17.40493
31.79991 -18.873236 17.392809
31.395252 -18.832556 17.471357
33.396618 -18.916954 17.385103
35.205936 -18.862244 17.537535
31.888533 -18.748922 17.57793
32.395473 -18.981066 17.247223
31.192642 -18.705402 17.645172
33.986397 -18.760841 17.686237
33.385429 -18.933859 17.172369
35.388783 -18.734518 17.737249
32.492622 -18.980789 17.248932
32.289215 -18.982533 17.238911
30.038776 -18.675671 17.371756
34.59156 -18.903042 17.445517
34.387272 -18.846678 17.605474
34.488216 -18.749359 17.706383
34.308388 -18.642904 17.787907
32.723618 -19.03153 17.18717
32.793957 -18.962912 17.338619
34.186546 -18.72974 17.782213
31.096338 -18.77401 17.451542
31.693089 -18.752262 17.569021
32.898285 -18.838837 17.536442
31.69346 -18.835636 17.482464
35.487793 -18.925039 17.367537
32.190346 -18.848585 17.504887
34.188759 -18.915838 17.41098
33.190384 -18.838011 17.554148
35.018639 -18.6224 17.90103
32.789932 -18.842289 17.531075
35.857975 -18.891682 17.444231
33.488472 -18.845432 17.562716
31.611422 -18.965528 17.293806
33.781742 -18.914186 17.398205
30.789946 -18.814695 17.418047
31.283937 -18.82629 17.462011
32.088692 -18.711075 17.692947
35.204464 -18.736654 17.722395
34.900093 -18.863459 17.956188
30.896679 -18.819231 17.430376
31.698111 -18.706253 17.67272
30.69606 -18.822958 17.415222
34.689194 -18.751637 17.721048
34.798508 -18.791775 18.010878
35.503506 -18.619953 17.893595
33.696426 -18.806116 17.662333
32.393684 -18.918293 17.335669
33.094952 -18.91152 17.373281
32.793034 -18.922382 17.2523
31.09433 -18.829618 17.451565
32.49678 -18.802786 17.610561
31.895348 -18.873697 17.394875
33.487103 -18.888647 17.476553
33.583893 -18.942112 17.307859
33.793507 -18.807325 17.666271
31.394768 -18.817507 17.566751
35.749378 -18.879313 17.424337
33.588806 -18.88002 17.485752
34.603935 -18.649073 17.70352
31.398399 -18.868219 17.368963
31.79014 -18.705431 17.677746
34.579903 -18.772097 17.603802
31.983654 -18.74972 17.586338
31.293293 -18.749084 17.552244
32.892712 -18.93969 17.43199
34.289593 -18.851465 17.601706
31.297752 -18.707827 17.65605
33.988472 -18.787325 17.768879
32.092289 -18.809366 17.592249
30.49535 -18.772167 17.424284
31.588312 -18.752434 17.572357
33.391651 -18.843662 17.561489
30.687788 -18.904509 17.440176
30.589369 -18.936146 17.440166
34.091057 -18.811741 17.684973
34.092873 -18.730402 17.788082
31.588198 -18.810751 17.569304
31.090776 -18.854977 17.359953
32.092445 -18.754354 17.591961
32.691078 -18.806011 17.611992
31.287743 -18.865976 17.367334
31.49317 -18.74637 17.560835
35.007778 -18.968124 17.302135
33.29351 -18.842615 17.554447
34.586376 -18.810009 17.710426
32.492691 -18.882309 17.429585
32.300854 -18.816002 17.605385
33.09605 -18.834473 17.546064
32.195885 -18.87636 17.412434
32.893497 -18.722879 17.727343
31.79229 -18.832571 17.481564
32.794052 -18.805141 17.618044
31.781837 -18.813169 17.57991
33.596107 -18.812056 17.655043
30.678627 -18.825378 17.540594
32.690865 -18.717056 17.72084
34.194492 -18.758451 17.699619
33.892014 -18.728554 17.771944
33.287983 -18.76063 17.655344
32.994263 -18.80899 17.630543
31.287443 -18.803688 17.551277
34.89529 -18.810158 17.720242
32.592361 -18.837875 17.527349
32.787571 -18.718676 17.725431
32.990726 -18.914991 17.368786
33.590675 -18.724154 17.758375
32.089218 -18.838449 17.506689
32.497063 -18.719309 17.711742
32.602261 -18.918421 17.239592
33.793785 -18.933208 17.309792
32.796864 -18.908794 17.498491
35.09671 -18.744102 17.725397
34.19165 -18.808941 17.684364
32.783504 -18.759161 17.630089
35.27953 -18.70973 17.822958
34.087044 -18.783031 17.776203
31.479809 -18.963476 17.38969
35.290329 -18.734114 17.739849
31.897581 -18.705782 17.687004
31.98777 -18.704187 17.686169
31.487743 -18.813635 17.577568
34.661106 -18.953857 17.429846
31.493725 -18.862005 17.380575
31.7903 -18.747759 17.576075
33.987698 -18.887562 17.505766
30.787827 -18.739658 17.527006
31.989481 -18.812384 17.590649
35.374962 -18.704266 17.836348
33.189648 -18.916878 17.371403
34.590717 -18.850449 17.616064
30.69882 -18.739502 17.528326
35.356537 -18.962151 17.392769
30.99654 -18.742167 17.534885
31.984657 -18.788855 17.690773
32.293476 -18.848679 17.508932
31.589861 -18.864111 17.384516
32.293144 -18.713291 17.706177
33.491951 -18.805344 17.659248
35.613976 -18.736586 17.746857
32.092426 -18.874203 17.412699
32.391068 -18.708582 17.711117
32.694946 -18.7617 17.632517
34.696121 -18.630339 17.877705
34.685925 -18.694019 17.9007
31.698431 -18.814774 17.571611
32.896763 -18.801868 17.625843
34.093102 -18.84404 17.598694
31.886633 -18.942059 17.401094
34.282417 -18.787012 17.788321
30.892765 -18.738892 17.532516
34.09346 -18.966551 17.40679
31.196404 -18.746996 17.549232
31.591053 -18.709993 17.674784
31.288912 -18.619024 17.719034
34.790932 -18.723064 17.815176
34.68235 -18.782028 17.808685
32.19915 -18.93865 17.408546
32.995422 -18.840141 17.543188
35.07473 -18.792364 17.823606
31.709116 -18.916327 17.486589
32.690758 -18.880259 17.438206
32.69733 -18.840193 17.527514
31.593391 -18.779482 17.482229
31.88261 -18.795492 17.68191
32.986965 -18.756172 17.630219
34.200756 -18.93008 17.50444
32.594337 -18.717297 17.717279
33.578991 -18.9137 17.393526
34.880157 -18.768644 17.601135
32.385616 -18.841816 17.510786
31.505154 -18.938791 17.474787
31.388927 -18.712294 17.65951
32.596264 -18.966732 17.334213
35.493294 -18.691689 17.837484
33.785698 -18.75843 17.678646
32.892094 -18.962616 17.349701
34.780239 -18.980909 17.381407
32.487789 -19.06951 17.229374
32.590729 -18.883186 17.436281
31.109638 -18.80073 17.325472
33.990852 -18.731365 17.773373
33.090515 -18.882023 17.455458
33.089962 -18.964144 17.356718
32.685684 -18.963812 17.335054
34.195911 -18.78133 17.782883
30.586021 -18.727657 17.513123
31.990788 -18.97718 17.232569
35.093433 -18.61203 17.901836
33.39296 -18.883099 17.471951
32.094795 -18.781742 17.702868
32.58913 -18.802198 17.613302
32.29493 -18.883495 17.420691
34.898312 -18.79171 18.023306
32.793789 -18.936285 17.431896
31.189411 -18.859928 17.363554
32.491432 -18.842073 17.522854
35.470699 -18.725599 17.765778
35.885891 -18.73859 17.74675
31.191072 -18.829063 17.459606
31.488279 -18.706421 17.66424
34.785446 -18.785933 17.927456
34.688942 -18.842384 17.624144
31.183088 -18.902294 17.267357
34.692036 -18.716337 17.814297
33.890808 -18.892427 17.496897
35.516678 -18.890808 17.499693
34.781796 -18.794991 17.806206
32.994209 -18.962542 17.357183
32.170033 -18.784332 17.409372
35.201328 -18.776873 17.607044
32.096554 -18.910076 17.517647
31.496086 -18.957094 17.2834
32.782772 -18.950302 17.125689
35.101917 -18.771942 17.628546
31.293657 -18.961319 17.27973
35.984844 -18.835079 17.509867
34.489712 -18.849493 17.616508
34.496468 -18.927387 17.517399
35.086552 -18.852205 17.961571
33.893105 -18.931982 17.477612
33.789581 -18.98838 17.319778
31.490206 -18.97604 17.207956
32.492752 -18.962296 17.332352
33.581192 -18.939426 17.46314
30.891811 -18.799532 17.368382
31.576666 -18.956779 17.388702
32.391678 -18.803114 17.607584
33.190559 -18.964254 17.362497
30.697186 -18.853064 17.327906
33.286606 -18.886826 17.463112
30.111145 -18.63912 17.589064
36.111958 -18.865662 17.44449
33.58828 -18.965609 17.376089
32.086246 -18.963411 17.306074
34.38245 -18.641096 17.799883
34.288101 -18.730621 17.792021
30.581524 -18.694498 17.601612
34.195103 -18.962973 17.414429
34.886658 -18.752829 17.714197
32.588131 -18.911592 17.339359
32.692776 -18.936701 17.423882
33.684551 -18.935343 17.477757
35.579231 -18.954601 17.425398
34.278446 -18.969143 17.417408
32.193737 -18.91408 17.322456
32.091305 -18.938108 17.407936
33.982399 -18.964787 17.405676
33.191093 -18.803934 17.637094
34.189606 -18.879356 17.516792
30.300421 -18.681269 17.586208
33.88887 -18.966616 17.400036
31.260435 -18.944504 17.48727
31.690714 -18.941233 17.388241
31.782595 -18.789415 17.69591
31.689484 -18.869854 17.390028
31.795994 -18.964869 17.29027
30.679674 -18.706865 17.615448
33.668934 -19.035927 17.42374
30.603537 -18.81464 17.422058
35.728527 -18.660263 17.856564
33.892784 -18.992071 17.325317
35.007267 -18.741646 17.723841
35.091431 -18.720341 17.82312
33.89032 -18.848312 17.581465
32.605602 -18.921656 17.568338
33.491241 -18.913582 17.393335
32.591419 -18.757439 17.619791
33.76622 -18.964628 17.139027
30.829248 -18.926207 17.440224
31.888605 -18.837393 17.495445
34.577763 -18.933289 17.511204
32.393486 -18.907503 17.494761
32.901348 -18.918045 17.35832
35.684647 -18.891693 17.483719
32.490211 -18.918867 17.339455
34.875946 -18.85924 17.549747
34.491787 -18.66396 17.764641
34.69265 -18.769007 17.593534
35.772533 -18.691702 17.667696
31.391266 -18.747377 17.552271
32.190235 -18.784533 17.697754
34.984882 -18.844624 17.6229
33.793629 -18.967573 17.388428
35.384155 -18.683426 17.937172
32.69059 -18.91626 17.533468
33.706093 -19.06665 17.309303
34.7962 -18.842297 17.622866
31.326679 -18.676506 17.516823
31.889278 -18.968269 17.302931
35.19101 -18.711037 17.912039
31.587467 -18.909946 17.288973
31.086683 -18.904245 17.267628
35.076931 -18.913477 17.433926
34.690891 -18.9158 17.43054
35.451473 -18.80113 17.677588
30.103819 -18.835369 17.278931
35.442501 -18.851553 17.559328
32.479839 -18.786932 17.704868
31.782766 -18.670582 17.47747
32.396748 -18.885485 17.420515
31.207968 -18.954243 17.381063
31.212021 -19.027039 17.407097
35.086063 -18.9627 17.462891
33.685467 -18.919298 17.383003
35.172424 -18.938662 17.365685
32.198975 -18.810587 17.591623
35.134502 -19.010361 17.26881
35.968998 -18.903782 17.401676
35.973003 -18.806753 17.485167
35.988605 -18.758471 17.66099
34.686005 -18.812387 17.709755
35.503166 -18.810598 17.480501
35.292362 -18.632259 17.83149
34.98135 -18.821884 17.727932
34.78981 -18.768225 17.59618
33.795429 -18.763441 17.584787
31.984804 -18.917976 17.5012
30.865129 -18.952854 17.42119
31.404655 -18.908625 17.477736
32.618729 -18.982458 17.008684
32.679573 -18.938065 17.133627
32.665848 -18.847813 17.247816
32.688126 -18.808466 17.364176
34.690769 -18.761635 17.521027
36.131672 -18.808561 17.56465
32.882748 -18.939051 17.25423
35.680397 -18.91753 17.390026
35.705708 -18.809244 17.623119
32.993042 -18.925343 17.272972
35.680588 -18.749252 17.744736
36.00716 -18.698698 17.761967
36.150715 -18.743166 17.683409
36.204136 -18.693985 17.780426
35.086288 -18.827923 17.724167
35.172535 -18.789162 17.819176
34.887764 -18.853384 17.62685
31.105209 -18.805119 17.557329
33.232815 -18.917313 17.529524
30.597139 -18.628736 17.602585
34.765736 -18.900515 17.340761
32.581474 -18.999269 17.162512
35.877781 -18.820816 17.545853
30.390806 -18.848036 17.311195
34.783867 -18.821404 17.709352
35.31353 -18.969412 17.362101
35.130493 -18.633678 17.820181
30.581659 -19.000982 17.400434
35.695839 -18.838701 17.593449
36.000736 -18.693031 17.831299
33.183708 -18.935366 17.285379
35.923206 -18.920311 17.392513
35.985401 -18.652283 17.765501
30.586016 -18.801262 17.510946
35.492668 -18.748774 17.653313
34.381592 -18.938787 17.503004
32.886681 -18.634163 17.731405
35.629822 -18.833414 17.625292
35.452766 -18.671553 17.767927
32.692184 -19.088055 17.251965
35.722733 -18.799185 17.550329
31.769205 -18.661093 17.571814
30.519472 -18.661331 17.471106
33.583702 -18.676212 17.662134
32.292492 -18.914419 17.324621
33.70163 -18.911957 17.585871
35.176212 -18.684896 17.991343
35.663353 -18.957087 17.483736
33.291569 -18.806822 17.641592
31.621916 -18.661255 17.58831
32.281582 -18.92683 17.529266
35.887257 -18.883369 17.615864
35.19342 -18.803404 17.732433
36.093884 -18.694662 17.824179
32.993088 -18.881981 17.452076
35.901958 -18.831287 17.630816
34.996319 -18.95833 17.524738
32.697388 -18.78742 17.721689
34.081497 -18.929266 17.296108
33.394386 -18.983782 17.104176
33.489513 -18.765024 17.56012
32.893406 -19.003738 17.192501
33.693604 -18.843067 17.577148
33.909294 -18.793571 17.480324
34.3936 -18.780935 17.7892
35.778484 -18.63928 17.772964
31.189047 -18.646639 17.637428
30.469849 -18.649849 17.607515
35.675026 -18.65222 17.75658
32.787853 -18.641823 17.716345
30.352396 -18.643465 17.589432
33.895351 -18.806892 17.668335
30.193914 -18.653109 17.58004
35.907768 -18.737076 17.664373
35.902615 -18.625746 17.822439
34.304695 -18.911491 17.43375
34.394028 -18.778315 17.596962
35.775558 -18.798079 17.56287
33.004566 -18.919132 17.555422
34.395107 -18.814365 17.696774
32.883553 -18.921043 17.530312
34.918213 -18.919989 17.563364
34.907124 -18.692822 17.976564
33.703587 -18.764904 17.556183
33.691467 -18.93784 17.313614
33.271259 -19.00423 17.223978
34.864052 -18.533876 17.772678
35.709679 -18.801928 17.748085
33.777084 -19.060274 17.326258
35.56945 -18.654766 17.752058
33.591026 -18.842939 17.568741
34.082924 -18.623934 17.783669
34.495407 -18.670815 17.679201
33.521 -18.634584 17.746105
31.403645 -18.964067 17.280993
34.289162 -18.670609 17.692608
32.844978 -18.655756 17.636646
32.286762 -18.637249 17.713484
33.598442 -18.639202 17.769609
35.107285 -18.677599 17.699453
33.917721 -18.692122 17.578457
33.079475 -18.648035 17.635414
34.482502 -18.780632 17.786154
33.095421 -18.803007 17.640379
31.298927 -18.638933 17.660017
33.392796 -18.927681 17.284607
34.710796 -18.627277 17.784472
35.083714 -18.522924 17.978252
34.604206 -18.891907 17.31654
33.695835 -19.060726 17.482708
35.979107 -18.561914 17.839872
31.384861 -18.625227 17.709929
33.518932 -18.609373 17.574968
31.689075 -18.627598 17.724369
35.318108 -18.507086 17.998137
33.783768 -18.634979 17.768166
33.991669 -18.643358 17.764317
34.591351 -18.633749 17.810514
33.978004 -18.652409 17.626434
36.020523 -18.783155 17.529987
32.196316 -18.640636 17.708527
35.955471 -18.880468 17.563324
32.47702 -18.634283 17.716009
33.690247 -18.606009 17.668367
31.593882 -18.64325 17.66502
32.095627 -18.634285 17.697948
34.106106 -18.939358 17.61515
35.37875 -18.846825 17.743711
31.494923 -18.641615 17.658068
35.958389 -18.793381 17.325548
34.191925 -18.625715 17.791679
33.896038 -18.635431 17.772411
35.383751 -18.619099 17.911144
30.324986 -18.789881 17.51346
34.486347 -18.697987 17.581234
34.388153 -18.552908 17.750948
34.394695 -18.757715 17.50728
35.586033 -18.75968 17.57935
35.580643 -18.568064 17.911184
36.121666 -18.751484 17.740492
36.174068 -18.798725 17.77503
35.789425 -18.578173 17.724133
34.901699 -18.786194 17.826462
36.169647 -18.834585 17.386343
35.976406 -18.754723 17.332909
36.161942 -18.57321 17.768522
34.334854 -18.530462 17.721931
35.549271 -18.556644 17.755877
34.59243 -18.758684 17.507311
35.866261 -18.79854 17.375071
29.808603 -18.734047 17.376064
36.124744 -18.861683 17.821165
35.008213 -18.686108 17.981728
35.584923 -18.824783 17.750328
34.523388 -18.924261 17.580063
35.50631 -18.844767 17.796293
32.090847 -18.634954 17.747082
31.5028 -18.626564 17.733068
31.396526 -18.636299 17.663258
33.667255 -19.016445 17.242796
31.702394 -18.800571 17.400852
31.894686 -18.629925 17.740318
34.91589 -18.433186 17.796215
34.855888 -18.898081 17.692415
34.919373 -18.906397 17.653543
35.262512 -18.82547 17.75313
35.159122 -18.907869 17.739868
34.297981 -18.902369 17.601063
35.256634 -18.758087 17.555714
30.976227 -18.643959 17.529016
34.977306 -18.903906 17.619967
34.993073 -18.755537 18.125277
34.799789 -18.766714 18.123047
35.187675 -18.771904 17.558645
34.889141 -18.762724 18.124315
35.02877 -18.873358 17.933945
34.194221 -18.926256 17.610348
34.390106 -18.91466 17.588865
34.64603 -18.910246 17.601484
34.547283 -18.903854 17.600418
34.910275 -18.505047 17.83535
33.892078 -18.619308 17.829229
32.486088 -18.632845 17.756527
32.197735 -18.625605 17.754385
34.241268 -18.504826 17.787533
32.291649 -18.63722 17.754734
31.79747 -18.630116 17.734503
32.388817 -18.633137 17.754898
31.988537 -18.631737 17.744017
34.880539 -18.931448 17.848871
34.715321 -18.875393 17.846668
33.994358 -18.623611 17.84094
34.775906 -18.888601 17.845316
32.251049 -18.555313 17.501736
29.991116 -18.743553 17.395615
34.546005 -18.535604 17.829405
32.67181 -18.520578 17.670113
33.231213 -18.581696 17.620275
32.270061 -18.515354 17.653612
33.205616 -18.488935 17.705709
34.668732 -18.7001 17.955473
34.545605 -18.583115 17.617775
29.926373 -18.849483 17.206602
32.060001 -18.568989 17.611982
33.177032 -19.044165 17.199814
34.816898 -18.678886 17.970192
