# .PCD v0.7 - Point Cloud Data file format
VERSION 0.7
FIELDS x y z
SIZE 4 4 4
TYPE F F F
COUNT 1 1 1
WIDTH 1347
HEIGHT 1
VIEWPOINT 0 0 0 1 0 0 0
POINTS 1347
DATA ascii
37.907387 23.178904 -49.191666
38.420673 23.243299 -49.00898
38.270561 19.601326 -49.609898
37.911625 22.241129 -49.308624
38.747574 22.688435 -49.564762
38.860573 21.700178 -49.521473
38.294106 23.645157 -49.373875
38.244789 23.614542 -49.422485
38.202187 21.191917 -49.506321
38.324524 20.486574 -49.539837
38.124573 20.55817 -49.523514
38.22102 21.606964 -49.510422
38.33186 20.868113 -49.461254
38.183403 22.019924 -49.487556
38.963737 23.126038 -49.172409
39.10128 22.787609 -49.194958
39.083599 22.4058 -49.236759
38.887146 19.686373 -49.633194
38.871792 22.756178 -49.380032
38.882946 22.242584 -49.256969
38.996132 22.349962 -49.223331
39.02457 22.435295 -49.16909
38.875092 19.757547 -49.580204
38.893021 22.186497 -49.272446
38.917316 22.378267 -49.262619
38.995041 22.184448 -49.156094
39.06073 22.070082 -49.277073
39.077637 22.467911 -49.236652
38.901283 19.787394 -49.554592
39.007034 20.150173 -49.663933
38.896877 22.021917 -49.306755
38.943737 19.91861 -49.549435
38.98716 22.396166 -49.248741
39.021675 23.147953 -49.127186
38.99617 22.797438 -49.163704
38.921669 22.769762 -49.175056
38.976749 20.192072 -49.548603
39.067394 22.143675 -49.240715
38.908085 19.763174 -49.565731
38.767136 20.972544 -49.396511
39.019516 22.981516 -49.161777
39.158672 22.79306 -49.164726
39.383217 21.423979 -49.39394
38.899151 22.463522 -49.229572
38.97625 22.079033 -49.299316
38.987247 22.182335 -49.251968
40.229156 21.430254 -49.440498
39.079994 21.834766 -49.287041
39.010017 22.478691 -49.23061
38.934776 21.419647 -49.363411
39.033958 21.443003 -49.288715
39.35976 21.458485 -49.326962
39.017208 21.750483 -49.315098
38.992756 22.248934 -49.248669
39.016193 21.861458 -49.310432
39.904461 21.433813 -49.405056
39.983257 21.449265 -49.409607
39.108135 22.262226 -49.241646
39.063507 22.344257 -49.224052
39.087292 23.010078 -49.171638
40.315571 21.423157 -49.459442
38.974922 23.145119 -49.360916
38.434837 22.643566 -49.142727
38.675068 21.899504 -49.465664
38.912266 19.520647 -49.607304
39.008595 19.801502 -49.54113
38.906311 22.563087 -49.228725
38.9272 21.828735 -49.313118
38.86478 22.217421 -49.528214
38.533718 21.234985 -49.505615
38.765915 19.777349 -49.640335
38.594791 20.896288 -49.696922
38.839931 19.451809 -49.605797
38.740185 23.521326 -49.471714
38.791878 23.170225 -49.440609
39.029911 21.676304 -49.481491
38.716522 20.928904 -49.418201
38.921204 23.024744 -49.340122
38.799511 23.007612 -49.177017
38.60857 23.532831 -49.382374
38.625328 20.963102 -49.458935
38.56683 20.763998 -49.466896
38.905533 20.190037 -49.545151
38.532669 23.610012 -49.393112
38.531548 22.545433 -49.451134
38.78363 19.520786 -49.62233
38.929638 23.006289 -49.177979
38.803963 23.528927 -49.39637
38.824883 23.023031 -49.317097
38.862041 23.140579 -49.343693
38.334656 23.105188 -49.351082
38.574112 21.000978 -49.444279
38.793064 19.586559 -49.578705
38.675121 21.006748 -49.442905
38.757187 22.740355 -49.434406
38.451096 22.799736 -49.405098
38.662762 22.807732 -49.455082
38.426212 22.637413 -49.444817
38.482704 19.902573 -49.817928
38.62397 23.967442 -49.327301
38.605667 23.809891 -49.366879
39.110012 21.480316 -49.581299
38.563423 23.220343 -49.443027
38.568829 21.155893 -49.440643
38.711212 19.746101 -49.606907
38.495811 23.730675 -49.391781
38.48494 23.042891 -49.397961
38.511665 23.427753 -49.42783
38.597401 23.159824 -49.39801
38.497967 20.392052 -49.537415
38.732719 19.565323 -49.648731
38.940601 21.28282 -49.372593
38.732239 22.455881 -49.255917
38.483471 23.491247 -49.421715
38.548439 22.327311 -49.492664
38.525925 22.634932 -49.430649
38.498245 23.141468 -49.382378
38.796803 22.691729 -49.22366
38.675991 22.310217 -49.472282
38.388794 22.758589 -49.445286
39.099823 21.673601 -49.505386
38.691635 22.39325 -49.278763
39.599384 21.634602 -49.3871
38.812637 21.187084 -49.37579
38.633095 23.604454 -49.384991
39.075619 23.074186 -49.168613
40.1063 21.605045 -49.601315
37.85574 22.637678 -49.090046
40.001934 21.607079 -49.5872
38.83802 23.467043 -49.128178
37.473557 21.360743 -49.217487
38.794804 23.142199 -49.204475
38.959034 23.427649 -49.354763
38.608074 22.112547 -49.357075
38.610878 23.432831 -49.330528
38.414204 23.499617 -49.224258
37.797504 22.128006 -49.098007
38.706081 23.284189 -49.210323
38.796062 22.577761 -49.374966
39.111366 23.292753 -49.262859
38.898338 20.199293 -49.599442
38.89764 23.182484 -49.275776
39.003731 22.125534 -49.409599
38.316616 22.11174 -49.351696
37.762119 21.250916 -49.328835
38.803631 23.286211 -49.209557
37.63195 21.453846 -49.327553
38.799114 22.876909 -49.310764
38.926304 21.612648 -49.355118
38.002464 22.869362 -49.228325
38.214325 22.077433 -49.254124
37.674366 23.273487 -49.105301
39.003052 22.966368 -49.288986
38.212158 21.205929 -49.315769
38.578468 21.967546 -49.50211
38.793457 23.423557 -49.350418
38.196819 21.242182 -49.357864
37.986229 21.375603 -49.378094
38.191017 21.331232 -49.336605
37.976994 21.230429 -49.330685
37.638103 21.236174 -49.352619
37.699802 21.294115 -49.281921
38.405754 21.447168 -49.371677
38.500587 22.517803 -49.256721
38.207993 22.605656 -49.198467
37.908787 21.659903 -49.436295
38.298824 22.606554 -49.205433
38.358982 23.41721 -49.087952
38.099552 21.247942 -49.3479
38.498531 23.364063 -49.162727
38.443256 21.643883 -49.515347
38.408318 21.490986 -49.449036
38.797798 19.961273 -49.538055
39.606441 21.60499 -49.572998
38.51123 22.257851 -49.229805
38.485138 21.936806 -49.439762
38.110687 22.511551 -49.217846
37.822636 21.312035 -49.297718
38.289612 22.709187 -49.179733
38.604801 21.500387 -49.467831
37.926224 22.478422 -49.15942
39.921627 21.54924 -49.619572
38.042862 21.891516 -49.168884
38.897228 21.607246 -49.52953
37.478268 23.224052 -49.062599
40.105026 21.534422 -49.630665
38.340111 21.743526 -49.399708
38.522644 23.949631 -49.405361
38.307861 22.255793 -49.21402
38.906696 22.83086 -49.259281
38.910099 21.972973 -49.446117
38.438545 23.806051 -49.401474
38.986019 22.337152 -49.37788
38.200687 21.811176 -49.407478
38.515888 21.867332 -49.460213
40.303181 21.604465 -49.611664
39.900021 21.614998 -49.586441
37.527489 23.374401 -49.054893
38.591225 23.016815 -49.357533
37.668621 21.369825 -49.34668
40.308826 21.525898 -49.651043
37.796669 21.510105 -49.524899
38.144272 23.286783 -49.164593
38.44104 21.85561 -49.459076
37.745461 21.937983 -49.307629
38.401878 20.419394 -49.684898
38.597115 22.960201 -49.260223
38.998367 19.930609 -49.545174
38.403591 21.816191 -49.391609
38.196823 22.81811 -49.162647
38.295097 23.239521 -49.108841
38.695118 21.829515 -49.392662
38.735672 23.499268 -49.028
40.197212 21.541773 -49.645512
38.701809 23.254341 -49.170792
38.018158 23.237629 -49.076469
38.510002 19.905415 -49.617264
38.401352 23.249966 -49.131836
40.414326 21.54665 -49.648392
38.205841 23.223127 -49.097012
38.359402 20.650993 -49.560776
38.303539 21.378933 -49.395012
39.067276 23.335178 -49.144836
37.941002 22.977486 -49.167103
38.118664 21.722925 -49.237427
38.71574 23.053549 -49.226639
38.613895 23.247372 -49.156322
38.813095 23.235825 -49.170486
40.207897 21.6029 -49.608074
37.780861 23.025351 -49.181408
37.717323 23.226881 -49.03896
40.40958 21.389324 -49.536625
37.88306 21.996382 -49.345474
38.502964 23.008511 -49.336678
38.345913 21.873552 -49.469093
37.894505 21.521263 -49.511883
38.023125 22.922586 -49.121128
38.467022 21.390327 -49.340923
38.005882 21.419657 -49.283882
37.811111 21.415049 -49.246674
38.80331 23.33271 -49.136211
37.702065 21.367653 -49.245899
38.63892 21.905478 -49.500778
38.107155 21.628355 -49.265049
38.12212 23.233789 -49.083965
38.598179 19.922628 -49.548668
38.514469 23.244102 -49.14085
37.821037 23.231144 -49.052471
37.619186 23.223581 -49.075356
38.326351 19.808142 -49.629158
38.009689 21.774822 -49.385052
38.398033 23.333735 -49.085186
38.562675 23.34561 -49.114056
38.987915 21.826603 -49.427414
38.116875 23.328226 -49.042557
38.872784 20.265697 -49.593792
38.695755 23.332571 -49.079945
38.504555 23.329348 -49.09848
37.903378 23.238066 -49.049809
38.334728 20.561598 -49.481052
38.619347 20.921665 -49.535538
38.100784 22.590063 -49.179214
37.931057 22.211267 -49.09536
38.795971 21.301224 -49.570625
37.653595 21.545944 -49.268074
39.131676 22.649609 -49.212505
38.122066 21.498674 -49.447617
38.130932 22.119841 -49.294312
38.483215 20.644014 -49.507404
40.111965 21.652103 -49.504444
38.626305 20.628899 -49.479534
39.168633 21.289766 -49.372181
39.306728 21.492922 -49.523273
38.109043 20.350399 -49.586239
37.963402 23.031992 -49.141289
40.308842 21.447573 -49.633301
39.810196 21.408495 -49.519596
38.788528 22.935394 -49.208515
38.697926 22.192753 -49.440231
38.212715 22.310593 -49.25309
38.199444 21.404797 -49.299946
38.502243 22.301439 -49.279449
39.599422 21.490835 -49.37476
38.320736 21.254116 -49.455357
38.699944 21.767988 -49.370384
38.268372 21.211967 -49.509823
40.398254 21.604702 -49.619915
39.305908 21.321514 -49.406868
38.50832 20.164505 -49.751698
38.434757 19.654394 -49.573124
39.792568 21.547924 -49.610928
40.395679 21.421915 -49.45071
38.284462 22.179525 -49.400387
39.491199 21.60446 -49.389332
37.718243 22.006613 -49.085152
38.315983 21.986061 -49.40868
38.601662 19.523586 -49.618706
38.60778 19.884249 -49.623009
39.101826 21.54978 -49.387691
38.192757 21.806349 -49.217571
38.233723 21.503847 -49.450047
37.593422 22.910872 -49.050819
37.89658 22.95109 -49.086197
39.090237 21.599026 -49.536564
40.20295 21.64369 -49.506165
38.488377 22.747423 -49.253689
38.523849 23.571953 -49.475765
38.210888 21.377094 -49.393944
38.427624 23.549517 -49.327694
38.707939 23.35837 -49.176563
38.898037 23.362297 -49.194778
39.307465 21.505424 -49.334553
39.203701 21.552929 -49.399437
38.425774 21.924557 -49.433777
38.699028 22.931673 -49.199177
38.708965 22.654423 -49.306087
37.623035 23.291489 -49.065346
38.218235 23.341068 -49.064659
38.408588 21.419352 -49.326904
38.69875 21.67697 -49.406975
38.608143 22.663258 -49.284172
38.663837 20.4228 -49.747272
37.663895 21.623095 -49.226753
39.502354 21.436266 -49.572384
38.560696 20.69718 -49.499874
38.036179 20.730639 -49.382591
38.528843 20.6957 -49.470295
38.704029 21.486282 -49.479828
38.797379 21.801844 -49.414345
38.595474 22.893652 -49.302551
38.317211 23.043135 -49.196342
37.91441 20.65873 -49.508507
38.383728 20.725832 -49.483788
38.395737 21.270191 -49.453007
38.231518 21.279575 -49.435898
38.331345 20.203804 -49.715473
37.881821 21.524172 -49.27882
38.886158 21.722895 -49.320419
38.109287 21.417772 -49.286987
37.500854 21.429316 -49.302776
38.797363 23.070503 -49.238625
38.572533 21.057562 -49.457672
38.099819 21.310638 -49.309208
38.505203 22.960096 -49.236576
38.105976 20.889791 -49.526695
39.007645 21.54957 -49.390217
39.002434 22.901129 -49.190285
38.309124 21.449953 -49.355709
38.51046 22.929794 -49.187382
38.912258 22.670633 -49.209419
38.707981 23.416582 -49.072659
37.890808 23.312359 -49.038944
38.502579 21.487923 -49.451942
38.804504 20.179848 -49.721321
40.201294 21.594753 -49.429031
37.768219 21.620392 -49.26722
39.70734 21.60104 -49.57605
38.306973 22.06955 -49.263462
38.69244 19.910652 -49.604095
38.400986 22.089869 -49.274918
38.89418 22.88946 -49.308598
38.194168 22.241455 -49.205055
38.930511 22.660885 -49.313087
39.80064 21.582613 -49.519604
37.899635 23.045591 -49.201542
38.782364 20.945446 -49.401695
38.190666 21.658972 -49.350964
38.186592 23.270908 -49.214935
38.1241 22.277273 -49.170788
38.595242 22.909088 -49.202068
38.995956 21.609495 -49.524437
39.353062 21.443312 -49.388474
38.403313 20.75448 -49.43647
40.35371 21.366943 -49.470573
38.103905 20.960756 -49.501461
37.983784 21.177835 -49.395962
38.896214 23.284403 -49.232365
37.641804 21.667164 -49.156746
38.508224 20.109402 -49.625114
38.284203 21.009995 -49.408978
39.097939 21.955948 -49.284382
38.705196 20.167246 -49.726372
38.317848 20.678223 -49.458488
38.40836 22.939476 -49.173038
38.399239 21.549192 -49.262959
38.295029 22.929619 -49.158962
38.793312 22.735971 -49.279541
38.629673 22.166407 -49.46312
38.450188 21.184696 -49.527302
38.520599 23.450281 -49.338829
37.926662 22.096985 -49.325272
38.314735 22.859135 -49.304745
37.989796 21.233042 -49.473824
38.508545 23.071131 -49.21693
38.999065 21.982468 -49.307083
38.809635 20.192383 -49.600365
38.623695 21.167641 -49.625576
38.710045 20.263485 -49.708431
39.905891 21.492163 -49.566059
38.611839 20.168993 -49.749493
38.415184 22.880953 -49.266022
39.604271 21.491629 -49.548206
38.991882 22.827473 -49.268135
38.248676 20.581591 -49.532192
37.994537 23.275841 -49.033562
40.002617 21.521832 -49.627228
38.938179 19.957062 -49.789886
38.520531 20.928104 -49.435707
38.226246 22.123146 -49.336853
39.604378 21.400284 -49.518826
38.081776 22.564466 -49.139534
38.710503 22.832645 -49.241699
38.329693 22.277023 -49.377335
38.094978 21.49444 -49.24614
38.812325 22.128553 -49.370537
38.514687 22.12475 -49.344311
40.272984 21.456581 -49.38694
38.975475 22.697353 -49.197544
38.309753 23.331059 -49.076027
38.68475 21.417416 -49.342251
39.803268 21.490225 -49.562408
38.280067 19.612635 -49.606041
39.603783 21.557449 -49.429325
38.975853 22.589182 -49.266869
38.901424 23.243605 -49.170593
37.772003 22.255775 -49.160278
37.920036 21.871035 -49.235699
39.206078 21.495266 -49.517658
38.127281 22.055464 -49.268261
39.001884 21.493912 -49.509102
39.416939 21.589357 -49.356339
38.54657 21.930519 -49.531151
38.887581 22.13549 -49.392029
38.813698 22.545975 -49.459183
38.160027 20.767443 -49.42812
37.851082 21.624977 -49.447899
39.199577 21.605221 -49.366409
37.768429 21.520248 -49.295097
38.793415 21.493225 -49.49337
40.389328 21.605335 -49.458096
38.525997 20.305328 -49.62933
38.78672 20.316738 -49.699444
38.601383 21.605812 -49.503437
39.868607 21.579933 -49.386894
38.29715 20.763477 -49.41946
40.202461 21.492662 -49.594456
38.40435 23.029985 -49.302109
38.905609 22.177717 -49.498295
39.503094 21.493788 -49.538185
38.089836 22.692743 -49.142056
37.49305 21.448465 -49.191391
37.612434 21.528807 -49.207268
38.611485 23.287664 -49.211891
37.874634 21.129276 -49.363159
38.296753 20.487427 -49.637035
38.827499 21.671389 -49.41814
37.700119 21.716887 -49.116936
37.988064 21.850391 -49.261055
40.405178 21.578861 -49.564545
39.803619 21.55654 -49.438786
38.250683 20.002905 -49.709068
40.306057 21.493874 -49.597412
37.888931 21.494646 -49.234741
38.320393 21.465345 -49.272442
38.501095 22.068232 -49.293922
38.770489 21.146832 -49.702412
38.434418 23.91287 -49.357742
38.907017 21.497564 -49.50016
38.81612 21.432407 -49.318325
37.808525 21.104374 -49.276142
37.705555 23.290201 -49.00449
38.072952 21.217728 -49.487164
39.413818 21.361519 -49.468098
37.783371 21.453823 -49.444176
38.199814 22.688835 -49.17128
38.400509 22.678307 -49.201988
37.992123 21.485825 -49.218105
38.654213 21.149408 -49.430286
38.596619 21.663361 -49.387207
38.401814 22.180265 -49.409584
39.706131 21.491459 -49.553696
37.773384 23.290781 -49.032017
39.078556 21.65571 -49.427711
38.668682 22.708952 -49.23975
38.397545 20.172583 -49.71257
38.808388 20.150311 -49.634098
38.503208 20.738129 -49.660255
38.03463 21.563168 -49.522278
38.408756 22.525484 -49.251507
38.281696 19.834089 -49.563019
38.673603 20.835575 -49.457726
38.203831 21.941523 -49.220528
38.95488 20.018805 -49.541309
38.921192 21.163561 -49.460304
38.90414 22.965666 -49.273586
38.217449 21.048969 -49.476051
38.887589 21.826704 -49.414425
38.499168 21.673353 -49.374779
38.108868 21.681284 -49.16951
37.806419 21.470278 -49.246571
38.619816 23.36389 -49.171329
38.155422 19.885313 -49.442822
37.764595 21.561985 -49.437092
38.929047 20.132532 -49.659641
38.089329 20.389648 -49.536205
38.01289 21.293913 -49.38303
40.021755 21.403511 -49.535786
39.805607 21.608618 -49.579681
38.70702 23.420507 -49.34552
38.802898 21.585299 -49.436852
38.198593 20.272722 -49.737026
38.39904 21.945507 -49.263279
38.186554 21.632368 -49.273361
38.931328 21.940315 -49.30978
38.003681 21.53521 -49.411819
38.317535 23.145618 -49.150032
40.1063 21.552904 -49.459129
37.743801 21.601503 -49.176933
38.183777 20.508745 -49.428207
38.764481 19.797283 -49.706249
38.131348 21.580753 -49.395
39.106052 21.580172 -49.472099
38.858925 23.244781 -49.390324
40.408604 21.491358 -49.604885
37.63039 21.638794 -49.170429
39.322464 21.384172 -49.474701
38.907978 21.585772 -49.454292
37.909138 20.401836 -49.506824
38.410709 23.336111 -49.283344
40.104599 21.491793 -49.581287
38.416164 19.791048 -49.657238
37.808849 21.442177 -49.342953
39.214848 21.319696 -49.474453
39.097054 21.375128 -49.456924
38.078491 21.074636 -49.471241
40.315113 21.594337 -49.439812
37.486675 21.35128 -49.293026
37.739178 22.334148 -49.046623
39.505684 21.460732 -49.455696
39.453651 21.356861 -49.441086
38.369003 20.356775 -49.671547
38.644917 21.973288 -49.530022
38.995247 21.416739 -49.346146
38.917892 22.91791 -49.17659
38.603199 21.357506 -49.42487
39.603901 21.460567 -49.459034
38.71553 21.539963 -49.368572
39.704632 21.459187 -49.468185
38.6073 22.612869 -49.25127
38.211395 19.700909 -49.605209
38.001522 20.5968 -49.467346
38.209671 20.353859 -49.621536
38.821953 21.60137 -49.527176
39.506233 21.554354 -49.417103
38.73288 20.210846 -49.780899
38.311699 21.923094 -49.252419
38.399708 20.971767 -49.605167
37.882065 21.340975 -49.224083
38.12075 21.844929 -49.257122
39.100353 21.45928 -49.434444
38.512466 21.617985 -49.512009
38.714581 21.579603 -49.43298
40.202312 21.450794 -49.506626
38.812355 20.288437 -49.756207
38.169933 21.136766 -49.518349
37.892834 21.634951 -49.25589
38.166466 21.580267 -49.226845
37.768703 21.395756 -49.193752
39.011662 23.235928 -49.163872
38.204544 21.501558 -49.270832
38.003914 21.321741 -49.307541
38.614223 20.223179 -49.764626
38.683933 20.326761 -49.652035
39.802414 21.458147 -49.476322
40.204189 21.583223 -49.547672
39.525913 21.398691 -49.523838
37.927456 21.615177 -49.193092
39.203117 21.460072 -49.429672
39.706547 21.561493 -49.432777
37.516716 21.271551 -49.23069
38.275692 19.993273 -49.65057
38.303158 21.674953 -49.349232
38.3106 21.41729 -49.318279
38.109493 20.389238 -49.47485
38.607784 20.069687 -49.58073
37.750546 21.06761 -49.440701
39.903496 21.457972 -49.48476
37.988522 21.69795 -49.223873
38.017853 20.888111 -49.527447
38.445721 21.06284 -49.500668
40.006786 21.492496 -49.577236
38.704491 21.371044 -49.444706
39.903519 21.399897 -49.531395
38.508942 22.159222 -49.437057
38.311512 20.135448 -49.59816
38.122746 21.243151 -49.441406
38.126896 21.757545 -49.297997
40.401318 21.547543 -49.482819
38.110943 22.314789 -49.139465
38.613209 21.313293 -49.385746
37.577194 21.395786 -49.334217
38.402798 21.767342 -49.320221
38.993244 20.190395 -49.842506
38.011158 22.55234 -49.135479
38.423115 20.115829 -49.613544
38.65789 20.907537 -49.662682
38.491806 20.274893 -49.746593
38.430134 22.024645 -49.38718
40.102928 21.451162 -49.498333
40.005104 21.458099 -49.491207
38.778614 22.06736 -49.336243
38.103691 21.526123 -49.296795
38.754272 21.958441 -49.41888
37.843746 21.280449 -49.221935
40.170406 21.69253 -49.605274
40.236774 21.518457 -49.406635
37.926674 22.901386 -49.085381
37.636299 21.799805 -49.179245
38.280457 22.578901 -49.15522
37.899006 21.736088 -49.221947
38.60099 23.050543 -49.213367
40.107998 21.581318 -49.547325
38.708042 23.227543 -49.31741
39.507896 21.577139 -49.501667
38.914085 22.054943 -49.428726
37.930595 20.765131 -49.372669
37.7729 21.909424 -49.264648
37.728264 21.515953 -49.185703
38.804234 21.557869 -49.375912
37.703289 21.884502 -49.129662
38.120464 21.885704 -49.136635
38.381893 22.551186 -49.167904
39.015362 21.645552 -49.435986
39.907887 21.582417 -49.532166
39.685253 21.604816 -49.407036
37.791965 22.553967 -49.086494
38.898071 21.554508 -49.545246
38.880497 22.728884 -49.419117
38.611904 22.059706 -49.488785
38.013153 22.652346 -49.100735
38.611732 20.501707 -49.657093
38.614479 22.048868 -49.37682
38.501007 22.709877 -49.416759
38.14814 19.66984 -49.61087
37.914261 22.588966 -49.12114
39.099945 21.533064 -49.581818
38.896046 22.755623 -49.280804
38.777969 22.650324 -49.325718
38.201794 22.582176 -49.148727
39.711235 21.555109 -49.601902
38.810677 19.855352 -49.580769
38.886497 23.08284 -49.245037
38.34782 22.873465 -49.404995
37.952259 21.543392 -49.382011
38.81572 20.437174 -49.761158
38.803677 20.185305 -49.792866
38.798145 22.961792 -49.264904
39.103806 21.620382 -49.362064
38.900421 23.330805 -49.123379
38.201172 22.876635 -49.244999
38.345444 22.939182 -49.269299
38.609306 21.539011 -49.352886
38.601967 21.392565 -49.351482
38.292091 20.439127 -49.532169
38.319805 21.491035 -49.443058
38.298931 21.80047 -49.418579
38.615341 21.803549 -49.415863
39.109177 21.495939 -49.514202
38.694405 19.948013 -49.562138
38.218552 20.296576 -49.535263
38.508942 21.15398 -49.44656
37.625114 21.363941 -49.279037
38.427216 22.978689 -49.26725
39.281116 21.604561 -49.375614
38.674622 23.296928 -49.410301
38.668476 22.105383 -49.358768
38.383862 21.618555 -49.308533
38.442383 23.246483 -49.347519
38.292122 22.82494 -49.174793
38.503532 22.873537 -49.300362
38.52515 22.654358 -49.301247
38.788513 22.848879 -49.264717
38.489201 21.820555 -49.405079
38.176033 22.809988 -49.313183
38.903053 21.230804 -49.431355
37.766747 21.79697 -49.148083
38.075024 22.824902 -49.148216
38.106457 21.832417 -49.189098
38.399357 22.832592 -49.205406
38.423191 21.667845 -49.446861
38.985245 21.739618 -49.364822
38.917782 23.379015 -49.281544
38.782318 21.680939 -49.487247
38.187557 21.763762 -49.301338
38.188282 20.647963 -49.537857
40.198009 21.554029 -49.466015
37.797447 21.938181 -49.12574
38.998859 22.877407 -49.298641
38.906109 23.340683 -49.31572
39.700104 21.580936 -49.514267
38.792141 21.257122 -49.420338
40.007111 21.583954 -49.533428
37.498028 23.275213 -48.958431
39.791645 21.599871 -49.414276
37.905632 21.904137 -49.146351
37.694916 21.93746 -49.168823
38.206112 20.723194 -49.539974
38.517273 23.121599 -49.470795
38.834785 19.953533 -49.792809
38.604546 23.243279 -49.355831
38.694473 23.342972 -49.315083
38.789913 23.245197 -49.354069
38.613739 22.86113 -49.39492
40.397568 21.464779 -49.679138
38.591003 21.608137 -49.334599
38.507809 23.146862 -49.163422
38.418499 23.190952 -49.242287
38.909599 23.184275 -49.218121
38.804272 21.752964 -49.361904
38.57703 23.142637 -49.183083
38.163124 23.251087 -49.030895
38.218685 22.905863 -49.141975
38.161953 22.93741 -49.284744
38.693237 22.957962 -49.253151
38.698807 23.143864 -49.199608
37.701878 21.770884 -49.152191
38.49905 21.62443 -49.349987
38.709961 22.879614 -49.303982
38.0009 21.785273 -49.244823
38.411598 23.06778 -49.196346
38.046528 21.7988 -49.181618
38.700729 22.086554 -49.331219
38.414085 21.361074 -49.415321
38.707268 21.6143 -49.325756
38.182411 20.176735 -49.474701
39.685108 21.722826 -49.400173
38.619686 20.680437 -49.554054
38.499931 21.770191 -49.344425
38.323517 22.331182 -49.332886
38.819145 20.250288 -49.564678
38.126251 21.948227 -49.215534
38.41433 22.114094 -49.365475
40.01012 21.451296 -49.610413
40.303509 21.578451 -49.551533
40.410225 21.448776 -49.634048
38.699253 22.614939 -49.252846
39.395599 21.459143 -49.444515
39.407845 21.556576 -49.417858
40.104549 21.443613 -49.610519
38.102402 21.906429 -49.346821
38.006496 21.53467 -49.275532
38.712788 21.462721 -49.405243
39.817562 21.451462 -49.596565
40.19315 21.450666 -49.62122
38.502796 22.326023 -49.377052
38.505047 21.454964 -49.378643
39.303318 21.558289 -49.407005
37.815273 21.137079 -49.36377
38.508793 21.547409 -49.34425
38.29649 21.25378 -49.35828
38.905289 21.463676 -49.417923
40.402622 21.449701 -49.522583
39.303467 21.463253 -49.435608
38.304886 21.543732 -49.327587
38.193539 21.538322 -49.313145
38.104622 21.438082 -49.345253
39.821934 21.649776 -49.4701
38.403011 21.584496 -49.41415
39.903584 21.655657 -49.466934
39.005104 21.579346 -49.453297
38.037331 22.481943 -49.209797
39.004314 21.465355 -49.425743
38.290615 22.519068 -49.24765
37.717903 21.153522 -49.384491
38.405861 21.248619 -49.373264
38.47102 20.643122 -49.558517
38.394417 21.544134 -49.335766
38.330067 20.417555 -49.493965
38.331196 20.90237 -49.546997
38.384777 22.781223 -49.349171
39.706921 21.404745 -49.531384
38.808819 21.368418 -49.446301
38.035183 20.724216 -49.509918
38.806385 22.613724 -49.275532
37.708046 23.377832 -49.054565
38.386955 22.360817 -49.331696
38.55331 20.245462 -49.822594
38.049904 23.206337 -49.166092
38.066219 23.339663 -49.116806
38.399067 22.633701 -49.335537
38.408535 23.35972 -49.148842
37.989086 22.608694 -49.171654
37.912781 22.538227 -49.195972
38.701012 20.539053 -49.482155
38.300751 23.317167 -49.199936
38.252563 22.058868 -49.417229
38.998684 21.623714 -49.349644
38.613106 20.030573 -49.715889
40.306355 21.451542 -49.513077
40.30695 21.551287 -49.474701
38.414074 19.850033 -49.567455
38.290371 21.581549 -49.366955
37.863293 22.804028 -49.167194
38.493027 22.298611 -49.418709
38.502174 19.769554 -49.59515
38.134312 20.817131 -49.501446
38.285118 21.206078 -49.317135
38.214912 23.072882 -49.19413
38.732533 23.481627 -49.108036
38.295948 20.26771 -49.757473
39.205391 21.583961 -49.477581
38.188202 20.975754 -49.521122
38.602108 21.590343 -49.428078
38.976921 23.058958 -49.278122
38.187794 23.426144 -49.056988
38.244011 20.134691 -49.634621
39.27763 21.644659 -49.451263
38.800545 20.075022 -49.788662
37.82151 21.014866 -49.365116
37.891773 21.266682 -49.249264
38.509125 22.596523 -49.231396
38.397285 19.998451 -49.770145
38.412605 20.217043 -49.763538
38.989929 20.213949 -49.743595
38.424236 20.078535 -49.762398
39.000198 22.217007 -49.561371
38.300007 21.319012 -49.338623
38.314579 22.688904 -49.29097
38.894962 21.79203 -49.347282
38.692757 20.298096 -49.7584
38.497501 19.948055 -49.761841
38.291294 23.37114 -49.161095
38.314835 19.98859 -49.604256
38.706635 22.605698 -49.440838
40.320271 21.402472 -49.533588
39.602276 21.440069 -49.581631
40.441044 21.673483 -49.60236
39.697247 21.69183 -49.557312
37.721733 22.447701 -49.177361
38.267414 20.098894 -49.704651
40.110718 21.393114 -49.522041
38.312325 22.445623 -49.28175
38.383553 20.839762 -49.491608
38.251778 21.966143 -49.384319
38.509274 21.590994 -49.404514
38.323044 23.164577 -49.236938
39.396374 21.433712 -49.555416
38.389 23.08728 -49.275558
38.600193 20.278141 -49.751892
38.391571 21.188551 -49.347145
37.608215 21.228172 -49.238541
38.191593 22.418589 -49.300648
37.873367 21.198502 -49.27718
38.12561 23.133654 -49.101509
38.002869 20.832447 -49.427296
38.081463 21.234526 -49.293015
38.583267 19.997051 -49.780407
38.592438 20.085997 -49.761654
38.933464 20.197786 -49.71767
38.502197 20.076792 -49.764076
37.743309 21.258526 -49.267239
37.859459 21.137022 -49.301929
37.876751 21.030497 -49.328445
38.318413 22.212322 -49.302624
38.084469 21.02523 -49.35833
37.831089 21.182096 -49.285069
38.227276 22.747419 -49.229141
38.904026 21.545681 -49.376297
38.191517 21.600462 -49.372192
38.149685 22.741934 -49.233227
38.60014 21.760323 -49.360241
37.703629 22.756477 -49.075298
37.943081 20.939219 -49.387012
38.266994 19.782274 -49.511292
39.59959 21.580799 -49.510334
38.499992 22.212446 -49.317097
37.822189 22.443907 -49.119682
38.000546 22.483959 -49.161697
37.928444 22.380455 -49.167854
38.37682 20.939638 -49.431339
38.503059 21.247358 -49.394329
38.5047 20.259558 -49.683346
38.30954 21.134958 -49.401299
38.798016 19.686916 -49.651157
38.103943 22.112793 -49.125622
38.231731 20.997042 -49.3568
37.723324 21.51066 -49.377724
37.810966 21.839912 -49.35508
38.035889 20.842896 -49.367439
37.926697 22.334343 -49.126163
38.317966 23.650829 -49.269524
37.973396 21.221525 -49.271477
38.392639 20.978739 -49.485409
38.501308 21.312586 -49.361759
38.499886 23.693871 -49.3367
38.204872 21.845627 -49.283604
38.602886 23.900042 -49.343437
38.611813 20.25222 -49.702396
38.711342 20.196909 -49.600334
38.612999 21.24939 -49.413685
37.925827 22.114702 -49.114891
38.185253 23.101343 -49.100231
37.917332 21.749298 -49.275188
37.821674 22.773386 -49.094364
38.790897 22.496166 -49.402092
38.306335 23.018843 -49.133194
38.210945 19.621618 -49.652184
38.091415 23.106201 -49.081207
38.916214 22.841253 -49.46209
38.13485 20.277512 -49.710209
38.517502 23.28248 -49.398426
38.436699 23.08816 -49.13155
38.701706 22.535725 -49.28035
38.41254 20.275852 -49.734634
38.395805 20.265329 -49.657143
38.675865 19.885326 -49.783478
38.098846 20.278147 -49.626381
38.690224 22.499491 -49.444321
39.024609 23.265619 -49.41964
38.282806 20.015093 -49.483059
38.857731 22.293219 -49.329147
38.008568 21.133446 -49.325294
38.583664 23.068113 -49.457127
38.328728 21.862337 -49.297924
38.707939 22.314108 -49.303291
38.599236 23.405962 -49.278477
38.504875 23.395756 -49.270622
38.998371 22.656481 -49.347427
38.693996 23.195625 -49.260807
38.687546 23.396383 -49.29208
38.815739 23.375496 -49.374317
38.416157 23.941151 -49.372955
38.630131 22.279842 -49.468807
38.499203 23.820835 -49.372608
38.396572 23.137514 -49.148804
38.596558 22.690742 -49.215908
38.417812 22.60067 -49.221424
38.598637 22.52243 -49.287933
38.391521 22.481689 -49.204617
38.614525 22.401356 -49.272068
38.395939 22.317661 -49.258648
38.600399 22.29076 -49.298119
38.195156 22.477713 -49.19231
38.981255 20.249779 -49.691589
38.907825 23.372299 -49.383881
38.504623 19.852669 -49.568588
38.515228 19.686844 -49.647266
38.501415 20.006514 -49.596279
38.216713 19.980913 -49.565842
38.803734 23.355282 -49.177807
38.798 22.565523 -49.44603
38.619221 23.685457 -49.363216
38.495178 22.482878 -49.223911
38.595684 22.845613 -49.228111
38.391369 23.020081 -49.140362
38.202305 23.0068 -49.129642
38.216309 22.786211 -49.148212
38.209076 20.263905 -49.648636
38.491798 22.766273 -49.185532
38.291981 22.798031 -49.153
38.087585 22.772617 -49.133228
38.20496 23.148239 -49.112453
38.60535 20.13146 -49.648296
38.714108 23.377581 -49.36578
37.901253 21.956745 -49.175983
37.995457 23.386414 -49.072342
39.040401 21.281096 -49.372929
38.27412 23.417814 -49.096832
38.500259 19.855087 -49.792816
38.722576 19.850243 -49.585258
38.284351 19.936335 -49.525173
38.713184 20.086645 -49.567604
38.206966 21.450472 -49.3522
38.788933 22.933018 -49.406796
38.58432 23.925629 -49.411049
38.321144 20.075518 -49.532734
38.716206 19.984093 -49.601601
38.495461 23.279448 -49.180939
38.222443 19.936684 -49.600349
38.219368 19.771223 -49.557285
38.395241 19.983778 -49.588825
38.615982 19.979895 -49.597923
38.804192 23.348297 -49.320675
38.414188 23.286697 -49.200024
38.377495 19.764803 -49.603542
38.682037 19.66201 -49.630329
38.626053 19.756382 -49.612125
38.23196 19.863287 -49.538811
38.273937 23.40309 -49.245735
38.987434 23.389496 -49.407589
38.605583 19.684696 -49.632519
38.334274 19.900326 -49.634857
38.140877 19.94623 -49.565136
38.41721 23.439026 -49.327744
38.094578 19.83741 -49.527851
38.401688 19.901714 -49.595676
38.608818 19.855841 -49.584389
38.111969 21.353004 -49.363934
38.487808 20.900972 -49.62907
38.395786 21.685368 -49.362232
38.320858 21.615164 -49.304417
38.596493 19.875799 -49.783077
38.893066 20.244204 -49.6945
38.57827 21.869209 -49.315735
38.801586 20.246014 -49.705925
38.506908 21.271431 -49.452469
38.711544 21.268112 -49.467205
38.796364 21.987928 -49.36528
38.691563 21.996637 -49.351498
38.703007 21.894258 -49.372272
38.615383 21.88859 -49.36227
38.509541 21.994081 -49.333599
38.90152 21.348919 -49.444584
38.896175 21.664124 -49.412178
38.489017 21.888376 -49.354733
38.787529 21.903196 -49.369534
38.454765 23.101347 -49.117794
38.902851 21.272747 -49.492039
37.906643 21.331549 -49.293861
38.39526 21.430698 -49.466915
38.598415 21.273296 -49.467445
38.802097 21.435154 -49.518444
38.938313 19.933079 -49.88044
38.699184 21.314205 -49.392986
38.79377 20.074732 -49.566517
38.9062 21.899677 -49.390511
38.697495 22.194784 -49.328857
38.191685 21.411125 -49.454506
38.903187 21.445787 -49.526367
38.307133 22.291061 -49.260422
38.803707 21.277245 -49.461517
38.693008 21.259443 -49.420204
38.291862 21.896353 -49.359509
38.405296 21.977568 -49.310509
38.605453 22.083563 -49.29961
38.398926 21.858894 -49.295689
38.308594 22.164082 -49.23922
38.575619 21.086157 -49.616879
38.801762 22.381979 -49.464851
38.323063 21.77177 -49.320335
38.406204 21.914185 -49.366173
38.501534 21.846062 -49.33757
38.409424 22.425165 -49.30143
38.219593 22.641094 -49.303352
38.891502 22.698635 -49.487652
38.761696 19.993101 -49.612312
38.891434 21.999926 -49.3783
38.821198 22.280472 -49.303204
38.791714 22.428564 -49.334934
38.596581 22.429361 -49.319393
38.506203 22.831203 -49.217922
38.613533 22.743494 -49.259995
38.871883 22.260885 -49.492897
38.623184 21.995163 -49.347656
38.406216 22.223583 -49.316925
38.604134 22.213425 -49.328743
38.495369 22.454628 -49.277122
38.703953 22.435234 -49.325165
38.303703 22.755892 -49.267563
38.702316 22.745489 -49.275574
38.471157 21.720148 -49.415127
38.801254 22.211988 -49.347507
38.969532 22.762394 -49.302734
38.597389 20.733932 -49.597111
39.235966 21.420555 -49.560017
38.906967 22.548416 -49.312119
38.98798 21.442734 -49.529427
38.926357 21.982958 -49.557072
38.798271 20.17704 -49.548405
38.797085 22.523937 -49.296505
38.796841 22.411757 -49.273109
38.849365 22.025826 -49.549828
38.402901 22.738903 -49.249245
38.786308 22.283926 -49.49963
38.698917 22.710388 -49.430405
38.308887 20.787169 -49.601612
38.696934 23.105679 -49.319763
38.308552 21.984707 -49.319618
38.208355 22.205893 -49.295128
38.425224 22.401911 -49.235321
38.489315 22.712755 -49.196487
38.098164 22.912886 -49.136204
38.34428 23.09964 -49.122215
38.109528 23.022764 -49.109024
38.553749 21.707632 -49.302589
38.122646 22.170195 -49.207256
38.501392 22.16202 -49.270138
37.810833 21.408178 -49.373669
38.606079 23.333366 -49.311035
38.105793 21.975073 -49.290634
38.719486 22.941826 -49.397518
39.00502 23.300552 -49.252975
38.907249 22.898142 -49.519337
38.701496 20.138647 -49.631096
38.913803 20.066233 -49.588238
39.019768 22.187698 -49.37067
38.602707 22.348093 -49.369312
39.002666 22.434763 -49.349606
38.506878 23.094465 -49.298038
38.803097 21.459496 -49.417809
39.089409 21.438948 -49.547409
38.616249 21.728426 -49.443146
38.996513 22.768965 -49.359009
38.792747 23.187281 -49.259781
38.621101 23.180677 -49.249741
38.649948 20.982529 -49.665005
38.841114 22.012695 -49.409863
38.50423 23.201916 -49.24807
38.515854 23.019329 -49.152523
38.5639 20.764706 -49.619308
38.712147 22.576279 -49.360844
38.840183 23.06793 -49.407486
38.815258 23.384291 -49.275127
38.336933 22.592442 -49.336525
38.998444 23.330687 -49.316353
38.91843 23.068521 -49.433289
38.991055 23.186979 -49.299465
38.700768 20.431093 -49.699051
38.695442 22.036135 -49.394772
38.691727 22.332178 -49.37719
38.877579 22.198168 -49.355274
38.791695 22.340714 -49.360191
38.518703 22.573343 -49.353115
38.912571 22.453009 -49.351616
38.502266 22.792095 -49.354279
39.090042 23.329096 -49.310822
38.478725 22.393618 -49.236591
38.219296 21.963333 -49.304573
38.931973 23.168587 -49.412689
38.704525 22.184347 -49.266384
39.9888 21.697403 -49.596718
40.406631 21.655647 -49.534912
38.894787 22.350677 -49.378719
38.817051 23.086956 -49.30653
39.600605 21.680035 -49.513523
38.589622 22.569221 -49.354675
38.700874 22.7889 -49.363251
39.101936 23.232525 -49.271137
38.947449 22.586 -49.32996
38.423725 23.39551 -49.238255
38.68454 23.973352 -49.384087
38.9939 21.384254 -49.461884
39.712002 21.443209 -49.583466
39.673676 21.655848 -49.478195
38.515877 22.017576 -49.422165
38.979797 21.865904 -49.427162
38.958435 21.980824 -49.402195
38.969578 19.92067 -49.75457
38.984352 22.278465 -49.552349
38.489738 20.579844 -49.650883
39.000366 22.30603 -49.306557
38.944408 22.645031 -49.514797
38.984261 22.549503 -49.36977
38.422104 22.556059 -49.344307
38.326843 22.769354 -49.318386
39.998219 21.646763 -49.40287
38.499985 21.053465 -49.45644
39.016006 23.380495 -49.287254
39.136349 23.161245 -49.239254
39.015587 22.516411 -49.342098
38.197403 19.712139 -49.728321
38.525547 20.830669 -49.481445
38.616901 21.460287 -49.40052
37.818798 22.692965 -49.098862
38.808086 21.604469 -49.330032
38.709042 19.490072 -49.632896
37.868706 22.562511 -49.196854
38.685402 21.309402 -49.604103
37.652962 21.700256 -49.190762
37.749962 21.723289 -49.161232
38.520916 21.363672 -49.424473
37.691097 22.70648 -49.083282
37.952923 20.460962 -49.376907
38.523548 23.31283 -49.489277
38.57822 23.277485 -49.441315
38.496464 23.247114 -49.348587
37.998257 22.796021 -49.114155
39.824997 21.417986 -49.417992
37.942635 23.339386 -49.092529
40.291878 21.645733 -49.505184
37.628738 22.605797 -49.076973
38.601566 22.488337 -49.403248
38.242207 22.326479 -49.347485
38.342663 21.438517 -49.457909
38.606834 22.704216 -49.408104
38.598152 19.962231 -49.751926
37.972164 22.348106 -49.140453
37.980907 22.143841 -49.18718
38.611191 22.79306 -49.343681
38.193672 21.73448 -49.234531
38.922497 22.278978 -49.440948
37.916885 21.814779 -49.165615
38.102768 22.000408 -49.183311
37.918823 22.046158 -49.169086
38.48019 21.087111 -49.358406
38.207279 20.920845 -49.582878
38.67387 21.426786 -49.48156
38.037235 20.38936 -49.389713
39.707691 21.443409 -49.398178
39.218281 21.433052 -49.366974
39.104015 21.418377 -49.366787
39.088409 21.491827 -49.305416
37.78624 22.855753 -49.109844
39.321098 21.448793 -49.549377
39.602131 21.659042 -49.494789
38.51635 23.331291 -49.297276
37.901878 22.178032 -49.188549
38.007275 23.002228 -49.094215
37.791885 23.006037 -49.072697
37.984592 23.12307 -49.100388
37.909245 23.002602 -49.098473
38.19326 20.929716 -49.592716
38.49765 21.435934 -49.477238
37.990597 21.212271 -49.534939
38.015926 21.438084 -49.347488
37.71608 22.166584 -49.154148
37.881535 22.232906 -49.138073
37.624146 22.512379 -49.101086
38.02169 22.692369 -49.148022
37.612343 22.788397 -49.080986
37.795696 22.873146 -49.076572
37.990173 22.911547 -49.084717
37.529541 23.062872 -49.041695
38.012821 23.083345 -49.066322
37.738037 23.127035 -49.048836
37.998077 22.837244 -49.144192
37.903671 22.797405 -49.097378
38.116962 22.864193 -49.106194
37.606945 23.042549 -49.03426
37.808258 23.081236 -49.045265
37.586437 23.156027 -49.024189
37.98904 23.198116 -49.040157
38.104687 22.46789 -49.352936
37.946194 23.117386 -49.066006
38.090919 22.255846 -49.373081
38.164818 19.757458 -49.658443
37.936993 22.283447 -49.075253
39.172523 21.649834 -49.45575
38.493549 19.978848 -49.784534
37.888931 21.408421 -49.263481
38.141987 22.185118 -49.138733
37.826435 22.403111 -49.051655
38.197834 22.40514 -49.105309
38.01376 21.052685 -49.346405
38.696877 20.03631 -49.757484
38.335903 20.032001 -49.778576
37.799088 22.335398 -49.102623
38.199322 21.880611 -49.33287
38.110798 21.260294 -49.27206
38.327225 23.104021 -49.263855
38.195789 22.028807 -49.205368
38.02594 22.068148 -49.220032
38.718441 23.544672 -49.093185
38.313778 22.373714 -49.217484
38.100548 22.48007 -49.152733
37.893196 22.726645 -49.122452
38.383068 22.805796 -49.155067
38.202003 22.865007 -49.107986
37.990231 22.267118 -49.170414
38.222672 22.384508 -49.205311
38.297455 22.477446 -49.195755
38.186825 22.172033 -49.22953
38.112572 22.391199 -49.189693
37.995659 21.952877 -49.213528
38.395203 22.168266 -49.255859
38.120419 22.296247 -49.227493
38.516972 20.039307 -49.68845
38.402817 20.922817 -49.628071
38.525303 23.931091 -49.333645
38.708019 19.977196 -49.745712
38.601524 22.148895 -49.295265
38.081997 21.666063 -49.326233
37.806656 23.219406 -49.022003
38.386234 22.296618 -49.387066
37.989292 21.277702 -49.27224
37.899799 23.181095 -49.046299
38.363052 20.041262 -49.679729
38.532028 22.363598 -49.459084
38.618286 23.383926 -49.368698
38.433144 22.385597 -49.437309
38.635139 19.799026 -49.812103
37.805954 22.022079 -49.170742
38.253075 22.568787 -49.312439
37.953609 22.018942 -49.203823
37.849667 22.11599 -49.176697
37.833675 22.074411 -49.197659
38.38763 22.673136 -49.361469
37.925331 21.241652 -49.311024
38.336308 21.249506 -49.302959
38.056725 20.609692 -49.401783
38.051567 20.83057 -49.360493
38.146683 20.901388 -49.39875
38.604012 22.412479 -49.45018
38.010624 22.188795 -49.266556
37.941635 21.451618 -49.30574
38.108704 22.180403 -49.266376
39.496643 21.492622 -49.349709
37.956608 22.439251 -49.091618
38.124859 21.994541 -49.127861
37.944683 22.454559 -49.063427
38.373581 19.880142 -49.739414
38.022591 20.94186 -49.377182
38.344753 21.739128 -49.277363
38.410286 19.784121 -49.50824
38.38678 19.944824 -49.725063
39.101101 21.330051 -49.400795
38.234753 19.933544 -49.714405
38.214676 23.354212 -49.151608
37.969994 20.533718 -49.395973
37.876507 21.389654 -49.380421
38.291943 19.747213 -49.564613
38.111298 20.478321 -49.424095
38.344753 19.800406 -49.742813
38.010838 21.608162 -49.230114
38.48074 23.361956 -49.361553
38.584393 22.297075 -49.431713
38.385475 23.388409 -49.362453
38.011749 22.384598 -49.206169
37.903732 22.086718 -49.218586
38.000019 22.003895 -49.257671
38.225796 22.538715 -49.193077
38.549721 22.894594 -49.394772
38.561569 22.998003 -49.180481
37.973526 22.28142 -49.209877
38.695225 21.869102 -49.321053
38.52713 22.511398 -49.399448
38.604191 22.921988 -49.388191
38.582283 22.592159 -49.473045
38.667233 22.259348 -49.441914
38.609009 22.475971 -49.224354
38.803329 22.130125 -49.27322
38.737461 22.018673 -49.265991
38.545486 21.014559 -49.43795
38.211006 21.185354 -49.399433
38.652248 23.089159 -49.368912
38.682968 19.659035 -49.602158
38.449528 20.869368 -49.389591
38.806797 22.778118 -49.346684
38.691746 23.143803 -49.373028
38.309757 20.261488 -49.651638
40.096859 21.416552 -49.432556
40.316593 21.442991 -49.681969
38.590794 19.774599 -49.684586
38.393597 21.326588 -49.355324
38.941219 23.126823 -49.150238
39.902279 21.451685 -49.601082
38.214191 19.882551 -49.721169
