# .PCD v0.7 - Point Cloud Data file format
VERSION 0.7
FIELDS x y z
SIZE 4 4 4
TYPE F F F
COUNT 1 1 1
WIDTH 1559
HEIGHT 1
VIEWPOINT 0 0 0 1 0 0 0
POINTS 1559
DATA ascii
38.850426 16.958782 -41.016289
38.259411 12.644971 -40.823132
38.447861 12.622231 -41.069679
38.130482 12.674016 -40.794456
38.733044 11.316057 -40.935833
38.818192 10.927773 -40.97224
38.149822 11.076853 -40.829987
38.92664 16.956223 -41.035721
38.562164 16.533869 -41.181984
38.459232 12.359308 -41.127987
38.235344 17.443003 -40.850468
38.54348 10.907948 -40.929523
38.635174 16.967369 -40.979214
38.734013 18.264961 -41.305996
38.249535 11.097244 -40.858318
38.089397 14.38751 -41.088131
38.958363 18.474733 -41.352913
38.541832 16.872818 -40.976841
38.033096 17.432531 -40.787849
38.869263 12.961133 -41.271278
38.919613 11.303296 -41.210365
38.069027 12.042314 -40.842949
38.356789 16.816809 -41.102345
39.062134 13.578873 -40.941067
38.166328 12.060846 -40.86248
38.558498 16.796925 -41.148689
38.644062 16.53331 -41.199776
37.725983 18.037483 -40.908585
38.635559 15.899321 -40.955559
38.637074 15.025718 -41.007671
38.146854 17.200205 -40.905838
38.44363 17.088985 -40.973557
38.232666 16.835655 -41.043835
38.038548 16.817734 -41.038273
38.54274 17.084936 -40.979031
37.969852 16.554905 -41.095673
38.146534 15.010393 -40.912037
38.010742 15.267357 -40.853935
38.340572 17.090513 -40.954365
38.894852 13.543646 -40.897217
38.545116 12.283112 -40.953045
38.267105 12.272686 -40.906803
38.642216 12.970349 -40.89946
38.732014 17.061543 -40.974621
37.943726 17.096142 -40.892582
38.549564 15.021568 -41.002983
39.009583 17.178917 -41.046898
38.923481 11.260989 -41.014271
38.341908 17.184704 -40.944324
38.240738 17.179136 -40.928219
39.026611 17.919109 -41.34124
38.724503 13.149584 -41.139072
38.547626 13.150807 -41.105972
39.067745 10.82506 -40.9104
38.84396 11.795973 -40.918056
38.824631 16.033392 -41.014061
37.93837 17.307377 -40.903694
38.086163 12.941759 -40.807083
38.445839 10.811456 -40.958611
38.397385 16.673298 -41.24194
38.834599 11.507727 -40.93066
38.919071 14.703116 -41.27441
38.650032 13.151301 -41.124958
38.114937 18.311058 -41.090111
38.346924 17.30447 -40.96706
39.063004 18.250086 -41.346992
38.33625 17.063648 -40.888054
38.248325 15.009969 -40.934982
37.94318 14.886789 -40.84465
38.645367 17.153782 -40.9333
38.842377 10.898391 -41.208046
38.338558 16.877996 -40.946407
38.655693 18.320938 -41.215656
38.85783 11.191244 -40.917191
38.250011 16.885693 -40.929741
38.436237 17.056971 -40.919018
38.137096 16.757929 -41.052879
38.645958 18.111795 -41.244274
38.039757 16.859585 -40.877674
39.233845 11.586792 -40.923813
38.266209 11.572458 -40.794983
38.842415 18.313772 -41.252735
38.537472 17.060122 -40.944485
38.736553 10.903675 -40.968491
38.95269 10.857124 -41.238834
38.250706 17.041843 -40.852116
38.247555 17.293303 -40.946693
38.632 11.477027 -41.103809
38.637478 13.240512 -41.096485
38.74522 14.328705 -40.929085
38.742798 12.463009 -40.941879
38.847858 10.881024 -40.922474
38.355942 16.971584 -40.93219
38.833233 14.892597 -41.004993
38.927914 11.175906 -40.875362
37.92646 16.70281 -41.068878
38.87746 17.072233 -40.994183
38.653992 18.03105 -41.273479
38.317364 11.666216 -40.800426
38.833893 13.203267 -40.991936
38.417667 13.750237 -40.786163
38.246708 17.401758 -40.945137
38.734638 10.724737 -41.098755
38.738731 12.634837 -40.923119
38.140522 14.892369 -40.892639
38.742317 11.494111 -40.906513
38.662407 11.892848 -40.877728
38.935986 12.750202 -40.910484
38.830353 11.713632 -41.222683
38.024899 16.50061 -41.020607
38.348198 11.837246 -40.890812
39.02536 11.61132 -40.976082
38.842216 13.601289 -41.202
38.145542 15.397854 -41.131405
38.742321 17.616982 -41.020214
38.831123 17.186646 -41.029984
38.252853 12.994832 -40.880909
38.444698 11.939943 -40.901558
38.341721 15.761187 -41.037647
39.087887 16.796608 -41.381695
38.067688 18.187281 -41.127003
38.049763 16.881054 -41.148815
38.457607 16.858257 -41.152088
37.974895 15.033736 -40.991539
38.752857 16.885538 -41.278564
38.830154 17.623249 -41.0508
38.920914 18.165915 -41.202354
38.569324 11.067415 -40.847378
38.818054 16.153849 -41.048893
38.234375 15.367874 -41.12154
38.580006 10.736094 -40.843845
38.247341 15.599533 -40.869938
38.839199 16.905769 -41.297607
38.55172 16.837116 -41.176819
38.847145 16.830124 -41.160431
38.132668 18.006065 -40.921764
38.444839 16.963699 -40.95298
38.856544 11.205273 -40.98291
38.554802 14.840986 -41.116741
38.638489 15.720555 -40.979099
38.736752 11.409664 -40.925659
38.655209 10.808522 -41.190769
38.631771 15.260738 -41.15366
38.444801 15.722104 -40.948448
38.337845 15.249858 -41.117813
38.347263 15.721397 -40.93689
37.672035 14.856751 -40.951069
38.346283 14.039953 -40.916195
38.307682 15.105564 -41.13747
38.025265 15.100543 -41.11026
38.221748 15.231718 -41.158989
38.839508 14.225879 -40.965179
38.650887 15.082458 -41.212082
38.259544 16.724236 -41.091278
38.544395 15.540145 -41.032238
38.338787 16.959351 -41.173073
38.442604 16.872152 -40.962475
38.042686 15.716357 -40.85989
38.152828 15.280595 -41.056515
38.836578 12.647635 -40.930264
38.824078 14.456328 -41.248058
38.826336 16.973269 -41.053406
38.931038 12.70931 -41.066406
38.34166 18.114735 -40.929253
38.348415 15.62889 -40.940769
38.450169 13.45974 -41.084232
39.166367 18.303854 -41.392845
38.939465 17.272709 -41.299782
38.130928 17.63139 -41.070789
38.343037 11.406121 -40.878139
38.648167 16.756128 -41.217735
38.449436 16.435474 -40.937984
39.310711 12.09787 -40.946987
38.441143 18.485399 -41.121166
38.647411 14.955556 -41.169041
38.254448 15.240933 -41.120705
38.04092 15.260416 -41.05751
38.115238 16.053198 -41.155937
38.548073 13.590801 -41.127773
38.439125 17.274347 -41.130852
38.723839 16.376057 -41.255177
38.846912 11.390976 -41.149033
38.246391 16.998646 -40.947262
38.076099 16.22896 -40.811283
38.539822 17.988369 -41.197559
38.921612 17.993811 -41.264702
38.346394 17.2843 -41.195984
38.874733 17.34087 -41.177444
38.9389 12.111315 -40.928558
38.439468 13.488334 -40.875229
39.23415 12.044547 -41.035233
38.446709 17.784834 -41.208927
38.229099 17.281651 -41.172184
38.750755 17.809454 -41.265881
38.572681 17.746567 -41.248463
37.964706 13.155067 -41.030022
38.642426 13.388703 -40.928776
38.048702 17.813467 -41.154335
38.628811 17.375874 -41.208912
38.839062 17.986626 -41.250778
38.547993 15.996635 -41.170956
38.26384 13.391967 -40.872578
38.625912 14.764739 -40.951069
39.10231 13.480059 -40.932167
39.179497 12.496264 -40.934242
38.813057 13.342868 -40.888832
38.034943 17.831831 -40.914761
38.048073 11.823442 -40.842331
38.747898 14.24762 -41.214905
38.844166 17.71839 -41.308216
38.919365 14.337325 -41.232571
38.540768 12.49955 -41.029949
38.95137 11.063127 -40.907139
38.850719 13.504133 -40.951828
38.834278 12.213214 -41.166344
38.567184 13.539164 -41.215561
38.733932 11.067553 -41.133518
38.052837 17.898817 -41.13335
38.538956 10.962638 -40.868942
38.799301 11.129425 -40.860062
38.141918 11.901661 -41.074654
38.853065 16.932716 -41.162365
38.247765 12.587867 -40.889938
38.127907 11.35848 -40.764118
38.124283 16.28758 -40.995834
38.148193 16.481838 -40.914715
38.151714 14.712764 -40.944008
37.961365 14.708172 -40.90559
37.952003 11.411077 -40.798119
38.05365 16.851343 -41.129051
37.942055 11.333395 -40.823154
37.69326 14.666889 -40.922543
38.66478 16.128681 -41.227573
37.684895 11.591275 -40.789486
38.723099 16.910521 -41.04808
38.233437 16.106348 -41.162029
38.934761 17.366045 -41.287167
38.972202 18.252281 -41.346275
37.846775 13.71538 -40.859821
37.852879 13.124537 -40.85006
38.014233 13.969322 -40.999344
38.730671 13.715791 -41.207623
37.500175 14.756796 -40.89883
38.049835 12.275846 -40.870678
38.918816 11.972667 -41.047588
37.860615 18.143362 -40.824322
37.766117 13.960337 -40.94833
37.896557 12.269844 -40.873909
38.050304 15.846216 -40.921703
38.35257 11.27179 -40.804375
37.732445 12.30738 -40.849342
37.875465 11.352423 -40.939747
37.954651 16.878538 -40.873638
38.437679 15.129346 -40.895004
38.539944 17.061258 -41.180466
38.460766 16.933624 -41.147247
38.352966 15.847428 -40.957767
38.638645 16.093157 -41.027615
38.210007 16.946629 -41.104378
38.641708 12.214929 -41.121346
38.639702 17.01115 -41.174282
38.444073 12.832273 -41.080578
38.648163 16.940876 -41.196213
38.53524 10.697032 -40.914131
38.149765 12.993421 -40.864731
37.944027 17.63158 -40.894775
38.454269 16.897749 -41.237701
38.229942 15.932501 -41.145172
38.817482 14.493036 -41.047375
38.343628 14.855516 -41.134457
38.258495 11.314333 -40.869614
38.350227 14.477284 -40.946064
38.241932 16.970074 -41.180443
37.949383 10.805335 -40.799591
38.35014 14.911363 -41.052544
38.807255 17.251545 -41.004181
38.845802 12.445812 -41.191391
38.734932 16.59338 -40.946152
38.150612 14.169554 -40.920479
38.04504 13.137112 -40.953045
38.141224 13.20464 -40.955547
38.140358 12.961452 -41.08828
38.073292 16.910931 -41.020069
38.13525 16.871334 -41.17979
38.444431 16.917397 -41.011181
38.736084 16.443558 -41.239651
38.130451 17.583113 -41.041599
38.81778 15.846263 -41.05069
38.736015 12.541591 -40.934113
38.737453 11.618632 -40.94408
38.646015 16.991539 -41.236507
38.729683 16.998522 -41.038261
38.631809 11.403934 -40.910728
38.849113 17.552149 -41.230904
38.72971 15.359318 -41.170204
38.939445 11.624781 -40.97076
37.835876 16.441769 -40.831184
37.943302 15.218558 -40.924698
38.112125 15.397392 -41.002941
38.632202 17.00366 -41.00951
38.176838 15.133143 -40.859512
39.04134 14.435629 -41.013512
39.002342 14.670444 -41.090084
38.545277 17.798498 -40.978554
38.647003 13.853773 -41.058826
38.925526 16.811121 -41.214108
38.745243 16.935108 -41.224144
38.550495 16.941839 -41.173275
38.84436 12.531338 -41.168602
38.235207 16.922525 -40.972157
38.739468 13.396236 -40.939026
38.542244 13.387697 -40.920933
38.440014 15.359019 -41.108841
38.281914 16.887775 -41.216427
39.372242 12.224213 -41.029583
38.138832 14.765423 -41.11475
38.634262 16.014338 -41.193756
38.133282 11.354606 -40.910725
38.146595 13.383358 -40.857166
38.656586 16.191164 -41.172829
38.746552 15.389008 -41.228905
38.638775 16.923048 -41.076614
39.223225 11.655774 -40.927452
38.841938 16.091679 -41.214134
38.345535 13.392435 -40.887375
38.008362 11.343177 -40.747131
38.924438 11.106707 -40.940601
38.344826 17.799164 -41.186874
38.337833 16.002295 -41.124687
38.457718 17.035599 -41.134613
38.345688 16.32428 -41.140091
38.82169 16.825708 -40.982685
38.191067 11.262958 -40.81488
38.440674 13.389444 -40.904327
38.15847 18.250015 -40.93325
38.44455 15.634309 -40.962395
38.83313 12.318213 -41.157211
39.148724 12.282673 -40.924316
38.991932 11.391238 -40.920273
38.257153 11.06445 -41.075188
38.643467 11.097523 -40.91494
38.343807 16.920959 -41.140537
38.153454 13.153692 -40.848972
38.543633 11.092114 -40.902771
38.439548 15.323645 -40.95842
38.850628 11.163405 -41.148499
38.548016 12.217409 -40.849293
39.119999 10.749846 -40.935505
38.530083 11.439992 -40.947216
38.45372 13.547232 -41.060497
38.926941 15.038413 -41.210339
38.841423 12.908228 -41.018757
38.054302 11.064038 -41.041843
38.262043 11.162612 -41.029762
38.645794 15.042223 -41.151997
38.258595 17.137997 -40.844067
39.015045 14.347714 -40.987423
38.351017 12.535145 -41.064384
38.35498 11.593115 -41.079407
38.333679 17.379553 -41.161957
38.44928 11.381817 -41.073898
38.542271 12.130691 -41.117222
38.647663 17.893524 -41.222321
38.349407 11.069753 -41.064838
37.822071 13.450687 -40.984348
38.558765 14.858075 -41.170734
38.721958 17.305689 -41.018864
38.551788 11.504289 -40.888668
38.356853 11.159579 -41.047588
38.643074 14.642068 -41.168507
37.845482 17.276358 -40.829754
38.350552 16.498142 -40.871952
38.456493 17.377501 -41.166084
38.432487 12.657555 -41.098568
38.061275 10.856561 -41.010639
38.650627 14.783142 -41.198757
38.239872 14.634846 -41.104118
38.041363 16.527212 -40.804115
38.35614 10.766782 -41.056732
38.247246 16.319355 -41.139832
37.866241 16.520365 -41.086349
38.335396 15.322646 -40.945183
38.20541 13.553448 -41.160156
38.648136 15.592433 -40.962746
38.138325 11.206396 -41.06237
38.154465 11.606404 -41.066082
38.644581 11.599203 -41.126881
38.04771 12.163622 -40.834682
38.360203 17.053328 -41.167286
38.333466 11.039193 -41.010303
38.842613 18.34506 -41.018658
38.426735 14.600237 -41.071533
38.151073 10.982788 -41.068588
38.357777 13.856939 -40.978245
38.740993 12.372827 -40.973545
38.239243 14.587257 -41.014828
38.241547 10.933311 -41.017429
38.231747 12.540042 -41.109169
37.82497 11.582406 -40.938805
37.887344 11.364998 -40.87965
38.239666 17.420813 -40.847801
38.636032 12.524723 -41.118362
37.947559 14.896608 -41.073967
37.931969 11.720625 -40.802528
38.344769 17.39072 -40.886971
37.991581 11.109499 -41.021744
38.03643 12.95101 -41.05452
37.952438 10.859938 -40.971024
38.043388 13.475769 -40.80106
38.008827 11.549255 -40.97673
38.644012 14.447919 -40.956169
38.261036 11.004691 -40.866486
37.843658 12.915188 -40.937332
38.438534 16.97142 -41.200912
37.807888 13.388535 -40.73793
38.029411 17.390507 -40.889236
38.043629 14.167014 -40.897579
38.047897 15.501431 -40.85368
38.132267 16.681767 -40.921913
38.146629 11.163689 -41.02882
38.443848 17.993723 -41.169727
37.850365 11.685054 -40.844296
38.739853 17.896084 -41.245705
37.872307 11.697157 -40.936855
38.561958 17.906958 -41.202183
38.245693 12.663524 -41.091213
38.550064 16.461166 -41.201889
38.197788 17.925394 -41.162071
37.861954 16.727119 -40.993294
37.880684 11.046274 -40.938835
39.02565 15.476192 -41.033375
37.930141 13.769481 -40.946255
37.962551 11.113268 -40.918861
38.123993 16.91544 -41.082298
38.245365 13.068851 -41.060528
38.252583 11.882699 -40.984875
37.864643 14.62582 -40.911247
37.838875 11.123022 -40.857353
37.857216 13.741916 -41.019886
37.877571 10.968006 -40.86792
38.150002 14.61501 -40.99913
38.545349 14.759912 -40.943043
38.059216 18.301239 -41.106525
38.250435 10.910803 -40.871777
38.547684 12.589521 -40.942997
37.948055 14.79783 -40.883701
38.446697 11.69621 -41.076359
37.936859 17.960535 -40.967884
37.930744 12.919967 -40.942657
37.952835 13.119124 -41.023403
37.974876 10.870877 -40.854362
38.056282 13.181891 -41.069805
38.054657 12.792577 -40.983444
38.048393 17.170801 -41.088619
38.242401 11.715246 -40.849964
37.904606 11.677732 -40.845509
38.078117 12.453071 -41.009441
38.259438 18.368036 -40.965446
39.07243 11.166847 -40.917545
38.029457 16.251722 -40.877865
38.141121 11.800102 -40.978172
38.156162 10.797046 -40.835434
38.369873 16.758141 -41.156097
38.558414 17.46418 -41.188625
38.278172 11.805453 -41.026356
38.348244 12.587341 -40.907307
38.154903 11.06619 -41.055805
38.648071 13.028831 -41.073944
38.245506 17.468676 -41.125874
38.443634 15.266849 -41.119026
38.743076 15.323485 -41.02689
38.447803 13.756936 -41.082878
38.43964 15.706325 -41.153091
38.044918 16.687527 -41.057182
38.14122 15.802766 -41.089481
38.330627 13.025337 -41.206078
38.153847 13.716422 -41.116714
38.029701 13.929833 -41.098324
38.183956 17.661634 -40.847664
38.245396 17.550947 -41.087952
38.254593 14.256518 -40.908745
38.140041 12.522897 -41.030952
37.957626 12.55064 -40.973106
38.029114 11.160252 -40.884315
37.887291 13.258134 -40.938179
38.06863 11.703716 -41.023556
38.058678 14.859026 -41.101162
38.078922 12.081718 -40.994453
38.056313 18.240641 -40.922184
38.140713 15.057272 -41.040867
38.15416 12.428627 -41.057201
38.070854 15.970279 -40.997299
38.084023 12.76311 -40.991089
38.067795 12.548107 -40.805889
38.246105 13.586483 -40.793972
38.543961 11.25378 -41.073494
38.042053 12.117299 -41.046638
38.741898 13.085538 -40.948353
38.162094 13.038566 -41.045956
38.083607 11.34825 -41.00708
38.25737 13.27199 -41.078781
38.2486 13.378877 -41.063911
38.102695 12.096917 -40.93663
38.133091 17.436985 -41.120682
38.143806 13.60044 -41.129322
38.453285 13.050928 -41.088577
38.549244 11.56464 -41.072392
38.040451 13.38467 -41.051399
38.155361 13.94088 -41.125393
38.344902 13.082798 -40.888371
38.443031 12.588496 -40.923916
38.247658 18.227673 -41.164944
38.35519 13.1449 -41.062408
38.267277 14.827044 -41.070972
38.247452 10.877805 -40.838623
38.674377 13.025131 -41.211903
38.105347 16.212229 -41.061707
38.026283 13.449219 -41.056931
37.78661 14.887772 -41.044144
38.232193 16.075773 -41.130779
38.141853 16.25444 -40.901707
38.246346 12.739549 -41.086929
38.344307 15.703603 -41.145866
38.524422 13.466227 -40.897934
38.34288 12.646465 -41.114063
38.842449 11.930901 -40.949944
38.249813 12.534129 -41.038277
38.138985 16.085545 -41.081978
38.348103 11.488039 -41.039082
38.127708 15.83906 -40.935112
38.145958 12.755622 -41.082531
38.7337 13.050856 -41.155621
38.156601 12.13014 -41.079777
38.238392 13.458896 -41.03857
37.963036 13.710378 -41.102024
38.046677 13.73116 -41.073208
38.648582 15.305768 -41.212032
38.261497 15.730167 -40.921848
38.362141 12.74642 -41.087437
38.635479 13.112498 -40.981598
38.235317 16.054878 -41.149635
38.26672 13.234415 -41.043129
38.415817 13.673265 -40.785942
38.256805 13.183322 -41.039505
38.855721 14.124086 -40.920769
38.448906 13.714159 -41.12534
38.440197 15.658663 -41.110802
38.249794 14.885955 -40.90934
38.07082 12.647127 -41.053509
38.0644 13.110831 -40.874363
37.82164 11.894493 -40.89613
37.948471 11.216483 -40.850269
38.149002 14.198069 -41.070419
38.144146 13.131464 -41.028809
38.238308 16.741777 -41.161766
38.969776 11.177742 -41.230549
38.459408 11.175529 -41.144718
38.163898 14.428199 -41.093769
38.445667 13.20755 -40.917717
38.737919 13.038118 -40.886528
38.351013 13.05567 -41.086853
38.052151 12.876644 -40.857449
37.969299 11.012106 -40.816326
38.12801 14.729073 -41.043175
38.148987 11.707434 -40.842899
38.552036 11.522029 -41.134186
38.066509 14.964473 -41.105209
38.150173 16.448103 -40.86829
38.243618 17.243944 -41.104141
38.235622 14.314142 -41.114136
38.738605 12.129885 -41.166096
38.243515 13.095424 -41.114094
39.04274 13.645006 -40.917652
38.849537 11.488082 -41.210457
38.363693 11.527462 -41.106606
38.131393 13.287851 -41.137356
38.84124 11.407603 -41.213997
38.165882 17.234426 -41.097878
38.171909 13.868554 -41.125908
38.752922 15.275882 -41.245014
38.347752 11.523966 -40.896137
38.736015 12.840219 -41.145554
38.731266 12.921151 -41.124496
38.065125 13.934528 -40.850491
38.187889 12.855526 -41.065601
38.061401 15.048038 -41.015347
38.680195 18.264891 -40.95295
38.04631 12.244487 -40.814789
38.041164 11.312165 -40.825527
38.063831 12.495701 -41.013638
38.554817 16.19956 -41.148632
38.737564 16.106251 -41.205215
38.73822 14.42274 -41.180061
37.950001 16.272532 -40.888081
38.744122 16.753836 -41.24086
37.967136 13.83771 -40.849945
38.073772 16.567152 -40.888515
38.146851 18.201864 -41.201878
38.146423 13.658083 -40.908272
38.898914 14.965849 -41.093967
38.452602 16.090281 -41.137207
38.837887 14.414808 -41.198959
38.246777 11.678076 -41.051983
38.074528 18.264967 -41.041203
38.347958 15.013062 -40.951847
37.841644 16.668922 -40.836231
38.753902 16.194956 -41.195095
38.069183 14.808236 -40.89452
37.92815 13.803066 -40.753166
38.126141 10.864864 -41.023594
38.140728 16.351931 -41.159817
38.909142 12.533289 -41.210964
38.52166 11.344415 -41.044128
38.256531 12.85448 -41.040756
38.933018 16.177082 -41.226383
37.958538 12.477156 -40.801441
38.252602 13.574541 -41.077328
38.538311 13.160826 -40.903648
38.041969 13.213304 -40.749134
38.64473 16.097513 -41.180286
38.339909 16.102585 -41.103706
38.448715 10.759752 -41.084526
38.101135 12.874809 -40.961681
38.058128 10.911961 -41.106731
38.142426 13.192812 -41.085857
38.140491 11.680397 -40.995991
38.253311 13.614455 -40.881596
38.943665 16.111719 -41.004776
38.435432 12.465192 -40.907795
38.788731 14.385882 -41.261578
38.753063 14.454671 -41.230915
38.042908 12.348699 -41.069
38.739712 17.11331 -41.287792
38.046673 12.441679 -40.937836
38.928173 16.737488 -41.013527
37.86425 11.627645 -40.803329
37.978111 11.775552 -41.117481
38.546375 18.206284 -41.196659
37.953552 13.440239 -40.828461
38.540684 13.358685 -41.113785
37.866108 11.214071 -40.78936
38.632328 11.563617 -41.090271
38.253925 13.041124 -40.97596
38.336483 16.653805 -40.936222
38.44635 13.171328 -40.890495
38.215153 15.392276 -41.002632
38.245815 11.216758 -40.869194
38.452682 18.294558 -41.156448
37.874226 14.975689 -41.037605
38.046619 11.625351 -40.830841
38.026047 18.294209 -40.896664
38.140671 13.605184 -40.855145
37.945637 17.736771 -40.888126
38.736378 13.372831 -41.155312
38.735661 13.322459 -41.228001
38.186531 13.542454 -41.155674
38.023487 13.689476 -40.783798
38.743919 16.220682 -41.22514
38.073009 15.625348 -40.892494
38.347908 11.308815 -40.884083
38.1758 14.308224 -40.998039
38.353661 12.112574 -41.095562
38.163906 11.30559 -40.841629
38.139336 11.626829 -40.844597
38.248573 12.462147 -40.878391
38.739994 12.223228 -41.149986
38.154724 14.264079 -40.885826
38.065948 13.089623 -40.835987
38.232391 16.244442 -41.148277
38.238304 14.297322 -41.034325
38.252029 16.571064 -40.929062
38.342476 12.465051 -40.893478
38.960026 17.205914 -41.320293
38.245522 16.035055 -40.914742
38.350746 14.712132 -40.96336
38.171795 12.189603 -40.967751
38.629623 13.473287 -40.913395
38.341351 16.255487 -41.167995
38.128891 14.002018 -40.999352
37.853451 15.042073 -40.874008
38.831913 15.034652 -41.033379
38.741909 13.42546 -41.000362
38.540215 12.933663 -41.093273
38.339695 16.159426 -40.951996
38.337395 13.34016 -40.947071
38.453037 13.193595 -41.127605
38.446068 13.398548 -41.148365
38.444618 11.067611 -41.067364
38.271938 16.415237 -41.103615
38.7346 15.378387 -40.956802
38.73851 13.176705 -40.930275
38.841156 17.276993 -41.273251
38.633595 12.461025 -40.932995
38.540222 11.631288 -40.917244
38.35619 16.449934 -41.17009
38.936348 16.762672 -41.304615
37.951584 11.700825 -40.935436
38.740582 11.096681 -40.927425
38.824883 16.022139 -41.247463
38.823475 16.199076 -41.191536
38.90926 15.547583 -41.291412
38.682896 15.241423 -41.256557
38.445271 11.623344 -40.902859
38.838043 13.369639 -41.179005
38.351776 11.788198 -41.045773
38.645378 13.183594 -41.165825
38.744473 16.004007 -41.222057
38.648983 14.463079 -41.200085
38.939632 14.421618 -41.228992
38.543552 13.691504 -40.91621
38.548752 18.301931 -41.192654
39.050468 16.76763 -41.34129
38.950836 13.185493 -40.964672
38.843815 13.172207 -40.946476
38.518158 17.331665 -41.152901
38.643574 13.370981 -41.132053
38.635944 11.690486 -41.110275
38.43832 18.198723 -41.173038
38.419601 15.846811 -40.979263
38.741825 16.659386 -41.251801
38.739658 14.016603 -41.195866
38.350628 15.289958 -40.909561
38.55246 15.375216 -40.927959
38.647026 15.915159 -41.210022
38.872272 15.497903 -41.288063
38.569885 13.32628 -41.18383
38.450123 15.7925 -41.127159
38.544239 12.990734 -40.930904
38.733284 14.330705 -41.199268
38.538685 13.271576 -41.119709
39.044807 18.261215 -41.354126
38.348885 11.220324 -40.892502
39.018265 17.127615 -41.344158
38.912792 16.732956 -41.219959
38.837761 14.029119 -41.216793
38.63829 13.84747 -41.2267
38.322372 11.876276 -41.008083
38.734055 13.46451 -41.137733
38.529884 14.645318 -41.13636
38.853199 15.290941 -41.261803
38.832714 15.380315 -41.236923
38.637547 13.610011 -40.936401
38.64431 13.085438 -40.935139
38.15612 11.21117 -40.855278
38.558929 15.69875 -41.175549
38.822628 15.783134 -41.207527
38.839527 15.227822 -41.27895
38.439606 16.53903 -41.17001
38.540848 15.300364 -41.212898
38.852573 14.9739 -41.271156
38.449341 16.018158 -41.151009
38.554329 12.950681 -40.886078
38.840565 15.9238 -41.270008
38.972851 13.840414 -41.297554
38.836372 16.229122 -41.249809
38.550152 16.100252 -41.160782
38.798519 13.320086 -41.246727
38.455826 13.151027 -41.080952
38.024456 11.172416 -41.053978
38.342251 13.298574 -41.148083
38.50779 13.256073 -40.870495
38.224857 17.092787 -41.168472
38.644287 18.430351 -41.229717
38.751591 13.251152 -40.909973
37.748589 11.66517 -40.739922
38.443859 16.562979 -40.958542
38.886509 14.922538 -41.291901
38.633759 13.458635 -41.119961
38.032375 11.741849 -40.871193
38.547577 17.151091 -41.177029
38.841583 15.808638 -41.00769
38.353584 12.443822 -41.084419
38.418232 16.503916 -40.898438
38.521843 15.856068 -40.99342
38.818024 15.690886 -41.232254
38.551186 13.456979 -41.108459
38.646584 15.699973 -41.186512
38.734726 16.315794 -41.212639
38.541687 11.715158 -40.906033
38.85527 13.43609 -41.017502
38.441849 10.691038 -40.899052
37.830467 16.49272 -40.741852
38.543602 11.121615 -40.981255
38.526325 17.677073 -41.169342
38.831966 16.316502 -41.234249
38.325573 11.871999 -40.802189
38.556381 17.381931 -41.195385
38.926601 13.461952 -40.947151
38.739178 14.639419 -41.196064
38.636829 14.424278 -41.15237
38.646683 13.25468 -40.894176
38.741619 12.426794 -40.892517
38.83889 13.247256 -40.926434
38.348579 13.492092 -40.845486
38.736618 15.694251 -41.209095
38.54496 15.286541 -40.943275
38.838882 16.670105 -41.2845
38.927444 16.653584 -41.312473
38.747444 15.908536 -41.228031
38.742367 15.794228 -41.199696
38.755787 13.496915 -41.187786
38.759556 15.726315 -41.29673
38.634472 15.448711 -40.919456
38.643238 15.003325 -41.214977
38.570786 15.006822 -41.19854
38.735497 13.496996 -40.918453
38.416172 17.658062 -41.103806
38.427086 17.691793 -41.163139
38.640961 11.655974 -41.191212
38.404118 15.510387 -41.198708
38.741058 15.815553 -40.983845
38.933857 15.867318 -41.077389
38.731518 15.861676 -41.026905
37.87067 17.380171 -40.772072
38.559734 16.520826 -40.932709
38.737583 15.294431 -40.978512
38.636791 16.732288 -41.181034
39.042198 14.027301 -41.271629
38.842056 12.417289 -40.918892
38.956657 13.262763 -40.933834
38.535965 16.560333 -40.970264
38.545708 11.033307 -41.066818
38.997379 17.837646 -41.285542
39.083424 17.20347 -41.375603
38.947285 14.272537 -41.066502
38.636322 16.328934 -41.19043
38.835766 14.327662 -41.214592
38.643963 12.423852 -40.889446
38.157742 11.505196 -41.079021
38.744518 11.193078 -40.907589
38.243202 13.304975 -41.161076
38.255028 16.77182 -40.936302
38.446564 16.69043 -40.986317
38.450611 16.65671 -40.951569
38.046295 16.690073 -40.916447
38.443474 16.469982 -40.966133
38.244934 16.462177 -40.934391
38.248699 16.159031 -40.934635
37.962685 16.139296 -40.860729
38.250015 15.937212 -40.92704
38.438858 15.82146 -40.940418
38.167599 12.987133 -41.133736
38.423393 11.127016 -40.934757
38.633987 11.181629 -40.910542
38.549778 15.81352 -40.956528
38.730011 16.128641 -40.995457
38.828701 16.343578 -41.283958
38.338814 13.223856 -41.051399
38.182709 13.472457 -41.023117
38.348186 16.561718 -40.943718
38.64394 14.542041 -41.187088
38.547478 11.159717 -41.086227
38.417934 14.467204 -41.179611
38.44759 13.236876 -41.064732
38.546425 14.538073 -41.172104
38.346539 12.438391 -40.822956
38.244434 16.685202 -40.942421
38.15744 16.167953 -40.918781
38.342258 15.103017 -40.931095
38.344475 14.883851 -40.920357
38.448578 17.762913 -41.004135
38.803833 15.378148 -40.966141
38.082638 13.054139 -41.060997
38.525368 14.435827 -41.189758
38.442787 12.98612 -40.915802
38.55014 12.419245 -40.870087
38.946194 15.831717 -41.021805
38.554848 17.210735 -41.22142
38.520767 17.282991 -41.208466
38.027588 16.157967 -40.88443
37.779419 11.146706 -40.822025
38.455055 11.036495 -41.039501
39.01432 12.437442 -40.929066
38.936096 12.431915 -40.927288
38.9286 11.168466 -41.161762
38.520977 11.275573 -40.867641
38.541893 11.191828 -40.892792
38.659462 13.055314 -40.859577
38.346172 16.178186 -41.087635
38.054977 16.439163 -40.903862
38.295883 13.058773 -40.803822
38.744198 11.374434 -41.134647
38.432335 15.004644 -41.175022
38.247704 12.435049 -40.799839
38.544144 16.778646 -40.983158
38.347424 16.771618 -40.952042
38.543583 16.660158 -40.970158
38.433094 16.192039 -41.116863
38.132744 17.084074 -40.905857
38.441692 14.426933 -41.111435
38.644234 17.091358 -41.00132
38.639957 16.65682 -40.980198
38.260094 16.643524 -40.914562
38.356041 16.445007 -40.915489
38.145153 15.634804 -40.907856
38.144352 15.283209 -40.87318
38.348248 15.198256 -40.917797
38.540077 15.182073 -40.95348
38.345325 14.977805 -40.91552
38.063854 14.555161 -40.870937
38.344276 14.355515 -40.909912
38.537514 14.265304 -40.959824
38.058311 14.207973 -40.852039
38.641987 14.138552 -40.951374
38.037529 14.13535 -40.852638
38.637917 14.046541 -40.96669
37.813198 13.703739 -40.723381
38.063507 14.709752 -40.912537
38.054207 14.46237 -40.905579
38.251156 14.450989 -40.885601
38.058239 14.279203 -40.881355
38.250893 14.131531 -40.891571
38.53891 14.04504 -40.946571
38.537212 13.832061 -40.938442
38.550655 13.613039 -40.929577
38.020325 13.519479 -40.853653
38.141396 16.550589 -40.901005
38.351139 15.929639 -40.941311
38.146187 15.943564 -40.894009
38.640129 15.625029 -40.999115
38.539536 14.981246 -40.949451
38.350052 14.258626 -40.926395
38.334095 13.955687 -40.923199
38.151344 13.92869 -40.855553
38.635277 13.824318 -40.949219
38.344406 13.613711 -40.898041
38.152958 13.51355 -40.865265
38.140762 13.210464 -40.872341
38.13541 16.608711 -41.139389
38.634136 14.670056 -40.964066
38.131741 14.492974 -40.893589
38.449738 14.445268 -40.925564
38.147797 14.143579 -40.870365
38.650581 13.961123 -40.982697
38.146229 13.69214 -40.816124
38.560802 16.318817 -41.172024
38.534332 14.141022 -40.93655
38.522987 13.950314 -40.959991
38.039257 13.892415 -40.893627
38.246655 13.837765 -40.890965
38.538715 13.734851 -40.94429
38.234768 13.512769 -40.886143
38.239651 13.422457 -40.898491
38.072063 13.201975 -40.858894
38.541031 13.204844 -40.934589
38.042767 12.991269 -40.842411
38.091587 16.416229 -40.858372
38.548668 15.901351 -40.943951
38.349026 15.594742 -40.909351
38.542595 14.835845 -40.926723
38.148109 14.75545 -40.851051
38.743519 17.376696 -41.249355
38.625526 15.328322 -40.992218
38.645638 15.107216 -40.983505
38.16391 15.061891 -40.868736
38.443775 14.668856 -40.931671
38.641262 14.48683 -40.995701
38.078602 14.979334 -41.163841
38.631054 12.994486 -40.94479
38.122219 14.639372 -41.115635
38.542435 15.318187 -40.980232
38.559483 14.70301 -41.031429
38.048061 14.451778 -40.851585
38.55777 14.478621 -40.985722
38.061703 13.958706 -40.878696
38.348984 13.825095 -40.90638
38.339756 13.739503 -40.912685
38.201862 12.959249 -41.148052
38.446476 13.956246 -40.942169
38.439331 13.515167 -40.918392
38.445156 13.084313 -40.907436
38.553604 12.552958 -41.16214
38.079567 12.570962 -41.056389
38.142696 13.421947 -40.875591
38.125942 13.324904 -40.926186
38.348732 13.201786 -40.903538
38.146481 12.778906 -40.851768
38.152431 14.349463 -41.102634
38.325161 14.783071 -41.138958
38.577084 13.5585 -40.882107
38.743153 14.972075 -40.976105
38.746777 14.881304 -40.989052
38.826756 14.346557 -40.991917
38.837994 14.273407 -41.003803
38.349014 16.477371 -40.951679
38.629589 16.160898 -41.001545
38.252426 10.970806 -41.082119
38.118267 14.041238 -40.823307
38.341351 15.703403 -40.875793
38.550434 15.645836 -40.973106
38.838501 15.41473 -41.026833
38.91687 14.72586 -41.058407
38.91766 14.672735 -41.014805
38.358307 15.913585 -41.154591
38.873447 12.178984 -41.244415
38.634712 15.9482 -40.9828
38.446621 15.410153 -40.948143
38.245689 15.191771 -40.909618
38.342556 17.525887 -40.973576
38.254581 17.485823 -40.925907
38.54493 17.499271 -40.981174
38.352489 17.405668 -40.961605
38.441994 17.400864 -40.971004
38.637764 17.192923 -40.994251
38.335194 16.743694 -40.91988
38.646088 14.168757 -40.996525
38.11887 14.65701 -41.149494
38.696297 14.192403 -40.878593
38.638714 17.616562 -41.007912
38.350883 17.710514 -40.960621
38.537601 17.528229 -41.005013
38.54427 17.40177 -40.986336
38.542809 17.30755 -40.996922
38.539349 17.18572 -40.979263
38.835045 16.874123 -41.030697
38.826374 16.788324 -41.041809
38.546677 15.067057 -40.936569
38.746517 16.03137 -40.993923
38.968311 16.024492 -41.022278
39.021923 15.797452 -41.01516
38.927879 13.404406 -40.962139
38.835308 12.450499 -40.960827
38.446243 13.581617 -41.112068
38.202576 17.698662 -41.189919
38.835514 17.708099 -41.034248
38.444965 17.533945 -40.991531
38.844967 17.498426 -41.025719
38.643013 17.394125 -41.003777
38.905079 17.260416 -41.059879
38.946423 17.075756 -41.050385
38.439575 11.811982 -41.102821
38.452332 15.496264 -41.139332
38.843178 15.504375 -41.009888
38.345592 12.996838 -40.897453
38.833389 12.988447 -40.971584
38.64349 17.307261 -41.010094
38.930981 16.788765 -41.05975
38.634987 12.583537 -40.968208
38.43465 17.482231 -41.163586
38.721371 16.154039 -41.02042
38.930565 14.35657 -41.014656
38.442879 14.261544 -40.939484
38.460075 14.184733 -40.967747
38.932465 14.014591 -41.027508
38.349804 11.678466 -41.059277
38.735062 13.615918 -40.95784
38.844799 16.447044 -41.052624
38.902622 14.756761 -41.037258
38.930153 14.445652 -40.999149
38.729324 15.112134 -40.996696
38.849213 14.810289 -41.041771
38.855446 12.539113 -41.021339
38.447701 12.244974 -40.901093
38.358955 12.57366 -41.118042
38.356384 15.166265 -41.14275
38.355522 17.440939 -40.990887
38.757069 17.426744 -41.118484
38.431053 17.217585 -41.001549
38.835716 17.214584 -41.077698
38.819897 15.725029 -41.023918
38.848888 15.566526 -41.051701
38.54705 11.691975 -41.089817
38.735859 13.21004 -40.978493
38.45055 13.496237 -41.131447
38.922894 12.957026 -41.21801
38.537445 15.934392 -40.969398
38.437813 12.129661 -41.104385
38.435833 14.761387 -41.185505
38.543404 15.718173 -40.959625
38.743542 15.631332 -41.009308
38.738983 15.597598 -40.978436
38.638992 15.198919 -40.968834
38.546444 17.615694 -40.996433
38.635735 17.500593 -40.992954
38.441395 17.491846 -40.962414
38.734695 11.504322 -41.174065
38.347652 12.342731 -41.111012
38.753113 15.93793 -41.020931
38.446953 15.595417 -40.93248
38.345203 14.230969 -40.893028
38.736565 14.231751 -40.953812
38.34726 14.137544 -40.906864
38.438419 14.046954 -40.928177
38.746628 12.236346 -40.932297
38.240532 12.243914 -40.855431
38.747597 11.741779 -41.176785
38.33765 18.367229 -40.977901
38.243755 15.818958 -40.900318
38.730267 15.498733 -40.980446
38.634354 14.26695 -40.980671
38.164417 12.042573 -41.089748
38.735184 17.486063 -41.007992
38.738892 17.091341 -41.022118
38.716625 17.8456 -41.04604
38.646946 17.796373 -40.996151
38.638371 17.713478 -41.00108
38.4356 17.711123 -40.973667
38.738586 17.407486 -41.012997
38.912018 17.285059 -41.028103
38.83234 13.503963 -41.006474
38.374493 15.671433 -41.099369
38.355831 15.804999 -41.108105
38.528889 17.217403 -41.018776
38.717617 14.781506 -40.999931
38.731022 14.264438 -40.992363
38.631279 11.50752 -41.151291
38.344093 14.6463 -41.119949
38.235313 12.022274 -41.09539
38.242912 14.255653 -41.135914
38.349426 17.145226 -41.15205
38.536537 17.711784 -40.990486
38.444702 15.097596 -40.946804
38.323887 11.666941 -40.928417
38.829781 11.649566 -41.066219
38.330795 13.801209 -40.829624
38.349674 13.918127 -41.150597
38.346272 15.554952 -41.100136
38.637836 17.526531 -41.025356
38.24345 14.353992 -40.894066
38.641922 12.272317 -40.966103
38.154243 12.344225 -41.079506
38.542152 16.159948 -40.994675
38.743279 12.98927 -40.957272
38.565281 11.377724 -41.180321
38.052101 13.611107 -40.838184
38.639362 18.149296 -41.017303
38.723679 17.526331 -41.03614
38.327831 17.220373 -40.970394
38.633293 17.232212 -41.034073
38.737389 14.491005 -41.008171
38.740929 12.776798 -40.950485
38.749615 12.679062 -40.963619
38.353577 12.282943 -40.910679
38.330528 17.191378 -41.189819
38.451988 17.266422 -40.951923
38.738083 15.192561 -40.988262
38.750427 13.923541 -40.961025
38.843704 16.66573 -41.017956
38.544975 12.770037 -40.925358
38.542637 12.556766 -40.908546
38.341511 12.152265 -40.892143
38.444901 13.828205 -40.924252
38.830162 13.913148 -40.984722
38.443016 17.797636 -40.957542
38.552856 17.584133 -40.959957
38.442104 14.144487 -40.92514
38.631714 11.196082 -41.161716
38.351917 14.250153 -41.136272
38.343044 12.54751 -40.880505
38.737057 15.071137 -40.959187
38.368076 14.202797 -41.091221
38.63353 12.865507 -40.92511
38.438484 12.77529 -40.904812
38.839924 13.083617 -40.959812
38.840874 12.864951 -40.942585
38.535465 14.23358 -40.92474
38.832695 15.599786 -40.994343
38.740345 17.721848 -41.013725
38.346775 13.695333 -40.878799
38.738716 14.058755 -40.87006
39.15472 11.970627 -40.934315
38.833595 12.339825 -40.930328
38.725685 13.709377 -40.946659
38.741528 17.578278 -41.000916
38.654503 17.880287 -40.983055
38.717194 17.804483 -40.999516
38.854549 12.002017 -41.214218
38.649189 12.044418 -41.158421
38.419559 13.938586 -41.161743
38.538719 11.406419 -40.907486
38.622055 11.741498 -41.176727
38.471344 13.766414 -40.862827
38.360043 11.37941 -41.072491
39.081627 14.001739 -40.962826
38.349892 10.697451 -40.87994
38.354874 12.774239 -40.889187
38.824516 12.670948 -40.974377
38.550671 16.429213 -40.958752
38.729832 11.19771 -41.173397
38.346447 12.842185 -41.066761
38.352634 14.3337 -41.121834
38.442181 13.729351 -40.930241
38.446705 14.886706 -40.942024
38.844784 15.071163 -40.982666
38.334045 15.37202 -40.885578
38.849049 17.583111 -41.010086
38.340019 15.281585 -41.161907
38.541344 12.057096 -40.937717
38.253601 12.342144 -41.083366
38.738808 12.890387 -40.978207
38.261162 10.861235 -41.055485
38.359619 15.499391 -41.131294
39.014679 11.701443 -40.975937
38.535442 13.518239 -40.938099
38.952366 15.500677 -41.01569
38.933704 15.705531 -41.029774
38.827343 17.414343 -41.030598
38.926029 17.941113 -41.053154
38.802635 17.863935 -41.036758
38.84478 17.81497 -41.019924
38.820126 18.141512 -41.050259
38.742168 18.330353 -41.018059
38.636089 18.248415 -41.009308
38.733238 18.139263 -41.039856
38.537487 18.336674 -40.984318
38.630741 18.338047 -40.998871
38.836704 12.114103 -41.190289
38.452095 14.857181 -41.151413
38.640392 12.548864 -40.925045
38.2411 13.121943 -40.899792
38.948902 12.47107 -40.986755
38.834881 14.973 -40.982903
38.745964 16.745422 -40.985847
38.926064 11.493505 -41.206516
38.437504 17.064247 -41.182716
38.444633 14.23708 -41.159893
38.473145 16.414162 -41.178932
38.936333 14.258796 -41.001244
38.43784 14.525556 -40.905102
38.546951 15.820855 -41.217648
38.440052 14.557645 -41.16053
38.844734 14.214439 -40.902725
38.935635 15.912267 -41.003986
38.345062 12.244995 -40.885395
38.829182 14.432902 -40.97438
38.926491 16.219006 -41.03223
38.363533 13.661278 -41.135616
38.399857 15.912802 -41.16753
38.429684 16.764734 -41.165867
38.447308 11.410151 -40.892147
38.935158 11.407951 -40.945526
38.639412 14.232583 -40.943657
38.920597 16.637451 -41.019028
38.437 17.15731 -41.147583
38.43845 11.2162 -40.907116
38.825874 14.761369 -40.976799
38.450302 12.939095 -41.075169
38.449074 10.786407 -40.892307
38.846035 13.689529 -40.958935
38.440159 16.12537 -40.937153
38.337669 10.977571 -41.095222
38.351463 14.10167 -41.099258
38.450573 10.881098 -40.882378
38.452808 15.064174 -40.92049
38.906101 15.638629 -41.029556
38.342113 11.20927 -41.107384
38.840427 12.769653 -40.948265
38.44035 14.488645 -40.958691
38.360016 13.178878 -41.120163
38.355453 10.881176 -40.86681
38.349487 11.708204 -40.873833
38.555416 14.534947 -40.927929
38.571846 16.214186 -40.94965
38.905376 17.151934 -41.02018
38.65163 17.586937 -40.981945
38.953701 11.281278 -40.938736
38.639118 11.61889 -40.932674
38.924194 14.017024 -40.950619
38.750225 14.005408 -40.943424
38.821766 14.845886 -40.960205
38.631714 17.348455 -40.960575
38.457451 14.33188 -41.133533
38.333187 13.103632 -40.917633
38.635307 12.017005 -40.910099
38.543247 12.149435 -40.923073
39.0317 12.019429 -40.964127
38.541138 12.318838 -40.888783
38.94598 12.236928 -40.946327
38.741367 14.548733 -40.944256
38.552677 12.022386 -40.904655
38.939938 12.020038 -40.939968
38.644127 13.795574 -40.909367
38.452473 14.739031 -41.114677
38.533905 17.24618 -41.168766
39.036175 11.890416 -40.945602
38.924252 14.542948 -40.976643
38.876472 14.928439 -40.958996
38.540031 14.515881 -41.119133
38.555283 15.485092 -41.15958
39.14756 13.840676 -40.933666
38.55402 17.546444 -41.181721
38.927967 13.075822 -40.976006
38.831451 13.998532 -40.954449
38.90976 14.603914 -41.009476
38.739262 15.137857 -40.946342
38.549717 14.104935 -41.135521
38.841774 12.551859 -40.944744
38.540894 10.973914 -41.123283
38.459927 14.635551 -41.130833
38.516357 16.987324 -41.194656
39.090645 13.954289 -40.926826
38.936768 12.865511 -40.961903
38.932613 14.743511 -40.97937
38.548824 15.686038 -40.920826
38.443619 11.717467 -40.890846
38.939735 12.648985 -40.935619
38.924225 12.773537 -40.968727
38.648384 14.543766 -40.944031
38.444809 14.113779 -41.118374
38.448887 15.053796 -41.11203
38.744759 15.948819 -41.18858
38.657139 12.641668 -40.900314
38.44553 12.55455 -40.897354
38.448139 13.699547 -40.89991
38.436455 11.486462 -40.87418
38.345936 15.901518 -40.902859
38.441681 15.29362 -40.930855
38.445435 10.655088 -40.858334
38.43708 12.021805 -40.884045
38.347717 12.096009 -41.048149
38.841095 11.416187 -40.936962
38.541969 12.864717 -40.901157
38.76812 13.788651 -40.944202
38.762287 15.459723 -40.939098
38.554619 15.788547 -41.1534
39.027493 10.745719 -40.912018
38.755177 12.125822 -40.903084
38.64407 14.921361 -40.915485
38.649487 15.163304 -40.92448
38.580452 15.158189 -40.896721
38.644405 15.475306 -41.172504
38.543648 15.350002 -41.136734
38.724686 11.793303 -40.915768
38.744465 12.025229 -40.923195
38.660328 14.627225 -40.908039
38.542732 14.2089 -41.126678
38.543526 15.161363 -41.156429
38.248428 10.783238 -40.855202
39.036964 11.802316 -40.942661
38.83028 13.791405 -40.92952
39.050343 13.784084 -40.965679
38.536995 13.18363 -41.143673
38.543167 15.042933 -41.134373
38.950161 10.870497 -40.93074
38.838356 11.905198 -40.905029
38.831623 12.029748 -40.92688
38.533138 12.111209 -40.878475
38.940731 13.782713 -40.957436
39.058147 13.722275 -40.944931
38.646339 10.881863 -40.910164
39.050369 10.879272 -40.951283
38.936836 11.819316 -40.922054
38.847885 12.122847 -40.913082
38.547897 14.94694 -41.146912
38.547066 15.669533 -41.127529
39.031487 12.259867 -40.965755
38.541031 12.650248 -40.887943
38.545036 13.673365 -41.112949
38.440723 12.343221 -40.873047
38.444885 11.154483 -41.062077
38.44973 12.406426 -41.066643
38.740513 15.878786 -41.186119
38.452114 12.434777 -41.097672
38.647861 10.967329 -40.882492
38.432404 10.998946 -41.093086
37.607548 14.381297 -40.754684
38.337181 10.852107 -41.050293
38.306797 13.482549 -41.12891
38.842506 10.844356 -40.871239
38.409969 10.833775 -40.788109
38.6563 12.726457 -40.882763
38.448078 11.526517 -40.90699
38.734951 14.621361 -40.936195
38.956665 10.959685 -40.913433
38.863811 11.277656 -40.909412
38.732246 11.269397 -40.887894
38.528835 13.775963 -40.888432
38.958416 14.315919 -40.940712
39.030361 10.976476 -40.924824
38.829872 10.933434 -40.839455
39.057487 12.113626 -40.93177
38.557625 12.522363 -40.832508
38.907478 12.519365 -40.896774
38.931892 14.409734 -40.922695
38.536514 15.571626 -41.14341
38.540073 12.432157 -41.109097
38.545193 15.265267 -41.140556
38.955437 11.888236 -40.932583
38.627476 15.662182 -41.151924
38.54216 13.055519 -41.11618
38.547813 14.068599 -41.104771
38.446434 12.742529 -41.091373
38.468891 11.899917 -40.847904
38.442303 15.858727 -41.186687
38.871685 16.084179 -41.092976
38.817295 15.972492 -41.179447
38.949745 12.5504 -40.936184
38.256432 17.787825 -41.167042
38.436249 12.043055 -41.11475
38.454235 14.205916 -41.107578
38.449402 12.96771 -41.104561
38.445446 12.997919 -40.978817
38.569756 12.732541 -40.872734
38.444725 12.856649 -40.893528
38.446945 10.951166 -41.055504
38.432224 13.986099 -41.088543
38.814022 15.443467 -40.958321
39.065052 11.411258 -40.957996
38.54636 11.81671 -41.122078
38.548183 12.960124 -41.131687
38.44463 14.295613 -41.092499
38.72134 11.872784 -40.886539
39.058147 11.174682 -40.937199
38.636887 11.372967 -41.1152
38.658009 11.285142 -40.876595
39.020897 11.295246 -40.933823
38.254116 13.705184 -40.842773
38.546516 15.91347 -41.192951
38.744514 11.343181 -40.890957
39.126831 12.13432 -40.957684
39.037102 12.327746 -40.937244
38.729103 12.519968 -40.865143
39.003708 12.517385 -40.919697
38.848213 12.724569 -40.902203
38.73843 13.682255 -41.153748
38.715431 10.832273 -40.865173
38.928932 10.709044 -40.884167
39.136692 10.673385 -40.928104
39.128391 11.779474 -40.95232
38.565754 13.545899 -41.068386
38.908939 11.682137 -41.167488
39.003307 10.804702 -40.937553
38.623119 10.815429 -40.852341
38.641029 10.849747 -41.102329
38.636776 13.583831 -41.14529
38.902351 13.069989 -40.898731
38.540741 10.846873 -41.08593
38.551315 10.950708 -41.075512
38.543995 11.381272 -41.096478
38.539818 12.401936 -41.080048
38.945953 10.898064 -40.874626
38.986969 10.95248 -40.875973
38.732292 11.187739 -41.049713
38.636551 10.736189 -41.084538
38.642147 14.331342 -41.169552
38.632088 10.937801 -41.093754
38.548195 10.723308 -41.067081
38.832382 13.33198 -41.048847
38.513313 10.832142 -40.812969
38.651955 10.819929 -41.047409
38.646912 11.867692 -41.08992
38.443623 11.310428 -40.905773
38.260368 15.285565 -40.889111
38.169617 12.022482 -40.842594
38.0429 13.78717 -40.748348
38.54472 12.462678 -40.924946
38.845169 14.329929 -40.951073
38.750874 13.113091 -40.996666
38.635342 11.439271 -40.985256
38.64674 13.75933 -41.118046
38.649105 14.403162 -41.076645
38.32201 14.021247 -40.857262
38.856098 11.645123 -40.884655
38.934189 16.462744 -41.292564
39.288155 12.0759 -40.959042
39.238007 12.391878 -40.952843
39.192558 12.406048 -40.931164
38.061249 14.895522 -40.870483
38.831215 17.478281 -41.245853
39.097378 14.484928 -40.893131
39.11343 14.396838 -40.904404
39.124355 14.312849 -40.901993
38.934963 14.240577 -40.883003
39.146267 14.176776 -40.909668
39.150784 14.133216 -40.904324
38.650875 15.35343 -41.15807
38.436707 13.915771 -40.913273
38.827709 14.825867 -41.16909
39.045719 15.846131 -40.959923
38.830959 18.27537 -41.129208
38.636333 13.925756 -40.938816
38.346569 13.918256 -40.895275
39.154964 16.739519 -41.399174
38.744217 17.385109 -40.975182
39.035999 18.139513 -41.355316
38.639412 12.30874 -41.111607
38.44603 10.998681 -40.898445
38.347206 11.095147 -40.8759
38.742897 15.720798 -40.994904
38.544498 11.753007 -40.935158
38.358543 17.747803 -40.991951
38.929493 16.88966 -41.314156
38.449364 15.084496 -41.146748
38.368412 15.069177 -41.106098
38.53437 13.655741 -40.98703
38.415123 13.47766 -40.771027
37.850731 16.553864 -40.838898
38.854095 17.80757 -41.305595
38.24469 13.914834 -40.878551
38.705696 12.767177 -40.837322
38.729 15.07765 -41.218361
38.73674 17.183716 -41.010494
38.128399 17.750881 -40.94207
38.354797 15.373666 -41.091133
38.254345 14.987366 -40.895527
38.672565 11.375756 -40.865326
37.973442 14.948696 -40.755276
38.958305 16.968519 -41.225552
38.264111 13.965453 -41.046688
38.246593 14.173567 -40.930141
38.746521 16.847141 -41.239784
38.626274 17.819082 -41.229839
38.757256 17.272606 -41.005775
38.549137 15.083352 -41.178925
38.355038 14.946062 -41.110371
38.973263 17.029516 -41.235897
38.121365 17.706469 -41.168156
38.440975 14.929991 -40.859009
38.135365 12.432981 -40.765888
38.552605 17.279379 -40.966141
38.058456 15.071806 -40.849266
38.645767 17.073441 -41.214397
38.24966 11.041512 -40.982521
38.745392 15.425819 -40.85677
38.473522 10.718344 -40.855808
38.442921 12.63088 -40.869858
38.946327 13.71762 -41.25758
38.441795 12.147116 -40.907875
38.162369 11.471727 -40.803638
38.055801 11.65011 -41.075768
38.853077 12.921691 -41.151184
38.238949 11.404208 -40.855076
37.969284 13.004774 -41.098248
38.083332 12.395804 -40.788132
38.747662 12.790998 -41.048439
38.746067 13.394485 -41.219673
38.739582 12.249924 -41.209682
38.504089 17.339453 -40.93745
38.647419 17.217163 -41.257484
38.551308 12.346433 -41.13995
38.154827 16.538023 -40.830475
38.621239 13.12152 -41.190006
38.742989 11.442966 -41.008335
38.128139 17.170252 -41.168453
38.266293 16.564125 -41.159885
37.648502 11.489167 -40.694016
38.221619 13.60033 -41.127804
38.450588 16.310951 -41.142818
38.011242 17.370064 -40.792816
38.218437 13.170276 -41.104523
38.152809 12.566018 -41.103367
38.038445 14.048824 -41.143131
38.236057 14.962217 -41.169136
38.328949 13.054216 -41.143124
38.233242 17.289997 -40.890667
38.75312 15.665526 -41.17205
38.253716 13.512005 -41.12442
38.250404 12.128166 -41.082695
38.733837 12.534623 -41.144924
38.156368 13.130452 -40.882214
38.069019 12.764034 -40.82608
38.144409 13.482688 -41.091812
38.442078 17.349686 -40.919907
38.234089 12.216742 -41.150673
37.973225 10.961356 -40.757385
38.62207 15.836332 -41.21579
38.15028 14.436845 -40.86898
38.237572 15.537603 -41.170464
38.132576 14.465738 -41.121387
