# .PCD v0.7 - Point Cloud Data file format
VERSION 0.7
FIELDS x y z
SIZE 4 4 4
TYPE F F F
COUNT 1 1 1
WIDTH 1277
HEIGHT 1
VIEWPOINT 0 0 0 1 0 0 0
POINTS 1277
DATA ascii
40.529709 77.020203 49.459076
40.951744 77.10598 49.192661
40.621586 76.334007 49.380775
40.985172 78.208496 49.125828
40.811771 78.519058 49.170135
40.76688 78.754265 49.173244
41.076038 77.108109 49.150524
41.16053 75.926277 49.205269
40.812782 76.326805 49.314163
41.082737 76.328285 49.22332
41.063286 77.336479 49.119312
41.179695 78.155136 49.042801
41.171753 77.797874 49.046654
41.085854 76.580894 49.151772
41.244781 79.05368 48.960682
41.167976 76.656578 49.140743
41.237682 81.383163 48.81987
41.253277 82.771942 48.725346
41.257969 82.86245 48.698338
40.866348 78.427925 49.123276
41.133129 78.000008 49.058048
41.169849 78.062874 49.045055
40.952549 78.716629 49.083492
40.884579 77.619873 49.173088
41.245121 78.194534 49.054035
40.928104 78.2304 49.145485
41.244877 78.256142 49.036148
41.065678 78.506271 49.086231
41.281193 81.065773 48.85384
41.316799 80.221336 48.911892
41.230434 81.212845 48.850094
41.174953 81.053711 48.862141
41.190208 81.768379 48.814892
40.899693 81.927109 48.779381
41.063694 82.498405 48.695568
40.49744 82.399788 48.920517
40.775414 81.70929 48.860184
41.157326 82.62059 48.674145
41.027321 82.020851 48.766808
40.704254 83.022034 48.772896
41.083019 82.007576 48.737167
40.574169 81.315536 49.012344
41.357426 80.250519 48.878567
41.174587 82.072449 48.795498
41.231388 81.775002 48.726414
41.072903 82.722702 48.743324
40.791172 82.612183 48.809475
41.132839 78.452324 48.999958
41.162037 81.770241 48.735744
41.088898 79.409019 48.928623
40.806896 78.438667 49.154427
41.165287 81.445236 48.828449
40.932098 79.644569 48.926983
40.951042 79.905983 48.92263
41.144665 83.014877 48.70018
41.052826 81.722527 48.764858
40.9632 82.405533 48.777992
40.718559 76.685677 49.224689
40.966747 80.99485 48.845219
41.160515 82.034172 48.720974
41.077629 82.600487 48.720024
40.874561 75.774323 49.277416
40.959068 76.499542 49.161106
41.082432 77.963898 49.117931
40.67989 78.896935 49.112663
41.06543 81.805428 48.765079
40.871124 81.300606 48.881069
40.870689 81.384171 48.900505
40.780399 75.780739 49.296307
41.150024 82.3936 48.72448
40.972721 81.893013 48.824558
40.786011 82.074448 48.897831
41.113209 78.417496 49.060059
41.108814 81.294212 48.800926
41.153885 81.419525 48.806065
40.884689 76.326073 49.270123
40.973919 76.548027 49.209518
40.981709 78.432739 49.090332
41.179771 80.263992 48.865936
41.174194 81.979752 48.758362
40.795807 76.558434 49.27356
40.873672 76.250618 49.264164
41.152943 77.641541 49.07214
41.072269 77.780548 49.084618
41.169739 79.158752 48.972424
41.163261 80.955475 48.865456
40.973389 81.275047 48.89809
41.066483 81.689125 48.814568
40.78109 75.980148 49.262207
41.000488 78.31662 49.031425
41.142841 81.18045 48.835335
41.169926 81.256554 48.83144
41.073151 78.27005 49.049419
40.684116 76.195045 49.276207
40.679981 75.980637 49.304401
40.788311 76.487946 49.231052
41.081032 80.287651 48.887348
40.975277 82.995934 48.756039
40.574978 81.179871 49.009754
40.78833 81.26712 48.953838
40.789185 81.385498 48.930084
41.06266 81.868187 48.848751
40.872128 82.07209 48.874432
40.692024 81.867805 48.959366
40.973938 82.871384 48.795216
40.788902 76.067451 49.278435
40.682877 76.07193 49.317146
40.961559 78.562355 49.067631
41.070606 79.587959 48.962624
40.980518 81.471375 48.880203
41.066074 82.068398 48.829628
40.703911 78.419662 49.191574
40.879791 81.271194 48.925453
40.963223 76.582344 49.188095
40.975258 76.667625 49.18111
40.884663 78.658287 49.097149
41.076065 78.764931 49.01569
41.076431 81.258675 48.876026
40.771145 76.272614 49.261646
41.077877 77.471321 49.099037
41.067566 77.667213 49.090214
41.072727 79.848938 49.002338
40.322964 78.656487 49.290077
40.686741 76.364548 49.300312
40.983032 77.457222 49.127525
40.869801 76.665512 49.217812
40.612385 76.517738 49.328915
40.561565 78.433449 49.232265
40.883442 78.355293 49.113361
40.685646 76.540634 49.300976
40.971447 77.972366 49.099476
40.692486 81.268913 48.983356
40.676792 81.391708 48.969788
40.692951 82.06308 48.929043
40.525208 78.440475 49.25695
40.773804 76.362907 49.263687
40.966988 81.302208 48.844154
40.803715 81.426483 48.844681
40.787224 76.659248 49.246471
40.679657 77.075951 49.244835
40.47575 78.36322 49.237453
40.585331 78.646805 49.191471
40.59444 80.162628 49.085297
40.872341 77.668045 49.147533
40.867218 77.292183 49.151306
40.851028 79.112762 49.024879
40.873531 79.484116 49.017765
40.636162 78.296921 49.151337
40.680645 78.602463 49.115196
40.691517 81.084602 48.963963
40.229713 77.912766 49.34206
40.779217 78.269043 49.141438
40.970493 77.755585 49.11681
41.062431 80.38018 48.921265
40.692249 77.669952 49.206673
40.981636 78.652672 49.067257
40.689903 78.567047 49.15546
40.982243 82.069954 48.844826
41.064331 78.462303 49.03231
40.784813 78.355736 49.144779
41.066563 78.656258 49.042736
40.690022 78.645073 49.162872
41.081085 81.468231 48.840874
41.09425 81.384384 48.817535
40.972652 77.673309 49.112881
40.782402 77.461418 49.192936
41.078735 77.959488 49.059391
41.073139 77.890518 49.057037
41.175392 80.364433 48.865547
40.879669 78.259758 49.108978
40.692627 78.354988 49.175076
40.788227 80.372414 49.003647
40.340065 78.648155 49.27993
40.784531 78.562935 49.128242
40.975338 78.26683 49.081707
40.872108 78.46785 49.09922
40.797192 81.291122 48.904995
40.775246 78.473137 49.129383
40.517807 78.89122 49.17054
40.10141 80.160934 49.117142
41.19907 82.199844 48.782516
40.696114 79.401566 49.053127
40.685211 78.773079 49.141533
40.187294 79.395416 49.222198
41.075207 82.151474 48.825516
41.063885 76.823921 49.176468
40.881489 78.76667 49.079807
40.950054 76.849579 49.218224
40.780979 81.084503 48.946533
41.16753 80.228584 48.91803
41.168644 79.645744 48.96059
40.879784 75.658546 49.291641
40.784641 75.667351 49.326294
40.873436 76.955162 49.195026
40.870045 76.75769 49.226368
40.788673 77.052956 49.236599
41.068531 80.763626 48.904438
40.768826 76.943634 49.292095
40.785194 76.753578 49.251434
40.774422 76.840385 49.271126
41.069557 79.491447 48.94677
41.132435 77.583511 49.100849
40.967419 78.775551 49.054157
41.072849 77.043472 49.13866
40.976738 76.758331 49.187489
41.081154 77.552521 49.103672
40.813019 83.005112 48.721294
41.073101 78.863747 49.016544
41.059574 76.764076 49.160717
40.890736 76.842651 49.231888
40.786053 75.737762 49.33802
41.075855 81.550804 48.858788
40.97575 80.378212 48.948345
40.868382 75.742508 49.308105
41.078918 81.007942 48.817104
41.081474 81.584305 48.795689
41.058529 76.258278 49.20063
40.682983 76.326813 49.346851
40.868725 79.413139 48.998592
40.795227 82.000359 48.826767
40.985958 81.812019 48.797451
40.945763 81.949638 48.764626
40.646931 80.136398 49.00964
40.749607 75.680077 49.295567
40.970436 80.580574 48.923077
40.876579 80.375488 48.978088
40.873272 78.861862 49.081982
40.781223 78.891579 49.079243
40.871159 78.893059 49.047867
40.973824 78.868073 49.04987
40.884853 80.169373 48.992092
40.669079 80.503471 48.997688
41.161259 78.166679 49.030071
41.071945 80.580978 48.884178
41.157837 80.440559 48.836895
40.962051 76.061356 49.222347
40.878025 77.126175 49.220863
40.786964 82.692963 48.837753
40.985512 81.090302 48.861946
40.779991 77.256805 49.213753
41.07021 78.352386 49.058846
40.992146 79.398003 48.963737
41.172943 80.587128 48.841064
40.259026 81.634636 49.106312
40.981232 81.676239 48.83672
40.789326 81.675621 48.919815
41.068184 80.477852 48.875324
40.975597 78.351547 49.0839
40.582951 77.287346 49.245415
40.535095 79.418427 49.129642
40.58659 75.767036 49.358673
40.580173 75.975899 49.343571
40.586098 79.625175 49.070709
40.950638 77.923309 49.146473
40.690048 78.47258 49.156715
40.598412 81.731377 48.905888
40.498703 81.726547 48.94593
40.282909 78.561432 49.283249
40.598389 78.812477 49.121056
40.661324 77.936996 49.23838
40.577995 78.563789 49.189888
40.579628 77.672493 49.239212
41.184467 78.925591 49.002388
40.589436 78.594536 49.15028
40.575817 78.378693 49.168949
40.582787 78.477768 49.182804
40.50108 78.674873 49.186516
40.501099 78.396675 49.209091
40.809307 77.924286 49.187004
41.00116 78.018188 49.034073
40.847702 77.792587 49.119194
41.167973 77.894218 49.099922
40.585594 76.366348 49.327419
40.674843 78.38797 49.147892
40.501144 78.573586 49.211617
40.585842 76.4543 49.331295
40.685337 81.294411 48.940052
40.585747 77.963188 49.226757
40.509396 80.982719 49.010258
40.479412 79.479729 49.145493
40.502998 82.056641 48.982018
40.586021 77.756981 49.243237
40.355907 77.771606 49.302845
40.781185 77.670532 49.175282
40.786484 77.768814 49.174217
40.887093 78.136093 49.130352
40.488403 81.282181 49.067108
40.368267 78.447289 49.265682
40.592869 82.009705 48.90192
40.39912 77.819382 49.31583
40.789757 80.578896 48.97831
40.269329 80.613441 49.146496
40.679649 81.797714 48.897175
40.593678 77.838875 49.250427
40.279911 81.386261 49.083122
40.865627 77.928635 49.168442
40.486485 77.851738 49.285236
40.869919 80.584679 48.959381
40.684139 80.587219 49.011608
40.391857 79.821686 49.095596
40.485928 77.587036 49.269772
40.265697 77.840584 49.3521
40.582043 78.140678 49.235664
40.771965 78.142876 49.17387
40.504639 78.168571 49.280258
40.780388 77.875488 49.155277
40.587193 77.882027 49.212063
40.444008 79.636818 49.114445
40.611126 80.745338 49.046734
40.400162 82.100945 49.01878
40.681484 77.880638 49.187683
40.695553 78.141365 49.203705
40.372047 77.866699 49.293133
40.632545 82.008354 48.891922
40.493252 77.864899 49.246719
40.969185 80.491943 48.906609
40.756939 80.617439 49.034302
40.591209 80.586288 49.037231
40.971516 81.764641 48.869186
40.787758 81.855591 48.92535
40.778915 81.807602 48.865948
40.78133 76.250931 49.292152
40.877533 80.758827 48.966381
40.078743 80.503052 49.183582
40.585613 81.789932 48.916267
40.869591 81.889374 48.863586
40.497021 80.590584 49.057545
41.075718 81.975395 48.801464
40.36935 80.584206 49.117203
40.976521 80.768677 48.934608
40.685387 77.590393 49.200859
40.879028 81.677109 48.887367
40.983383 80.786873 48.878838
40.367104 79.63533 49.144932
40.684124 78.686584 49.137707
41.171253 81.856659 48.806698
40.879135 78.9487 49.086876
40.587109 77.165253 49.273964
40.674603 75.762802 49.32943
40.880424 79.782967 49.001583
40.683086 81.77459 48.947052
40.781742 81.765091 48.919334
40.577328 82.449471 48.973789
39.959667 82.664482 49.171638
40.972809 81.667618 48.891548
40.349709 82.558388 49.040421
40.35569 82.699471 49.026978
40.87088 79.161476 49.065613
40.893833 78.682747 49.068295
41.063759 82.571045 48.784294
41.066097 78.686096 49.015362
41.174263 78.705032 48.999165
40.788612 78.601456 49.092686
39.703171 82.499084 49.278221
40.513329 78.210136 49.271965
40.766861 77.787659 49.147514
40.71122 82.662392 48.899296
40.879318 77.875214 49.12331
40.399101 79.552643 49.174919
40.476688 81.391556 49.008251
40.413933 81.414108 49.032551
40.975471 80.083023 48.954845
41.092724 80.402176 48.969463
41.158569 82.683014 48.747643
40.974014 79.573029 49.000542
40.953274 78.820221 49.005161
40.567635 81.684875 48.974213
40.482487 81.697136 49.01088
40.032158 81.704193 49.172489
40.67889 77.518562 49.18948
40.45158 81.628883 49.054089
40.776962 77.579285 49.171207
41.167606 80.626984 48.904213
40.145596 80.447647 49.014027
40.044384 82.576607 49.122543
40.58374 80.079781 49.08287
40.958412 75.98999 49.215027
41.061375 77.241348 49.116802
40.961777 76.229042 49.242405
40.779022 81.978088 48.899525
40.877754 81.859108 48.896549
39.780075 82.521088 49.274902
40.611687 76.831451 49.329407
41.115631 79.210594 48.973225
40.874931 79.682037 48.986671
40.7817 76.785721 49.218678
40.760773 78.825134 49.057289
40.982887 81.601189 48.817631
40.690891 80.873009 48.992767
40.295971 79.933578 49.217869
40.868576 81.721916 48.828289
41.203316 79.860245 48.947281
40.473278 77.660637 49.314838
40.993401 77.626762 49.129337
41.143387 80.065155 48.93602
40.28791 79.55542 49.208885
41.077126 80.871735 48.870918
40.86948 77.484299 49.123428
41.185318 81.689087 48.813599
40.497734 78.068047 49.261307
40.584381 79.274803 49.130852
40.875301 76.273651 49.223984
40.786705 81.925652 48.985992
40.524498 81.456039 49.095428
40.898392 81.434837 48.947128
40.598919 81.975746 48.954418
40.39711 80.181892 49.101494
40.796814 80.338577 49.045036
40.960693 81.637642 48.776012
40.380981 82.129547 48.986797
40.87167 81.406914 48.817516
40.875793 76.550972 49.244282
40.518837 82.294914 49.034119
40.583866 81.083473 48.993919
40.781181 80.4991 48.969711
40.970856 80.337227 48.988354
41.311977 80.31218 48.894634
40.789951 82.18763 48.875156
41.066479 82.98204 48.733704
40.57571 80.495567 49.033722
39.860294 81.8144 49.050823
41.06897 78.611549 48.992809
40.973354 77.85424 49.12608
40.885502 79.964149 49.009617
40.97596 82.693008 48.781822
40.589378 81.275505 48.966377
40.778908 78.646584 49.135067
40.56097 78.728027 49.21941
40.775936 76.160637 49.284725
40.783302 77.968071 49.159023
40.874924 77.967728 49.131599
40.383724 79.460495 49.176304
40.683651 76.161118 49.318222
41.069004 78.562721 49.028889
40.79805 77.12191 49.24395
41.169613 81.276016 48.794872
40.26902 79.486252 49.224937
40.58075 82.070946 48.972042
40.325935 81.208359 49.059116
40.675243 78.86908 49.142403
40.966053 79.199142 49.00309
40.971725 81.461464 48.923515
40.975544 78.052559 49.096813
41.169579 79.235886 48.981834
41.077568 79.790039 48.929562
40.336613 79.930725 49.173401
41.074154 80.077538 48.932125
40.777267 79.483627 49.051064
41.236629 80.86834 48.846561
40.292923 82.431305 49.077499
40.876579 78.394127 49.087074
41.148296 79.776375 48.923355
40.685444 75.958069 49.346863
40.524025 76.317039 49.382545
40.569763 79.02581 49.205032
40.961411 76.079208 49.116467
41.082153 80.109924 48.865047
40.969147 79.243736 49.04966
40.875763 79.224388 49.0858
40.974968 78.479691 49.055653
40.978844 77.254883 49.144867
40.969551 78.902458 49.005299
40.685177 76.666382 49.283527
40.682152 78.06002 49.193508
40.938686 81.720978 48.778015
40.580273 75.944122 49.377991
40.133629 79.338249 49.37476
40.965542 79.875656 48.990799
41.071533 79.068382 48.994934
40.365818 79.638718 49.178707
40.975536 79.697083 48.951454
41.239193 81.145119 48.844078
40.476681 80.780792 49.104996
40.30093 78.684013 49.26368
40.67815 79.494377 49.083279
41.062187 78.173462 49.036716
40.575546 81.500198 48.955921
40.427773 80.718391 49.127533
41.092438 82.779869 48.752827
40.482811 79.36998 49.165939
41.073067 82.958405 48.770096
40.653881 78.74691 49.199551
40.368156 78.569176 49.257404
41.135586 79.334 49.003872
41.16029 80.013947 48.899498
40.916409 76.416954 49.283463
40.583439 81.374702 48.97139
40.585815 79.987289 49.076649
40.683338 80.818672 49.058018
41.13607 81.122986 48.872932
40.97282 79.748238 49.012863
41.064133 79.363197 48.986477
40.788521 79.780052 49.03178
40.494617 82.115631 48.940067
40.788219 81.480034 48.93502
40.884628 82.511398 48.750107
40.980801 76.443451 49.198978
40.160091 79.971245 49.240139
40.394028 77.945328 49.280113
40.884857 75.952568 49.281136
40.277554 82.662834 49.053429
40.208618 79.525978 49.219025
40.884403 82.662193 48.839584
40.404636 79.704811 49.13805
40.57835 78.683525 49.169235
40.492237 82.26947 48.970814
40.782131 79.360809 49.074074
40.87587 77.469177 49.164223
40.58329 77.378716 49.256592
40.478462 81.290245 48.990215
41.004807 82.816757 48.680584
40.723236 77.228302 49.185482
40.258392 82.577507 49.120361
40.580963 77.497818 49.219822
40.691982 75.745079 49.374519
40.182426 81.665901 49.110012
40.87381 76.445549 49.242329
40.667732 77.623245 49.247314
40.982594 82.739372 48.819218
41.252571 82.451385 48.733398
40.684284 77.462059 49.227303
40.219902 79.736885 49.253189
40.880222 81.473755 48.904449
41.067974 79.960457 48.966042
40.583691 81.470688 48.990601
40.863205 82.445953 48.874344
40.988689 82.166779 48.849979
40.69006 82.232719 48.853439
40.072136 79.555473 49.338825
40.980289 82.567184 48.814808
39.85358 81.329552 49.219402
40.584946 79.774864 49.096619
40.165604 81.57373 48.973675
41.147285 76.809921 49.14584
40.684929 81.889946 48.926456
40.988125 76.160927 49.276966
40.677063 81.002022 48.954556
41.097988 79.723076 48.910156
40.889221 81.592453 48.869213
41.068729 81.644348 48.861462
40.610291 81.198578 48.943142
40.76862 80.830589 49.006577
40.687019 82.586609 48.89735
40.766052 82.460892 48.913483
40.776924 81.645988 48.952545
40.78405 76.189499 49.246147
40.786102 78.061501 49.161175
40.194511 81.378822 49.184086
40.196602 82.547745 49.159958
41.053406 79.456009 48.999363
40.68325 81.4916 48.9002
40.886875 82.731796 48.720863
40.954308 77.291428 49.128162
40.789429 82.499435 48.785431
40.580383 78.175476 49.192997
40.688999 76.268967 49.289421
41.162762 81.575531 48.763184
40.971191 82.66188 48.81897
40.993568 82.538345 48.738571
40.781113 82.906036 48.802998
40.698376 79.963928 49.065983
40.083717 81.721443 49.011463
41.074528 76.086899 49.194691
41.07476 80.346367 48.950584
40.676025 76.9636 49.268467
40.990726 81.514633 48.7934
40.590839 77.629669 49.274048
40.882435 80.072929 48.98534
41.111088 81.119019 48.880615
40.879784 82.866356 48.818115
40.802208 79.234718 49.101654
40.233231 81.85675 49.087505
40.19976 82.670883 49.04372
40.490837 81.183365 49.021343
40.960888 82.101768 48.801212
41.155392 82.460228 48.78125
40.675594 77.12191 49.288158
41.245731 78.224693 49.042992
40.701519 81.119156 49.016922
40.773083 77.329361 49.221558
41.150444 82.904724 48.657848
40.875706 82.278732 48.85363
40.57542 82.66523 48.948185
41.171967 79.292221 48.966316
40.505417 81.760773 48.951572
40.976986 76.948555 49.175922
41.085247 80.024323 48.964016
41.049614 76.461334 49.195141
40.287247 81.970718 49.052311
40.24828 81.533997 49.109249
41.047623 79.992241 48.933586
40.781094 82.811638 48.783772
40.985344 76.364212 49.192791
40.97543 82.45813 48.840252
40.679577 82.899467 48.83601
40.629589 81.836601 48.986946
40.508003 79.974243 49.088955
40.658344 82.448921 48.936451
40.980053 81.132072 48.796867
40.590988 81.414276 49.038467
40.475273 82.203484 48.956562
41.082687 82.873314 48.76619
40.968834 76.1483 49.226574
40.985664 79.99321 48.934727
40.877541 82.744484 48.854736
40.556679 82.751671 48.988674
41.184555 80.325188 48.920559
41.074383 81.943428 48.842896
40.578861 76.90583 49.350357
40.882706 76.61731 49.272919
41.048553 78.059959 49.021801
40.786064 78.09214 49.126629
40.943157 76.608978 49.234844
41.163567 80.063873 48.902054
40.961613 76.317108 49.271664
40.963619 78.153214 49.108772
40.799664 82.653122 48.866779
40.688721 79.875656 49.070084
39.887383 82.437347 49.187271
40.065826 82.317932 49.137646
40.98349 76.87635 49.158089
40.694199 77.341812 49.255848
40.967594 82.913368 48.728535
40.779369 79.699532 49.021244
40.793789 82.744499 48.885986
40.987297 81.143715 48.924793
40.970234 78.102394 49.067142
40.258858 80.48291 49.144619
40.879066 81.638878 48.919834
40.202518 82.439415 49.030823
41.043835 80.718849 48.864986
40.479397 79.142616 49.187794
40.974144 82.605034 48.744118
41.262455 82.891808 48.625618
40.87669 82.772514 48.821888
40.674675 79.224251 49.137386
40.583702 77.918221 49.267075
41.168343 82.795586 48.748833
40.578064 80.211754 49.053059
40.672367 82.877045 48.879421
40.973938 79.459686 49.020378
40.78875 82.870354 48.845703
40.49794 82.845016 48.916576
40.375622 82.901375 48.999527
40.438637 79.225952 49.214546
40.050526 82.504868 49.159683
40.487194 77.367722 49.287163
41.064285 79.760117 48.987785
40.398354 81.088608 49.053165
40.583355 78.268723 49.202492
40.975025 81.346558 48.903259
40.879322 79.36068 49.044708
40.866745 77.006119 49.158173
41.05241 82.23214 48.834423
40.576454 79.683647 49.08313
40.480232 80.170502 49.109493
40.879787 78.095192 49.092979
40.673229 82.6884 48.86586
40.964245 79.958824 48.994251
40.981377 79.483475 48.979355
40.890171 80.121849 48.917271
41.067715 82.902412 48.682098
40.681061 81.977257 48.933979
40.851749 79.521172 49.080921
40.684547 78.270653 49.176014
40.682541 81.679863 48.948555
40.784889 82.373421 48.883762
41.197376 79.734436 48.956593
40.591713 82.862396 48.907963
40.974487 79.657379 49.004959
41.084782 81.360878 48.874641
40.988327 79.822868 49.020096
40.203354 79.607658 49.264717
40.985912 76.047661 49.256401
40.872395 79.991943 48.973454
41.058361 75.973755 49.212982
41.068554 78.14901 49.088982
40.553917 81.757996 49.070293
40.779217 79.454163 49.081284
40.779797 80.170296 49.021358
41.075848 79.870827 48.943607
40.233513 79.14595 49.385651
40.780647 79.963654 49.044716
40.493114 81.780251 49.013577
41.077888 80.203682 48.875618
40.67794 76.454025 49.302483
41.240711 82.076965 48.801132
40.495552 80.07045 49.101475
40.820786 79.528549 49.07859
41.169376 82.27404 48.761852
40.781616 79.99118 49.010731
41.202946 80.187904 48.846924
40.783916 76.448151 49.267841
40.782196 77.079422 49.205841
40.374672 79.369446 49.208202
41.165009 82.881279 48.735779
41.159256 79.959122 48.93647
40.478691 80.875984 49.045757
40.526283 82.382187 49.024296
40.680485 81.467728 48.970623
40.497219 79.003113 49.185482
41.167885 82.377289 48.783863
41.075935 81.075188 48.839653
40.295509 78.311378 49.297222
40.360802 78.876762 49.246708
40.880219 77.162201 49.179585
41.058369 76.094101 49.232185
40.692757 79.708122 49.051922
40.88982 81.493149 48.849762
40.971848 82.186073 48.821419
40.979191 79.779282 48.969143
40.574818 79.904396 49.049095
41.076099 82.098846 48.762814
40.511017 78.848991 49.200733
41.070751 82.451828 48.804405
40.678375 80.258766 49.063591
40.471642 80.934151 49.148224
40.973644 79.070503 49.035416
40.677612 81.331734 48.99601
40.583664 80.871445 49.01049
40.699745 78.092255 49.158047
40.769409 82.933502 48.898144
40.778503 80.969444 48.974979
40.871632 80.198097 48.946564
40.975384 82.966637 48.79998
40.9744 80.197479 48.912888
40.879784 82.957298 48.83102
40.784641 77.295074 49.179249
40.788681 82.280754 48.881702
40.683891 79.460556 49.116554
40.968124 76.274071 49.184776
40.49617 78.659996 49.231976
40.678143 82.6008 48.857391
41.075897 77.168228 49.123501
40.384609 79.2145 49.242264
40.69146 77.797539 49.154659
41.080227 78.070358 49.069412
40.680164 79.669411 49.087452
40.960579 77.784294 49.075344
40.880806 78.057976 49.126076
40.960381 77.359406 49.136292
40.877708 77.553902 49.168865
41.274357 81.209404 48.835732
40.86031 78.802444 49.018177
41.137905 77.052124 49.111454
40.936077 80.12265 48.915817
40.875774 77.33551 49.190445
40.878048 77.079712 49.172829
40.968296 77.063263 49.185314
40.777096 76.708252 49.210396
40.889355 77.375931 49.160263
40.966969 80.966339 48.922161
40.227821 79.522339 49.301804
40.946239 81.733208 48.914486
40.68042 81.17981 48.988853
40.683922 81.21463 48.911514
40.579029 78.056 49.225727
40.58992 76.157066 49.349754
40.626347 75.890533 49.306736
40.86861 76.069794 49.241554
40.68391 80.170059 49.049591
40.360611 80.148338 49.183617
40.788635 80.073212 49.01601
39.948269 79.743248 49.348305
41.148563 80.145821 48.910263
40.869968 79.865234 49.014919
40.972786 78.601761 49.013
41.086708 76.159164 49.18829
40.968483 77.583778 49.09861
40.936329 79.087753 48.988106
40.86961 78.585747 49.05262
40.966801 80.172844 48.971581
41.364811 80.169876 48.891354
40.588566 79.239616 49.174248
40.898811 80.635231 48.99762
40.012905 81.498924 49.124485
40.986706 75.95533 49.243687
40.463516 80.976891 49.071053
40.600361 80.97271 49.023102
40.798 82.476227 48.861359
40.876949 82.484612 48.831097
40.494968 80.801933 49.049332
40.783684 82.788994 48.839642
40.687298 80.973366 49.005669
40.68676 80.791443 48.987835
41.052662 79.249863 49.03141
40.77282 75.57032 49.339279
40.970425 82.781136 48.792515
40.585445 82.796005 48.895283
40.780708 80.789986 48.954498
41.064411 81.883896 48.779785
40.396862 79.983292 49.130424
40.582813 82.5793 48.920547
40.874443 81.780067 48.889603
40.268227 82.359886 49.082073
40.777225 78.679459 49.107899
40.091732 82.858315 49.095825
40.509003 78.267807 49.236652
40.873585 80.87767 48.938408
41.139023 82.95224 48.748131
40.479458 80.676018 49.068417
40.96965 80.671616 48.9286
40.448452 79.783707 49.18454
41.072239 80.985023 48.889397
40.585751 76.063889 49.34483
40.244118 82.878029 49.032761
40.564072 80.266556 49.110729
40.601059 79.443184 49.146687
40.668694 77.294006 49.221275
40.874638 82.148827 48.880848
41.149414 79.867142 48.912804
40.690731 76.751518 49.285164
40.682842 82.781464 48.872566
40.878014 80.708366 48.901592
40.783646 79.87207 49.036903
40.587029 80.37851 49.059723
40.767117 80.709076 48.944729
40.36351 80.712906 49.121502
40.396141 79.461334 49.206108
40.448944 80.859016 49.13805
40.478004 82.695259 48.929173
40.689175 80.381874 49.027
40.87455 80.670135 48.96154
40.884933 79.753387 49.034687
40.867878 77.856636 49.156105
40.876656 82.692284 48.804474
40.657921 82.116486 48.886066
40.685978 79.279747 49.10022
40.875656 80.492828 48.934124
40.782784 77.847893 49.182137
40.280434 79.65226 49.232903
41.073387 77.868095 49.081783
41.082161 82.736717 48.78796
40.980255 77.16449 49.151993
40.88728 79.449806 49.046997
40.801502 80.105385 48.945332
40.195412 82.140778 49.11903
40.874985 80.969032 48.942112
40.676659 77.053833 49.271969
41.077129 80.679268 48.90036
40.980537 82.271065 48.827339
40.457474 79.456688 49.184132
40.876305 79.572273 49.019604
40.881878 78.309563 49.060059
40.768932 78.315933 49.116669
40.773056 82.107437 48.861465
40.511948 79.712936 49.124409
40.880753 75.905258 49.226536
40.487503 79.592735 49.134399
40.789158 79.157661 49.090618
41.182461 79.458641 48.964825
41.06876 79.553017 49.00024
40.989433 79.533943 49.032265
41.189571 79.518547 48.957581
40.789909 79.394608 49.036709
39.995449 82.383354 49.135242
40.493988 76.15596 49.379848
40.499294 79.379417 49.136467
40.87751 76.161919 49.255768
41.160885 82.701752 48.736031
40.873684 76.855919 49.197845
40.693924 79.573013 49.080936
40.979603 81.864479 48.867336
40.78207 77.557533 49.19912
40.792473 81.003174 48.910107
40.970261 80.88063 48.907074
40.428425 81.461716 49.020226
40.500267 81.872711 49.028511
40.979633 79.325989 49.057884
40.45219 81.549034 49.085339
40.875755 78.561432 49.096985
40.582722 81.575096 49.015114
40.771057 81.490234 48.877754
40.240604 79.487747 49.288303
40.681751 76.572639 49.277897
40.528156 77.817047 49.225021
40.962143 77.081726 49.140739
40.721634 76.603157 49.308434
40.228573 81.879189 49.113819
40.205288 80.363976 49.250202
40.972141 81.981583 48.84317
40.981926 79.370476 49.017349
40.489937 77.775146 49.271832
40.562614 81.874977 48.953419
40.873997 77.588593 49.133274
40.689579 79.745354 49.096062
40.78043 81.892128 48.894875
40.584595 79.573029 49.117157
40.586536 77.03421 49.301315
40.581623 81.774307 48.974422
40.790169 79.572289 49.052399
40.114487 79.890587 49.238632
40.287975 79.883423 49.195122
40.478535 79.865669 49.137295
40.78017 77.49427 49.147274
40.7934 82.583748 48.858524
41.076073 80.169937 48.92905
40.505493 79.273964 49.154884
41.083729 78.998116 48.97274
40.58569 82.281334 48.945145
40.786671 80.875877 48.965908
40.58799 77.807556 49.205669
40.881176 82.019348 48.803146
40.783195 77.167862 49.210938
40.883553 77.047432 49.202358
40.897186 80.894165 48.863167
40.181923 77.626564 49.388947
40.502075 79.645927 49.14698
40.692886 79.981461 49.032322
40.780006 75.952011 49.310738
40.875538 79.667892 49.02832
40.311554 82.177963 49.040009
40.481586 81.472908 49.031765
40.882797 81.564835 48.90625
40.582317 81.011528 48.97361
40.096107 82.321388 49.141552
41.247559 82.395958 48.737015
40.877224 82.574005 48.838448
40.54578 82.133934 48.999596
40.581963 82.194107 48.942711
40.691566 82.27774 48.91354
40.682533 80.759056 49.027061
40.045631 81.754791 49.108597
41.170319 82.217377 48.721401
39.991802 82.289017 49.157333
40.16193 82.437325 49.074337
40.272823 82.549088 49.069904
40.682579 77.166565 49.247097
40.790012 82.157593 48.908173
40.971561 82.480453 48.809799
40.877995 82.097435 48.806274
40.678978 78.969887 49.123482
40.685436 77.369514 49.223648
40.597973 76.037193 49.388119
40.782253 77.373291 49.191002
41.273975 82.248238 48.748451
40.77739 78.770599 49.114464
41.070801 82.282883 48.798203
40.163921 81.429428 49.167465
40.278221 81.482727 49.104645
40.686737 82.149498 48.94194
40.991886 77.354919 49.153591
40.880852 82.182724 48.844387
40.889687 76.486153 49.197567
40.592003 79.658325 49.120129
40.788002 81.175392 48.949776
40.886013 80.796776 48.916794
40.463203 80.19912 49.079834
40.043724 82.511925 49.154907
40.8885 81.955299 48.906307
40.782051 79.267159 49.073456
40.575935 81.595573 48.952545
40.295918 79.25576 49.244919
40.973522 79.260048 49.019463
40.592583 76.749893 49.317982
40.691959 82.360718 48.913639
40.378269 78.783699 49.229156
40.793907 79.664131 49.057968
40.882462 76.035454 49.285088
40.497059 77.463165 49.296158
40.701569 78.942131 49.156067
41.065807 80.974197 48.938446
40.378899 81.701981 49.051907
40.961617 82.207642 48.739101
40.581577 77.472755 49.256409
41.154621 82.487068 48.749805
41.170376 80.547272 48.907742
40.876347 77.264069 49.186497
41.169422 80.463715 48.898048
40.498901 77.249786 49.302952
40.784458 82.385887 48.839645
40.869778 76.18499 49.216286
40.88166 76.57663 49.206573
40.68475 77.966362 49.190956
40.570072 77.578209 49.231853
40.404114 79.908783 49.101612
41.032959 77.802704 49.055546
40.881046 81.175453 48.924355
40.681786 81.572693 48.968525
40.078522 79.794029 49.237774
41.069145 82.189056 48.777431
40.082428 82.22448 49.165546
40.298523 79.789124 49.195847
40.818745 82.220642 48.914165
40.858261 82.301483 48.784996
40.971741 81.57106 48.886372
40.782246 76.867767 49.231876
40.681789 82.1875 48.912514
40.786247 81.569153 48.938728
40.496487 81.10511 49.010094
40.586418 80.458298 49.070023
40.401752 80.476532 49.149715
40.051189 78.807381 49.3979
40.683258 77.842438 49.219994
40.371437 79.382523 49.130524
40.283009 81.76915 49.065388
40.79113 81.339256 48.958492
40.980209 80.714104 48.869209
40.77705 79.124313 49.024181
40.971275 78.975868 49.034702
41.063526 80.460342 48.923695
40.876083 79.271645 49.044525
40.737736 76.112671 49.349262
40.191975 79.364861 49.272747
40.185131 78.721664 49.333714
40.390701 82.216751 49.054237
40.187508 78.847321 49.286903
40.139149 81.964737 49.070053
40.488693 76.23909 49.382298
40.527603 79.933548 49.069469
40.598003 79.381126 49.134846
40.220547 81.759567 49.076908
41.069988 81.766647 48.842884
40.587227 79.720207 49.120415
40.35384 78.675102 49.248829
40.778618 78.941582 49.115379
40.282608 80.360596 49.168201
40.338226 75.788452 49.488342
40.19722 80.050545 49.251778
41.160805 82.570206 48.765423
40.523338 78.935753 49.209492
40.595963 76.949989 49.295097
40.181816 80.489517 49.217911
40.505547 81.979584 48.990784
41.080421 82.66375 48.781513
40.365608 78.987656 49.231415
40.380062 81.863014 48.997849
40.874321 76.368744 49.236179
40.330944 81.757309 49.056328
40.771732 76.956688 49.234749
40.4636 80.709175 49.052311
41.145752 78.832764 49.002216
40.760029 79.322098 49.030983
40.574848 75.755554 49.407085
41.136192 81.107094 48.826595
40.881191 81.349068 48.937206
40.621811 80.827072 49.056328
40.985126 80.857475 48.935001
40.878986 80.847954 48.981491
40.477203 80.288994 49.090858
40.581448 78.774475 49.173794
40.582382 76.876297 49.292004
41.106224 80.853256 48.905651
40.686768 77.762108 49.209679
40.69067 79.36969 49.094177
41.066898 79.281563 48.978516
40.965424 79.337051 48.941612
40.585541 78.85482 49.176773
40.678169 76.768272 49.258209
40.505066 81.886627 48.971825
40.687218 77.012756 49.224937
40.583569 80.286278 49.0527
40.969677 80.929665 48.968716
40.412945 81.977043 48.981663
40.688156 80.676033 49.016777
40.872242 77.762978 49.147449
41.176239 80.875328 48.878387
40.993412 81.924416 48.864323
40.6861 76.871964 49.260059
40.680336 80.286034 49.016678
40.68668 77.547829 49.233303
40.579613 82.008575 49.042065
40.590187 77.562737 49.265381
40.773563 79.189903 49.066711
40.677402 78.163162 49.179001
40.580719 79.145775 49.153347
40.679955 79.153244 49.12484
40.783749 80.469681 49.010441
40.800949 81.124985 48.982265
40.90583 81.140076 48.963284
40.489296 81.947556 49.071495
40.220493 80.287849 49.199734
40.782974 80.672218 48.987377
40.908211 75.817696 49.303215
40.473598 77.569572 49.314034
40.973553 75.869492 49.249214
40.672195 75.850479 49.387169
40.764469 76.026703 49.324162
40.684319 75.860252 49.33305
40.672413 76.034988 49.353947
40.494865 82.475571 48.946522
40.371822 82.499809 48.958546
40.689983 82.484917 48.896351
40.797947 75.82798 49.359753
40.328655 77.717949 49.320465
40.87085 82.614967 48.780113
40.155949 82.578667 49.096107
40.493752 82.57119 48.95993
40.491703 75.861435 49.454845
40.873196 76.093826 49.314632
40.782009 75.896339 49.364788
40.578632 82.487518 48.911381
40.877262 79.18718 49.030277
40.776123 75.858772 49.304604
40.672562 75.892906 49.288273
40.387169 80.301003 49.136539
40.773098 75.914627 49.239994
40.503536 78.78318 49.197746
40.777702 78.176628 49.14539
40.577408 78.980049 49.15213
40.754086 76.633736 49.31163
40.78278 78.975113 49.09148
40.581158 79.06028 49.157867
40.05217 78.566032 49.375984
40.388283 78.930214 49.2477
40.59259 80.677528 49.042206
40.577312 78.937256 49.190178
40.385361 80.969795 49.090244
40.378918 78.923416 49.20953
40.786053 80.266373 49.028961
40.456562 77.340744 49.334839
40.881039 78.973686 49.058968
40.972836 81.068848 48.915775
40.959373 77.562607 49.139259
40.79026 79.749733 49.062195
40.880337 80.33342 49.009106
40.701096 80.54512 49.044556
41.064411 80.541344 48.933434
40.769978 81.061317 48.984524
40.719608 81.667351 48.973907
40.490978 79.095383 49.178879
40.685589 79.066246 49.122784
40.870697 79.063164 49.065327
40.683388 80.474449 49.036503
40.872402 80.468544 48.979271
40.333298 80.538712 49.151943
40.365406 79.060936 49.223736
40.780083 79.072113 49.092136
40.966293 78.947647 49.057751
41.068192 81.05658 48.90041
41.058792 79.152504 49.006012
40.689346 80.50576 49.13028
40.969421 80.467506 48.950191
40.976219 80.554268 48.95509
40.496929 80.464386 49.08189
40.779797 80.54631 49.017723
40.843857 82.226082 48.780216
40.779633 80.287804 49.001305
40.629601 80.546753 49.106564
40.973972 79.158699 49.037823
40.759293 77.639107 49.219025
41.066677 80.786011 48.857296
40.439232 80.601669 49.174194
40.964165 81.178238 48.892673
40.695091 81.592216 48.923206
40.878044 80.560043 48.986916
40.871883 80.286263 48.966167
40.883793 81.059196 48.945229
40.588642 78.36702 49.212223
40.488956 79.965302 49.141464
40.61124 81.082695 49.030437
40.970573 80.048523 49.000858
41.178192 80.683968 48.89032
41.14954 81.339073 48.862125
40.862625 76.77562 49.18869
40.656651 79.902252 49.044964
40.590027 80.800247 49.00655
40.699959 76.470268 49.258026
40.597282 79.868034 49.087715
40.77475 79.898087 48.987076
40.86871 82.812653 48.737915
40.978893 80.679993 48.983387
40.600052 79.946632 49.094311
40.390484 79.884613 49.156307
39.852364 82.545311 49.218616
41.073101 82.315102 48.72971
40.252457 80.031708 49.239185
40.481129 82.143715 49.001194
40.88298 78.177628 49.104206
40.979301 75.99189 49.084435
40.91457 75.986061 49.101139
40.785679 78.389786 49.111179
40.678364 79.183586 49.095325
40.688919 81.055672 49.012135
40.793457 80.207771 48.966057
40.809029 76.990692 49.171658
40.988407 76.601944 49.110218
40.875687 82.91124 48.770672
40.888885 83.103699 48.711361
40.683811 82.407661 48.87854
40.887402 82.234566 48.892868
40.997051 82.221298 48.853054
40.986546 82.312454 48.746933
41.053528 78.955963 49.03017
41.080101 81.173668 48.854568
40.973152 81.390793 48.871319
40.771183 82.29248 48.818428
40.962273 77.881546 49.08532
40.971291 78.677238 49.035564
40.880253 79.900589 48.953613
40.884357 80.996048 48.886372
40.956249 80.113625 49.027328
40.788185 80.927444 48.893021
40.877213 82.364632 48.853687
40.686321 80.077843 49.049797
40.275986 80.676109 49.167328
40.390522 80.370964 49.136684
41.066299 82.357872 48.806133
40.376202 80.085709 49.143497
40.18111 78.719627 49.298981
40.017891 78.48037 49.405777
41.165775 76.751129 49.131069
40.088837 79.95256 49.263157
40.224766 78.641136 49.333618
40.487823 79.771629 49.127964
40.97752 78.387306 49.046524
40.387405 79.77243 49.159283
40.351398 82.194244 49.016979
40.198837 80.298286 49.242123
40.410416 81.596542 49.019184
40.787243 81.597664 48.900055
40.096287 81.392662 49.128315
40.509346 81.585876 48.966892
40.592888 77.343452 49.29081
40.289597 80.462448 49.170967
40.883854 82.401344 48.821342
40.404823 80.247833 49.166012
40.064369 78.902718 49.416611
40.290848 80.167778 49.187939
40.164154 78.948486 49.419621
40.983627 82.370758 48.833935
40.871731 81.973099 48.877941
40.391064 82.690674 48.942741
40.593834 82.095932 48.91423
40.672451 75.689156 49.328957
40.56287 82.40789 48.971745
40.681969 75.642693 49.36237
40.483017 80.376678 49.094742
40.873814 81.086876 48.913292
40.569248 80.690102 48.992893
40.365746 79.271736 49.206219
40.486397 77.003059 49.50909
40.38678 79.190269 49.19445
40.696201 80.707642 48.953583
40.639732 80.643806 49.100597
40.586182 79.486237 49.108284
40.398289 79.145432 49.224758
40.588123 75.871994 49.368198
40.697479 79.779327 49.060158
40.583359 79.187126 49.128323
40.500732 79.187584 49.14537
41.064983 79.671349 48.97131
40.873951 75.873901 49.274765
40.677437 80.206078 49.017403
40.613247 77.125679 49.314922
40.574379 78.886688 49.13805
40.262215 77.751785 49.349632
40.882282 75.960999 49.235786
40.595165 76.231369 49.358055
40.486965 77.962196 49.258804
40.972019 78.172234 49.073917
40.877403 80.258659 49.000443
41.075706 82.481018 48.777538
40.966568 80.254456 48.976723
40.420818 76.259186 49.423149
41.067059 80.268967 48.947304
40.976574 80.288994 48.922073
40.484734 81.051743 49.130283
40.483391 77.673286 49.270031
40.380016 77.696716 49.300644
40.784992 76.582062 49.240208
40.817791 80.031784 49.042839
40.690384 77.258995 49.242142
40.327908 78.902306 49.21619
40.595943 77.258163 49.27306
40.494511 78.473419 49.210007
40.264748 81.603752 49.067905
40.682907 76.824417 49.295303
41.173153 80.770424 48.882053
40.654587 80.032379 49.096016
40.907101 80.041824 49.013344
40.346172 80.483643 49.109631
40.783463 82.982956 48.817215
40.88773 82.996437 48.797634
40.687881 76.24762 49.323509
40.782684 80.763847 48.991627
40.777733 78.863411 49.110077
