# .PCD v0.7 - Point Cloud Data file format
VERSION 0.7
FIELDS x y z
SIZE 4 4 4
TYPE F F F
COUNT 1 1 1
WIDTH 575
HEIGHT 1
VIEWPOINT 0 0 0 1 0 0 0
POINTS 575
DATA ascii
0.80232692 30.144007 -26.031273
0.97994781 30.053333 -26.025124
-1.9604611 29.808775 -26.029795
-2.49787 29.809019 -26.019567
-3.5094824 30.041346 -25.905369
0.0115906 30.288383 -25.976515
-0.18529904 30.272133 -25.962799
-0.45052958 30.25881 -25.95019
0.24511766 30.217962 -26.013515
-2.825253 30.203424 -25.885818
0.85100722 29.988436 -26.174263
-0.23217392 29.828676 -25.946646
-0.8792299 30.116411 -25.919622
-2.7649589 30.083384 -25.820698
-0.44432759 29.790943 -26.119822
0.49128056 30.030655 -26.011097
-2.7148895 29.734707 -25.88224
-2.8068094 30.029108 -25.92177
-3.7547445 29.585192 -25.849318
-0.93618852 29.731558 -25.942825
-3.3266847 30.020987 -25.872307
-1.5660756 29.793991 -25.914154
-1.9993016 30.033388 -25.950939
-4.2174244 29.92989 -25.789995
-3.821403 29.604691 -25.754658
-2.5887213 30.043875 -25.920853
-3.8254912 30.050097 -25.858931
-2.8687987 29.796158 -25.872499
-3.9177723 29.748892 -25.860941
-0.59861064 29.802654 -26.07984
-3.3117311 29.871038 -25.976574
-1.6325568 29.902607 -26.134056
-2.1537609 30.055161 -25.942251
-3.619123 29.566019 -25.791113
-1.428098 29.803366 -25.925591
-1.8598363 30.011204 -25.948086
-2.0326335 29.722273 -25.906746
-1.2167797 29.528446 -25.859535
-1.6985059 29.627859 -25.832117
-1.2188225 29.710146 -25.913277
-1.2591898 29.803928 -25.890865
-0.83958006 29.735823 -25.939423
-0.73471737 29.717882 -25.958965
-3.6785161 29.517939 -25.768799
-3.635704 29.850471 -25.829649
-1.6306168 30.007484 -25.972704
-3.4998741 29.975496 -25.946281
-4.0998259 29.601091 -25.860554
-4.0754728 29.732794 -25.83618
-0.55670285 29.801607 -25.925108
0.084256411 30.008812 -25.992268
-3.6090751 29.765259 -25.870531
-3.7127714 30.040705 -25.914017
-3.8110411 29.765001 -25.867899
-3.9261994 29.728298 -25.835796
-4.0076466 29.820751 -25.843544
-3.724679 30.154778 -25.933182
-3.6183617 30.041286 -25.887899
-3.9478946 29.936998 -25.856703
-4.0211573 29.744625 -25.859743
-3.4980369 29.751753 -25.902754
0.28694224 30.015598 -25.99972
0.78066707 30.046452 -26.040195
0.86033034 30.032825 -26.031034
-1.353339 29.828533 -25.91745
0.58993268 30.228304 -26.087027
0.56125546 30.26045 -26.164757
0.57008815 30.048075 -26.016626
-2.348079 29.784681 -26.014252
0.69554472 30.025219 -26.056662
-2.7794485 29.779364 -25.993475
-2.5988584 29.853952 -25.876776
-2.0076556 29.798271 -26.031845
-3.6286573 29.7148 -25.83938
-3.0876279 29.890209 -25.986313
-2.8991804 29.874369 -25.984766
-3.414155 29.987087 -25.957199
-3.2423711 29.896597 -25.989687
-3.8104548 30.112019 -25.858747
-3.9026561 29.668652 -25.833363
0.46502924 29.80842 -26.12005
-0.6000129 30.014374 -25.984112
-3.7044516 30.010941 -25.921949
-2.0412056 29.827869 -25.896814
-1.1451714 30.020107 -25.974646
-3.7196412 29.724911 -25.841459
-1.7196695 29.880974 -26.02084
-1.4264601 29.888439 -26.027685
-1.6133814 29.885818 -26.02248
-1.7220445 29.80299 -25.901423
-1.1271067 29.789438 -25.896854
-1.8140539 29.854008 -25.985416
-1.2230177 29.846928 -26.005024
-1.1203594 29.849396 -26.012854
0.17435694 29.795895 -26.098585
-2.1219897 29.887829 -26.002562
-0.12255549 30.07095 -26.094364
-0.52497303 29.966715 -26.067707
-0.41472149 30.068872 -26.08396
-1.2959831 30.049921 -25.988159
-2.3155799 29.882055 -25.997244
-2.4193273 29.850908 -25.964622
-2.1225104 29.846855 -25.972334
-2.5176773 29.852957 -25.956348
-1.1180696 30.072641 -26.058435
-2.0197515 29.84758 -25.976978
-2.3153574 29.85289 -25.969145
-1.6204119 30.071692 -26.037788
-2.1797764 30.107552 -25.943472
-2.6662562 29.924299 -26.081585
-1.8144847 29.971516 -26.018448
-3.0176723 29.979635 -25.971115
-1.1236143 29.966707 -26.04236
-3.5970137 29.972666 -25.961628
-3.2778602 29.626936 -25.755173
0.97983932 29.566778 -26.025215
0.76218915 29.848228 -26.054052
-2.7217934 29.878222 -25.989544
-1.9212104 29.887543 -26.010942
0.68665791 30.166395 -26.107243
0.69186831 29.739281 -25.997164
0.58009386 30.07399 -26.091864
0.78311801 29.551508 -26.028585
0.67241001 30.068834 -26.088707
0.88538575 30.087254 -26.09123
-3.6202812 29.684805 -25.904865
-2.7242253 30.246214 -26.026222
-1.4275479 29.930679 -25.991186
-1.3229945 29.886362 -26.034124
-2.5170531 30.054419 -25.910131
-0.81419063 30.03414 -26.003544
-3.3911784 30.153545 -25.873062
-0.31656039 29.752869 -26.036394
-2.2206526 29.944023 -25.953789
0.38162732 29.743866 -26.053528
0.65445256 29.854265 -26.042696
-3.6944823 29.808092 -25.832253
0.18010521 29.730263 -26.005333
-1.525426 30.033302 -25.975328
-3.2135444 30.012106 -25.898352
-0.11662424 30.230022 -26.067213
-2.4212999 29.889709 -25.993145
-3.3198495 29.853205 -25.903202
-0.81956911 29.921387 -26.016043
-2.7554178 30.036604 -25.922308
-1.9249638 29.851809 -25.981655
-0.62481523 30.066578 -26.075701
0.37459254 29.862705 -26.115419
-2.3232863 30.244696 -26.036242
-2.2148089 29.886726 -25.998091
-1.4995295 29.749226 -25.922823
-1.3296499 29.722229 -25.934418
0.56738639 29.848383 -26.04793
-0.72382009 29.945087 -26.015148
-0.6251955 29.955124 -26.014889
-1.1174879 29.943592 -25.993111
0.57308006 29.732721 -25.990511
-0.4312185 29.759272 -25.967258
-2.0996256 29.775486 -26.021067
-1.2275548 29.948294 -25.990688
-0.33050942 30.237673 -26.065088
-0.13339067 29.719898 -25.981272
-1.4038403 30.025698 -25.960598
-3.1160586 29.935753 -25.929394
-0.1190052 30.177895 -26.088932
-0.40905988 29.942368 -26.015287
-3.0146475 29.875479 -25.976784
-3.6166606 29.956257 -25.893497
-0.2818588 29.808449 -26.084095
0.37973094 29.974985 -26.108635
-3.5183616 29.851978 -25.90069
-2.5147512 29.882421 -25.995207
0.27687526 29.971106 -26.029287
-0.015741706 29.842541 -26.041027
0.38262749 30.108641 -26.163311
-1.3180871 30.171408 -26.051994
-2.8151236 29.941238 -25.937366
-2.6187081 29.887375 -25.987576
-3.5200624 30.074568 -25.936712
-0.29259133 29.994181 -25.944782
-3.7062454 29.856298 -25.875601
0.3833189 30.165035 -26.101646
-2.9826407 30.025486 -25.886826
-3.0046597 30.148676 -25.889172
-3.6056247 29.845257 -25.8759
-0.81942236 29.852097 -26.02161
0.38332462 30.203659 -26.173277
-3.3180521 29.949619 -25.906927
-1.3139472 29.94346 -25.993063
-3.4105811 29.941721 -25.895285
0.17990351 30.073662 -26.09816
0.1723094 30.097139 -26.161692
-0.9193095 29.855652 -26.019787
-2.5096788 30.250067 -26.033672
-3.3163285 29.983984 -25.952232
-2.4240894 30.248796 -26.034101
-2.3183866 29.933392 -25.959692
-3.2136519 29.752163 -25.912579
-3.220191 29.853672 -25.906725
-2.9168139 29.851004 -25.938416
-1.8244656 29.939426 -25.977283
-0.72042263 29.849209 -26.024975
-3.2137785 29.726109 -25.861839
-2.9205654 29.953594 -25.923084
-2.315999 29.965157 -25.998901
0.4616437 29.747133 -26.067686
-2.5168414 30.164595 -26.001579
-1.3334892 29.882845 -26.149609
0.17754936 29.856569 -26.050432
-2.1936774 29.729816 -25.883102
-3.4232488 29.763597 -25.90589
-2.7304111 30.245611 -25.973967
-3.4063458 29.734863 -25.835922
-1.5251045 29.937037 -25.990053
-2.218195 30.168268 -26.01652
-1.7061126 30.04166 -25.947077
-1.633744 29.706593 -25.908905
0.58444381 29.747375 -26.067844
0.079099417 29.754097 -26.052725
0.079931259 29.978437 -26.097506
-2.9191175 30.038767 -25.915451
-1.0177982 29.950012 -25.997393
-0.31862724 29.968893 -26.080444
-3.6975439 29.780481 -25.864525
0.64220381 29.736551 -26.046383
0.58036566 29.537266 -26.042231
-2.3149784 30.070595 -26.010212
-1.5181744 30.066574 -26.043055
-0.4259187 29.866222 -26.077364
-1.0237508 30.172916 -26.060562
-0.52158284 29.871836 -26.072563
-0.92631423 29.944052 -26.008045
-2.6182559 29.853378 -25.952982
0.28250122 30.19532 -26.16633
-0.9183991 29.755112 -26.012337
-2.8187757 30.069469 -25.984192
-0.088855505 29.768991 -26.093048
-0.019733548 30.185816 -26.146362
-1.9498551 29.854357 -25.889164
-2.6189322 29.748669 -25.944424
-0.5274713 29.750654 -26.029909
0.080004096 30.173874 -26.097441
-1.9235754 29.969275 -26.01432
0.068217397 30.115635 -26.163395
0.37593246 29.575819 -26.09342
-2.5347891 30.109053 -25.909033
-2.7179804 29.928947 -25.9415
-0.81929469 29.886126 -26.053289
-3.9149232 29.876692 -25.858585
0.17581201 30.18844 -26.157785
-0.021124244 29.747328 -26.041
-1.8069868 29.715683 -25.930384
-0.39808667 29.713234 -25.832417
-2.9208145 29.748583 -25.925915
-2.2184267 29.753716 -25.960968
-1.9179072 29.75119 -25.971622
-2.1196709 29.748745 -25.964457
-2.8260045 30.251362 -25.957994
0.17866206 30.17149 -26.102339
0.39622569 29.746288 -25.98324
-3.3175831 29.747734 -25.904531
-2.6194358 29.943937 -25.939722
-3.807497 30.059593 -25.904507
-3.4143944 29.84396 -25.903999
-1.9222383 30.175598 -26.024845
-1.6153544 29.933031 -25.98843
-0.72549927 30.065861 -26.072979
-0.47621608 30.033121 -26.008541
0.27651119 30.163378 -26.108952
-0.22158611 29.847187 -26.046028
-2.9173026 29.967358 -25.967033
-2.2178183 30.073486 -26.01609
0.18090224 29.750309 -26.05162
-0.92464244 29.885435 -26.05146
-2.4120579 29.806984 -25.855978
-2.7123652 29.753883 -25.938675
-3.5208151 29.642836 -25.864069
-1.1177156 29.885088 -26.044641
-0.016755104 30.0994 -26.164942
-1.1176608 29.726385 -25.947214
-2.0178378 29.938793 -25.965435
-0.8178848 30.068785 -26.068605
0.48490739 30.098303 -26.169554
-3.0122893 30.07021 -25.970495
-0.32936144 29.950994 -26.0158
0.27419305 29.648775 -26.060848
0.92333174 29.693365 -26.055433
-3.8146837 29.847301 -25.875908
-0.71324813 29.759634 -26.019981
-2.0194247 29.879055 -26.011044
0.48190236 29.538124 -26.032471
-0.61789608 29.752281 -26.026514
-2.5318861 29.738411 -25.881794
0.77154613 30.165804 -26.105186
0.17046261 29.875145 -26.10504
-3.8216062 29.641092 -25.826323
0.67739797 29.670088 -26.094767
-2.3198342 30.168163 -26.012386
-0.22210288 29.883196 -26.084427
-0.81568146 29.748983 -26.012308
0.4659152 29.856382 -26.04744
-1.5213041 29.969193 -26.028538
-0.12459552 30.182722 -26.147507
-3.337399 30.137842 -25.855427
-3.5106101 29.944998 -25.902966
-0.31942344 30.072466 -26.086559
-0.52389145 29.937498 -26.018982
0.19000077 30.012377 -25.986202
-3.7259941 29.658466 -25.841246
-2.9305859 29.83433 -25.846012
-1.0189728 29.750381 -26.00613
-3.2188845 29.940716 -25.91679
0.075554848 30.05979 -26.09852
0.38960505 29.652712 -26.089712
0.3920188 29.863214 -26.051985
-2.4144096 29.94166 -25.951099
0.17600298 29.636534 -26.052773
0.48666549 30.062843 -26.100962
-2.3404403 30.041121 -25.934952
-1.2184713 30.07007 -26.053997
-2.6196489 30.2439 -26.027685
-3.4190321 30.067581 -25.949091
-2.0211682 30.074474 -26.02396
-1.7171494 29.966814 -26.019054
-2.8144932 29.97193 -25.980795
-2.815681 29.848009 -25.935644
-1.0214536 29.886894 -26.05752
-1.0202973 29.969677 -26.048433
-0.1208992 29.981979 -26.092873
-0.11665475 29.853767 -26.042332
-0.11945653 29.75215 -26.038002
-2.6160247 30.07033 -25.996744
-3.6257529 30.077871 -25.938332
-3.2174637 29.980167 -25.957441
-1.8193653 30.070637 -26.030262
-1.420343 29.97023 -26.030716
-1.8205521 29.891127 -26.016562
-1.4193158 29.849672 -25.999439
-2.7222703 30.16939 -25.990433
-1.0166343 30.070498 -26.060949
-1.5192695 29.849808 -25.998804
-3.3156729 29.715597 -25.854889
-0.61621094 29.883522 -26.068195
-1.2207124 29.757719 -25.9993
-1.7207339 29.750069 -25.979866
-2.5208926 30.068094 -26.001461
-2.5214629 29.971291 -25.992207
-0.70948184 29.879076 -26.061481
-0.11906719 29.872589 -26.087215
-3.825506 30.174904 -25.923786
-3.0141129 29.942566 -25.929981
-1.4213438 29.752241 -25.990536
-3.1143816 29.974915 -25.959677
-0.91949695 30.066107 -26.063824
-2.2183475 29.972269 -26.004946
-0.91623372 29.968033 -26.051828
-2.2157738 29.849638 -25.97093
0.31735778 29.501368 -26.098057
-1.9198234 30.073654 -26.027004
-2.4208877 29.969101 -25.995699
-0.61558521 29.971077 -26.071297
0.27516341 29.970434 -26.099693
-2.4222071 30.164959 -26.006245
-2.6237249 30.168579 -25.996399
-2.1222556 30.070267 -26.021236
-1.2199603 29.971451 -26.03701
-1.2187932 29.89086 -26.035936
-2.1172807 29.933907 -25.960649
-0.71919012 29.966156 -26.063227
-0.30853391 29.839285 -26.042608
-2.6157031 29.968639 -25.987038
-0.62816918 29.847849 -26.02713
0.28857589 29.632278 -26.00676
-2.0181108 30.167801 -26.025082
-2.0211732 29.969772 -26.010523
-0.42537725 29.841356 -26.037235
-0.41899836 29.966339 -26.075272
-3.818583 29.953279 -25.878153
-0.016859412 30.171698 -26.094194
-1.318346 30.066072 -26.048185
-0.5160197 30.068954 -26.080278
-1.3126966 29.851112 -26.004608
-3.7036057 29.951826 -25.895079
-1.7167634 30.173506 -26.037136
-1.7166992 29.846155 -25.985952
0.27850151 30.104311 -26.151365
-1.3170214 29.964163 -26.033833
-0.028573871 29.884592 -26.093433
0.77991962 29.683552 -26.114529
-0.22223008 30.176077 -26.087515
-1.6203527 29.972092 -26.024857
-0.52741694 29.847179 -26.033281
0.25319958 29.578634 -26.026913
-1.6174386 30.173996 -26.038412
-2.9164963 30.072063 -25.978231
-1.6176531 29.851442 -25.990559
-1.0214438 29.852903 -26.019279
0.17968988 29.982769 -26.111465
-0.32043779 30.178896 -26.084803
-0.21740162 29.759176 -26.036045
0.27650762 29.752003 -26.052267
-0.01485014 30.066483 -26.097183
-2.7168555 29.973217 -25.980528
0.28828096 30.062395 -26.107355
0.28429294 29.837631 -26.052916
-0.027519226 29.98465 -26.09577
-2.1180992 29.968424 -26.006004
-2.3170643 29.755362 -25.957127
-0.31165671 29.873943 -26.083179
-2.715337 30.068539 -25.98777
-0.21469223 30.065119 -26.094088
-3.1247559 29.846148 -25.919268
-2.7254589 29.847462 -25.942896
0.47181582 30.207026 -26.170412
-2.4179358 30.074274 -26.00992
-0.51318824 29.716444 -25.939787
-3.1180673 29.738451 -25.860603
-3.8318307 29.724037 -25.828598
-1.5198762 29.890795 -26.027666
-0.22928262 29.933182 -26.010723
-0.91645968 29.648043 -26.00415
-3.5097182 29.729925 -25.842281
-3.0086026 29.85787 -25.928263
-2.8032806 29.721214 -25.879515
0.087007284 29.84053 -26.043568
-2.0202651 29.752119 -25.968187
-2.5200019 29.937298 -25.943443
-0.9445675 30.039625 -25.992575
0.38314748 30.071507 -26.10705
-1.7245808 29.935108 -25.971588
0.07860136 30.18762 -26.154772
-3.6177626 29.640757 -25.845821
-0.81686759 29.97191 -26.055979
0.77030277 29.773413 -26.061312
0.80306196 29.997856 -26.072445
0.8322978 29.769894 -26.027273
0.77702022 30.073805 -26.116018
0.77019262 29.626358 -26.01071
-2.8244689 29.881729 -25.987774
0.85349226 29.632534 -26.03702
0.84866142 29.554396 -26.032675
1.0112615 29.662088 -26.037367
0.47686934 29.562948 -26.095537
-0.50048351 29.575953 -25.897367
0.56652546 29.987068 -26.111607
-1.1691031 30.015165 -25.957588
-1.9139336 29.931349 -25.978945
-2.4056017 29.727571 -25.885799
-1.4200015 30.070349 -26.047178
-1.7189883 30.068529 -26.034151
0.078640461 29.871902 -26.100479
0.086814404 29.577921 -26.013313
0.65980196 29.553066 -26.035009
-1.4946792 29.808601 -26.038828
0.17733288 29.579348 -26.01483
-0.42106903 29.746592 -26.032383
0.37049389 30.29759 -26.236769
-0.92978656 29.793814 -26.06571
-2.6796525 30.196337 -25.90543
-2.5973151 30.165249 -25.909174
-2.4005184 30.045134 -25.920839
-2.2285416 30.004513 -25.900049
-3.030447 29.72242 -25.855282
-1.4184443 29.717075 -25.927519
-2.119818 29.746595 -25.902512
-0.11296391 29.941566 -26.025063
0.38580537 29.557415 -26.025238
-0.011384845 29.949621 -26.020414
-0.55135 29.807487 -26.072542
-1.9248521 30.057287 -25.954758
-1.7114264 29.731209 -25.902983
0.34742379 29.786627 -26.112432
-3.2168436 30.071428 -25.961647
0.66387725 29.783066 -26.14093
0.73340797 29.787653 -25.94673
-3.8290219 29.87343 -25.797508
0.26330161 29.699068 -26.009922
0.26008487 29.869915 -26.104435
0.4838326 30.169855 -26.108065
-3.218797 29.822443 -25.794456
-1.6155248 29.749554 -25.984856
-3.22329 29.789629 -26.001003
-2.8146834 29.751421 -25.934292
-3.3178182 30.078379 -25.955448
-3.7146859 30.048576 -25.887684
-3.932652 30.024483 -25.873451
0.56644845 30.162809 -26.104979
0.87893152 30.17004 -26.11157
0.57135177 29.45167 -26.042877
-2.5158298 29.75503 -25.949566
-0.69970822 29.824106 -25.925117
0.18595171 29.974792 -26.027685
0.078026652 29.962427 -26.03422
-0.21748173 29.969246 -26.087006
-3.9216974 29.891592 -25.929058
-3.1185331 29.754091 -25.910328
-1.973718 29.8967 -26.167812
-3.9919763 29.832302 -25.825848
-1.0434257 29.819075 -26.085642
-1.1974043 29.803097 -26.04685
-1.0305238 29.736517 -25.929016
-1.0188323 30.019127 -25.981705
-3.128551 30.074612 -25.972649
-3.3478489 29.817759 -25.842915
-3.4076281 29.845118 -25.830164
-4.0148616 29.924934 -25.870672
-4.0162992 29.711975 -25.827179
-3.9891686 30.018904 -25.884361
-3.9063835 30.163172 -25.904169
-3.9913034 30.191147 -25.915127
-0.39261699 30.052343 -26.015474
-0.64347029 29.728867 -25.963017
0.29141021 30.009794 -26.177389
-1.5168672 29.749554 -25.985506
-3.8725319 30.033497 -25.777895
0.49298692 29.768238 -25.97003
-0.32659042 29.726778 -25.965773
0.1841383 29.633728 -26.005739
-2.9114282 30.221525 -25.877693
0.38883519 29.620178 -26.011974
-1.3175299 29.757307 -25.996983
-1.8160723 29.752541 -25.974669
0.087898016 29.719076 -26.003181
-0.19862306 29.746979 -25.926367
0.67316246 29.634403 -26.014755
-0.63843584 29.849804 -25.927711
-0.45973909 29.82835 -25.934317
0.47189164 29.631519 -26.008329
1.0150909 29.68984 -26.058054
-2.5205405 29.948536 -26.071896
-0.59070206 29.981113 -26.161383
-2.3500659 29.971827 -26.078634
-0.38228512 30.173208 -25.996952
-2.8178546 29.947382 -25.84922
-2.123076 30.15333 -25.932627
-0.012985229 30.164801 -26.00132
-2.3941932 30.124065 -25.907614
0.37733579 30.209198 -26.014383
0.89671302 29.822519 -26.004467
0.58610368 29.625843 -26.01693
-2.5324922 29.838131 -25.88143
-1.8146839 29.784777 -26.046484
-1.1249446 29.75436 -26.001829
-3.0209541 29.751225 -25.923697
-2.8802776 29.641188 -25.787518
-0.62802517 29.568073 -25.866354
0.47830391 29.638264 -26.072596
-1.982869 29.830965 -26.146494
-3.1457472 29.82719 -26.090553
0.75418925 29.932234 -25.967642
-2.1911087 29.60857 -25.813372
-2.911418 29.725258 -25.865461
-3.5396526 29.661516 -25.764534
-4.110312 29.871378 -25.850664
-2.8229401 29.974876 -25.769714
-1.410585 29.799795 -25.824842
-3.096457 30.033272 -25.920444
-0.10997939 30.040342 -26.017899
-3.4387035 30.004131 -25.8594
-4.0746737 29.860441 -25.804869
-3.0913973 29.811813 -25.866014
-3.5333867 29.931076 -25.825706
-4.1950607 29.742361 -25.83667
-0.81993878 29.834738 -26.202436
-3.8573339 29.888863 -25.73469
0.27951145 29.783962 -26.107334
-0.016444564 29.790358 -26.101851
-0.34029663 30.263063 -25.964119
-0.24661422 30.02742 -25.987083
-2.4148989 29.756184 -25.952019
0.56632471 30.111029 -26.182522
-3.8098149 29.969254 -25.953264
-1.9137801 29.727964 -25.920475
-1.1706574 29.893072 -25.845638
-2.5838757 29.690104 -25.859489
