# .PCD v0.7 - Point Cloud Data file format
VERSION 0.7
FIELDS x y z
SIZE 4 4 4
TYPE F F F
COUNT 1 1 1
WIDTH 1405
HEIGHT 1
VIEWPOINT 0 0 0 1 0 0 0
POINTS 1405
DATA ascii
16.407528 32.191811 22.352314
12.178199 34.871895 22.322538
15.05691 33.999447 22.361359
16.706114 33.763454 22.627258
14.34705 33.711964 22.421604
16.664627 33.995026 22.388067
15.177004 32.617096 22.317911
16.211334 32.354927 22.405251
15.123021 33.954235 22.38258
15.15029 34.328182 22.404146
15.139785 34.088966 22.456238
13.880982 33.970379 22.295195
13.664543 34.511703 22.325048
15.300976 33.993782 22.340528
14.044681 33.482079 22.305059
15.242755 33.676643 22.462875
16.626303 33.62318 22.443844
13.336192 34.594635 22.447834
13.252331 34.622292 22.357641
14.986834 33.064182 22.225147
14.366291 33.315201 22.237112
14.743937 33.254478 22.326712
15.137575 32.020626 22.158381
13.144514 34.748837 22.464308
15.150352 32.33371 22.103516
14.518057 33.832611 22.229445
16.40024 33.885551 22.307341
14.239081 33.884796 22.354452
14.534457 33.085953 22.226366
16.686878 34.080196 22.400238
16.323946 34.434937 22.379442
15.622719 31.693254 22.106791
13.48668 33.884903 22.322554
13.806625 33.92086 22.314644
14.946056 33.397465 22.282288
14.854448 32.718353 22.199749
13.792834 33.99416 22.44104
13.174049 34.77673 22.434071
14.968796 33.231232 22.36199
15.53525 32.224728 22.276302
15.005762 32.1996 22.267471
15.198106 32.855675 22.272833
15.010126 32.14048 22.250118
14.527442 34.672752 22.449097
15.025565 34.385658 22.357393
15.946993 32.694412 22.190584
12.688164 35.154026 22.49987
14.068845 33.421402 22.300014
14.051485 33.920795 22.347099
14.147265 33.227402 22.258276
16.651438 33.08773 22.352068
14.26751 33.195164 22.253645
15.841674 34.327942 22.346424
15.755187 33.558743 22.254541
15.815397 33.547508 22.248159
14.151881 33.437931 22.304827
14.288068 34.342068 22.395426
15.776422 33.325062 22.234308
15.275741 31.966263 22.134119
12.544759 34.86311 22.383924
14.264833 34.276917 22.374435
14.073906 33.148331 22.318554
15.599312 33.903477 22.312508
14.000512 33.384754 22.296854
14.181178 33.106178 22.378128
14.238578 34.527218 22.354242
15.752593 33.483967 22.257254
15.768818 33.55595 22.309484
14.145267 34.273071 22.417788
15.636814 33.346832 22.262064
12.568912 34.621075 22.415398
15.655416 33.528828 22.295433
15.562174 31.931828 22.192711
15.559992 33.427628 22.295719
15.642584 32.29982 22.381781
16.667576 33.914268 22.472971
15.472666 32.587238 22.237524
15.604404 33.360271 22.265024
15.556608 33.706982 22.450956
15.575743 34.267765 22.361103
15.59069 33.637939 22.28541
14.449978 33.762856 22.314371
16.375162 33.763943 22.340738
16.832191 33.974449 22.489626
16.042952 32.851166 22.307138
14.380522 33.878471 22.35313
15.637449 33.197914 22.297323
16.747599 33.636738 22.322239
15.044583 33.130215 22.41102
14.437184 34.515633 22.328096
15.405256 32.894474 22.245451
14.561557 33.776169 22.305269
14.628633 34.491272 22.343981
16.181231 33.781849 22.341068
12.762037 34.514446 22.449066
15.45138 32.862202 22.247484
15.560924 33.5453 22.296738
14.269412 33.138218 22.328606
13.979437 33.172203 22.257011
12.273251 34.615871 22.383461
16.45863 33.275326 22.304829
16.561878 33.782036 22.347843
15.356832 32.291092 22.195425
15.761144 33.769203 22.340899
15.455618 34.119698 22.356501
15.553758 33.759548 22.333723
15.640583 33.442787 22.272648
14.594759 33.668941 22.290638
16.077454 32.41246 22.273056
13.956198 34.574848 22.353018
15.843846 32.563011 22.291185
15.452313 33.537956 22.316874
14.188872 34.359146 22.354946
14.76528 32.967064 22.3762
12.37398 34.903751 22.327648
15.165172 33.110985 22.387644
15.361389 32.458241 22.162369
15.142773 33.873348 22.255426
15.18078 33.714096 22.482582
14.953457 33.762611 22.30566
14.530336 34.600372 22.376587
15.905516 32.981113 22.254766
14.168365 33.139019 22.311415
15.632846 32.007435 22.147619
13.415289 34.620094 22.346945
13.064964 34.510582 22.450026
12.172333 35.145977 22.29788
12.762096 34.751575 22.28471
14.378738 34.570927 22.362608
15.674501 31.905392 22.306448
12.671445 35.142815 22.354313
14.947309 34.506943 22.483685
14.790294 33.728317 22.462379
12.53039 34.788361 22.362749
13.87442 34.272633 22.373014
12.339499 34.324413 22.364561
14.974726 33.711437 22.459522
15.472544 32.03912 22.233013
15.471857 32.682743 22.238041
14.402492 34.692802 22.389914
16.677055 33.955582 22.632347
12.276768 34.809151 22.366394
12.361517 34.748615 22.295792
12.269835 34.938103 22.32752
15.245464 33.727589 22.468451
16.354948 32.351292 22.400579
13.966169 34.386669 22.347857
15.445767 33.31538 22.315187
16.375227 33.712086 22.495226
15.952507 33.70327 22.461153
15.459759 32.765816 22.270529
16.694515 33.108852 22.480173
16.595955 33.886471 22.510445
13.870238 34.295525 22.347538
15.357562 34.340164 22.416397
16.750202 33.098179 22.449537
16.677465 33.738029 22.513102
15.366563 32.814995 22.204927
12.28434 35.007145 22.357464
16.171753 32.300518 22.374941
16.351772 32.2948 22.370876
12.413568 34.846657 22.319492
12.265462 34.533886 22.464918
15.433536 32.844002 22.189672
15.26716 31.942156 22.233831
12.455291 34.694485 22.329409
16.536814 33.755825 22.50807
15.35606 32.212391 22.241627
16.440519 33.714611 22.477882
15.195109 31.834686 22.225351
16.461679 33.741154 22.403051
13.859089 34.377335 22.356504
16.479153 32.326672 22.38611
15.888633 31.505358 22.256767
15.275175 34.219109 22.389622
13.764467 34.355804 22.388077
15.674954 33.928619 22.314922
15.384336 33.387054 22.347193
15.259418 32.029346 22.190147
13.861549 33.301594 22.265007
15.063303 34.507023 22.487892
15.461581 33.217518 22.290436
14.144903 33.68866 22.436115
15.3462 31.899742 22.217997
13.967451 34.315815 22.388586
15.355473 34.262955 22.407286
14.88095 33.122868 22.398083
12.393147 34.518253 22.285774
14.240087 33.108589 22.37635
16.573507 33.998177 22.46373
15.285769 32.887733 22.295521
15.252521 32.968681 22.364864
15.192904 33.30513 22.300615
15.441656 34.314171 22.396757
15.273743 33.214531 22.27787
16.439703 33.056885 22.413198
15.159781 34.032265 22.395828
15.540531 34.092606 22.291952
15.673243 32.575871 22.214443
13.654375 33.757519 22.299526
16.449175 33.623161 22.388912
12.673534 34.537449 22.3137
16.674356 33.804516 22.454615
16.27165 33.768909 22.519768
14.559286 33.058331 22.354193
16.390236 33.760021 22.49684
14.36688 33.81572 22.342716
13.178773 34.581249 22.331764
15.557768 34.05513 22.348276
16.410225 33.259018 22.424952
13.457243 33.818802 22.31846
12.263856 34.562206 22.365669
12.190779 34.773636 22.386425
12.560529 34.523766 22.272058
15.253096 33.490395 22.352549
14.166065 33.739132 22.362421
13.755239 33.817455 22.320316
12.266983 34.564674 22.314453
13.696148 34.415028 22.334328
15.355923 32.750065 22.273804
12.847181 34.52132 22.301634
15.963884 33.067955 22.398792
13.256752 33.814018 22.3148
12.464844 34.573914 22.309301
13.779316 34.521118 22.327946
16.561716 32.42197 22.275578
12.104881 34.646351 22.340876
15.667422 33.769634 22.328308
12.033202 34.716827 22.43399
12.019487 34.801868 22.425207
12.365391 34.554272 22.374952
16.069633 33.11227 22.41334
12.170361 34.531712 22.325392
15.786819 34.109406 22.306631
12.16287 34.482437 22.318331
16.260805 33.065979 22.407001
12.366786 34.559811 22.313831
12.578343 34.565544 22.312687
15.17132 33.756664 22.481079
13.343457 33.760761 22.298185
16.582447 33.095024 22.46382
15.730671 33.655525 22.294453
16.423407 33.265366 22.377306
14.456545 33.743351 22.366032
13.988347 34.303497 22.316175
16.770401 33.670055 22.482655
15.049902 32.465572 22.365532
12.487113 34.333153 22.377302
16.45532 33.758976 22.504665
14.741995 34.496731 22.338121
12.846735 34.559574 22.318996
16.166786 33.107212 22.420277
12.458233 34.513428 22.289034
16.450382 32.422634 22.281998
15.553697 31.670017 22.216133
15.48129 31.941504 22.20048
12.002695 34.74939 22.454287
15.253003 33.625751 22.30999
15.466097 32.352524 22.230835
16.708309 33.551472 22.359747
16.393276 32.071426 22.295393
15.57769 33.333282 22.286844
15.287633 32.54512 22.227142
14.962208 32.630901 22.190134
16.760166 33.062202 22.439907
16.524296 33.272804 22.3839
14.66689 34.463192 22.473724
12.363674 35.541992 22.407066
13.605167 34.596004 22.487736
15.46608 33.630539 22.33931
15.576342 34.157833 22.372372
15.382517 33.422916 22.291555
14.663011 33.727242 22.468592
13.791135 34.597584 22.356451
15.471596 33.762268 22.336535
14.863614 33.769848 22.317339
15.073127 32.359547 22.23311
13.487313 34.444817 22.290895
13.759096 33.765209 22.298292
13.572838 33.762096 22.290384
12.363247 35.172153 22.350857
15.126099 32.590511 22.208132
15.167257 33.765747 22.326162
15.022128 33.983936 22.296846
12.051694 34.968487 22.432272
14.598287 34.389664 22.419888
15.005382 32.465794 22.353491
12.159595 34.591972 22.295931
15.575806 32.673973 22.231585
15.640126 32.664894 22.209019
13.653174 34.311539 22.343563
15.266594 32.628895 22.284435
14.915005 33.396999 22.349833
15.364403 34.048893 22.35256
15.468405 33.389904 22.33102
15.225652 33.259499 22.202105
14.608432 34.338882 22.272921
14.000958 34.018497 22.315823
14.462875 33.823967 22.342205
15.083709 33.321465 22.240349
12.763605 34.514801 22.278776
13.291939 34.440861 22.285585
14.702789 34.423283 22.362551
16.33469 32.260395 22.278349
14.358158 34.410828 22.311646
14.713728 33.016499 22.200459
13.464005 33.760975 22.288239
12.657783 34.496449 22.279163
14.885897 34.409481 22.358227
14.37536 33.003693 22.250376
12.464014 35.254028 22.370672
15.065586 33.055004 22.369373
14.573914 34.376938 22.354733
15.254905 34.366703 22.347046
14.683195 34.401058 22.306578
14.84696 33.013275 22.257149
14.152393 33.749809 22.292215
15.127235 33.003479 22.262566
14.987646 34.402985 22.359694
15.866064 32.281921 22.188274
14.480721 33.013035 22.257269
16.543634 32.907173 22.324722
15.945148 32.264397 22.185328
14.960226 32.986244 22.263613
16.001169 32.996635 22.303318
15.064116 33.001286 22.242477
13.759968 34.491062 22.385712
13.658766 33.817219 22.316643
14.731216 33.269169 22.561075
16.416262 32.179672 22.166832
14.791759 33.250332 22.54048
14.732868 33.219601 22.50692
13.406893 34.658783 22.543661
14.279927 34.378635 22.367775
14.062163 34.137093 22.370171
14.968048 33.185833 22.480017
13.554246 33.815235 22.315052
15.568267 34.238533 22.401749
15.265438 34.1544 22.384754
15.364752 34.150707 22.389679
16.076702 32.246304 22.268564
13.445911 34.638252 22.528111
14.45136 34.596249 22.353069
14.752537 33.888718 22.527084
12.0931 34.528435 22.338787
16.464607 32.364704 22.430199
16.722448 33.337132 22.401722
13.248859 33.871143 22.396446
13.45125 34.627632 22.469639
13.364813 33.8755 22.441275
11.982527 34.879768 22.302532
13.648222 33.860699 22.398899
16.371553 33.110199 22.475464
12.367048 35.226097 22.369493
12.069064 34.517319 22.463409
16.432543 33.874218 22.54949
15.03697 34.31551 22.414204
15.401514 32.644939 22.290432
15.477448 31.8183 22.172279
16.495899 33.762569 22.642788
15.368063 31.773046 22.232323
15.475195 31.92836 22.139194
15.858963 32.488834 22.396715
15.615171 31.895172 22.130003
14.75034 32.45916 22.363911
12.166066 35.244442 22.319828
15.281603 32.751793 22.265619
15.170408 32.276909 22.157553
15.158773 32.371368 22.22942
14.859106 32.360813 22.228712
14.958721 32.363136 22.228678
14.770327 32.361759 22.21966
15.472569 33.460987 22.299232
12.959587 34.492748 22.366619
12.274991 34.486996 22.323177
12.883487 35.020035 22.353827
14.068763 33.29113 22.285496
16.357225 32.39045 22.339207
12.273232 35.199905 22.330074
17.059462 33.786366 22.488676
14.67719 33.175919 22.469978
14.384421 34.279648 22.372646
13.137789 34.364605 22.286129
13.916884 33.505508 22.270103
16.781967 33.311314 22.331638
16.656332 33.057941 22.41283
16.142406 32.288033 22.199179
16.398411 32.26495 22.235737
16.649364 32.272793 22.191811
15.776154 32.244408 22.194815
15.053366 33.757725 22.488602
13.552201 34.496864 22.312365
14.546182 34.637333 22.560719
16.056196 33.027214 22.285179
16.744221 33.02087 22.34193
15.251113 32.422039 22.246113
14.151278 34.121685 22.386473
16.166655 33.002689 22.270779
12.742701 34.570766 22.309565
14.865262 32.412659 22.248569
15.246164 33.057281 22.37249
15.671319 32.92152 22.242407
14.95542 33.100811 22.397274
13.264381 34.600075 22.437088
15.05217 33.135258 22.346457
15.147199 31.970236 22.212593
14.543504 33.113152 22.396952
15.165328 33.278095 22.353584
14.345789 33.128624 22.33046
13.863408 34.512566 22.46863
15.163973 33.053959 22.371737
15.516442 32.622288 22.352373
15.350577 32.295258 22.372902
15.96069 31.97473 22.256233
16.828472 33.175911 22.314198
14.961348 32.341454 22.278746
13.262529 34.541634 22.407063
14.6612 34.487671 22.416958
16.179497 33.114464 22.274303
15.527398 32.48605 22.200117
16.259701 32.559792 22.291842
14.469002 34.36673 22.344574
15.154486 32.386066 22.301666
16.602388 32.254887 22.286802
14.661305 33.000546 22.241793
15.158435 32.797672 22.292353
15.013151 31.780916 22.215031
14.963125 33.806564 22.352171
15.762541 34.395088 22.37499
14.278811 34.055515 22.265661
15.153417 34.458412 22.484491
14.558802 34.469284 22.463551
14.461472 34.599983 22.551905
15.476633 33.740765 22.483955
15.935835 33.488815 22.380667
15.263809 33.130081 22.350073
12.404264 35.077862 22.41729
16.749464 32.335537 22.318838
14.36294 33.102489 22.386341
14.359566 33.052509 22.353519
15.370809 32.544144 22.286898
14.053855 34.075859 22.349737
16.845295 32.326912 22.333044
16.447819 32.561646 22.121002
13.974564 34.515244 22.467415
16.658131 32.330444 22.318989
15.964623 31.901007 22.223263
14.853547 32.477917 22.341301
14.664703 33.129723 22.336775
14.359858 34.307575 22.390272
12.574764 35.127434 22.407587
14.454346 34.619923 22.434517
15.058654 33.746655 22.374418
15.074406 31.718655 22.151155
15.746943 34.088226 22.348768
15.181843 34.32893 22.332537
14.765356 33.078674 22.321115
13.657706 34.466423 22.45027
16.846487 33.764824 22.355762
15.074699 33.956306 22.36911
16.068367 34.274391 22.439892
12.951442 35.250992 22.339436
14.511508 32.469379 22.351601
14.46567 33.055149 22.353802
14.963276 32.384506 22.304764
16.749826 33.114388 22.28528
15.662225 32.360828 22.241299
14.961278 33.079048 22.321012
12.868858 35.179199 22.409616
15.366451 33.920692 22.390493
14.760681 34.489395 22.419502
12.872433 34.724594 22.300919
15.546883 32.568207 22.217125
15.358223 32.341419 22.287121
15.84594 32.618553 22.213949
14.371511 33.695072 22.257074
16.161518 33.854015 22.471193
14.65813 32.459789 22.370564
14.363274 33.074036 22.316805
15.554779 32.535946 22.240658
15.449154 34.251312 22.39613
14.462969 32.995266 22.325157
15.762049 32.36628 22.249792
14.422954 33.233326 22.324423
15.40504 32.604065 22.245609
15.212704 32.507126 22.272217
16.974873 33.147564 22.386847
15.360736 33.080368 22.323521
15.268989 33.122707 22.413166
15.072269 32.283848 22.183996
16.462114 33.139481 22.388805
15.079227 33.763775 22.31625
16.858574 33.150635 22.372124
12.269005 35.05225 22.30616
17.054314 33.840782 22.36405
16.350962 33.158192 22.380598
16.662876 33.14822 22.379286
16.86581 33.259613 22.227234
14.051201 34.516407 22.475435
16.866478 33.796623 22.461134
14.259833 34.465111 22.45199
15.252812 33.283035 22.306534
15.059249 33.078049 22.324265
16.263678 33.128216 22.440306
14.068014 34.237381 22.357683
13.859469 34.535915 22.422483
14.561019 33.818924 22.339235
16.159712 32.459938 22.377625
16.052834 32.143684 22.242292
13.963655 34.2272 22.375866
14.766202 33.008011 22.261103
16.026609 32.568134 22.253799
14.157302 34.510849 22.474787
14.262238 33.047855 22.346254
14.261407 33.073769 22.312401
14.150202 33.815968 22.331652
13.451264 34.47258 22.446838
14.889632 33.860672 22.491489
15.26821 33.805908 22.357229
14.106006 33.222271 22.278328
14.157023 33.07333 22.308849
14.749089 32.424328 22.243893
16.96777 33.119732 22.295847
14.260902 33.78624 22.381367
15.55788 31.999538 22.183607
15.869322 33.121662 22.272184
14.059336 34.460712 22.448673
16.259924 33.143009 22.376158
15.154655 32.341568 22.281067
16.270361 33.810596 22.371939
13.575043 34.433662 22.290073
13.459692 34.514435 22.456141
16.163378 33.78001 22.445738
15.073033 33.811417 22.352057
14.046901 33.719425 22.419924
14.659713 34.529228 22.439863
15.158153 33.790771 22.405216
14.766036 34.626598 22.495377
14.531952 33.707699 22.440771
15.953096 32.389969 22.327007
14.662698 33.828228 22.339891
14.46061 33.788651 22.383417
14.623877 33.647816 22.433352
15.894837 32.120293 22.258146
11.996081 34.574455 22.514355
16.354313 33.74646 22.407042
15.859465 32.423748 22.25654
15.348324 32.143204 22.228111
15.655063 33.823418 22.359924
15.544377 32.791893 22.253412
14.748867 34.613167 22.56662
15.85969 33.786198 22.435202
14.669827 31.63241 22.276127
14.540045 33.87429 22.478008
15.371403 33.619171 22.328472
14.361044 33.744831 22.364994
15.263571 32.696083 22.226061
13.765755 34.514919 22.467564
14.773211 33.817467 22.350403
15.789722 32.764835 22.27314
16.355722 33.057503 22.411736
16.988068 33.14632 22.333319
15.366824 31.815184 22.173271
15.45396 34.063168 22.351223
14.451056 33.127502 22.333467
15.763625 32.108192 22.247057
15.696103 32.777031 22.27916
16.251602 33.711224 22.486559
15.850544 33.912678 22.391802
13.565559 33.837238 22.473448
16.160147 32.336994 22.318195
16.452766 32.337723 22.316633
15.363022 32.36087 22.235645
15.657084 32.384716 22.323935
16.261736 32.336124 22.312008
14.961265 33.746178 22.376289
15.557793 33.787186 22.422783
15.365187 32.387939 22.310663
14.369529 34.464073 22.451447
12.352694 35.316559 22.360256
14.690435 34.645451 22.397568
12.6096 35.126896 22.330362
15.951934 32.768894 22.291758
15.159663 33.811558 22.354929
13.960601 34.535606 22.420801
14.742002 34.368958 22.372023
15.956499 32.342613 22.307602
12.963951 34.799908 22.409342
15.465397 33.810062 22.361185
15.253675 33.924778 22.379768
16.055471 33.745377 22.41428
14.963521 32.425518 22.242609
15.657213 33.634121 22.281359
15.765234 33.791424 22.434002
15.554601 33.909386 22.369223
15.156118 32.427307 22.246965
16.524019 33.039963 22.296213
14.859417 33.786934 22.395531
16.563534 32.354465 22.251001
16.021132 32.475128 22.200544
16.149315 32.388031 22.336048
16.077944 32.787697 22.316153
14.435644 33.111397 22.392689
16.262903 34.046509 22.342758
16.168701 33.063911 22.406084
14.456497 34.519875 22.485357
13.140779 34.57988 22.475801
16.740774 33.77634 22.365688
13.563278 34.473328 22.442945
15.146809 33.352047 22.41118
15.063081 31.656752 22.204582
15.881924 33.187687 22.266863
15.451689 33.903625 22.375336
14.646232 34.586945 22.348675
15.859212 33.8223 22.367533
16.227974 32.578217 22.227028
12.559232 34.493145 22.349371
15.590271 33.637733 22.333027
16.648531 33.772655 22.362556
16.249069 33.766155 22.344484
14.160819 33.786736 22.378315
16.355255 33.289845 22.328825
12.168964 34.378983 22.273869
13.752699 33.631741 22.278353
14.766718 34.503685 22.47584
16.939014 33.825916 22.380882
14.756123 32.386147 22.299995
16.573 32.385708 22.362514
13.856842 33.872726 22.433538
16.551582 33.78783 22.451294
14.260828 33.808544 22.335211
15.957977 31.647076 22.24638
14.061853 33.819046 22.329756
14.761303 33.878399 22.442265
14.444936 33.853954 22.450377
14.954637 34.467823 22.476303
15.46174 33.791065 22.418427
13.858226 34.473099 22.444834
13.659365 33.784138 22.371489
14.654789 33.746651 22.374657
15.639917 32.141182 22.226717
16.065617 32.388412 22.325832
15.725673 32.078983 22.298079
15.664383 34.061005 22.356323
16.456808 33.752991 22.358253
15.765229 32.342457 22.30311
14.864763 33.140568 22.333513
12.302355 34.789711 22.286545
15.960635 33.087978 22.342916
14.150102 33.85305 22.437548
15.195397 32.56406 22.255678
14.253532 34.506592 22.478888
12.562304 35.298206 22.436365
15.029877 32.290459 22.35363
16.749592 33.820221 22.385933
16.059717 32.339325 22.308895
13.488511 33.742344 22.432421
14.859841 34.506954 22.483948
13.261218 34.494053 22.375492
15.559511 32.340736 22.302404
13.550656 34.696232 22.321974
15.941796 32.167164 22.254768
15.019785 32.753708 22.295029
12.362719 34.406239 22.322855
15.763113 31.67798 22.240459
13.385352 34.58709 22.506659
16.05496 33.063332 22.401062
15.367699 32.680725 22.26177
13.044247 34.469627 22.438314
15.164168 34.489254 22.425978
15.958088 33.769871 22.346319
15.658799 32.34198 22.303335
13.270688 34.464165 22.438534
14.357959 33.786674 22.38225
15.455855 32.339001 22.291656
13.652426 33.710468 22.417171
16.259197 32.398018 22.325344
14.967595 34.490662 22.422482
13.817958 33.763264 22.44515
15.661306 33.739681 22.391048
13.567372 34.512718 22.460072
15.058894 32.388699 22.301775
13.369576 34.47366 22.438345
12.002341 34.986176 22.259817
13.771978 34.462669 22.447924
15.563789 32.38456 22.320875
16.554449 33.054207 22.417799
14.756128 31.629631 22.262886
15.764999 33.831387 22.367447
14.265524 33.869171 22.452652
16.664427 33.952068 22.413744
12.37623 34.492531 22.349762
14.036299 33.716343 22.502192
16.55653 32.336361 22.314083
15.553906 33.829529 22.359163
16.365482 32.558914 22.204315
13.460396 33.742229 22.353605
16.85939 33.096657 22.337421
16.054302 33.092388 22.338053
15.344459 32.091408 22.266035
16.562609 33.814651 22.369848
15.353195 33.127644 22.362741
15.447369 32.109806 22.205462
12.555417 34.368382 22.33754
15.859096 32.337646 22.31015
12.27681 34.381336 22.27944
16.067398 33.815155 22.365234
16.997847 33.777481 22.34778
16.359852 33.821732 22.367575
16.766325 33.086182 22.357548
15.187983 34.033432 22.315731
12.196357 34.536304 22.288172
15.959145 32.436913 22.255474
14.060532 34.489223 22.398125
16.341005 34.341274 22.446011
15.263416 31.565847 22.247728
13.361569 34.513676 22.45776
15.742485 33.996189 22.320768
16.463886 32.395668 22.346983
16.557013 33.090366 22.339371
12.340959 35.17207 22.392508
14.86522 32.383614 22.299076
15.367049 34.030228 22.391762
16.65234 33.004471 22.25601
14.549865 33.139484 22.337837
15.455418 32.387283 22.316786
13.864981 34.572559 22.35009
13.856046 33.790161 22.373537
13.58326 33.742512 22.43182
14.795747 34.546078 22.375946
14.565885 33.787636 22.388216
15.748577 31.710052 22.159458
14.553604 34.689777 22.413816
12.567755 34.547112 22.376812
16.43458 33.865612 22.460989
12.98841 34.438675 22.269218
16.672976 32.389648 22.355392
14.96608 33.861774 22.456678
16.357378 32.341866 22.313475
14.358787 34.530884 22.431276
16.062859 33.790421 22.438105
15.158108 33.079006 22.326317
15.862128 32.387108 22.332235
15.373843 33.763744 22.337152
12.455127 34.353477 22.315826
14.866351 33.80867 22.34857
13.65772 34.513592 22.462664
15.256409 32.386318 22.31233
14.558916 33.079754 22.317915
14.761993 33.786461 22.394964
12.322064 35.045181 22.329844
14.054449 34.401054 22.325745
14.121016 33.731133 22.425203
13.261433 33.784702 22.371086
13.974974 33.741287 22.357479
15.960299 33.783302 22.436636
15.660866 33.794842 22.429482
12.762816 34.490059 22.355484
15.761372 32.390648 22.319715
14.470983 33.751492 22.453918
16.457285 33.792862 22.447922
15.740553 33.893742 22.290777
14.957643 33.786922 22.394781
14.059703 34.534779 22.424644
15.963203 32.369373 22.246956
12.566413 34.454086 22.420231
14.466784 33.074837 22.317888
13.264523 34.512882 22.453642
15.826385 34.074078 22.306395
14.570128 33.744045 22.373745
16.062304 33.87291 22.475992
14.858752 33.074188 22.323704
12.658754 34.482159 22.359156
15.038393 32.538734 22.264332
14.142669 33.282364 22.314312
14.257151 34.533905 22.427641
14.632136 33.12532 22.247213
16.164274 33.816204 22.364595
13.554318 33.848145 22.410099
16.661955 33.802059 22.382122
15.264553 33.786953 22.408117
16.687519 34.13451 22.374424
15.971524 33.182976 22.285513
15.920018 32.096233 22.273096
15.466178 32.240204 22.252487
16.744495 33.802402 22.458048
16.465603 33.116528 22.286568
16.261925 33.087879 22.342632
13.158608 34.512871 22.452555
15.864385 31.623571 22.288286
15.943089 34.075127 22.375975
15.461483 33.737995 22.383099
15.780762 31.809969 22.20257
16.47056 33.809944 22.373451
16.249725 34.425549 22.335762
15.644096 31.820595 22.1625
16.160149 33.089157 22.340048
14.146519 34.465744 22.457916
14.461226 34.144859 22.384176
15.827636 33.456284 22.262585
16.358685 33.786518 22.450508
14.160022 34.489655 22.4053
15.242157 32.16597 22.201347
15.83453 32.069458 22.278835
15.063378 33.789242 22.397303
13.361326 34.540081 22.406672
15.561485 32.783859 22.193274
15.361289 33.792084 22.414848
12.544858 35.207924 22.397778
14.463441 34.530201 22.435553
14.56203 34.489647 22.415213
13.362043 34.491364 22.378178
16.840359 33.969055 22.52869
13.062609 34.54166 22.396345
13.758884 34.374607 22.315241
15.60734 31.540947 22.153189
12.364946 34.972412 22.28941
13.558684 34.493279 22.385281
13.967387 34.486656 22.395374
13.658726 34.487366 22.393919
14.95785 32.489594 22.29517
12.066995 34.967674 22.251297
15.552294 34.404129 22.382462
13.869571 33.823223 22.323576
12.471138 34.554638 22.371702
15.060794 34.491428 22.422188
16.049622 34.410027 22.392033
13.056947 34.492001 22.372841
13.154254 34.489639 22.365768
14.662258 33.786953 22.393293
15.366825 32.015282 22.240808
16.854908 33.819988 22.386957
13.96033 33.783718 22.373337
12.830859 35.347424 22.397804
15.352818 33.740562 22.387863
15.25239 33.747566 22.382374
16.267271 33.785789 22.446365
13.561241 33.788723 22.368467
14.353701 34.486893 22.408575
15.362044 33.812447 22.362886
14.564058 34.295559 22.379185
14.660252 33.078129 22.322744
14.938845 33.149921 22.350624
14.770844 33.135658 22.342541
16.963642 33.091824 22.339035
16.632523 32.480701 22.43948
13.36832 33.753746 22.421688
16.078203 32.547619 22.308212
15.555791 33.736588 22.394003
16.51866 33.617981 22.351646
14.357026 34.505791 22.480436
17.054779 33.705975 22.438366
16.854322 33.109711 22.31144
14.567613 34.509644 22.474257
15.768353 32.409576 22.268267
15.752891 33.742416 22.405811
12.20698 34.958508 22.410843
14.865541 32.97242 22.38138
14.063258 33.790718 22.371767
16.870602 33.934723 22.416809
16.801676 33.994984 22.367622
14.960579 32.451103 22.414171
14.2638 33.745182 22.362087
16.047848 33.625481 22.336046
14.788925 33.493282 22.33629
15.776903 34.290657 22.353064
15.517388 31.781 22.171005
13.975464 33.768078 22.438856
15.243874 32.458443 22.379723
15.251646 32.209034 22.239992
14.44986 34.050995 22.347414
15.042258 34.253761 22.481897
13.67007 33.744022 22.425983
14.861126 34.528492 22.442911
16.438318 33.966553 22.336029
15.982887 33.088795 22.266085
16.287767 33.007187 22.303028
16.072035 33.757992 22.33573
13.609279 33.687984 22.520895
15.059487 33.524956 22.312952
15.6015 32.51965 22.3582
14.859612 33.471138 22.329409
16.249266 32.502071 22.407682
13.464075 33.787842 22.366867
15.772388 32.534004 22.290478
15.190276 33.054028 22.205969
15.617733 32.502068 22.176378
16.367704 33.195034 22.284561
16.459318 32.452389 22.395168
14.955339 33.057545 22.365641
16.459726 32.348431 22.523813
14.752753 34.466866 22.464106
15.749399 32.612022 22.202127
15.560737 32.893127 22.213757
15.142198 32.432446 22.144325
14.859365 32.251392 22.164059
15.848939 33.735012 22.411282
16.578205 32.956329 22.362312
14.642166 33.765942 22.310553
16.142082 32.615845 22.28339
14.661818 33.053928 22.357349
14.83656 31.633356 22.268356
15.266989 32.005791 22.236828
16.446079 32.478836 22.48555
16.367756 34.132977 22.343821
14.673845 33.893307 22.479147
13.316124 34.307766 22.350187
16.037746 33.95977 22.327465
15.561999 32.427452 22.256779
15.076028 32.403156 22.257195
16.678701 33.033241 22.308514
11.997408 34.611401 22.557722
15.961832 33.821651 22.366037
13.658314 34.536076 22.415762
14.101395 33.595802 22.308086
12.504023 34.92028 22.433632
15.66946 32.535435 22.270317
14.964668 31.624372 22.271681
14.676194 32.525002 22.267477
15.959944 32.552357 22.308945
15.274958 34.008919 22.394566
15.462959 31.71324 22.142822
15.63492 32.717899 22.195475
15.182027 33.385426 22.344162
15.820428 32.727264 22.136303
15.657968 32.820671 22.191275
15.862131 33.772758 22.336008
14.466049 34.487858 22.412022
16.452007 33.004482 22.315271
13.575955 33.719158 22.410919
16.763845 33.75832 22.414286
13.789545 33.875095 22.430868
16.259907 32.412502 22.274471
15.165146 33.744946 22.381571
14.262253 34.489323 22.413088
14.866634 33.746338 22.378643
13.949626 33.885406 22.433689
14.347132 33.890221 22.428572
15.94883 33.735287 22.399071
13.46091 34.538006 22.410536
13.826578 33.609055 22.331125
14.569719 33.654419 22.339226
14.011724 34.385685 22.403711
15.475438 34.395 22.379553
14.162308 34.374729 22.408096
15.663527 34.375839 22.37706
15.664633 32.417679 22.265928
14.159909 34.532497 22.426886
16.488575 33.194904 22.50963
15.156281 33.464268 22.370306
14.249195 34.595497 22.37258
15.359248 31.582062 22.197523
13.860231 33.741543 22.353714
14.760101 34.530266 22.439283
16.158045 33.138256 22.377108
15.14102 33.09256 22.249439
14.959045 32.957542 22.334185
14.641768 34.673634 22.493351
14.364868 32.9916 22.347893
15.25749 32.339642 22.284712
16.534046 32.281139 22.200548
16.557095 34.391556 22.373558
14.754257 33.746845 22.371056
14.120661 33.461113 22.316282
16.352528 32.998257 22.283419
16.56329 33.144482 22.394037
15.357656 33.118114 22.252165
16.164408 34.409153 22.392427
16.749388 32.420956 22.2952
14.858677 34.490578 22.422873
15.052178 32.399006 22.398092
15.461843 32.036037 22.197519
16.479378 32.270084 22.204714
16.491501 32.552528 22.34947
15.030419 33.699837 22.480341
15.448401 32.541016 22.263592
16.061277 32.687191 22.315695
15.464708 34.285301 22.378151
13.284245 34.484402 22.302319
13.759055 33.787235 22.371328
15.702417 33.865063 22.290901
13.763379 34.604675 22.531961
15.674716 34.160583 22.324959
15.64353 34.278656 22.354582
15.269665 33.766796 22.337475
12.761707 34.553009 22.388706
12.650435 35.42905 22.384884
15.659278 32.475296 22.355913
15.454715 32.427807 22.252701
15.822515 32.878853 22.252846
13.170518 34.465851 22.436319
14.560493 34.527725 22.436703
16.15572 32.425869 22.272678
12.861401 34.545582 22.387739
14.855433 34.467957 22.468119
15.057673 34.466518 22.470114
14.465987 34.472317 22.458523
14.338319 33.748863 22.45941
12.47072 34.49379 22.343166
15.059816 32.341331 22.278387
14.032683 34.010902 22.337004
15.277876 31.784847 22.219608
13.564137 33.748058 22.339874
16.735479 34.173672 22.377224
16.268093 33.735554 22.423752
16.652983 33.12616 22.283396
16.150223 33.733456 22.404116
16.947512 33.724571 22.453398
16.050449 33.115486 22.272858
16.359562 33.106152 22.28351
16.267252 33.116474 22.280464
16.581324 33.11866 22.292059
12.30039 34.524967 22.301386
12.771815 35.337845 22.381002
16.550808 33.744408 22.424606
16.654409 33.739731 22.413296
16.370152 33.034252 22.196558
14.659936 34.504974 22.47897
15.763311 31.59499 22.214766
13.157705 34.427063 22.26609
14.149949 33.634174 22.326183
16.591297 33.481129 22.400383
13.762151 33.746086 22.349524
13.659727 33.740623 22.35174
12.348167 35.012024 22.298719
16.362797 32.427753 22.275694
14.751158 33.683983 22.266958
16.705946 33.373112 22.385799
15.37875 34.287395 22.363644
15.250584 33.109501 22.249552
14.752044 33.764736 22.320616
15.552951 33.924595 22.308254
15.466873 33.965355 22.32225
15.207505 33.686565 22.294134
14.060243 33.74789 22.349298
15.364292 32.422615 22.260593
12.559831 34.714985 22.46381
13.479968 34.355618 22.246384
12.836357 34.835308 22.398289
15.276993 34.265312 22.348791
16.174219 32.96003 22.378698
15.161634 34.515884 22.496407
13.759039 34.536118 22.418957
14.486437 33.254169 22.284567
16.777603 33.430092 22.282293
15.735929 34.174965 22.322275
13.356623 34.365788 22.342907
16.54793 32.412773 22.195089
15.237102 33.38805 22.339634
13.561493 34.537144 22.415243
15.666337 34.174492 22.36565
16.463516 33.088139 22.352747
15.160105 34.530853 22.45294
13.863194 33.759804 22.300358
15.865448 32.361221 22.240013
16.26173 34.352097 22.463285
15.335061 32.854649 22.298141
13.163353 34.540718 22.401615
16.352713 33.091022 22.342712
15.560361 31.591616 22.202513
15.463264 33.138218 22.360107
15.766956 33.133911 22.360668
13.453781 34.4902 22.379532
12.666787 34.548233 22.383118
16.773825 33.170658 22.392128
14.894714 32.448978 22.412647
14.669566 32.459381 22.413239
13.861935 34.487877 22.394121
15.760831 33.5149 22.375799
12.268947 34.978416 22.289978
15.258599 33.080013 22.327995
15.586407 31.730791 22.144882
16.07025 32.36478 22.246899
15.256206 32.355801 22.233437
16.778618 32.361343 22.276608
16.653934 32.368027 22.260771
15.258457 33.008549 22.27622
16.156662 32.365761 22.244072
16.45159 32.359024 22.253681
14.650147 33.124939 22.403463
12.681882 35.051037 22.469139
12.651309 34.885498 22.420042
12.669098 35.176929 22.440226
12.666525 34.95647 22.453609
12.667742 34.629143 22.411804
14.048119 34.610455 22.372889
14.266704 33.717056 22.454075
12.560375 34.984444 22.383318
12.60766 35.234264 22.447849
12.720942 34.853935 22.419188
12.65837 34.733707 22.434269
12.739095 34.755863 22.426449
15.69244 33.321999 22.308184
12.725961 35.041195 22.328138
12.716497 35.17897 22.444592
12.458475 34.62117 22.427416
12.667708 35.090508 22.428782
12.749654 34.97147 22.439409
12.677233 35.276051 22.456841
14.265397 34.303463 22.331608
15.770103 34.1399 22.389872
12.722419 34.761406 22.374605
12.458437 35.189491 22.401381
12.528015 35.069149 22.490257
12.662855 34.793221 22.381361
14.28054 33.027634 22.2698
12.581513 34.706055 22.332172
14.194673 34.260315 22.3069
14.360837 33.755116 22.291422
12.747534 34.381046 22.308956
12.669816 34.98101 22.364325
14.240629 33.764404 22.301701
16.183777 32.649353 22.322119
12.625515 34.896019 22.35367
13.929592 33.478237 22.208204
12.548697 35.442646 22.366772
12.789529 34.923088 22.354622
13.925617 33.763412 22.290794
16.472649 32.625889 22.263174
12.83566 35.263634 22.330908
15.026859 31.963697 22.158056
16.156219 32.508846 22.30381
13.369547 34.299625 22.355532
16.856686 33.11792 22.442675
14.141392 33.531006 22.31876
12.693626 34.725491 22.2649
14.170224 34.570408 22.356705
13.667713 33.829563 22.543484
13.901897 33.466442 22.291174
13.967803 33.641403 22.303762
15.339248 32.045944 22.186596
15.961972 32.475071 22.190979
16.385017 32.51334 22.271029
14.86524 33.196102 22.256186
16.282425 34.259689 22.430401
14.897346 32.267967 22.230015
13.999822 34.066425 22.40394
14.324806 33.460709 22.342533
14.97632 34.149982 22.343252
17.010214 33.899597 22.448257
14.74062 34.344475 22.401623
13.957668 33.900661 22.341534
13.861181 34.02412 22.36937
15.641821 32.662655 22.310642
16.284958 32.913113 22.356096
16.403538 33.176811 22.167763
15.51188 34.018417 22.40419
14.882933 32.696716 22.311342
14.528688 33.919308 22.340025
16.128345 34.265858 22.455252
14.563794 32.986595 22.272678
15.954935 34.341763 22.451044
14.461568 33.906601 22.334187
16.325539 33.937798 22.449291
15.94145 34.21669 22.437332
15.327563 33.308517 22.285336
14.710175 33.990387 22.390282
16.056313 34.117203 22.417372
15.962456 31.574694 22.273293
15.182717 33.590775 22.323122
15.43187 32.296452 22.352228
15.004978 32.625259 22.283426
16.067188 32.475239 22.382414
12.139378 34.623928 22.410934
12.892378 34.61652 22.407461
15.076555 32.44186 22.173534
16.123598 32.477905 22.187283
12.377983 34.591404 22.428316
15.761861 32.455853 22.365242
15.758854 33.187714 22.304974
16.254328 33.19355 22.295458
13.852709 34.509377 22.321419
15.911765 33.899445 22.312946
16.55629 33.97403 22.330177
14.956441 33.52634 22.311707
16.246937 33.903641 22.405968
16.926542 33.867474 22.498734
16.036482 33.901524 22.405382
16.737448 33.907021 22.435989
16.390829 33.986416 22.418575
16.427492 33.923031 22.433935
16.366743 34.086506 22.399189
17.035271 33.864983 22.507238
17.060646 33.920559 22.430014
16.899254 33.88129 22.46405
16.406342 32.224861 22.113356
15.26023 31.582407 22.201239
16.240818 32.330063 22.39823
15.985179 33.400303 22.361027
15.673679 33.578953 22.329676
15.873119 34.221859 22.423494
15.981698 34.157173 22.424854
15.761856 34.237152 22.40753
16.856739 33.047874 22.42588
15.772929 34.02243 22.39765
16.362074 32.358414 22.255001
13.676756 34.28849 22.365803
15.835939 33.328228 22.316826
14.854482 31.840176 22.247395
15.569934 32.278046 22.370165
15.120279 31.906605 22.145168
15.639063 33.392498 22.328981
15.659632 33.921768 22.371525
15.871629 34.329315 22.433367
15.745321 33.61166 22.393847
15.673946 34.271595 22.414635
12.459054 34.736565 22.282532
15.838495 33.589676 22.349325
15.874923 34.134052 22.40399
15.764929 33.299107 22.341444
12.856212 35.230736 22.356815
12.863206 34.916534 22.309196
15.973747 32.600807 22.308121
16.000847 34.371655 22.41567
12.942814 34.832108 22.313976
16.06819 32.622425 22.309513
15.908446 32.026478 22.212688
12.846121 35.050785 22.30092
15.797747 31.911301 22.230005
15.774334 33.933743 22.390656
15.847136 31.672915 22.240223
15.829847 32.218357 22.267296
15.874647 32.035084 22.258116
12.850506 34.828487 22.250233
12.974422 34.586948 22.343859
15.847996 34.102512 22.423761
15.947184 33.339558 22.331293
15.933229 33.459732 22.324657
16.256977 32.359848 22.246735
12.660927 34.72686 22.331755
15.754787 31.760834 22.236368
15.79034 32.663395 22.317108
12.835449 34.675137 22.35503
12.763992 35.258549 22.355392
15.783597 32.028282 22.245182
15.761326 32.213131 22.228861
15.896719 33.531155 22.316339
12.688856 34.769699 22.314737
12.86102 35.151623 22.336239
15.964619 34.015228 22.416773
15.831109 31.742334 22.24111
12.97172 34.391655 22.297348
14.411774 33.965351 22.31568
16.093239 32.382782 22.41696
16.003525 31.916855 22.287937
16.003296 32.730042 22.369303
14.348885 34.170559 22.336466
14.254045 34.169819 22.36137
14.227598 34.088646 22.229359
15.739079 32.715431 22.275349
14.270328 33.518826 22.271982
14.41866 34.313686 22.374231
12.789804 35.123009 22.332199
14.265269 33.297688 22.259638
15.866175 31.904915 22.249924
12.975855 34.880417 22.265476
12.929903 35.173058 22.320293
14.333662 33.386562 22.271759
15.756155 32.318966 22.366541
12.924494 34.937489 22.336996
14.255747 33.392532 22.302814
12.808767 34.998409 22.366133
15.265811 31.673016 22.21637
16.729479 33.748581 22.502884
16.979116 33.754082 22.506462
12.914773 35.359715 22.336565
16.848288 33.344528 22.290291
13.092269 34.488144 22.302605
14.251151 33.38118 22.216715
14.534792 33.058647 22.21777
12.675934 34.340214 22.309023
15.683804 32.007858 22.212561
15.952634 32.206703 22.272678
14.387798 34.474667 22.321806
15.956708 33.964737 22.380978
15.890244 32.640221 22.302399
15.883606 32.728439 22.344376
13.001206 34.747135 22.338326
15.802462 33.414772 22.367598
14.481744 34.302872 22.324583
15.954706 32.271145 22.375816
14.388453 34.302204 22.325735
12.780799 34.819817 22.293854
15.627657 32.201469 22.338314
12.686354 35.274937 22.368244
16.446333 32.198853 22.336054
14.981785 31.905218 22.233744
14.182671 34.506653 22.341375
13.389853 34.51976 22.30689
12.734206 34.652004 22.347057
16.54994 32.892479 22.218412
16.179108 32.81572 22.31258
13.474966 34.505234 22.310633
13.204774 34.493263 22.273893
15.926982 32.793968 22.178274
14.747345 33.111004 22.400373
14.244034 33.863644 22.499805
14.834811 33.828861 22.557655
16.605753 33.847992 22.624388
16.922125 33.032818 22.267944
15.708506 33.527695 22.411728
14.973921 32.299221 22.187317
15.383899 33.483032 22.375484
15.351469 31.724236 22.153534
16.1586 33.903606 22.427713
15.053094 32.911327 22.249372
14.126945 33.897419 22.341116
14.975298 33.922211 22.40659
14.37671 33.138512 22.241581
15.073689 33.816116 22.223085
15.004892 33.841145 22.243372
12.469471 34.967831 22.355421
15.672166 31.76371 22.24498
15.702351 34.064156 22.425978
16.26149 32.60767 22.376783
15.29017 33.472004 22.331247
15.528329 31.955606 22.247143
14.827253 34.638382 22.457085
16.765543 33.867405 22.518074
13.505963 33.938873 22.516491
15.069124 31.99523 22.243254
13.264702 33.930527 22.503033
15.440722 31.782942 22.221998
15.323274 33.534828 22.336384
14.653409 33.146927 22.272984
15.189117 33.963028 22.317007
16.476336 33.195282 22.258463
16.145639 32.370293 22.17079
15.045314 33.181641 22.262434
15.156661 33.179462 22.277981
16.460766 34.391613 22.396769
15.029786 32.027477 22.157494
15.146011 32.185238 22.202808
15.29326 32.850803 22.137562
15.250286 34.220173 22.345654
15.276072 31.819723 22.147984
16.557041 33.757431 22.253508
15.305878 32.887333 22.258614
14.969181 31.863548 22.153076
15.041947 33.655964 22.310356
15.273478 31.723633 22.120361
13.86252 34.305004 22.367544
15.139864 34.39439 22.370857
16.477425 33.520187 22.27647
15.092288 34.244579 22.371227
16.299608 33.282894 22.235937
13.517333 34.601391 22.457342
15.159416 34.167934 22.341877
15.336516 33.166054 22.284897
16.57472 34.42802 22.295359
15.293232 33.442471 22.286987
12.733534 34.633942 22.430561
15.85201 31.73646 22.165508
13.551298 33.910416 22.317024
15.08381 34.191631 22.332008
16.424454 33.545334 22.426682
13.611759 33.898708 22.354568
12.182822 35.053772 22.267269
12.411008 35.089798 22.388918
12.351681 34.768753 22.375938
16.485889 32.883698 22.209709
16.400423 32.398483 22.112366
11.98157 34.642723 22.425102
12.14407 35.056324 22.457893
12.173647 34.511822 22.464911
15.158677 33.534733 22.259058
12.053031 34.636475 22.437721
12.092033 34.828156 22.429949
15.016622 32.36372 22.104643
12.027046 34.830273 22.44593
13.452893 34.679203 22.348652
14.86798 33.111145 22.239187
16.029505 33.179821 22.283848
14.961684 33.159847 22.264961
15.058167 33.144066 22.254824
15.254861 32.287922 22.185102
13.661227 34.67926 22.381468
12.320069 34.737289 22.405966
12.556496 34.810097 22.32884
14.728345 33.918236 22.339684
14.434717 33.191128 22.211664
16.677929 33.236416 22.357964
16.261227 32.850655 22.264238
16.895399 33.722237 22.493866
14.421675 33.907478 22.281939
13.220051 33.934612 22.271276
16.991631 33.779373 22.49004
13.051906 34.346359 22.292788
14.429317 33.363243 22.278034
15.874102 33.409706 22.341614
15.972397 31.827658 22.228212
13.235171 34.367397 22.297085
14.678094 33.567043 22.277386
13.39604 34.563011 22.345757
16.332993 34.314877 22.373512
16.019821 31.967932 22.263966
15.104778 31.942162 22.233919
14.063733 34.321217 22.2964
14.8219 32.928043 22.266706
14.523327 32.919189 22.264683
13.695213 34.61787 22.414383
16.84374 33.731926 22.473412
13.836507 33.876766 22.362806
14.08737 33.865818 22.390779
14.67945 33.932938 22.309616
