# .PCD v0.7 - Point Cloud Data file format
VERSION 0.7
FIELDS x y z
SIZE 4 4 4
TYPE F F F
COUNT 1 1 1
WIDTH 739
HEIGHT 1
VIEWPOINT 0 0 0 1 0 0 0
POINTS 739
DATA ascii
17.819609 60.11124 -26.159773
17.561045 59.043186 -25.815552
17.604084 59.049911 -25.802507
17.68058 58.911804 -25.622108
18.336601 60.630379 -26.016851
18.474018 57.880322 -26.429134
17.422646 59.049873 -25.665916
17.493853 60.139725 -26.219429
17.220747 59.073166 -25.783815
18.01066 57.871262 -26.327049
18.650951 60.562508 -26.062986
17.814892 60.141216 -26.38838
18.238989 58.234844 -26.50028
17.466373 58.206474 -26.516006
18.533627 55.866135 -25.672377
18.445518 60.490479 -26.102726
18.189037 56.920418 -25.894918
18.604856 60.743813 -25.93873
18.633812 60.5466 -25.974676
18.712019 60.570358 -25.960569
18.620262 60.539085 -25.887972
17.315853 59.08139 -25.734568
17.9081 57.670052 -26.51581
19.140852 60.550762 -25.763771
18.927502 60.584881 -25.823126
18.212257 60.62672 -26.017883
18.25622 58.139248 -26.436054
18.336081 60.458321 -26.035666
17.039497 59.096699 -25.796909
16.904091 59.102619 -25.813696
18.32246 60.167171 -26.171408
17.830608 58.106003 -26.503832
17.471697 57.053993 -26.150736
18.426144 56.156269 -25.641441
16.726805 60.057102 -26.327198
16.610573 60.049919 -26.3276
18.790928 60.564396 -25.671879
19.079697 59.910809 -26.240452
18.990601 59.940342 -26.292427
17.003288 60.467854 -26.194138
18.985991 60.532242 -25.771057
17.960587 57.25528 -26.177853
17.288029 58.775444 -25.737202
17.717463 58.925766 -25.856094
17.099138 57.247082 -26.224846
17.71155 58.137833 -26.520695
17.157076 58.856049 -25.919832
18.419455 60.524353 -25.864927
17.703184 58.705734 -25.86813
18.519205 55.818466 -25.810698
17.870296 58.280334 -26.447233
18.742392 60.618134 -25.928291
17.941031 57.106689 -26.090574
18.79331 60.608158 -25.940771
18.135199 60.206905 -26.138445
18.315262 60.559994 -26.131664
16.697157 57.981339 -26.418272
18.053474 57.043316 -26.043854
17.614872 57.120987 -26.176384
16.901756 58.834824 -25.928902
17.720648 57.221542 -26.263882
17.629169 57.253029 -26.257498
16.813108 59.088844 -25.799376
18.055012 56.980335 -25.988718
18.642397 55.951775 -25.69401
18.299278 60.368401 -26.072823
18.28903 58.281418 -26.350965
18.411222 58.542328 -26.423607
17.753796 57.80621 -26.38821
18.163364 57.170151 -26.024803
18.803267 55.886486 -25.778036
18.132528 57.080681 -26.160685
17.671265 56.520084 -26.054605
17.526445 60.264778 -25.930443
19.201103 60.537884 -25.849726
18.262604 60.555546 -26.102015
18.105553 60.314552 -25.940495
18.649363 56.231133 -25.646629
17.452806 57.162083 -26.184772
18.500105 58.245728 -26.299717
18.010799 60.308815 -25.953976
18.866022 59.934261 -26.162817
17.612244 56.953716 -26.182407
17.426714 59.089146 -25.74227
17.525517 59.021416 -25.749809
17.735237 57.222301 -26.113987
17.910133 60.614292 -25.839441
17.498308 57.197189 -26.192265
17.647053 57.236691 -26.132576
18.665356 58.343441 -26.247757
18.121902 60.247047 -26.029854
17.091465 60.272896 -26.133917
17.703537 60.272133 -26.160313
18.000811 57.251019 -26.05127
16.648409 56.367241 -26.900442
18.489504 60.36721 -26.187004
18.78731 57.305088 -25.942812
18.506517 57.249851 -25.954786
16.618813 59.123871 -25.859037
18.439983 58.272057 -26.452995
18.211241 60.354698 -25.994326
16.408676 58.746708 -25.875719
18.37953 60.205528 -26.016405
17.811615 57.038071 -26.097809
18.323961 60.246098 -26.026146
17.708694 56.991726 -26.14332
17.010279 58.767429 -25.951931
18.549118 57.693752 -26.195957
18.083309 60.154388 -26.000628
18.256287 56.141376 -25.643839
18.246935 57.25679 -26.043804
18.078304 57.256916 -26.071848
16.608864 59.085911 -25.80987
18.896303 59.980034 -26.315331
19.00662 59.916756 -26.305803
18.160074 56.833237 -25.92827
17.508226 59.975925 -26.370869
18.64867 56.830696 -25.72892
18.493156 58.364838 -26.511978
18.700512 55.866894 -25.719891
18.360628 57.738644 -26.121414
18.519594 57.231453 -26.050535
18.275074 57.017872 -25.948845
18.413393 57.640995 -26.057837
18.311357 55.675289 -25.801077
18.439442 57.067604 -25.960056
17.004438 58.780304 -25.891853
17.510504 60.335148 -25.994909
17.767582 60.265633 -26.127493
18.426596 60.386623 -26.129557
18.624136 56.600376 -25.84166
18.681656 57.43425 -26.050934
16.903175 58.910984 -25.905216
17.888224 57.398262 -26.210985
18.167955 57.247978 -25.996557
16.558212 57.953362 -26.526171
17.580389 58.14064 -26.553564
16.321224 58.959694 -26.857845
18.086014 58.000122 -26.334715
18.34425 58.018478 -26.37624
17.843428 57.003712 -26.031307
17.64122 57.49791 -26.518175
17.721684 57.153862 -26.153667
17.8144 57.345432 -26.1824
17.827261 58.920528 -25.781992
19.109421 60.593559 -25.799614
16.640772 56.388481 -27.066774
17.72121 56.82608 -26.11096
18.129417 58.405308 -26.475508
17.82564 57.202671 -26.063814
16.70295 59.0634 -25.814686
18.54685 56.25663 -25.789598
17.629364 57.495075 -26.316484
19.235315 60.139614 -26.101551
18.320244 60.22097 -26.209496
17.780907 56.648926 -26.053347
17.628254 57.529461 -26.336014
18.044804 58.297241 -26.354252
18.424892 60.073227 -26.277426
17.900595 56.622803 -26.062777
18.913008 60.607944 -25.66828
19.002758 60.170818 -26.136581
18.491865 60.278545 -26.080971
18.151751 57.132973 -26.038555
18.870161 60.272034 -26.074375
17.091183 58.747154 -25.88006
17.711723 58.832489 -25.873381
16.949183 58.788139 -25.890402
18.213676 56.015087 -25.665297
18.450224 56.695206 -25.969824
18.729511 57.868328 -26.354353
18.519917 56.802151 -25.862093
18.589149 56.038937 -25.891575
16.411974 57.154568 -26.168308
18.69982 60.732738 -25.615391
17.618441 58.281872 -26.4876
17.702677 57.558308 -26.496223
18.414705 57.329544 -26.043085
17.607691 60.48193 -25.84314
18.278671 57.081409 -25.969702
18.468552 57.496685 -25.957994
18.103733 56.006706 -25.721413
18.368618 56.803959 -26.01926
18.402657 57.948959 -26.438305
18.867033 60.36166 -26.097897
18.016859 57.2005 -26.154789
17.68322 58.902615 -25.80155
17.224548 58.897869 -25.823771
17.805101 57.178314 -26.133686
18.208483 55.960964 -25.795464
18.12892 56.539986 -26.033066
18.76228 59.386044 -26.362175
18.120256 56.573845 -26.049314
18.32741 57.156143 -26.004522
18.010443 56.525288 -25.985359
18.494909 58.370804 -26.445404
18.235281 56.726208 -26.073303
17.651279 58.815697 -25.699795
18.782976 57.271847 -25.964945
18.411079 57.27113 -26.052294
17.828575 58.824192 -25.78326
18.601269 60.440098 -25.904188
18.018147 56.807171 -25.894388
17.934156 57.63488 -26.53038
17.432142 58.775349 -25.881512
18.116133 58.226086 -26.364452
17.393417 58.738972 -25.851967
18.531244 55.509533 -25.833092
18.494303 59.905418 -26.110981
17.688593 56.701889 -26.088434
17.716158 60.334347 -26.056793
17.804054 56.492756 -26.013002
17.467049 57.26318 -26.162115
17.337282 58.800251 -25.840111
18.019392 58.325397 -26.367373
18.344622 57.352962 -26.066872
18.11636 58.264828 -26.377436
16.692102 58.846138 -25.868458
17.389395 60.360733 -26.183035
18.332365 60.368675 -26.146114
18.023518 56.703247 -26.043592
18.516047 57.41407 -26.041149
18.005098 57.318909 -26.073187
18.821381 59.609272 -26.293592
17.857889 56.816879 -25.923931
18.062206 58.242455 -26.438669
18.395145 60.438175 -25.950579
18.494249 57.119911 -25.948044
17.643826 59.949463 -26.487261
17.675518 58.806122 -25.631058
17.719158 60.344254 -26.109034
17.601187 57.6059 -26.532381
18.205343 60.445305 -25.972094
18.685337 57.318203 -25.921558
17.608593 58.753654 -25.834061
17.41136 58.79084 -25.834383
18.010969 58.371124 -26.45796
17.810457 56.81131 -26.042629
18.136341 56.735115 -26.046293
17.71858 57.100189 -26.174828
18.71854 60.327095 -25.9235
16.609125 59.963631 -26.335337
18.544609 55.918606 -25.55304
18.40024 55.750751 -25.776463
16.734556 59.991116 -26.33581
18.534754 55.578743 -25.882324
18.076809 57.161224 -26.153238
18.49971 57.347942 -26.06901
18.274242 58.322079 -26.319279
18.61034 56.663082 -25.783684
16.598852 58.800991 -25.86701
17.125496 58.786133 -25.859547
18.390316 56.823219 -25.930117
18.440708 58.425701 -26.349094
18.337387 55.827763 -25.758732
17.6171 58.793644 -25.829771
17.663298 60.060196 -26.175032
18.602442 57.085575 -25.959732
17.709227 58.312092 -26.538052
16.697088 58.746307 -25.855265
18.033684 57.371437 -26.151657
17.820486 57.140209 -26.078997
18.45677 60.559029 -26.082502
17.490189 59.924732 -26.325914
18.688145 56.60326 -25.696903
18.17223 57.019398 -25.97909
17.907444 60.461525 -25.779337
17.639503 58.924381 -25.761665
18.004534 56.575748 -26.012459
18.16692 56.936462 -25.947838
18.099987 57.364899 -26.122204
18.729479 57.344349 -26.003702
16.512899 56.556274 -27.113195
19.264774 60.173241 -26.131346
17.506878 59.933178 -26.510536
16.522144 56.551876 -27.236788
16.600782 57.974613 -26.528084
18.617813 60.11055 -26.206009
17.911217 56.783722 -26.091522
17.514568 60.057243 -26.329391
18.402859 60.176971 -26.229675
17.998682 58.075832 -26.422865
18.498335 58.188915 -26.289116
18.410627 58.341984 -26.299452
17.935177 56.977856 -26.048347
18.497561 56.685112 -25.795633
18.309546 56.201855 -25.665472
18.513044 58.09774 -26.328604
17.806135 58.188519 -26.468763
18.407917 59.822983 -26.160604
18.974674 60.752663 -25.698429
18.386087 56.991734 -25.941132
18.390926 55.888638 -25.68681
17.60178 58.909649 -25.850138
18.526077 60.505527 -25.848349
17.532255 58.924156 -25.857983
17.336487 58.902996 -25.875013
18.399998 56.116985 -25.662561
18.088272 60.370621 -26.068922
18.374266 55.793968 -25.742613
17.821301 56.001045 -25.708046
18.132469 60.217068 -26.115572
17.243765 58.787693 -25.880959
16.257719 59.035023 -25.904852
17.699873 57.87608 -26.423252
17.718901 60.34306 -25.976662
18.408052 60.698727 -25.874878
17.896755 58.936958 -25.816061
16.894165 60.377476 -26.272104
18.351217 56.100712 -25.678656
16.580275 58.814835 -25.978363
16.431047 59.057663 -25.783602
19.070089 59.604019 -26.329901
17.380657 59.042927 -25.751339
16.850649 58.790485 -25.886532
16.993881 58.838886 -25.920898
18.261766 60.192909 -25.980085
17.408367 58.832806 -25.882288
18.600086 56.930733 -25.797422
18.216101 56.141895 -25.694521
18.113605 56.778229 -26.127092
17.288685 59.023151 -25.799368
18.490862 57.077084 -25.91581
18.194635 60.356476 -26.069149
17.582487 58.874252 -25.549376
17.810947 60.490318 -25.801542
17.391243 59.937168 -26.501099
18.42078 57.749031 -26.247486
16.883345 58.758808 -25.91033
17.964275 60.532528 -26.031096
16.798002 58.748814 -25.893837
18.004269 58.198067 -26.440832
17.696402 59.951153 -26.490751
18.500959 58.108784 -26.205736
18.393904 58.159458 -26.383202
17.452711 58.171875 -26.49135
17.827856 60.24374 -26.335018
18.009207 60.347084 -26.004414
18.043169 56.885582 -26.014162
17.939384 58.155239 -26.481272
17.926302 57.783264 -26.536797
18.48613 57.650108 -26.206625
18.494949 57.696381 -26.176254
18.40118 55.908775 -25.770054
18.372419 55.688412 -25.654934
18.364674 56.060413 -25.720118
18.161913 57.214691 -26.020422
18.983799 60.624119 -25.827824
16.99662 60.375725 -26.211584
18.315083 60.437752 -25.956079
18.55467 60.390278 -26.027863
18.61562 56.488949 -25.833294
17.912769 56.721214 -26.040434
17.527563 58.732666 -25.851421
18.08728 55.995586 -25.687752
17.614195 59.031151 -25.762203
17.049706 58.955147 -25.720963
18.449389 55.997208 -25.789295
18.627346 56.020481 -25.699144
16.514015 60.340599 -26.254751
18.078848 56.810104 -26.026621
17.817724 56.718964 -26.067135
17.653595 57.148003 -26.232965
17.767635 60.365505 -26.142574
18.035078 60.371971 -26.095728
17.608145 60.351818 -26.173536
18.444698 56.421478 -25.920029
18.496138 56.390293 -25.662115
17.628872 60.465466 -26.081701
18.21167 60.53133 -25.960442
18.316732 60.541592 -26.00309
18.314199 60.532314 -25.948997
18.724268 60.589737 -25.868921
17.946455 60.368351 -26.108274
16.559093 58.778904 -26.011808
18.808031 59.963058 -26.086832
18.508472 56.087322 -25.732691
17.885139 60.41354 -25.810925
16.611345 57.170937 -26.15119
16.110451 59.125751 -25.880304
18.471525 57.810696 -26.286324
16.999393 58.933765 -25.924644
18.035223 60.484623 -25.855858
17.785187 60.400455 -25.841057
18.788052 60.671406 -25.637541
17.808165 60.493591 -25.88641
18.906162 60.649277 -25.932713
16.815834 59.029751 -25.811958
17.694057 60.268658 -25.891575
16.529984 59.705044 -26.527924
17.625757 60.493797 -25.882719
17.439106 58.354271 -26.567379
17.812061 56.656197 -26.011469
17.778641 57.211857 -26.198959
18.412104 57.608242 -26.036934
18.399399 59.885811 -26.254887
18.30501 56.912846 -26.000875
18.58872 59.861156 -26.192766
18.881758 60.025116 -26.22995
18.35335 57.678013 -26.153072
18.014208 57.207699 -26.173471
17.605852 60.237484 -26.013676
18.496964 57.804668 -26.220814
17.704117 58.221409 -26.56559
17.937181 58.042271 -26.448889
18.136116 57.966919 -26.307131
17.772528 57.142071 -26.326939
18.66695 60.027332 -26.161009
18.232208 55.899086 -25.89348
17.772034 58.698921 -26.688629
17.811211 57.842739 -26.554098
16.768995 60.103386 -26.315403
18.49292 56.546463 -25.761595
18.524872 55.982761 -25.901806
17.880293 60.066742 -26.198692
18.157082 60.468014 -25.830669
18.51342 60.542786 -25.912498
18.606886 58.096508 -26.258284
17.706741 57.92984 -26.395533
17.980171 60.170486 -26.195019
18.072355 56.091251 -25.726744
17.875502 60.521442 -25.969879
18.842838 59.987343 -26.294695
18.424738 60.019287 -26.17761
17.439951 58.236382 -26.561626
18.177425 56.105526 -25.648851
18.594297 56.10387 -25.728491
17.966223 58.079689 -26.461575
18.3848 57.842152 -26.153229
18.223694 60.500614 -25.848988
18.121817 60.529552 -25.962551
16.705679 59.017776 -25.828236
16.243668 57.594887 -26.45866
17.813892 59.006927 -25.730429
17.703028 59.020126 -25.728571
18.511429 57.500786 -26.106146
18.304127 56.243237 -25.730639
18.145243 56.606064 -25.996677
17.573835 58.730244 -25.874563
18.481857 59.92572 -26.179626
17.708452 56.616726 -26.034636
18.628494 60.021046 -26.222942
17.831579 56.56604 -26.005976
18.516947 55.791924 -25.802444
17.122246 59.063721 -25.72378
18.473057 59.984085 -26.057938
18.001902 60.225784 -25.985905
18.103199 55.901608 -25.765718
17.903482 60.220741 -25.996107
17.88567 56.600815 -25.98238
17.738403 57.467281 -26.260994
17.031 57.304653 -26.264166
18.326572 58.126156 -26.354446
18.993244 60.0177 -26.210924
17.514256 60.481182 -25.861168
17.845436 58.311424 -26.496681
18.042156 58.31036 -26.481974
18.604267 56.423061 -25.8936
18.671783 55.81419 -25.602768
18.671932 55.834621 -25.723349
18.649153 55.708862 -25.683584
18.671293 56.516052 -25.707447
16.263823 60.073296 -26.368307
17.913639 57.222172 -26.206661
17.864655 58.629196 -26.597301
17.532993 58.797417 -25.830875
17.134773 58.960636 -25.711374
18.57552 56.533123 -25.72472
18.425732 56.271877 -25.787001
18.744877 56.307922 -25.657585
17.87842 60.431335 -25.920383
18.885698 60.48175 -25.959948
17.023384 59.034271 -25.816559
18.212778 60.469311 -26.061888
17.222555 58.947124 -25.891575
18.197027 60.555882 -26.01827
18.906002 60.545479 -25.941521
16.528786 60.375401 -26.19079
18.652071 55.571751 -25.755049
18.607924 58.134487 -26.273558
18.933334 60.719147 -25.584486
18.380936 60.538303 -26.219837
17.620594 60.407795 -25.943729
17.257732 58.874065 -25.946293
18.59383 55.654366 -25.79459
18.520967 55.669231 -25.825212
18.445471 55.575008 -25.818924
18.808416 60.594975 -25.843292
18.245573 55.849468 -25.800348
17.531824 59.123848 -25.789667
18.429735 55.735031 -25.645502
18.285954 55.683281 -25.629467
17.819279 58.923767 -25.831833
18.415491 56.238365 -25.791782
19.02006 56.317753 -25.668861
18.698364 56.23888 -25.64319
16.174133 59.049393 -25.924547
17.905785 60.298569 -25.961599
18.398939 56.30022 -25.819172
18.655161 55.828911 -25.715033
18.69492 56.283684 -25.760563
16.52166 59.103256 -25.896564
16.21674 59.09201 -25.959837
18.394651 56.326069 -25.701477
18.740599 56.324268 -25.765669
18.519203 56.275589 -25.628908
18.680866 56.40741 -25.789482
16.676283 58.063614 -26.518993
18.868147 60.349049 -26.209944
18.476641 56.328716 -25.734673
18.327654 56.353611 -25.731873
18.426287 56.442272 -25.713463
18.488787 56.479946 -25.721859
18.796856 56.580231 -25.720255
18.414753 56.453888 -25.744574
19.020117 60.095627 -26.193922
18.088455 56.798763 -25.818888
18.174702 56.767948 -25.867619
18.872213 60.1143 -26.202333
18.493948 56.884781 -25.944567
16.846638 59.11689 -25.83193
19.037199 60.201717 -26.070299
18.499378 56.981689 -25.791052
18.681442 57.572956 -26.114288
17.032984 59.102127 -25.850136
18.390917 56.935741 -25.921976
16.706102 57.17342 -26.151066
16.935068 59.025841 -25.859381
17.034645 59.057934 -25.71983
16.904024 59.211029 -25.807732
18.385426 57.512207 -26.22554
18.45015 57.453773 -26.096407
18.33815 57.533535 -26.147987
17.228104 59.828648 -26.475134
18.948195 60.677807 -25.554737
17.508804 60.01828 -26.47003
17.866053 59.94902 -26.553396
17.74441 59.960911 -26.539291
18.526148 60.055382 -26.360994
17.513914 59.993423 -26.280489
18.488747 57.952736 -26.348885
18.623545 60.142624 -26.395105
17.487215 60.087231 -26.240465
17.7362 60.162857 -26.199497
18.615824 60.160152 -26.283848
16.727058 60.145042 -26.255892
17.709091 58.022774 -26.411194
17.875423 60.20211 -26.187515
18.451029 57.984333 -26.339043
17.749037 57.755863 -26.549246
18.156019 58.010456 -26.396338
16.143337 59.972378 -26.426432
18.108015 60.098099 -26.196331
18.693068 60.091053 -26.130331
19.261196 60.136532 -26.137505
18.135145 60.123001 -26.120152
19.07472 60.17078 -26.150995
17.963324 57.928474 -26.420683
18.473921 60.076756 -26.120489
16.744551 60.18663 -26.250353
17.890587 60.270126 -26.050442
18.065042 60.090973 -26.380081
16.4282 60.218491 -26.233364
16.821791 60.216728 -26.216713
16.632887 60.241264 -26.19313
17.509626 60.331272 -26.061781
17.825653 58.250465 -26.468346
18.229511 58.269802 -26.401871
18.608929 58.29002 -26.385239
19.111004 60.448044 -25.940304
17.324415 60.258343 -26.127296
17.32947 60.320122 -26.073673
16.527353 60.406578 -26.122948
17.338251 58.857475 -25.89839
17.687761 57.836807 -26.60257
17.691999 57.911488 -26.593412
17.89357 60.440254 -26.099272
18.99506 60.523285 -25.862041
16.44206 60.336445 -26.080524
17.610434 60.403297 -26.010073
18.015516 60.625965 -26.044243
17.817085 60.333099 -26.03838
18.387741 58.07478 -26.404917
17.53299 60.389317 -26.024445
16.989388 60.368828 -26.135958
17.60309 58.162876 -26.521669
17.806751 60.411137 -25.994749
17.427519 60.500057 -25.908478
17.649708 60.551472 -25.97283
18.424969 60.481018 -26.044638
18.649239 58.204746 -26.422308
18.821795 60.763599 -25.714891
18.707123 60.666565 -25.664091
17.496279 60.457832 -26.157341
17.516336 60.540764 -25.989635
18.747738 60.783684 -25.711498
18.608557 60.669575 -25.65897
18.522453 58.258842 -26.548044
18.595749 60.606705 -25.872791
16.890125 58.753506 -25.979305
16.800386 58.906799 -25.865618
17.480772 60.185162 -26.16156
16.612053 58.734322 -25.860729
17.185186 59.126026 -25.814819
18.841612 59.847946 -26.265499
17.590923 60.294521 -26.138664
18.008774 60.062569 -26.215954
18.890291 59.898476 -26.290091
17.35589 59.012154 -25.844833
17.255075 60.296093 -26.05512
16.900391 59.818958 -26.571537
16.906872 59.859882 -26.536386
17.374828 60.006725 -26.498243
17.843395 59.988487 -26.413696
16.254772 59.969845 -26.339548
16.249401 60.020042 -26.360682
17.409187 60.243961 -26.277697
16.273588 59.970451 -26.330719
16.271818 60.018166 -26.336149
16.501677 60.156456 -26.33456
18.580379 60.274883 -26.195559
16.985947 60.21574 -26.216713
18.224411 60.20026 -26.077463
16.83263 60.284859 -26.24214
16.897587 60.25407 -26.230156
17.800501 60.274876 -26.068224
18.296917 60.345802 -25.969528
17.419737 60.283588 -26.165306
17.829809 60.221313 -26.169254
18.283993 60.106792 -26.161095
16.550985 60.281818 -26.091036
16.987082 60.455914 -26.287527
17.472534 60.508583 -26.202629
17.126259 59.047504 -25.885206
17.918585 60.417515 -26.001343
17.476624 60.542866 -26.195755
18.402964 60.248848 -26.136305
17.901197 60.518173 -26.079466
17.936979 60.627048 -25.944695
18.852743 60.75071 -25.907125
18.827007 60.585457 -26.072895
17.694729 60.537346 -26.06522
18.676891 60.733326 -25.826731
17.450876 59.041157 -25.800638
17.459501 60.590508 -26.080879
16.926781 59.144691 -25.896572
16.369972 59.073517 -25.83247
17.121212 59.10733 -25.843374
18.475437 60.501122 -26.08654
17.048342 59.033058 -25.853039
17.596018 59.048737 -25.644566
17.675451 58.973454 -25.663591
17.417215 58.993523 -25.688843
17.687801 59.069569 -25.649414
16.897493 59.036831 -25.703951
17.320457 58.989857 -25.678106
17.621216 59.005363 -25.652136
17.13932 58.876575 -25.657005
17.469845 58.961235 -25.695444
17.514923 60.2579 -26.096201
17.373795 60.270344 -25.972158
17.424089 60.474716 -25.859482
17.388325 60.199871 -26.143883
17.422188 60.321339 -26.080956
17.417109 60.268265 -26.121956
17.430685 60.412251 -25.953617
17.713543 60.27475 -26.073324
17.60684 60.262077 -26.0821
17.501282 60.431141 -25.860376
17.21122 59.027367 -25.792402
16.663548 56.375771 -27.074505
16.598095 56.527699 -27.172445
18.308178 56.022728 -25.823002
18.571581 55.782864 -25.696753
18.364599 56.158649 -25.841427
17.874983 60.403412 -25.734388
18.41334 56.250748 -25.655182
18.704941 60.62479 -25.596498
18.532381 60.743572 -25.709684
18.70647 60.677925 -25.715944
18.80542 60.523834 -25.766441
18.510921 60.684246 -25.674044
18.713291 60.541538 -25.898773
17.890421 60.4366 -25.721773
18.802189 60.540531 -25.960411
18.816973 60.54842 -25.870737
18.021395 60.631126 -25.916033
18.65028 60.611347 -25.958252
16.54282 56.450108 -27.01325
18.503168 60.59866 -25.870995
17.354795 60.192448 -26.155504
18.509123 60.528385 -26.017544
19.069525 60.510925 -25.91507
18.734936 60.433575 -25.918083
18.111677 60.436169 -25.98126
18.120275 60.361668 -26.001886
18.139593 60.48008 -26.032776
17.917587 60.336693 -26.019878
17.82111 60.413784 -25.942413
17.71101 60.568035 -25.790985
17.712084 60.493828 -25.881037
17.712324 60.386425 -25.956606
18.029343 60.416477 -25.988167
17.905724 60.507195 -25.894049
17.61071 60.334858 -26.052078
17.807249 60.317493 -25.970322
18.024031 60.243641 -26.026606
17.519535 60.497326 -25.892662
18.093163 60.598244 -25.998837
17.711002 60.39727 -26.005947
18.115267 60.516384 -26.041588
18.03702 60.488914 -26.056185
17.690039 60.516983 -25.956036
18.622139 60.732372 -25.634373
17.688353 60.478569 -25.833376
18.826416 60.674931 -25.565638
17.451355 60.194969 -26.042103
18.000496 60.419922 -25.935577
17.612139 60.335609 -25.984535
18.993931 60.576469 -25.750044
18.599998 60.747219 -25.696341
18.80821 60.74136 -25.547304
19.125839 60.532101 -25.859077
18.130266 60.383041 -25.924015
17.824141 60.229515 -25.989012
18.92256 60.6702 -25.637352
17.716433 60.227451 -26.005682
18.956108 60.704876 -25.54118
17.795218 60.181358 -26.055794
18.192965 60.240833 -25.998121
19.293505 60.43692 -25.894379
19.187927 60.432411 -25.930704
18.904186 60.243755 -25.857336
18.098217 60.236729 -25.974619
17.805016 60.173035 -26.025646
17.998274 60.162556 -25.983606
16.516113 59.039513 -25.859781
18.009409 56.594009 -26.072201
16.515957 56.373074 -26.97336
