# .PCD v0.7 - Point Cloud Data file format
VERSION 0.7
FIELDS x y z
SIZE 4 4 4
TYPE F F F
COUNT 1 1 1
WIDTH 534
HEIGHT 1
VIEWPOINT 0 0 0 1 0 0 0
POINTS 534
DATA ascii
10.883121 15.808319 29.650604
10.044604 16.002089 29.637783
10.601943 15.877208 29.624889
10.220778 15.77594 29.655441
9.9579105 15.883364 29.6861
10.312778 16.31212 29.574871
10.70187 15.325503 29.77285
10.529032 14.782362 29.851198
10.229823 15.837645 29.737785
10.24287 16.253561 29.70574
10.69223 14.792167 29.856022
10.582778 14.747087 29.894186
10.410376 15.562206 29.671658
10.123991 15.556507 29.69359
10.137134 16.582787 29.597904
10.420221 16.690126 29.601625
10.817349 16.686438 29.568384
10.717001 14.667912 29.871483
10.217655 16.587698 29.588465
10.326319 16.593346 29.581566
10.217038 16.616192 29.551151
10.412699 16.62079 29.531565
10.316659 16.616079 29.541349
10.512872 16.616547 29.52079
10.61487 16.398479 29.533613
10.418267 15.84228 29.70364
10.520585 16.589949 29.563446
10.504737 16.496813 29.55583
10.628746 16.482489 29.551535
10.512676 15.84214 29.704544
9.7249479 16.410652 29.761358
10.122286 16.085455 29.628706
10.315467 16.086498 29.610741
10.726383 15.360254 29.69594
10.320119 15.214579 29.763134
10.318276 15.753213 29.689629
9.9446325 15.632409 29.727989
9.9136705 15.567149 29.710199
10.137326 15.994636 29.622593
9.8516541 16.588224 29.624643
10.33293 15.845068 29.716425
10.121054 16.270428 29.635326
9.936533 16.505161 29.622887
10.613727 16.06205 29.63588
9.9145336 16.609518 29.597296
9.8043861 15.529124 29.810177
10.231179 16.276217 29.625019
10.413371 16.278275 29.614132
10.33165 16.035723 29.733807
10.215805 15.871744 29.654457
10.497012 16.06148 29.660486
9.9081345 16.26643 29.655838
10.610282 15.732804 29.740896
10.498862 15.88221 29.619453
9.9194937 16.396311 29.621933
10.411165 16.184826 29.600653
10.130315 15.865678 29.663256
10.208522 15.999313 29.620214
10.231783 14.816187 29.809626
10.317896 15.873798 29.641596
9.8410196 16.036303 29.739721
10.410804 15.725008 29.757099
10.026656 15.664893 29.7036
9.9950733 16.037394 29.694515
10.020195 15.765997 29.680876
10.408894 16.060209 29.66633
9.8624105 15.909935 29.674486
10.021401 15.949307 29.682291
10.021818 16.590712 29.610491
10.339163 16.308027 29.722965
9.9208202 16.080523 29.641254
9.8048878 16.363804 29.725468
10.321889 16.15251 29.683996
9.7783937 15.155042 29.868679
10.312973 16.279211 29.609207
10.126112 16.374376 29.656443
10.121052 15.971925 29.655533
10.534675 15.823903 29.751621
10.439708 14.671154 29.892935
10.027382 16.082935 29.643795
10.320208 15.97057 29.639919
10.134884 15.346287 29.727251
10.417027 15.941937 29.706635
9.9197264 15.953551 29.709911
10.02967 15.870362 29.666607
10.400723 15.870373 29.63446
10.708324 14.687737 29.807775
10.219004 16.148014 29.69311
10.626726 14.676357 29.874676
10.514133 15.039307 29.722958
10.533802 15.72494 29.750555
10.215052 16.361191 29.646904
10.307993 14.815102 29.801205
10.986526 15.263249 29.814808
10.546384 16.638596 29.650631
10.497326 16.858646 29.623249
10.621408 15.50434 29.782978
10.511033 15.453457 29.702738
10.224439 15.967731 29.649879
10.106916 16.188776 29.620554
10.311212 16.184977 29.609018
10.536205 15.501494 29.774067
10.020782 15.481297 29.714886
10.016403 15.55422 29.720768
10.021084 15.027221 29.782763
10.323574 15.472571 29.674021
9.9412413 14.82979 29.803986
10.123688 15.250771 29.736595
10.217451 15.433905 29.72246
10.120275 15.448165 29.693338
10.418371 15.527484 29.737152
10.22342 15.463767 29.682196
10.18803 14.82457 29.959745
9.7607841 15.176721 29.961697
9.7187309 15.538181 29.916273
10.073772 15.571134 29.869257
10.008484 15.419937 29.727564
10.22745 15.000432 29.815582
10.453766 15.499998 29.799963
10.234565 15.373265 29.671455
9.9058905 15.108572 29.793943
9.9304543 15.209852 29.894739
9.8702126 15.739659 29.833929
9.8310184 15.185937 29.892933
10.222355 15.187183 29.842649
10.004032 15.431436 29.833166
9.9874306 15.566853 29.820276
9.7465858 16.143595 29.772749
9.733799 14.935103 29.926561
10.33357 16.682364 29.609386
9.8002052 15.797183 29.780172
10.047599 15.805774 29.759605
9.6928129 15.796428 29.834305
10.095462 16.592216 29.76796
10.283388 14.956641 29.883358
9.8442707 16.305559 29.705202
10.133095 16.804388 29.5606
9.9178181 16.374819 29.714872
10.630396 15.14343 29.713499
9.9300947 15.745981 29.746206
9.9048891 14.790601 29.933235
9.8260126 15.004908 29.886492
10.128649 15.33499 29.83198
10.127287 15.438034 29.72802
9.9306421 14.858221 29.93976
9.9192877 14.930999 29.875769
10.145182 14.988817 29.839205
9.9163561 15.319214 29.840433
9.7326622 15.394945 29.85537
10.404384 15.138013 29.75419
9.7448378 15.003236 29.900213
9.7008266 15.099191 29.912876
10.106507 15.198324 29.888927
10.443514 14.963149 29.863115
9.8901062 14.941094 29.964096
10.126661 15.134616 29.763346
10.123415 15.180954 29.727619
9.8060112 14.792101 30.008554
9.9259386 14.982932 29.875887
9.9453478 15.112937 29.897671
10.107505 15.503339 29.83713
9.8793392 16.706301 29.611187
9.9519024 15.440507 29.83147
9.9285564 15.532917 29.801739
9.9246531 15.834745 29.780102
9.9329538 15.921181 29.774555
9.8566303 16.461399 29.695139
10.007397 14.994607 29.885427
9.7927246 15.090443 29.883575
10.224188 15.228977 29.782089
9.8160505 16.702438 29.716145
10.507438 15.129149 29.748901
9.8204308 15.222169 29.862402
9.8249798 15.290434 29.855434
9.8178406 15.659119 29.829142
10.248391 15.641699 29.781034
9.7484465 16.771215 29.708042
9.9981022 14.751658 29.923092
9.9980707 14.853469 29.900421
10.038141 15.756005 29.711088
10.695506 15.126935 29.699356
9.9595003 15.174653 29.862444
10.408566 15.223619 29.76755
9.9361916 15.392621 29.875917
9.9150343 15.621256 29.827608
10.149246 15.712255 29.780067
9.8989391 16.671518 29.68362
9.8959322 16.241165 29.785805
10.225087 15.741864 29.690968
10.532928 15.193781 29.813496
10.114758 15.233682 29.800259
9.9084892 14.697889 29.929026
10.487314 15.29323 29.832369
10.516363 16.788387 29.613903
10.328499 16.781502 29.624949
10.226278 16.713905 29.543867
10.223186 14.776603 29.858768
10.623564 14.793865 29.846283
10.035419 14.682975 29.9042
10.414352 14.798406 29.851645
10.32679 15.190603 29.844423
10.318522 15.533445 29.739693
10.420776 16.84141 29.487953
10.844625 14.770585 29.798246
10.32427 14.782581 29.859623
10.827791 14.872456 29.809731
10.226532 15.129633 29.757977
10.007113 15.344972 29.730543
10.498701 16.907562 29.548273
10.617274 14.811615 29.760324
10.035341 14.608784 29.855444
10.350222 16.230547 29.684925
10.710289 15.210546 29.701097
10.836002 15.620845 29.743416
10.497297 16.737619 29.51873
10.509594 16.396538 29.547483
10.704145 16.609503 29.556856
9.7372122 15.225238 29.894154
10.514685 15.007213 29.805655
10.607715 16.711563 29.505707
10.408423 15.246862 29.695364
10.414743 16.710266 29.53381
10.244896 14.910654 29.881428
10.335043 15.629832 29.749474
10.21902 15.557398 29.686516
10.69562 16.691856 29.518101
10.599463 15.04935 29.717323
10.317788 15.120526 29.753054
10.223549 16.185246 29.616388
10.686919 16.797159 29.522581
10.41122 15.631266 29.750286
10.325329 14.921518 29.803326
10.907487 16.659849 29.627026
10.221241 15.514403 29.759169
10.526772 14.958382 29.845602
10.520362 16.154242 29.678968
10.405052 14.584691 29.916023
10.798808 16.162861 29.65918
9.7476368 15.362033 29.870594
10.622079 16.774126 29.610012
10.312469 14.667224 29.903662
10.690239 16.082796 29.64587
10.625048 15.94468 29.718634
10.717475 16.701696 29.594883
10.228668 16.806849 29.542721
10.760634 15.938916 29.750717
11.014109 15.883296 29.695709
10.694758 15.930231 29.620438
10.519602 15.948181 29.72258
10.68804 15.823117 29.729565
10.948072 16.405863 29.62112
10.217377 15.771049 29.790001
10.723129 16.173994 29.66671
10.608229 16.156364 29.659832
10.697554 16.400522 29.614321
10.53846 16.336384 29.679359
10.503399 16.250721 29.683647
10.611104 16.338718 29.678986
10.612745 16.364166 29.620525
10.50644 16.367203 29.633966
10.613689 16.25877 29.679636
10.834863 16.792389 29.599878
10.506174 14.667922 29.897427
10.411112 15.030575 29.738331
10.225527 14.90681 29.813553
10.397689 15.206763 29.836605
10.623006 15.553487 29.635134
10.22893 15.114298 29.833359
10.410862 14.709212 29.83806
10.61334 16.813789 29.530361
10.128586 16.500681 29.59116
10.323391 15.559227 29.674067
10.315602 15.035772 29.739067
10.311378 15.708012 29.766426
10.407191 15.97183 29.640854
10.621331 15.811616 29.748894
10.338453 15.079097 29.822996
10.208928 16.671139 29.609564
10.332552 16.372145 29.626122
10.031807 16.816704 29.567989
10.415564 15.105941 29.817776
10.521438 16.12635 29.745234
10.713118 15.111937 29.80468
10.863173 15.106785 29.841976
10.218683 14.940028 29.746096
10.599817 16.633556 29.513821
10.406931 15.79382 29.771206
10.72634 15.515803 29.721195
10.129826 15.65869 29.689844
10.017655 16.495466 29.605778
10.703229 15.203303 29.812479
10.138873 14.922116 29.807341
9.9780254 15.079072 29.868647
10.629913 14.89642 29.841848
10.122516 14.929569 29.753792
10.137036 15.03054 29.766268
10.012724 14.926638 29.788305
10.60981 15.314562 29.772379
10.014112 14.914863 29.846376
10.410273 16.503807 29.567698
10.804531 15.324135 29.764612
10.218687 15.345076 29.716696
10.227099 16.085611 29.619411
10.316172 16.70977 29.53775
10.67127 16.151516 29.706146
10.797475 16.35923 29.668072
10.230143 14.702258 29.853069
10.816477 15.833709 29.729071
10.421465 14.81793 29.775085
10.621481 15.09363 29.818108
10.108162 16.034645 29.675798
10.113244 14.714809 29.792816
10.517746 16.680075 29.597765
10.746161 15.571114 29.767994
10.603467 15.595989 29.789419
10.329348 14.88507 29.868507
10.028023 16.18125 29.631458
10.605234 14.899556 29.775555
10.673231 15.040189 29.709911
10.217621 15.032915 29.751495
10.713873 14.879645 29.826567
10.423954 16.154037 29.680616
10.522106 14.806781 29.764578
10.812575 16.236036 29.713175
10.098832 15.109298 29.872862
10.124029 14.690039 29.857052
10.111877 14.891432 29.917799
10.62399 16.117262 29.70377
10.719619 16.195372 29.714264
10.518657 14.921729 29.777651
10.810711 15.961726 29.70146
10.60181 15.969634 29.623749
10.416685 14.906931 29.804777
10.730213 14.907991 29.754435
10.418291 16.377985 29.633461
10.431 14.88732 29.852467
10.515079 15.120151 29.803982
10.314879 14.707812 29.851048
10.869577 16.097067 29.706367
10.824256 16.142784 29.700377
10.625353 15.417543 29.773735
9.9976311 15.313169 29.843653
10.518667 14.884232 29.859264
10.417397 16.58889 29.586107
10.682993 15.054394 29.844231
10.034285 16.841932 29.533438
10.697016 15.27199 29.804785
10.127346 16.694395 29.669544
10.504278 16.280703 29.588804
10.330058 15.938567 29.723553
10.328382 15.005883 29.81134
11.034011 15.037447 29.832771
10.513918 14.709357 29.834433
10.216851 15.300945 29.803902
10.718814 15.930796 29.705267
10.313472 15.342796 29.711391
10.410946 15.325491 29.772619
10.212414 14.622774 29.834127
10.783457 15.440299 29.77232
10.227444 16.064604 29.667114
10.711929 15.406601 29.774935
10.327427 16.059263 29.662029
10.514647 15.316162 29.779669
10.168938 15.920029 29.724371
10.126239 14.789602 29.902971
9.8081064 16.152411 29.80718
9.9344025 16.130013 29.711786
10.506387 15.964335 29.63748
10.833218 14.974993 29.76042
10.851527 16.652479 29.636641
10.422003 16.805784 29.535873
10.322037 16.805696 29.540039
10.505345 16.81193 29.525711
10.897158 15.719985 29.734509
10.870201 15.649222 29.730572
10.807396 15.595338 29.636606
10.943609 15.262265 29.779652
10.521538 15.656815 29.668318
10.537819 16.573656 29.654318
10.41432 15.006766 29.81061
10.518532 16.425282 29.705639
10.594717 15.018094 29.801653
10.601608 15.199977 29.815739
10.708821 15.013273 29.808256
10.524876 15.745747 29.672403
10.622425 15.750612 29.650829
10.597425 15.855746 29.706804
10.96559 15.374734 29.802855
10.435275 15.426563 29.785696
10.926123 15.393059 29.764595
10.409925 15.438474 29.715288
10.021527 16.286976 29.64893
10.628718 15.225574 29.744213
10.31083 16.837595 29.504421
10.514796 15.251899 29.692467
10.029055 14.813294 29.799
10.342028 15.416721 29.788904
10.670044 15.436082 29.730238
10.324669 15.439029 29.717709
10.317015 15.657137 29.679205
10.324773 15.31205 29.781132
10.11685 14.817102 29.801964
10.518904 15.231883 29.767073
10.221084 15.686062 29.647463
10.776674 15.181367 29.720636
10.511606 15.424701 29.779348
10.222992 15.656851 29.680658
10.226694 16.839535 29.515923
10.627996 15.435153 29.684631
10.24519 15.408694 29.791853
10.124697 15.4229 29.833447
10.42478 16.78845 29.610559
10.492574 16.839384 29.486479
10.491078 15.565848 29.66568
10.605107 15.632149 29.671278
10.320154 16.494307 29.570665
10.705658 16.033091 29.699873
10.630623 16.044821 29.708754
10.114919 15.696774 29.663403
10.407389 16.39669 29.567446
10.338292 16.539261 29.527245
10.447747 16.328426 29.679092
10.041087 16.49015 29.565977
10.015321 16.006325 29.802198
10.419706 16.236662 29.67997
10.600762 14.709828 29.826811
9.9335022 16.209404 29.647348
10.625392 16.573147 29.590254
10.22202 16.497694 29.580387
9.9534407 16.591442 29.636074
9.8508301 15.438686 29.836676
9.8270283 14.905754 29.865408
9.8212309 16.596149 29.732365
11.010634 15.15099 29.821907
10.730396 16.786839 29.59499
10.808619 16.864277 29.602407
10.803479 14.702167 29.847607
10.641043 16.655479 29.64094
10.721109 16.64411 29.645704
10.835261 16.73933 29.630825
10.615473 15.624633 29.756678
10.425402 16.027271 29.72843
10.508986 15.632582 29.738848
10.618763 15.541771 29.730564
10.786335 15.479282 29.752792
10.807935 15.310432 29.79804
10.620324 16.875975 29.60796
10.341409 16.552999 29.65801
10.60943 16.564409 29.649925
10.337738 16.478836 29.646893
10.714396 16.468151 29.636606
10.512003 16.4666 29.6451
10.422409 16.461775 29.646454
10.715612 16.356058 29.67111
10.737041 16.246988 29.672405
10.520529 16.03034 29.717197
10.717376 15.740523 29.738531
10.699033 16.879192 29.60285
10.724957 16.559904 29.645914
10.879859 16.480883 29.646065
10.624771 16.466213 29.641966
10.925609 16.421041 29.647852
10.927788 16.323725 29.666227
10.720173 15.638181 29.732016
10.721281 15.525687 29.761711
10.831164 14.977094 29.826315
10.88508 16.769527 29.619093
10.778234 16.438059 29.683941
10.801866 16.253752 29.689768
10.888941 15.831542 29.730822
10.933846 15.594216 29.759262
10.509891 15.539519 29.738104
10.71673 14.990145 29.838032
10.716769 16.904718 29.542706
10.62439 16.684113 29.589813
10.430017 16.564014 29.656837
10.834106 16.032143 29.7113
10.69806 15.851512 29.715513
10.819128 15.749365 29.720789
10.89962 15.535745 29.717499
10.812737 15.188807 29.80201
10.936672 15.104549 29.795633
10.800744 15.082311 29.795885
10.984154 15.029813 29.80374
10.791889 16.933687 29.571095
10.9175 15.227024 29.781116
10.959492 14.973591 29.824476
10.930312 16.87376 29.612373
10.940017 16.783461 29.632242
10.818544 16.595896 29.639282
11.009645 16.561747 29.601536
10.910415 15.669163 29.775127
10.931406 15.492218 29.764196
10.896519 14.905632 29.840719
10.783246 14.774234 29.867323
10.819527 16.464157 29.654242
10.600319 16.42832 29.686977
10.88801 15.985115 29.712627
11.009897 15.854123 29.72094
10.810304 15.583827 29.750088
10.904355 14.797879 29.838915
10.41979 16.89385 29.559229
10.60526 16.902145 29.554461
10.792738 16.092569 29.64546
10.781894 15.849882 29.693289
10.41934 15.753488 29.691641
9.993804 16.527092 29.70812
9.950098 16.5741 29.719746
10.052271 16.535713 29.716516
10.886957 16.256935 29.648006
10.574732 14.95197 29.831059
10.168966 16.533651 29.667942
10.14515 16.466211 29.662848
10.162796 15.615349 29.753567
10.67162 15.753537 29.644817
10.135448 15.74572 29.706182
10.400825 15.665169 29.666729
10.599642 16.274488 29.59936
10.263082 16.485609 29.643854
10.676767 16.481937 29.549009
10.411961 16.929487 29.496916
10.122469 15.513369 29.739721
10.690273 15.674702 29.655685
10.165586 15.835467 29.717377
10.315038 16.928139 29.50111
10.125854 15.772685 29.660566
11.020508 16.809492 29.623255
10.979309 16.446716 29.671608
10.990571 16.506882 29.636606
10.847599 15.125235 29.711843
10.881962 15.663898 29.646204
10.405536 16.306343 29.566864
10.72806 14.805931 29.745758
10.770023 15.581023 29.664358
