# .PCD v0.7 - Point Cloud Data file format
VERSION 0.7
FIELDS x y z
SIZE 4 4 4
TYPE F F F
COUNT 1 1 1
WIDTH 538
HEIGHT 1
VIEWPOINT 0 0 0 1 0 0 0
POINTS 538
DATA ascii
27.952484 13.742232 35.122253
28.001059 13.779725 35.078476
28.27837 13.791592 35.011261
27.889372 13.766423 35.111546
27.540245 13.658061 35.137089
28.370802 13.345178 35.104939
29.668861 13.683556 34.786594
27.679808 13.553771 35.268116
30.051516 13.272178 34.653004
28.3755 13.34643 34.833012
27.312521 13.317225 35.196178
29.571707 13.555008 34.790287
29.564672 13.645375 34.901321
29.928413 13.226851 34.651581
27.865517 13.758262 35.178856
28.966806 13.729001 34.889343
28.958927 13.849826 34.939056
27.243237 13.334293 35.088223
28.572735 13.703687 34.896648
28.868292 13.726204 34.909348
28.556084 13.561796 35.087303
27.899574 13.339396 34.953232
28.384798 13.723901 35.015736
27.375538 13.467145 35.241398
27.776279 13.698827 35.112896
27.689297 13.683532 35.154343
27.71928 13.355046 35.015102
28.092365 13.366199 34.962914
27.296389 13.697943 35.271698
28.170355 13.735719 35.079651
27.876198 13.752271 35.052917
27.673199 13.737169 35.034428
27.478102 13.402552 35.038315
27.246994 13.453695 35.248711
27.675755 13.768613 35.085075
28.472557 13.760792 34.894974
27.366749 13.615877 35.181694
28.37361 13.755186 34.904587
29.973955 13.418312 34.822914
28.678465 13.729402 34.931168
28.37952 13.478673 34.933548
27.788052 13.315819 34.99892
28.285624 13.419847 34.882015
28.173857 13.354857 34.973324
27.883953 13.367015 35.034389
28.772316 13.533462 35.219715
28.58544 13.778324 34.918766
28.275234 13.760599 34.925468
30.294905 13.3313 34.665421
29.783749 13.618267 34.872818
27.581188 13.728325 35.054436
29.574083 13.425182 34.939705
28.773033 13.588673 35.099205
28.852633 13.841289 34.932781
27.505533 13.721193 35.174606
28.066406 13.347822 35.15353
28.97065 13.53074 35.072544
29.773361 13.425069 34.881027
29.075001 13.523554 35.037998
27.354225 13.699219 35.283859
28.881187 13.720281 35.078907
27.998045 13.850422 34.965057
27.991039 13.355444 35.040627
27.981539 13.692414 35.06971
27.269203 13.427609 35.226658
29.006725 13.657773 35.065784
28.209599 13.665844 35.226254
27.774981 13.792668 34.959728
28.276752 13.701603 35.211456
28.075291 13.699876 35.032654
27.663195 13.464286 35.174061
28.07954 13.56941 35.299095
29.179255 13.406019 34.972103
29.464518 13.568413 34.791885
27.789757 13.558284 35.297325
28.191788 13.765819 34.93681
29.173046 13.725569 34.981125
27.775755 13.583725 35.385277
27.871542 13.73542 34.971447
28.374985 13.590554 35.21653
29.25815 13.343769 34.973698
28.670971 13.68738 34.882698
28.067766 13.604921 35.083191
29.882942 13.351316 34.66774
29.468178 13.365041 34.814053
28.6766 13.529307 35.242825
29.362198 13.266864 34.786797
27.976419 13.513436 35.363663
29.574821 13.592106 34.869625
28.770134 13.782352 34.879749
28.849125 13.271602 34.935955
29.372963 13.710546 34.932629
27.161842 13.418396 35.296738
28.082445 13.735753 35.098949
28.271715 13.573625 35.150864
28.501532 13.679303 35.130116
28.576149 13.528287 35.266045
29.815538 13.771811 34.769543
27.905111 13.342621 35.119308
28.582321 13.756024 35.049507
28.471415 13.577206 35.198532
29.77014 13.357808 34.706776
27.805359 13.521648 35.113377
29.772903 13.478914 34.940128
29.166422 13.745436 34.899158
28.464756 13.419436 35.05109
28.266359 13.34579 34.934326
28.669188 13.479535 35.096241
27.553333 13.612595 35.326485
28.766533 13.342507 34.997448
29.172096 13.560668 34.887379
28.176998 13.686306 35.002407
28.273594 13.392756 34.825081
28.479036 13.640238 35.056465
29.371836 13.476636 34.881168
28.579277 13.365988 34.845394
27.985121 13.322018 34.938675
27.074572 13.296371 35.00771
28.878571 13.530789 35.185272
28.377533 13.38878 34.980373
28.670166 13.590019 35.138439
28.350628 13.45146 35.094223
29.283442 13.615621 34.926247
28.266624 13.404265 35.2589
28.879652 13.431673 34.932247
28.672451 13.366632 34.835632
27.640301 13.577407 35.157566
29.162104 13.29537 34.917519
28.382574 13.35988 34.888161
28.076668 13.395515 34.848961
27.214046 13.389859 35.088093
27.67207 13.370924 35.088768
29.371658 13.782826 34.911789
29.684969 13.835207 34.85257
29.474009 13.421239 34.968452
28.981354 13.597956 35.03722
27.378347 13.388309 35.062534
28.280174 13.701714 34.964672
30.076149 13.386724 34.812519
27.778297 13.620733 35.148064
29.378979 13.339546 34.737373
29.07913 13.601862 34.99781
29.580854 13.70474 34.868721
29.471119 13.406826 34.877132
28.274626 13.431887 35.106903
28.878439 13.385894 34.854153
28.675459 13.663113 34.984833
28.18314 13.429518 35.189335
28.58102 13.732924 34.95797
29.075811 13.560297 34.898983
30.06917 13.363701 34.622887
29.178036 13.6938 34.925003
28.379211 13.311019 35.021263
29.686237 13.368687 34.722061
28.467899 13.319522 35.008266
29.161985 13.377415 34.784313
27.78426 13.358634 35.085503
29.262779 13.33411 34.801937
28.12175 13.449175 35.097092
27.988945 13.411645 35.203503
27.569925 13.414792 35.095005
28.476904 13.366412 34.864727
28.379269 13.413137 34.853424
29.953684 13.333045 34.662247
28.090689 13.395059 35.080364
29.577515 13.469458 34.831093
28.769583 13.356897 34.818817
28.785271 13.328082 34.899349
28.981794 13.481838 34.995903
28.569908 13.312453 34.980972
29.86631 13.421741 34.780876
28.090185 13.654045 35.14587
28.59181 13.346773 35.035145
28.989117 13.720173 35.039635
29.682981 13.592085 34.849812
29.072506 13.74594 34.916435
30.06472 13.63613 34.792019
28.182013 13.395007 34.832531
28.282585 13.302523 35.060921
27.984488 13.393329 34.875889
27.075041 13.369418 35.061939
27.072001 13.386312 35.176449
29.776131 13.383801 34.902824
27.409662 13.555873 35.317398
28.774712 13.284447 34.839382
28.089085 13.825233 34.962681
29.56123 13.395041 35.029922
27.892914 13.511589 35.217182
28.580095 13.612452 34.910908
27.039881 13.357715 35.301586
27.512287 13.342078 35.106781
29.277086 13.357668 34.854092
29.274113 13.695168 34.911453
28.262045 13.660439 35.107376
27.397593 13.308411 35.123825
28.908211 13.60323 35.227013
28.020037 13.447607 35.115505
28.979174 13.703078 34.961819
28.885521 13.696485 34.99884
27.794949 13.404422 35.151199
28.681837 13.383344 34.887836
28.983103 13.567515 34.921696
28.584146 13.392325 34.916756
28.872147 13.153787 34.820099
28.668549 13.430498 34.992134
27.375134 13.406173 35.250057
29.06753 13.381565 34.818451
30.091557 13.600201 34.71825
29.970375 13.383706 34.842518
27.475239 13.655883 35.134235
27.323059 13.379795 35.338154
28.183207 13.359876 35.057571
27.148588 13.37428 35.256611
28.970592 13.386395 34.840176
28.580418 13.412268 35.015579
29.872946 13.426245 34.851044
28.373213 13.671473 35.16069
28.287148 13.387465 35.015579
28.776957 13.386816 34.863918
28.572599 13.529461 35.186909
28.475431 13.387623 34.965527
28.86343 13.352794 34.797428
28.783289 13.662072 34.94751
29.080898 13.700092 34.940273
29.169327 13.334999 34.827198
28.789032 13.427729 34.945831
28.571989 13.583812 35.167686
30.423567 13.295741 34.557808
29.37278 13.612589 34.911484
28.787865 13.751459 34.984684
27.878077 13.450216 35.132355
27.679672 13.405661 35.408432
28.669893 13.779271 34.903103
28.28303 13.525595 35.272884
29.87431 13.551116 34.868847
28.876036 13.484078 35.026768
27.688421 13.352428 34.908367
27.879711 13.524237 35.394527
30.567249 13.356227 34.614609
28.978512 13.530814 35.153996
27.870388 13.67968 35.108658
28.166744 13.747756 35.230228
29.073174 13.527833 35.125397
29.475523 13.471227 34.862511
29.873058 13.530373 34.805031
28.320782 13.305927 35.170731
29.802109 13.338121 34.831135
28.074314 13.410998 35.307117
27.584066 13.437189 35.526123
28.109941 13.50881 35.129848
28.765966 13.68843 35.042336
28.741352 13.241049 34.926556
28.671358 13.526908 35.160416
28.103807 13.66908 35.245152
28.462379 13.548594 35.109856
27.88406 13.388918 34.91489
29.46426 13.419283 34.768021
29.071411 13.33391 34.839661
29.363371 13.423679 34.825291
29.976831 13.530327 34.77985
29.462448 13.681159 34.863293
29.275911 13.424769 34.839882
28.772602 13.529284 35.123383
29.076704 13.429385 35.088051
28.368818 13.742758 35.111893
29.078341 13.491272 35.139816
28.175819 13.517047 35.101261
28.476686 13.752966 35.075146
27.481308 13.740841 35.099632
29.377493 13.426034 34.99931
28.774376 13.408742 35.09465
27.388536 13.733719 35.110298
29.77062 13.469038 34.776443
29.77598 13.529379 34.836208
29.782389 13.59122 34.802265
28.083033 13.78877 35.06673
28.877014 13.529096 35.09396
28.171497 13.439141 35.355328
27.106964 13.433493 35.278561
28.678928 13.720294 35.157536
28.380583 13.712472 35.262917
28.213135 13.781221 35.042656
28.762836 13.832606 34.957439
29.674452 13.534286 34.866322
28.171545 13.626659 35.194782
29.38139 13.396286 34.898338
29.281679 13.401674 34.932774
28.377151 13.529409 35.244682
28.178736 13.575995 35.268562
28.785418 13.711681 35.125446
28.273474 13.578254 35.246414
28.577898 13.653833 35.010895
28.774059 13.725547 34.919121
29.371811 13.690966 34.893272
28.179947 13.331644 35.117252
29.372633 13.358555 34.837814
27.860085 13.238325 35.078583
27.300697 13.277122 35.258926
28.866842 13.583836 35.081085
27.00592 13.283249 35.37088
28.379333 13.647808 35.073517
28.573524 13.4778 35.122879
28.605543 13.686069 35.158222
29.867817 13.57952 34.784264
27.385504 13.243599 35.195709
29.370722 13.38147 35.020947
29.560402 13.694656 34.814854
29.461746 13.707314 34.909641
29.983829 13.72514 34.736897
27.656788 13.819335 35.194244
27.300184 13.193336 35.136566
28.668026 13.351353 35.019245
28.987917 13.358064 34.920799
29.08041 13.358573 34.894848
27.776188 13.727403 34.9907
29.565336 13.364927 34.760647
27.871368 13.608405 35.118603
29.170591 13.42453 34.851669
27.976688 13.766094 35.023132
27.782345 13.761381 35.070053
28.091093 13.766363 34.98444
28.671825 13.767788 35.01548
28.706144 13.250082 34.96143
28.178789 13.522655 35.302002
27.680325 13.586518 35.208611
27.616634 13.625967 35.159172
29.392693 13.394959 35.086834
28.883982 13.354644 34.954208
28.467329 13.540942 35.015167
28.175383 13.624708 35.062344
30.066301 13.414821 34.722767
28.072489 13.341278 35.349827
29.277719 13.722021 34.954132
29.393188 13.661756 34.964508
29.13031 13.308505 34.757206
27.049763 13.334103 35.2108
27.877295 13.409864 35.375347
29.857477 13.557745 34.697262
29.881302 13.330328 34.597363
29.561085 13.346754 34.713837
27.214109 13.270952 35.242107
30.072983 13.422385 34.79351
28.482313 13.702736 34.910374
27.465246 13.328884 35.178219
29.980999 13.691862 34.705715
28.472078 13.726202 34.998474
28.468967 13.413003 34.8428
28.974251 13.41054 35.038494
28.984625 13.429876 34.883385
27.961096 13.666614 35.204346
28.878223 13.309175 34.817554
28.404814 13.717431 35.338799
30.145067 13.368403 34.605686
28.293966 13.737596 35.029518
30.144791 13.268377 34.575798
27.611828 13.338255 35.14399
27.494846 13.620095 35.300617
27.491243 13.522715 35.221401
28.986307 13.289674 34.982136
27.580547 13.571305 35.128372
29.283455 13.292149 34.890274
28.074625 13.517526 35.340595
29.777796 13.689635 34.763569
29.186201 13.652066 35.060509
28.830563 13.777543 35.057091
29.470043 13.649442 34.938873
28.801403 13.762431 35.068535
29.18359 13.611362 34.946369
28.569778 13.686175 35.096737
29.987629 13.307688 34.688011
27.874125 13.638461 35.214664
28.378494 13.52596 35.324371
28.475615 13.525627 35.297363
28.489212 13.606567 34.934544
27.787395 13.318328 35.363182
28.632637 13.300375 35.076241
29.071705 13.646155 34.896671
28.878887 13.403325 35.065014
29.786644 13.554138 34.717407
28.484514 13.35041 35.081211
30.175888 13.380815 34.785072
29.785944 13.666662 34.654068
28.595711 13.614035 35.20747
29.476849 13.612525 34.894417
29.771858 13.544668 34.900066
29.991295 13.593417 34.736816
29.274006 13.560591 34.876785
29.674477 13.425284 34.908276
29.869133 13.354182 34.798088
29.681185 13.350744 34.863277
29.071436 13.476105 34.963818
28.383869 13.547882 35.135956
29.87104 13.46995 34.747726
29.175636 13.355571 34.871273
28.179064 13.479045 35.238178
28.475035 13.527358 35.215546
28.781334 13.480916 35.06612
27.792339 13.40557 35.394966
27.88323 13.479601 35.326046
27.567261 13.490038 35.408077
28.374409 13.481792 35.180363
28.473009 13.776772 34.943359
27.478701 13.485908 35.434528
28.27725 13.519403 35.352718
28.387684 13.777511 34.996033
27.582962 13.511327 35.484631
27.658781 13.461267 35.328724
27.675295 13.486057 35.379524
27.975786 13.437744 35.411385
29.978867 13.417526 34.750687
29.932327 13.370918 34.922932
28.873434 13.485275 35.202747
29.568159 13.377229 34.952843
29.084381 13.720614 35.010159
29.861284 13.412493 34.94865
29.676521 13.37889 34.923744
29.28722 13.650631 34.990017
29.868113 13.383297 34.867214
29.479221 13.375308 34.985031
28.876171 13.43151 35.146854
27.971806 13.570165 35.328579
28.378117 13.475371 35.346874
27.978195 13.474433 35.292877
27.780016 13.484346 35.349228
28.163937 13.527897 35.386887
29.269526 13.379465 35.048588
28.045532 13.528833 35.412064
27.659674 13.518759 35.453644
28.179295 13.406756 35.275406
28.976107 13.334929 34.859688
28.075397 13.433991 35.385529
30.167082 13.349961 34.733761
27.749094 13.415012 35.305119
28.881855 13.331347 34.873283
27.968567 13.409671 35.34515
27.666809 13.56794 35.410488
29.981045 13.345056 34.75885
27.573343 13.460017 35.315315
27.978247 13.547511 35.276558
27.932709 13.402344 35.282425
28.457718 13.351243 34.815723
27.870089 13.569099 35.351662
27.398386 13.461525 35.455868
28.655235 13.625362 35.186211
27.968445 13.370321 34.828045
28.354628 13.626036 34.982014
27.658705 13.668015 35.292763
29.369406 13.306235 34.856777
27.569616 13.694751 35.13665
27.780966 13.663015 35.254345
29.635202 13.685102 34.857815
27.479662 13.43252 35.133598
29.670645 13.641495 34.891785
27.609451 13.357179 35.076263
28.289783 13.344035 34.863701
28.263824 13.193254 34.901573
28.134846 13.550053 35.218067
29.36372 13.75182 34.835636
29.754929 13.70508 34.848793
29.863373 13.606775 34.842136
28.076542 13.477837 35.270721
29.566446 13.330576 34.87075
29.470427 13.32559 34.912365
27.954653 13.36022 35.398815
28.281548 13.342924 35.306194
29.063705 13.375149 35.105381
28.972452 13.375039 35.130192
28.179249 13.291494 34.974545
29.165634 13.379539 35.08289
27.797327 13.305891 34.93483
28.786016 13.297555 35.028378
27.268612 13.456844 35.518074
28.27935 13.36399 35.326542
28.283438 13.302969 34.980103
28.273718 13.384149 35.157837
28.851551 13.337015 35.117382
28.174187 13.335685 34.892323
28.17099 13.375346 35.368877
28.674885 13.324318 34.949871
28.074575 13.330406 34.920456
27.582886 13.39327 35.446259
28.060556 13.368321 35.394299
28.979776 13.489764 35.172073
28.306639 13.630895 35.009445
28.181623 13.342745 35.333145
29.776604 13.399369 34.964428
28.460155 13.294951 34.937347
27.474554 13.359446 35.487614
28.976154 13.428198 35.1171
28.38822 13.306294 34.972752
29.066072 13.635188 35.098236
28.982201 13.279732 34.801781
29.068233 13.401516 35.007019
28.990107 13.343153 35.080227
29.451021 13.317076 34.852787
28.377644 13.706548 34.936127
29.354475 13.341573 34.961002
29.349461 13.752312 35.022522
29.198763 13.341614 35.015579
27.830908 13.592876 35.433868
30.049391 13.347983 34.763885
29.089081 13.352293 35.040855
28.674793 13.315691 34.876572
27.981035 13.381591 35.431538
28.052763 13.270506 34.842949
27.968193 13.293343 34.84539
28.191504 13.27042 35.338074
29.078346 13.42326 34.864975
29.572414 13.423703 34.858192
28.006422 13.650665 35.132416
28.682144 13.693144 35.05682
28.626404 13.590104 35.31139
28.560003 13.604373 35.332996
29.871017 13.718534 34.720074
29.870695 13.72599 34.765526
29.564503 13.278134 34.851845
29.085388 13.763412 34.97229
29.198675 13.78712 34.969742
28.092316 13.579467 35.20282
28.989315 13.802355 34.998943
29.04496 13.539194 35.214676
28.933773 13.560101 35.244907
28.871666 13.649932 35.113731
28.750801 13.633358 35.155476
29.265676 13.793994 34.948608
29.011824 13.540828 35.213184
28.467964 13.627263 35.413414
28.819361 13.575436 35.310246
27.883629 13.536931 35.315842
28.483467 13.629117 35.258331
27.578054 13.755207 35.149132
28.4161 13.650544 35.262074
28.563189 13.302941 34.919682
27.605883 13.848087 35.19957
28.476463 13.480521 35.153919
27.68022 13.73952 35.210102
28.6789 13.570556 35.045773
28.865959 13.301981 35.019978
