# .PCD v0.7 - Point Cloud Data file format
VERSION 0.7
FIELDS x y z
SIZE 4 4 4
TYPE F F F
COUNT 1 1 1
WIDTH 1332
HEIGHT 1
VIEWPOINT 0 0 0 1 0 0 0
POINTS 1332
DATA ascii
13.132366 34.461399 20.451874
14.08455 35.555756 20.489111
14.048801 32.707268 20.40633
13.873437 32.769958 20.394592
14.023419 34.946373 20.468016
14.052675 34.201576 20.3127
13.868754 34.834145 20.367584
13.974337 34.057407 20.24501
13.792573 34.734451 20.371992
13.822689 32.698631 20.365536
14.100258 34.933418 20.460009
13.756027 33.334511 20.393753
14.198439 33.474121 20.371771
14.215001 35.647743 20.483543
14.122813 35.49696 20.464087
14.059359 34.81168 20.442526
14.175316 34.426697 20.434078
13.914783 34.345695 20.376373
15.005348 34.460018 20.406008
13.977065 33.9781 20.375175
13.657821 34.338818 20.359701
13.775502 33.898933 20.268253
14.155759 32.900597 20.338678
14.349563 34.180935 20.270864
15.107196 34.430859 20.399298
14.980783 34.533447 20.192045
13.766959 33.137943 20.241156
14.42063 33.006405 20.288942
14.192687 34.200771 20.322071
13.69126 33.97678 20.306351
13.659854 33.343655 20.408464
15.577002 34.488926 20.282507
13.655966 34.451488 20.45887
14.041444 33.230125 20.383512
15.273731 33.20966 20.338928
14.303085 35.866051 20.403233
12.674381 34.0756 20.450518
14.171144 34.707672 20.422821
12.955234 32.977295 20.394794
14.255104 34.617626 20.242361
14.359912 34.757812 20.523899
12.67239 34.227921 20.386425
14.332683 34.281372 20.290545
14.358509 34.683517 20.507065
14.197241 34.890663 20.315552
14.275013 34.651733 20.29562
14.264383 34.881443 20.309576
14.116099 34.591076 20.411413
14.309751 35.459953 20.418617
14.352442 34.863194 20.401154
14.354297 35.473907 20.412153
14.30687 34.142475 20.211493
14.282995 35.710163 20.408665
14.2617 34.560726 20.326014
14.290153 34.860638 20.381815
14.122581 34.829784 20.335691
14.262607 34.426205 20.425789
14.169608 33.94923 20.325737
14.261759 34.259724 20.288727
12.822928 34.922962 20.425367
14.270828 35.039223 20.43273
15.496099 34.652996 20.472872
14.164455 34.664238 20.31996
13.887044 34.676247 20.460472
14.192794 34.158478 20.26223
12.740264 33.991703 20.400076
12.684787 33.977379 20.421204
14.191316 34.235062 20.302532
14.00316 34.826077 20.353588
15.339494 34.982239 20.430525
15.389125 35.162174 20.461891
14.061045 34.744205 20.365606
15.309566 33.480549 20.421888
15.460781 33.809036 20.478426
15.374903 34.348446 20.444765
14.016706 34.257145 20.327415
14.260665 34.332382 20.308981
14.057683 33.917068 20.307249
14.109488 32.551544 20.327938
13.904736 32.650833 20.344164
13.596704 34.602226 20.422503
14.276359 34.999729 20.281691
15.410492 35.372086 20.366716
14.5624 34.307667 20.374687
14.642976 34.235039 20.294998
14.384236 35.688622 20.405689
13.499538 34.587044 20.449543
15.086952 35.222191 20.325474
14.586426 34.619804 20.425098
13.096509 34.641064 20.378134
14.27711 34.080952 20.213558
13.196076 34.893005 20.415775
12.713056 34.451797 20.571747
14.082347 33.280945 20.352758
14.175808 32.743114 20.35478
15.352827 33.137352 20.313444
14.807657 35.363899 20.354368
12.877396 33.087048 20.470934
12.778506 34.975727 20.362537
13.198838 34.70216 20.514608
13.059515 33.081589 20.472458
14.655206 33.013062 20.241007
13.086921 34.979977 20.364922
12.884942 34.979614 20.373539
12.961443 35.043137 20.332293
12.788891 35.021275 20.312981
12.616535 35.030243 20.351561
13.07634 34.818478 20.344732
14.004839 34.868889 20.31879
13.990832 33.747543 20.308796
15.501807 34.689514 20.390305
12.872894 34.836143 20.420206
13.981024 35.610764 20.416853
13.976117 34.763756 20.369171
13.444956 33.848045 20.401436
14.069057 33.063404 20.386822
15.162487 34.714539 20.403582
12.678104 33.06847 20.413092
12.580599 33.066391 20.41778
13.986947 33.070255 20.390018
12.681854 32.649017 20.36058
12.756093 32.627785 20.382971
12.456853 33.155071 20.382082
14.783517 34.601433 20.426794
14.496006 34.246201 20.377571
13.791304 34.494362 20.451815
14.063092 33.434422 20.394989
13.954731 34.799515 20.334959
13.934926 34.709034 20.419617
14.940323 34.234253 20.227295
13.478309 33.848255 20.308474
13.901162 33.572926 20.397644
14.337277 34.950497 20.393297
12.879748 35.089554 20.374058
14.924698 33.007568 20.271023
12.379121 34.336521 20.435581
12.656743 33.48851 20.375753
15.022893 33.037983 20.252131
13.989355 34.224983 20.370018
12.46507 35.024761 20.366024
14.63414 35.058174 20.457712
14.072379 34.066441 20.250549
12.611394 34.474941 20.631075
15.388649 33.860409 20.429296
15.319973 33.593418 20.394089
12.459627 35.074387 20.384861
14.075871 32.809731 20.371805
12.519667 34.264557 20.390867
12.722966 34.438152 20.459639
12.484599 34.290092 20.368938
13.972602 32.909962 20.391842
14.046467 34.015907 20.374798
13.987966 34.646671 20.365736
12.453642 34.820995 20.387604
12.969135 34.63081 20.454117
15.361053 35.492989 20.323318
14.067878 34.234165 20.367737
13.348166 34.569454 20.24341
14.065351 35.900063 20.486532
15.360252 34.516438 20.426216
14.354675 35.065163 20.378239
12.559351 34.437954 20.465649
15.177388 33.398018 20.462654
12.581015 35.004105 20.362101
14.670978 35.58654 20.461555
12.361857 35.008137 20.352507
14.314739 34.926949 20.397127
13.986357 32.781517 20.301676
14.278704 34.605694 20.424164
14.008006 35.000195 20.361065
13.164641 33.087475 20.462955
14.666074 34.630478 20.527607
15.162837 34.380085 20.464134
13.890222 34.664196 20.380699
13.79662 34.254776 20.389557
13.784898 32.948009 20.39629
15.067757 35.796925 20.364712
14.52954 35.463047 20.483023
12.597721 34.595837 20.453054
12.66163 34.610825 20.626135
14.033665 35.820812 20.487844
13.956566 33.48325 20.393961
14.068349 34.401211 20.423092
12.586037 35.057079 20.418194
14.378708 33.095768 20.447491
13.900718 33.730175 20.376616
12.394484 34.609642 20.472605
14.164808 33.302708 20.338198
14.062572 34.780575 20.309921
15.440069 32.108105 20.276995
14.904276 35.954689 20.391716
14.187128 34.06789 20.226168
14.269094 35.207104 20.412006
14.517536 35.075779 20.373198
14.088906 34.662148 20.325539
15.282678 33.777992 20.47953
14.018816 35.449112 20.489946
14.676968 34.200581 20.369646
12.679132 32.915787 20.39283
13.781953 34.924946 20.370247
12.679057 35.081032 20.399752
14.067205 33.736561 20.312948
12.563829 33.448685 20.423157
15.355676 33.764 20.49085
14.316425 35.605072 20.395264
13.781587 34.593803 20.431231
14.09766 32.947289 20.347662
15.146358 33.482044 20.400835
13.892139 34.555191 20.335712
15.244432 33.619987 20.401201
14.456171 35.394802 20.366613
14.457438 35.466549 20.215906
12.664617 32.763996 20.414001
12.783334 35.054466 20.373451
13.071037 34.609665 20.409218
13.645931 32.709305 20.396515
15.311556 35.091892 20.527094
14.694031 33.916668 20.274698
14.452005 33.280499 20.350533
14.857872 33.733974 20.471918
15.065532 33.751961 20.495413
12.596229 34.652672 20.371723
13.280515 32.945877 20.287239
12.679919 34.638485 20.376368
13.759496 34.716076 20.455528
14.926651 35.470352 20.262974
13.176984 34.569603 20.346643
12.69327 34.627716 20.443882
14.770351 32.957542 20.346514
14.290486 34.767059 20.338535
12.594341 35.0937 20.349289
13.427366 34.493683 20.556442
13.973518 33.381565 20.374416
12.796181 34.41082 20.43557
12.276967 33.222878 20.510078
14.500961 33.122707 20.307182
13.927128 33.214569 20.265747
14.225752 35.73917 20.455326
12.47377 34.602615 20.528454
12.358075 33.436989 20.327284
15.207153 35.009254 20.34363
14.435491 35.733036 20.418858
14.447172 34.627617 20.348442
12.256232 34.635384 20.473709
14.153066 35.79261 20.481035
13.785479 32.401119 20.363626
13.016276 34.589924 20.515638
13.01375 34.658562 20.556925
12.712261 34.604446 20.516909
14.653862 34.644432 20.564394
12.778368 34.600403 20.521992
14.612136 34.648182 20.554117
13.899282 34.120323 20.417868
13.390846 34.624866 20.526613
14.778383 33.769703 20.477098
15.270027 33.056091 20.417507
14.349521 34.637341 20.337
14.068811 32.723034 20.358971
14.373607 35.818108 20.414444
12.759298 34.803905 20.353718
12.770494 34.880257 20.36446
12.677194 34.811813 20.481102
15.072321 34.661724 20.524868
14.384857 32.713562 20.392939
15.171879 35.336815 20.28211
15.259842 33.155998 20.275707
14.772558 34.593323 20.512545
13.488882 34.618214 20.51173
14.97742 35.238514 20.416534
14.349968 34.968723 20.274876
13.748265 34.593552 20.528402
15.111619 33.094814 20.247528
15.240354 34.662067 20.491982
14.183267 34.597057 20.443798
14.166585 35.614353 20.472122
13.874374 34.594856 20.426342
15.838157 34.67672 20.46876
14.370906 34.598011 20.427961
13.88225 32.525875 20.401751
14.073847 34.340061 20.329447
15.037566 34.616196 20.459763
14.680812 33.772736 20.48867
13.683433 34.60503 20.493235
14.181561 33.337261 20.350756
15.655484 35.350487 20.342636
15.26991 35.342461 20.456793
13.698885 34.593353 20.443045
12.364077 34.596897 20.551722
12.775822 32.949245 20.375221
12.595694 32.979004 20.351748
12.691583 32.870106 20.382658
15.116407 35.284241 20.266125
13.589219 34.616337 20.530035
15.372759 35.340435 20.447899
15.632332 34.579906 20.332539
14.090656 33.379879 20.362471
14.146978 32.875824 20.339455
14.97505 33.161968 20.245073
14.4825 33.051579 20.440781
14.995183 35.79694 20.350428
14.983197 34.598061 20.413889
14.516908 35.482758 20.477106
15.070158 35.253193 20.405935
15.897543 34.623508 20.380346
14.18159 34.786903 20.300076
14.665492 34.609428 20.417103
12.509207 34.834873 20.240952
15.187833 34.661701 20.488863
15.153849 34.529354 20.43815
15.108826 35.92112 20.433903
15.109913 34.493412 20.312956
14.64708 32.96172 20.39327
14.467946 32.946011 20.393606
13.050282 34.80838 20.385267
14.755271 33.805542 20.490734
13.444308 34.709846 20.615524
12.257931 34.675644 20.578224
12.686725 33.378754 20.398596
13.504807 34.335361 20.424372
14.023111 34.124176 20.344931
15.10358 34.241226 20.269678
14.853663 32.815022 20.353453
14.18158 33.569412 20.359379
14.80658 32.651615 20.302849
14.543961 34.129601 20.372446
14.587435 32.654778 20.347561
14.681372 35.236343 20.413206
14.206987 35.019451 20.286449
14.635077 35.087307 20.289282
14.677087 35.701836 20.441147
14.241089 34.121071 20.297623
14.469053 34.597618 20.426516
13.248422 34.817509 20.32535
12.451919 33.311539 20.33811
14.15949 34.122772 20.363817
14.473024 34.47934 20.361355
14.0738 34.131741 20.351061
13.92778 32.652622 20.391806
15.478016 32.386185 20.337917
13.986429 34.36174 20.362944
12.785207 34.60733 20.449408
12.45791 34.147648 20.376596
14.919646 34.260406 20.294579
14.791254 34.426292 20.338394
15.364191 34.353367 20.307487
12.890806 34.363739 20.447273
13.8908 34.112232 20.359638
13.66938 33.198105 20.415251
14.650233 33.500744 20.321077
12.695197 34.369385 20.366474
12.403989 33.889194 20.419012
12.59108 33.858364 20.424244
14.665077 33.257153 20.323002
12.636312 34.026905 20.359522
12.768645 34.295383 20.384483
14.087191 34.031197 20.339706
12.849879 35.135162 20.355564
14.248722 34.033318 20.290035
13.796625 33.568367 20.364376
14.69446 32.590908 20.316341
15.473641 34.538685 20.346798
13.974159 34.336697 20.395664
14.860758 34.148647 20.297411
13.976389 34.540314 20.331778
14.482146 34.508518 20.449806
13.608701 34.037682 20.340523
12.87461 34.809425 20.34893
12.288901 33.105087 20.504604
12.862014 34.59396 20.547178
12.881534 34.607708 20.459242
13.98095 34.43486 20.448202
14.843172 35.080761 20.374289
14.757894 35.031239 20.366428
14.355065 35.37727 20.395521
14.685195 35.762016 20.405828
14.666276 35.284088 20.282089
13.784202 34.554047 20.323769
14.177687 34.560925 20.326593
14.178371 34.495499 20.297915
13.788363 33.88324 20.40156
12.793019 35.085251 20.351183
15.171543 34.607536 20.400486
13.569231 34.480465 20.381578
15.379709 34.549477 20.358253
14.575605 35.203556 20.477358
14.377297 34.987961 20.35911
14.617648 35.835335 20.489151
14.398401 33.379406 20.37887
14.968459 34.65509 20.342922
12.864235 33.866299 20.419291
12.755745 32.852463 20.390709
15.555595 35.317139 20.263948
14.2812 34.535599 20.402472
13.074941 34.496555 20.480804
13.158284 34.970604 20.362158
14.240936 32.480774 20.36087
14.676439 34.34016 20.331055
14.066431 34.752995 20.466522
12.397212 34.883686 20.362583
15.038625 35.1231 20.253658
13.382257 33.248699 20.444414
14.583969 34.74955 20.360909
14.668824 33.793751 20.423363
14.398406 34.464954 20.348919
14.801522 33.93964 20.514521
15.585972 35.312195 20.303684
12.713654 34.137348 20.402752
14.670975 35.341129 20.454153
13.983565 32.540531 20.468586
15.559742 34.533997 20.360704
15.415899 35.002892 20.255465
14.550255 33.067993 20.23595
12.679992 34.772507 20.394958
15.065899 34.556271 20.303511
12.583797 33.109337 20.429407
14.573566 34.536465 20.394785
12.176445 33.06834 20.422516
13.567476 33.088818 20.460789
14.615796 34.70182 20.318115
15.466122 33.131245 20.348267
12.976689 34.525963 20.414862
12.958771 34.827469 20.348667
13.079488 33.1068 20.426859
15.360754 33.794128 20.389845
15.696926 35.25391 20.311636
15.07602 35.268154 20.340918
14.020314 35.046638 20.358694
12.384721 33.049076 20.46965
12.378757 33.111061 20.436649
14.818295 32.781605 20.320555
12.493328 34.484398 20.485271
14.715993 35.363728 20.394968
14.611521 35.291199 20.281813
15.076528 34.539806 20.372028
15.177328 35.271702 20.340307
14.677873 35.268272 20.367971
12.859969 34.788582 20.380886
14.872055 35.22319 20.329403
14.57023 34.179661 20.383959
13.482537 33.054928 20.447052
15.62698 35.402039 20.287434
14.275269 35.792332 20.424168
14.771259 35.216831 20.336668
12.488364 34.610031 20.457052
13.875151 34.533096 20.397367
14.369775 34.512085 20.449797
14.56862 34.247746 20.303146
14.376437 35.273067 20.374504
14.695683 35.684624 20.471611
14.372638 35.889488 20.44091
13.365681 33.869816 20.399574
14.076146 33.112675 20.411411
12.373162 35.024548 20.333073
13.576024 33.107441 20.418385
13.687518 32.496777 20.467033
14.470038 35.269737 20.369942
14.581774 34.558483 20.321104
13.795128 33.740913 20.352262
14.413223 35.369595 20.313398
15.278632 33.653358 20.338732
14.587928 34.934341 20.275827
15.270462 33.066738 20.344696
13.801216 34.163155 20.393671
15.732106 35.348511 20.267118
12.179018 33.111244 20.443123
14.878892 33.075417 20.362381
14.55244 33.255901 20.330542
14.87586 34.535088 20.38504
14.755823 34.81562 20.489662
15.591302 35.239845 20.278606
14.782653 34.351028 20.326834
14.62537 33.939308 20.434141
15.373843 33.082024 20.345131
15.369663 35.285648 20.345812
13.974703 34.532711 20.401699
15.175392 34.535652 20.366867
14.580019 34.480232 20.351557
14.955486 33.569324 20.33387
15.264725 34.539913 20.360043
14.692059 34.753952 20.380589
14.675128 34.53479 20.390356
12.27822 33.068436 20.421877
14.783374 34.939972 20.275793
14.958843 35.277809 20.354452
13.575385 34.528187 20.403051
14.77408 34.537918 20.392347
12.451491 33.260281 20.505957
14.177758 34.531109 20.401669
14.47869 35.204567 20.408642
13.87415 33.10976 20.414026
12.47359 34.55048 20.37015
12.677711 34.528721 20.414961
14.38382 35.202034 20.404181
12.27717 34.525146 20.426889
13.376559 33.805248 20.387611
12.8786 34.525581 20.416246
14.754815 33.172874 20.299505
13.777298 33.107002 20.414543
15.192327 33.197998 20.471647
13.382455 33.107918 20.422981
13.576633 33.806087 20.380978
14.980316 35.201473 20.39295
14.635231 32.975895 20.339251
15.464856 35.230022 20.319632
14.34175 33.213898 20.334438
13.890071 33.347061 20.383848
15.58285 33.136463 20.346895
14.576002 33.875114 20.371408
14.755207 34.286678 20.270506
12.454226 33.282852 20.374479
12.575306 34.037182 20.368874
15.39035 33.260166 20.49424
13.996706 34.363369 20.273672
12.678523 33.573032 20.380953
15.57839 33.82029 20.310411
14.776766 33.069557 20.370052
14.584335 35.008232 20.46648
13.47673 33.790443 20.422543
15.398993 35.504681 20.245647
15.071665 33.049152 20.427639
13.479677 33.10902 20.423841
14.355868 35.532799 20.389557
14.779854 33.118137 20.390326
15.178077 32.167522 20.428501
14.312033 34.78727 20.563679
13.687761 33.056 20.445717
14.577138 33.089428 20.448673
14.252172 34.760582 20.287539
12.77975 33.069084 20.416945
15.748046 34.484421 20.455523
12.580566 33.264927 20.358589
12.877522 33.108715 20.427181
12.768324 33.243919 20.410156
12.485007 34.470085 20.400137
15.096323 33.278782 20.500092
13.380737 33.068802 20.407343
13.867567 33.212788 20.417984
13.383 33.050297 20.448315
12.974194 33.215195 20.477911
15.402056 33.828655 20.492968
14.537251 34.818611 20.350433
14.67153 35.220943 20.331585
13.07355 33.052193 20.452381
14.474685 33.091476 20.450819
12.979023 33.069309 20.416626
13.684291 32.348965 20.428326
13.97916 32.307716 20.411011
14.583415 33.110283 20.400127
12.74618 33.373951 20.395481
13.876201 33.070587 20.393141
12.176591 33.048229 20.47323
12.38759 33.518436 20.37377
13.478559 34.529057 20.4063
15.457392 33.695522 20.361992
15.283749 34.497433 20.311674
14.683448 33.11121 20.396309
13.245803 35.019077 20.36101
12.888512 33.396423 20.357737
15.273471 35.217766 20.32373
15.460398 33.107803 20.43474
15.380693 33.103069 20.438293
15.176243 33.099014 20.43692
13.771053 33.058716 20.444681
13.877469 33.0564 20.440468
14.859175 34.576004 20.502289
15.712032 35.20927 20.396994
13.662682 34.215359 20.346697
14.890495 33.050999 20.435154
13.984032 35.491093 20.445543
15.134078 33.810471 20.484722
15.638021 35.512955 20.309385
14.542313 32.943283 20.391947
13.676401 32.306492 20.412674
14.688887 34.891441 20.324184
14.489892 35.22068 20.337418
15.274614 35.391499 20.380947
13.556194 33.204445 20.44626
12.571016 33.104012 20.523193
14.361153 34.753162 20.359758
13.894262 33.723679 20.325443
15.566378 33.858303 20.487507
12.862137 34.885872 20.366367
14.39306 35.134335 20.318308
15.231225 33.179684 20.441113
14.378123 34.534008 20.398729
14.505105 35.582626 20.464209
14.622883 34.440647 20.289616
15.467442 33.827805 20.316902
14.509211 34.098831 20.374691
12.73339 34.640869 20.382656
15.564643 32.346928 20.308691
14.924046 34.875938 20.373714
14.655413 34.47591 20.28064
15.363722 35.227669 20.312815
13.692906 34.554657 20.339811
14.868546 34.921204 20.392868
12.893624 34.56319 20.365116
12.558091 34.557381 20.360535
13.777489 32.348679 20.433081
13.983624 35.646263 20.4993
14.894044 34.773708 20.278677
13.798256 32.481838 20.369799
15.472878 35.24192 20.401491
14.469692 35.080185 20.300558
13.890589 32.699001 20.407213
14.168481 35.116512 20.28488
12.448869 34.87368 20.363672
14.584649 35.223103 20.343815
14.801188 32.951477 20.48535
15.375852 33.824127 20.331133
14.773748 32.395023 20.338284
12.676792 33.095032 20.48102
13.280828 33.069843 20.409056
13.131913 35.052044 20.382147
14.971073 32.383045 20.334717
12.584051 33.025928 20.469288
14.97027 34.499058 20.277172
12.271291 34.425037 20.484449
12.97904 33.108463 20.428408
14.070318 35.055859 20.363827
14.647059 33.354683 20.32032
13.970507 33.603783 20.370312
14.00978 33.239391 20.365143
14.68444 35.20377 20.408056
12.271709 34.556896 20.373993
14.971588 32.949589 20.284044
12.378507 34.528301 20.427116
15.298022 35.05714 20.355148
14.280726 35.215828 20.339745
12.655197 34.562805 20.371777
13.080507 34.529591 20.415285
14.549015 34.010593 20.397736
12.465089 33.484539 20.360378
14.173215 33.48315 20.326689
14.694471 32.681881 20.341644
13.643055 34.112915 20.339205
14.090187 35.136391 20.302282
14.538101 33.504169 20.501154
13.166343 34.772934 20.343702
13.780078 32.308895 20.409636
14.866091 35.160877 20.482401
13.57678 33.855988 20.385489
14.377739 35.215698 20.351368
12.775859 34.527412 20.420424
14.669319 33.069931 20.374708
13.674397 33.803051 20.378027
13.572731 32.449024 20.412413
13.751461 34.505024 20.290077
13.582479 34.551853 20.327206
12.972133 34.55735 20.364824
14.873661 35.239761 20.410587
13.879554 34.482784 20.286543
14.5778 35.244663 20.423155
15.276402 35.192535 20.385357
14.47556 33.065872 20.37751
14.328003 34.670135 20.489328
15.145636 35.002125 20.405451
12.524817 35.108223 20.37154
13.668129 33.875431 20.382832
14.579581 34.98362 20.353422
13.099947 35.086262 20.353226
14.374369 33.500565 20.337614
14.484238 35.227692 20.236769
13.389384 34.480927 20.37846
15.071926 34.340458 20.281776
14.767181 35.684483 20.365334
14.775213 35.768021 20.423269
14.8153 35.124126 20.290012
14.931051 34.327324 20.367331
13.756969 33.838619 20.271122
13.496372 34.481201 20.368015
12.764517 34.541195 20.358179
14.652867 32.386276 20.35331
15.16147 33.276745 20.338696
14.401615 33.577148 20.372456
14.076215 34.559223 20.332077
14.170423 35.218777 20.348373
14.775472 35.238415 20.415585
13.263893 34.548279 20.352001
14.923265 35.699295 20.401154
15.059431 33.175018 20.445358
14.050708 33.567219 20.350433
13.47217 34.55912 20.349026
12.492281 32.953762 20.498608
13.182092 34.527863 20.411924
12.408485 32.955837 20.444527
12.695877 33.04171 20.465145
14.941081 34.474903 20.320101
14.743202 34.945564 20.395512
14.644857 33.59959 20.346931
12.48785 33.037083 20.463461
14.584385 35.02383 20.383509
14.582109 33.066685 20.381199
14.880205 32.37925 20.342354
12.573929 34.884583 20.35199
14.68137 33.09235 20.447048
13.571686 34.489746 20.469656
14.475215 33.11356 20.40202
12.861161 33.041439 20.459711
15.207349 32.259239 20.450361
13.990569 32.73064 20.381264
14.699335 32.809265 20.328884
12.281218 33.112148 20.432289
13.383926 34.56752 20.361956
12.7713 33.109715 20.497356
14.947348 32.54285 20.296925
14.97853 35.22052 20.324673
14.272836 35.637901 20.437361
13.876106 32.310177 20.406292
13.875904 32.415054 20.372934
12.574972 34.527687 20.420752
13.576885 33.070145 20.400629
14.529357 33.555641 20.385542
14.579701 33.029236 20.508604
14.25036 34.714203 20.269907
14.34801 34.354271 20.353941
13.375657 33.793282 20.423132
15.370873 33.12693 20.357267
12.981742 33.037853 20.455202
15.180802 34.549206 20.308266
12.579686 34.139809 20.36904
13.378603 34.527508 20.406391
14.144515 33.201912 20.31007
14.809572 33.237633 20.322912
15.190071 32.984745 20.313065
13.774727 34.530876 20.395927
12.297318 34.025311 20.377111
13.776808 33.803322 20.373201
14.683453 33.816002 20.353884
15.285579 34.576618 20.299103
14.089178 34.410774 20.289785
14.478685 34.534763 20.399355
12.553204 34.512566 20.512983
14.084931 34.481674 20.270269
15.486994 34.55888 20.303797
14.541864 35.697643 20.404078
14.775887 35.201653 20.412617
14.851517 32.497662 20.318308
14.881219 35.264755 20.351868
15.256222 34.957054 20.250395
12.961527 33.097313 20.472048
15.395082 34.549759 20.306009
14.573406 35.199085 20.410074
15.48407 35.278091 20.337343
13.676896 33.06736 20.396139
15.286914 35.273663 20.333294
14.383611 35.246643 20.41925
12.761173 34.473053 20.322086
13.061956 35.077015 20.366428
15.385479 33.156246 20.474497
14.582404 35.276024 20.367146
14.388595 34.837708 20.27273
14.338695 33.281155 20.367516
12.873803 33.067371 20.417458
15.28204 34.512993 20.428736
15.47334 32.350334 20.309858
12.69378 33.16486 20.358047
12.478213 33.067673 20.418421
13.278097 33.055073 20.454311
14.766341 32.531872 20.290277
15.378091 35.092224 20.425314
13.580215 32.3568 20.433121
14.784535 35.267189 20.363386
15.23175 33.804398 20.469364
15.07237 33.121319 20.379488
14.681489 34.566051 20.317026
15.083345 35.397682 20.375507
14.178245 33.112465 20.404442
14.114002 35.680634 20.5065
14.990511 34.545338 20.312033
13.075497 33.068256 20.413097
15.070786 33.068218 20.35854
15.375818 33.201229 20.442194
12.47674 34.528297 20.422615
13.163313 33.008347 20.288713
13.774953 33.070072 20.395006
14.377112 33.114826 20.405622
13.178807 33.067871 20.411112
15.769684 35.482338 20.287344
14.27917 33.110336 20.405611
15.443945 33.871925 20.343056
14.274914 33.068016 20.392111
14.877671 33.120934 20.384354
15.166143 33.122078 20.374756
14.899482 35.42905 20.364275
13.099644 34.490017 20.314728
15.667492 32.371239 20.325218
13.189406 35.109123 20.34425
14.676016 33.840588 20.433002
14.083631 34.529266 20.401484
13.476636 33.070354 20.399921
15.178474 32.371105 20.399523
15.183991 35.182701 20.38574
15.07372 32.317863 20.377752
13.280308 34.532246 20.410749
15.572034 34.57156 20.28689
15.16292 35.25423 20.404943
14.185954 34.974297 20.317472
15.252493 32.326664 20.293493
14.305642 32.443974 20.35545
14.681704 34.516808 20.447598
14.878225 35.199673 20.398752
14.962717 34.931988 20.388874
14.375608 33.052452 20.437489
14.971869 33.117363 20.385715
14.944263 34.165974 20.20488
14.465373 34.554348 20.31435
14.284467 34.270199 20.355677
14.968535 35.060204 20.361092
14.008522 32.389698 20.357382
14.967713 32.309593 20.384396
12.68466 34.885231 20.367233
15.458753 35.17683 20.384834
13.313148 34.454842 20.322863
15.349813 33.411034 20.384466
13.962971 33.217861 20.427753
13.878488 32.354759 20.425549
13.927765 32.43679 20.471933
15.086437 35.691593 20.382587
15.419592 32.342587 20.310904
13.176151 33.055618 20.45657
13.292611 33.089321 20.461672
15.310438 34.96933 20.281548
12.87165 34.00053 20.376337
14.452381 35.388756 20.3139
14.433677 34.380943 20.332745
12.945955 34.849144 20.334959
14.470288 34.497284 20.26347
12.881114 33.482143 20.346605
12.38366 34.748722 20.432808
12.649573 33.195267 20.481024
14.677219 32.313908 20.390539
14.188919 34.040398 20.346876
15.176685 32.343681 20.33078
12.544185 33.393608 20.37534
14.801465 35.186234 20.14015
12.687559 33.109039 20.428616
13.078272 34.854877 20.339373
12.277403 33.042767 20.46895
14.697277 35.250938 20.242825
15.278258 35.248264 20.40259
15.182625 33.08102 20.362597
14.875141 32.313931 20.390934
15.286309 32.320824 20.378021
14.777624 33.797337 20.42412
13.172679 33.243568 20.468056
12.710259 33.255692 20.39241
14.774238 33.052685 20.435553
14.975305 33.839844 20.440655
14.586009 34.961441 20.480709
14.279891 35.065811 20.389595
15.265221 32.2672 20.461983
14.014249 34.518787 20.294678
12.289366 34.495838 20.484722
14.9937 33.75069 20.454187
14.880867 33.794601 20.410353
15.20126 33.189507 20.438625
14.980145 34.535343 20.379618
14.265676 34.477287 20.357683
15.068756 33.111645 20.442818
15.277719 33.120628 20.366428
14.969975 33.097176 20.441364
15.151295 33.078423 20.261967
13.158948 34.486679 20.324543
15.078033 33.78804 20.402884
14.971646 33.075455 20.365023
14.977674 35.023075 20.262388
14.467253 34.757629 20.34609
14.862955 34.519997 20.442516
15.48028 35.070511 20.286818
14.171703 34.475746 20.344995
15.173973 35.213367 20.328217
14.570433 35.333538 20.47961
12.578352 33.487583 20.365234
14.935975 34.719189 20.256168
14.758739 32.900139 20.368814
13.296655 33.261555 20.470476
13.675966 33.792797 20.41836
15.810637 34.455029 20.295866
12.084379 33.188232 20.505457
14.595651 33.193253 20.448198
15.199571 35.436085 20.389189
15.074782 33.838371 20.430548
15.268023 33.812138 20.382631
15.35998 32.380535 20.391691
12.465247 34.608086 20.406338
15.274613 33.10461 20.440012
15.365333 35.213337 20.395945
13.695233 33.673409 20.384577
14.875686 34.398769 20.386337
15.074353 34.518272 20.436266
12.773 33.041306 20.461288
13.558412 32.40509 20.392242
12.278204 34.926682 20.331738
12.613686 34.316696 20.388262
14.82917 35.905243 20.417877
15.395271 34.48909 20.313023
15.882187 35.338875 20.377243
15.307735 33.306519 20.385862
15.650227 35.201103 20.287346
15.179985 32.311859 20.381929
14.075869 34.470184 20.364624
12.883856 34.46236 20.40346
13.095455 34.553928 20.35747
12.687221 34.461212 20.400988
15.094336 34.665955 20.340031
12.98026 34.507317 20.495005
15.079517 34.748417 20.345285
14.933882 35.958618 20.432335
13.995742 32.501625 20.379908
14.864212 34.890766 20.285227
12.661334 34.848431 20.423937
15.274045 33.238693 20.384701
13.901464 34.292358 20.381992
14.06063 32.837399 20.314415
12.891157 34.643379 20.367689
14.990289 34.509007 20.435059
14.288589 34.977764 20.339331
15.130009 34.401409 20.267439
14.064276 33.481598 20.352968
14.976409 35.148361 20.270102
14.880463 34.08794 20.28392
12.817226 34.861134 20.39706
14.577773 33.795013 20.425411
13.678704 34.528973 20.40176
12.431968 34.76226 20.444748
15.186514 34.422077 20.253477
15.101349 34.850185 20.254091
12.693833 34.670364 20.531342
13.176446 34.469093 20.378944
14.209215 32.494495 20.38183
14.380454 34.566242 20.318762
14.957458 34.762104 20.363144
15.372323 35.540722 20.401171
13.387737 34.48616 20.461605
14.765431 34.128937 20.329229
15.04276 34.911354 20.365852
12.427547 33.561314 20.429476
15.474386 34.599033 20.392326
13.375392 33.853252 20.448996
13.915681 34.234913 20.384001
15.172699 34.672588 20.317337
13.916414 32.62439 20.498182
14.263694 35.394833 20.408306
14.078993 32.530937 20.36097
14.884989 34.694794 20.382915
14.883768 34.573021 20.28611
14.973994 35.426437 20.286789
12.47631 34.798882 20.344503
14.759095 34.555557 20.304388
12.860089 34.418247 20.449253
14.682356 33.868591 20.371782
15.565772 33.077976 20.351217
15.181141 33.837376 20.434614
15.562218 33.864796 20.328533
14.642609 34.805687 20.373783
13.478779 33.847927 20.450329
14.193982 35.064877 20.372541
14.379931 33.069172 20.382198
12.599356 33.556725 20.376089
14.910395 34.664864 20.27354
14.602645 35.552929 20.446135
14.168873 34.500145 20.458933
14.580612 34.511837 20.445473
14.09659 33.179264 20.338964
13.785768 33.091988 20.454977
14.797185 33.086292 20.278746
14.999757 34.612854 20.482409
14.975581 35.872478 20.418385
14.496166 33.318527 20.429308
14.941756 32.907654 20.35191
13.573453 33.794609 20.419582
14.387921 34.13303 20.375998
15.275997 33.869053 20.357677
12.245778 34.643539 20.373819
12.770391 34.131859 20.37603
13.304472 32.971352 20.41254
14.868073 34.59343 20.424562
14.747928 34.471794 20.295029
15.400415 35.123211 20.326675
13.661097 34.486465 20.455631
14.54985 34.437721 20.429415
14.644808 34.988167 20.28299
12.580144 34.464748 20.398344
12.895517 33.863316 20.452765
13.567307 33.705601 20.324497
12.382094 34.467751 20.401598
14.158313 34.334259 20.338596
15.11603 34.4245 20.253618
13.074303 34.375141 20.36511
13.257751 32.986641 20.375595
13.775163 33.712402 20.386915
16.005663 34.508324 20.243206
15.476293 34.491764 20.326014
14.27486 34.508972 20.453312
14.850256 35.278736 20.220127
14.844142 33.200512 20.322803
12.881566 34.505802 20.327848
13.973685 33.677059 20.394419
15.1577 34.474758 20.33905
14.932424 35.684162 20.391926
14.271093 32.338234 20.343195
15.328068 33.634472 20.432011
12.507149 34.360516 20.354839
14.589149 34.591385 20.501425
14.665914 34.471073 20.36463
13.159926 34.497017 20.469233
15.230181 33.073219 20.244022
13.977993 33.111889 20.415037
13.786493 32.578621 20.384233
15.86423 34.68758 20.400002
13.761283 32.951157 20.357016
13.591696 33.841808 20.437696
15.466284 33.784966 20.403297
15.260273 35.140003 20.23403
15.573279 34.464447 20.32169
14.27583 32.92844 20.347506
12.677955 32.967037 20.448227
15.676549 34.522503 20.248789
13.963175 32.613056 20.390083
13.417062 34.463474 20.454384
15.373544 34.617836 20.368605
14.062943 32.926735 20.398596
14.406231 33.651134 20.370886
15.358619 33.870068 20.343472
15.366629 33.981216 20.408655
15.179374 33.795677 20.402178
14.986711 35.457211 20.38817
14.636785 34.79995 20.312304
12.390412 33.080341 20.488047
15.106679 35.250069 20.238766
14.080482 34.349369 20.390728
14.382803 35.641346 20.392855
15.329834 34.466373 20.21603
14.445674 33.631832 20.380503
14.709403 35.379753 20.294706
15.27187 34.578831 20.468742
13.487503 34.495647 20.454599
12.786659 34.473366 20.392815
13.564845 34.63839 20.352243
14.673018 33.707283 20.361597
12.686137 34.810402 20.35556
12.58017 34.848576 20.415728
14.605414 34.321819 20.307743
14.541761 35.460812 20.449673
14.979454 35.006329 20.355455
13.97352 32.687984 20.406399
14.370488 32.74411 20.343315
14.446342 34.382328 20.38265
15.343504 34.993477 20.361666
14.275238 32.677742 20.356714
14.64852 33.442993 20.346004
13.469702 33.802689 20.384653
14.218873 34.688286 20.286312
13.679062 34.481434 20.371664
13.882326 34.481094 20.369938
13.767457 34.461666 20.354296
15.162767 35.062393 20.402014
12.675241 34.980091 20.375807
14.788037 33.202717 20.469908
14.564091 35.979301 20.488672
13.479183 33.095402 20.459908
12.382892 34.334915 20.382812
12.75887 34.794884 20.391123
14.98608 34.654327 20.494387
12.977258 34.47271 20.40457
13.732677 33.170116 20.363308
15.196842 35.355068 20.456978
15.114748 33.229851 20.338362
14.370049 35.886799 20.412081
14.773693 33.839931 20.43339
14.475706 35.240799 20.41647
14.361646 34.693596 20.501818
13.980207 33.805252 20.36545
14.58112 33.051846 20.436342
14.876849 34.459106 20.34832
14.582719 33.836407 20.436371
12.382465 33.289303 20.377306
15.2744 33.836384 20.441782
14.264369 34.513893 20.279554
15.310356 34.474285 20.259115
13.987967 33.425446 20.327534
13.278164 34.471165 20.386505
13.959764 34.456718 20.366438
12.876127 34.665501 20.584782
14.782469 34.517143 20.443192
15.062487 32.391109 20.308397
13.28548 34.507782 20.464613
14.66031 32.511299 20.345961
15.067559 35.190708 20.390938
14.583376 35.678188 20.474302
14.388486 32.509792 20.380762
14.515718 32.498989 20.377533
14.49316 33.553429 20.368547
14.573393 32.402573 20.344589
14.397139 32.415703 20.356627
13.581986 33.046726 20.446835
14.649022 33.815407 20.499914
15.290789 32.377464 20.331055
15.140146 33.182064 20.31949
15.166224 33.052486 20.423603
14.143307 34.339348 20.381449
13.894835 35.677853 20.514273
12.658669 34.505962 20.50267
14.530439 33.149258 20.318403
12.87713 34.499184 20.471125
14.884712 33.843342 20.432793
14.473064 35.336609 20.266266
13.279025 33.109013 20.422586
15.279253 34.609306 20.414093
13.974774 34.613041 20.451668
15.567205 34.599941 20.381794
15.090869 34.609409 20.413633
14.975373 33.044174 20.427155
12.768735 34.492313 20.48513
13.184168 33.108505 20.426708
13.447941 33.731773 20.388418
14.863504 35.15937 20.20698
12.477662 33.112423 20.435396
14.779417 32.806068 20.37534
15.525694 35.256752 20.257635
13.363224 33.07452 20.322674
14.067425 32.632988 20.338472
13.874016 33.093758 20.308832
13.745483 33.0741 20.280058
14.868982 33.077682 20.269152
14.219868 32.669388 20.36265
15.459618 33.747372 20.316471
15.035006 35.953316 20.460051
15.004118 34.940998 20.252472
14.769169 32.468624 20.27442
15.15722 34.904396 20.223194
13.880851 33.484505 20.352528
14.007788 33.484203 20.353186
12.749195 34.471622 20.588692
12.607836 34.806641 20.354548
13.758008 33.458874 20.345383
12.885693 34.470917 20.613489
14.140512 33.423328 20.333376
14.090555 33.40646 20.321444
14.471015 32.809715 20.379461
12.811779 34.698494 20.610048
14.109411 34.14278 20.275009
12.591637 34.777691 20.377378
15.767377 35.341236 20.395653
13.791166 33.478569 20.416245
12.60739 34.225353 20.380085
12.763972 32.948788 20.453945
13.48322 34.498951 20.30374
14.692287 35.460331 20.451834
13.606187 33.0928 20.326143
13.681844 33.066582 20.289824
15.147696 33.780926 20.470013
13.094582 33.101074 20.336222
14.893139 33.623337 20.389605
15.334773 33.729546 20.311516
14.842389 33.622231 20.373264
14.973289 35.239326 20.191648
14.785492 34.626244 20.344902
14.395899 35.240917 20.247215
15.361149 35.248898 20.403879
15.674103 35.248219 20.369598
15.276557 35.277687 20.266167
15.186178 34.558327 20.593334
15.192154 34.988773 20.259289
15.072463 33.828102 20.487642
14.883793 33.210377 20.387897
15.507214 35.298626 20.260546
15.195406 33.66853 20.461605
13.89198 33.171391 20.325344
15.615749 35.20269 20.406263
14.577966 32.468014 20.388363
14.433121 33.117226 20.244476
14.907263 34.545776 20.111193
15.55216 35.249763 20.399416
14.304522 33.11235 20.326189
12.915088 33.983746 20.378523
15.7026 34.642189 20.241589
15.849309 35.340683 20.291985
13.894433 33.277924 20.37409
15.457768 35.374317 20.380259
15.211743 33.38694 20.399452
15.585891 33.788303 20.4452
13.636926 32.516026 20.35301
15.112947 33.175068 20.437189
14.789076 33.152142 20.561842
14.585789 35.368931 20.375689
15.566463 34.563892 20.475548
15.022906 33.548512 20.385241
15.472229 33.836395 20.430042
15.50802 33.046291 20.496674
15.368826 34.576466 20.442497
13.582429 33.140503 20.334959
13.645504 33.209484 20.368767
15.765049 35.261105 20.415009
15.558084 33.847675 20.431187
15.517572 35.566929 20.323345
13.033514 32.932495 20.34638
14.485393 33.208855 20.368233
14.185322 34.613747 20.262259
12.879606 32.84359 20.358438
15.782816 35.334408 20.368532
12.968755 33.109383 20.342707
15.668555 34.694092 20.373869
14.868961 32.698318 20.393047
15.817337 34.566147 20.453041
15.688545 34.574169 20.448807
15.643418 34.582325 20.417887
15.93857 34.568371 20.43428
14.900798 34.529324 20.156502
15.563107 33.101002 20.445961
12.765103 33.173298 20.361164
13.283156 33.162018 20.348095
15.664421 34.509129 20.43874
15.76079 34.587429 20.400513
15.573183 34.542831 20.420012
14.668542 34.490696 20.17589
15.745379 34.566101 20.409714
15.845944 34.502495 20.441212
15.830873 34.563251 20.426395
13.363761 33.142014 20.325623
12.855196 33.190247 20.372803
15.18968 34.575207 20.449287
12.97271 33.173088 20.348648
14.429793 34.871391 20.367689
14.284879 33.373268 20.375435
14.128741 32.810474 20.367744
14.383469 35.737289 20.482491
14.37446 32.909569 20.39447
13.803717 32.862309 20.404938
14.156736 32.907597 20.373379
12.873107 33.481785 20.405315
14.473144 35.020206 20.348454
12.9641 32.810841 20.347633
14.407151 33.431465 20.378712
14.545232 32.821377 20.374668
14.550362 33.462227 20.364294
14.45602 33.434219 20.38357
14.587231 32.757454 20.37619
14.424932 32.782291 20.405659
14.455036 32.610477 20.397272
14.452168 33.372467 20.374691
14.435654 33.992111 20.384731
14.588237 32.606758 20.389423
15.472902 34.504646 20.432407
12.569351 32.983986 20.43033
14.675068 33.048756 20.439224
12.938319 33.267948 20.331257
14.605268 32.991375 20.313196
14.68989 34.152088 20.28779
12.144289 33.238365 20.461611
13.608487 33.299255 20.357843
13.887397 34.995995 20.37949
13.206803 33.154293 20.346163
14.074211 32.615322 20.384472
14.572411 33.382366 20.36022
13.001761 34.958138 20.37665
14.776204 33.096664 20.445793
14.527966 32.995396 20.202051
14.511287 32.782932 20.349335
13.540757 33.964367 20.403509
14.434839 32.620384 20.274004
12.683222 32.842052 20.378012
13.884517 32.825447 20.391785
12.649866 34.500938 20.346497
14.393338 34.859283 20.280594
13.989805 32.814926 20.385788
13.464196 33.748734 20.344395
13.674725 33.722672 20.336325
13.402267 34.474739 20.31119
14.965734 34.187145 20.374315
13.3783 33.227989 20.524004
13.116611 34.602821 20.51264
15.935431 35.345623 20.380423
13.88867 34.736671 20.374619
13.713101 32.63908 20.334545
13.78162 33.196419 20.449312
14.013837 33.945141 20.326092
14.193886 34.748306 20.352907
14.740753 34.705021 20.46092
13.438973 33.242554 20.51712
13.4478 33.284714 20.534769
13.727258 33.982124 20.397007
12.594892 33.21677 20.450495
13.448936 33.258095 20.373167
13.377045 33.960274 20.452412
14.753257 33.206276 20.418045
13.064684 33.19418 20.47908
14.674844 33.21629 20.458675
13.377887 33.094036 20.46665
12.272961 33.269844 20.535639
13.694388 33.254036 20.5135
13.784462 32.62347 20.358162
14.705195 33.088531 20.293602
13.874077 32.973766 20.332308
15.197348 32.380684 20.339869
13.798163 34.333027 20.350834
13.585885 34.34676 20.335104
14.68545 34.696384 20.295586
12.301161 33.871532 20.429041
13.254143 33.135052 20.283503
12.413393 34.944523 20.286089
13.836111 33.966061 20.297462
13.987451 35.730389 20.434393
13.735551 34.648533 20.291508
13.486111 34.617809 20.360069
13.445189 33.159576 20.333342
15.571611 32.384056 20.327227
14.19379 32.576565 20.359312
13.987275 32.656944 20.337702
15.376596 32.391075 20.336519
12.200291 32.969986 20.426847
12.204624 32.949928 20.435312
12.709657 34.67384 20.304468
13.694939 34.650547 20.368864
13.002638 34.779049 20.367504
14.385121 34.194763 20.38307
15.904884 34.554497 20.401379
13.150517 34.856419 20.353687
15.905201 34.440182 20.332905
14.934633 32.608074 20.397552
13.4672 33.050808 20.320997
15.743259 35.269039 20.199484
13.464216 33.200191 20.463425
14.874666 33.092369 20.444408
12.501403 33.08651 20.479694
12.185507 33.092663 20.504213
13.976986 33.091179 20.455618
14.379436 32.588524 20.406216
13.876253 34.204258 20.305717
13.675501 33.093472 20.459234
12.963575 34.636959 20.375595
