# .PCD v0.7 - Point Cloud Data file format
VERSION 0.7
FIELDS x y z
SIZE 4 4 4
TYPE F F F
COUNT 1 1 1
WIDTH 1484
HEIGHT 1
VIEWPOINT 0 0 0 1 0 0 0
POINTS 1484
DATA ascii
0.87233239 9.2301111 18.093714
3.3279152 9.1887865 17.807318
2.9354682 9.0199718 18.050428
3.3394496 9.1173487 17.892244
3.2541327 9.522563 17.808876
-1.0351721 9.518898 18.135565
3.5496948 9.1256065 17.933575
3.2907453 10.57955 17.904575
-0.67135608 9.3641605 18.126951
-0.94364285 9.4709587 18.079185
-0.83550572 9.8977575 18.186415
-0.92278767 9.5589094 18.057449
-1.1123205 9.2140093 18.026892
-0.80921996 9.2266912 18.126581
-1.1500591 9.2447977 18.025812
2.7148185 10.660348 17.930676
-0.77283788 9.481636 18.073635
-0.59376943 9.5159693 18.129318
-1.1983423 9.386363 18.113941
-0.67042577 9.1672535 18.042387
-0.85747111 9.1819715 18.057501
-0.28578782 9.239253 18.107023
-0.97473812 9.374897 18.086613
1.0408278 9.2538433 18.104755
0.048940599 9.0180883 18.137243
0.87111026 9.1846819 18.146706
1.8901532 9.0884619 18.090496
0.11640948 9.0399275 18.105907
0.50856829 9.3477888 18.066372
-0.3013109 9.0346422 18.102362
-0.99659061 9.3064146 18.162889
0.78904861 9.2292566 18.063299
4.1548076 8.6755934 17.347918
-1.120396 9.2660456 18.143452
2.7193155 11.151469 18.072443
2.7136316 10.405005 17.998875
4.3953438 8.6082706 17.93655
-0.76766348 9.0441256 18.060606
-0.88894916 9.054162 18.067051
2.6312132 10.555908 17.977818
2.3983424 8.8356066 17.785131
2.8658619 10.490993 18.002972
2.7121348 10.840362 18.008875
3.9610507 9.7183228 17.92732
2.416306 8.5131187 17.937788
2.8219652 10.846365 18.017902
2.7317638 8.5635424 17.925442
7.4320889 8.5973377 17.396809
3.5854599 11.078795 18.007351
2.5236623 10.384064 17.980253
3.6227007 10.702456 17.987497
2.6064324 10.440286 17.980595
5.6077938 8.7406149 17.776709
2.8248172 11.027955 18.054918
7.5156736 8.500392 17.657314
7.3767633 8.4928713 17.280783
-1.1368287 9.260479 18.091927
1.378282 8.9538698 17.843222
3.3124604 11.069632 18.013746
-1.0718629 9.0263815 18.059109
-1.2591033 9.0604973 18.127695
-1.1899292 9.0550404 18.070875
2.6219192 10.380945 17.905277
2.2623734 8.7786293 18.03026
1.0303788 8.7728844 18.06529
1.3317893 8.9348507 17.865982
2.5127933 8.8362093 17.956493
1.1120926 8.9423819 17.870644
1.5142119 8.9383612 17.875158
-0.76243055 9.8228874 18.136864
4.2101536 8.6286087 17.95726
4.2771697 8.6183357 17.92878
4.3719902 8.673645 17.994516
1.1103065 8.837779 17.98011
7.3279324 8.4803038 17.209082
6.3501301 8.6087589 17.590431
4.0980797 9.6138039 17.926323
3.2142067 11.071708 18.019041
-1.2934494 9.4630718 18.193678
-1.3374701 9.0514507 18.08231
2.0223575 8.7614098 18.035784
0.0012751222 9.15695 18.06395
2.8371513 11.289474 18.019209
3.9217837 8.5802965 17.874037
2.8092551 11.087646 18.008324
2.9314303 11.286952 18.02178
6.5558119 8.6345663 17.528767
3.0100145 10.65782 17.945124
3.1208436 9.3734684 17.818441
2.9495947 10.961406 17.992857
-0.94527674 8.9647417 18.040991
3.6756525 11.105473 18.049072
2.7118659 8.6823845 17.8046
3.3390868 8.7607946 17.85285
0.59972441 8.6370401 17.997595
7.4480491 8.5452747 17.70092
3.5207341 10.944636 18.0137
2.8132892 8.7823954 17.859598
2.9221478 10.673423 17.94906
2.9033232 11.153264 18.05164
2.9182751 11.377697 18.05887
2.9352713 10.404745 17.958561
2.9167969 10.529475 17.961716
3.0197072 10.399205 17.955946
3.2264564 8.6851168 17.794226
3.0315819 9.8738012 17.908207
2.2137091 8.9354134 18.017097
3.3059411 11.026724 18.043749
3.408457 11.061069 18.022068
3.2130647 10.405878 17.958652
3.2240462 10.499458 17.996687
3.2240467 11.031634 18.050468
3.215529 11.108317 18.083443
7.1653109 8.5884457 17.658541
7.7348995 8.5430288 17.577747
7.0900302 8.5802908 17.142365
0.92302787 8.8358335 17.984039
3.4965601 9.1528063 17.777563
3.2203329 10.35722 17.889065
7.1975355 8.5455742 17.212166
6.9962959 8.5147343 17.512314
5.6150918 8.82693 17.984764
3.1034336 10.698184 17.942318
3.5014787 10.309801 17.934439
3.5836964 10.55782 17.950552
3.2085705 11.286 18.029564
3.0269182 9.1655064 17.802647
2.2235155 9.0135803 17.893322
3.2244852 10.131863 17.886763
3.3067014 10.309397 17.940388
2.7345185 8.693347 17.972977
2.9757738 10.570194 18.047989
7.2299824 8.6373434 17.214638
6.7546053 8.6108255 17.721334
3.1104224 9.1623354 17.802814
3.3056064 10.368096 17.887289
3.4125168 8.6726227 17.423151
3.2979672 10.661576 17.934124
3.5745132 10.914079 18.006868
3.2163184 9.1684065 17.791351
3.6105723 8.5929861 17.824854
3.1239429 8.589406 17.834066
-0.96032703 9.2584391 18.081675
-1.0782539 9.1661663 18.096468
3.4809792 8.6268911 17.59416
2.4151654 8.5869112 17.851122
3.5133288 10.646476 17.926559
3.1343424 11.027134 18.049065
4.1373663 8.6245146 17.929449
3.016907 8.5519066 17.883085
2.8153911 8.5719604 17.89761
2.8949583 8.5493078 17.887165
3.0117288 8.5957556 17.8466
3.2179272 8.5662832 17.886873
3.7081783 8.7033415 17.9639
3.1303818 10.936146 18.02309
3.3193469 10.789217 18.021803
3.6124401 8.6269741 17.918941
2.8045363 9.1473074 17.993225
-0.47434187 9.1676264 18.081108
4.1785231 10.932384 18.086229
3.7053051 8.6269398 17.924543
3.0127683 8.7799292 17.849154
2.7294822 8.597374 17.946774
3.3222466 8.6087303 17.91889
3.6922402 8.6799822 17.42053
2.8136847 8.5892382 17.853815
2.7848611 8.6687489 17.961887
3.9212704 8.6342459 17.935408
4.1770363 11.114097 18.083776
3.8765068 11.168024 18.081844
3.8440514 11.408514 18.10697
3.8239648 8.6390638 17.931805
3.8217702 8.5830059 17.827261
3.5145574 8.6317415 17.92728
3.4131644 8.6122637 17.911552
4.1610975 11.060852 18.083744
3.8606827 11.119278 18.075188
3.8515885 11.176797 18.07609
4.104845 10.815323 18.051296
3.8709183 10.352645 17.991735
3.6014011 10.405387 17.969753
4.136198 11.162054 18.071051
2.9458771 8.6367035 17.928936
3.22015 10.794904 18.036486
3.501853 10.844839 17.988293
3.0150819 10.446211 17.927097
3.6365507 10.774126 18.025364
3.8207908 10.550105 18.013817
3.3089833 8.7846079 18.048393
3.2902091 10.25302 17.968927
0.69637334 8.9370079 17.902449
3.3817677 8.5492544 17.878618
4.0331411 9.4949408 17.91914
3.9928269 9.6458521 17.903831
3.212333 8.6261311 17.924131
3.4095337 10.84359 18.00197
3.5996411 11.163186 18.042097
3.6256709 8.6631203 17.497847
3.5047405 9.2538624 17.822487
3.9224737 9.6929436 17.874697
3.5815117 9.2648277 17.834574
2.7159233 8.5836344 17.849392
3.4219303 10.440647 17.923273
3.57829 10.052092 17.972424
3.3992 10.193842 17.946106
3.9874282 9.8996964 17.905231
2.6951482 8.4543953 17.65613
3.4171476 8.579443 17.829977
2.7006624 9.1569338 17.989223
4.0357494 10.79609 18.031454
3.412051 10.794392 18.029064
3.7093215 10.813074 18.025885
4.0244474 10.905498 18.029537
3.9228101 10.524714 17.994677
2.4182758 8.7931452 17.872936
3.3091595 10.410336 17.955158
3.6316981 8.7140656 17.950283
4.1178422 9.2221317 17.888178
3.1359606 8.6216717 17.919132
-0.47820067 9.5932531 18.120403
3.3165314 8.652874 17.869453
2.0119085 9.019453 17.904922
3.4116821 10.711992 18.006256
6.462923 8.6585989 17.233831
3.0293279 11.040866 18.075314
4.191494 8.9312754 17.995779
-0.58567798 9.8414526 18.110525
0.51727176 8.8815289 17.950903
3.2150211 10.942776 18.018927
0.91561031 8.8804111 17.948042
3.1204798 11.156957 18.036013
4.6006126 8.7496319 18.033272
3.0140448 11.161671 18.041594
3.2164233 11.163778 18.039061
1.7157576 8.8751688 17.924683
3.307858 11.159223 18.0375
3.8299439 11.328182 18.104937
0.64470041 8.9096022 17.85634
-0.51514459 8.9201975 17.915564
-0.28250515 8.9352789 17.902769
4.1701736 10.419855 18.027966
3.6243329 9.0759716 17.959009
0.31640509 8.8830843 17.953182
-0.58932686 9.5210228 18.00016
2.108547 8.8788404 17.913971
-0.083227098 9.2017384 18.000568
3.2190027 10.313384 17.93631
3.2171352 9.1628313 17.992102
2.4096107 9.0579424 17.95557
0.92218518 9.0615444 17.992613
7.5829115 8.5435982 17.150791
-0.17682332 8.9308023 17.906694
2.0098238 8.7449369 17.920502
-0.18412191 9.0078878 17.948517
3.3255863 10.985677 17.98477
3.1919978 8.7729702 17.851105
2.7214379 8.5076895 17.806324
1.3250859 8.623724 17.976915
0.78297698 8.6174431 18.006437
0.54397309 8.915905 18.021494
0.51675838 8.9738874 17.970139
1.558516 9.3131218 18.115946
3.3096974 11.215309 17.995039
3.1164281 10.48809 18.006861
-0.94979346 9.6529694 18.043169
3.4260452 8.5236216 17.706182
-0.69231641 8.8430672 18.044439
0.2072835 8.8385153 18.00419
7.7334032 8.5370741 17.505768
3.118907 10.84388 18.002584
6.8466864 8.5568571 17.732958
3.020463 9.1357088 17.995508
0.47633293 9.2200212 18.088572
3.8188086 9.1333504 17.91967
0.014820278 9.0665865 18.023836
3.5081413 8.7447748 17.929695
3.2252686 8.7955532 18.037502
-0.48475003 8.8885736 17.981722
-0.29218245 8.8874331 17.95966
3.6225424 8.5839653 17.889765
-0.66708779 9.93153 18.149527
3.9218173 11.451793 18.086067
1.3116808 8.8769112 17.93635
6.7979403 8.6096563 17.574133
4.0182304 8.6239357 17.925222
3.1197977 10.97149 17.979509
3.5078847 10.427052 17.958605
3.5955739 10.330548 17.925367
-0.28708911 9.0201263 17.948385
0.71687418 8.7474613 17.949471
7.1257248 8.5756207 17.627979
3.7248516 9.0679684 17.978346
0.11724848 8.8398914 18.007425
0.51669651 8.8225403 17.994074
7.0094428 8.5880079 17.516169
3.1256831 10.413379 17.96015
3.026499 11.292845 18.029572
2.8131459 8.4137278 17.662472
3.4146423 9.1069326 17.897804
-0.70577407 9.0615292 17.991825
6.4958739 8.6547823 17.115803
3.1202662 10.529945 17.956398
0.13457626 8.9416819 17.899179
4.0979877 11.117336 18.078943
3.6195922 10.098094 17.90274
7.6312594 8.5017233 17.341326
3.1182218 9.7816753 17.878416
7.1854725 8.5186605 17.386011
3.7996521 8.7287054 17.922342
3.1150579 9.8687735 17.896406
7.5955491 8.6333561 17.022652
3.5204382 10.460495 17.921597
7.5137453 8.5827351 16.994921
3.3132284 9.6540766 17.890085
3.1255245 10.453395 17.922974
3.0089781 10.08637 17.917419
6.7030516 8.5693989 17.16083
2.9256821 10.761134 17.977427
2.9407275 9.6796637 17.914772
0.91919678 8.7266951 18.061672
3.0706525 8.5619888 17.548576
-0.38293648 8.8800316 17.968603
0.85835391 8.8289337 18.09531
0.67568094 8.6736612 18.019585
0.52382213 8.7445173 18.051472
3.4042203 9.8709202 17.904173
-0.071023643 8.9252901 17.907261
4.350451 8.751689 18.044491
3.1128657 11.062943 18.017359
2.6120377 8.7206621 18.00016
3.4838631 8.5427942 17.727392
3.0326219 10.943382 18.022028
-0.69743776 8.8872204 18.001152
6.9536066 8.4958878 17.374113
4.013938 8.7573738 17.944221
3.4262264 8.7430239 17.920795
2.9192166 9.2046194 17.943846
7.1530275 8.6631289 17.109364
-0.47144723 9.5457621 17.975311
-0.19034439 9.1986656 18.009184
2.6208155 8.5470142 17.942106
3.3250272 8.5877934 17.820248
3.2128415 10.979039 17.991409
7.8809071 8.5281963 17.305548
-0.28976727 9.194334 18.013264
6.5362892 8.6287298 17.194435
7.1374769 8.5264349 17.412014
0.4099445 8.8365583 18.006477
2.8276074 10.930935 18.037369
3.2990737 8.5222492 17.710299
3.0270634 11.065798 18.019279
-0.18591619 9.1095266 17.967348
0.036346018 8.9307032 17.902012
2.9235075 9.2968807 17.883276
2.6935096 10.909467 18.044991
-0.56855786 8.9703646 18.005053
3.7244823 9.461544 17.865105
3.1103241 11.343208 18.096157
1.0687659 9.1982069 18.118986
3.1412783 10.275937 17.982058
3.0243766 11.53947 18.116657
0.51658726 9.0982494 17.96685
-0.57936263 9.3164968 18.010586
6.7301512 8.4951611 17.663969
6.738925 8.5438414 17.601622
3.0189197 10.000443 17.901361
2.9374275 10.951854 18.029263
1.6266637 8.7897778 18.043537
3.5924168 9.129427 17.932734
-0.26738274 9.1568842 18.07732
0.31825486 8.9785471 17.976162
0.33108893 8.8421631 18.003637
4.6433659 8.8030443 17.416403
-0.76883507 8.9468431 18.053032
3.4071658 10.087646 17.914814
2.2132955 8.7444944 17.916075
3.1120789 10.630526 17.980341
3.0128648 10.980628 17.985249
7.1270165 8.570199 17.52055
-0.60143065 8.9570074 17.92663
-0.088754952 8.8299503 18.017111
2.9366183 10.640844 17.979239
1.9152622 8.874711 17.922806
2.9143443 9.2748556 17.949873
2.6339474 10.72285 18.047215
3.0038085 8.6895151 17.991669
3.8878808 9.8694105 17.924526
3.2072818 9.7197294 17.924347
3.9831774 10.846294 18.014099
3.8738279 10.927007 18.029043
4.18293 10.363617 18.028681
7.9903889 8.5513096 17.206711
1.9031866 8.8298416 17.9662
3.7219493 8.7071428 17.928923
5.1109037 8.7720404 17.385551
-0.20468652 8.8420544 18.020222
3.217865 10.67169 17.943138
1.0239516 9.0148277 17.926439
-0.68518436 9.7056952 18.08939
0.025227249 9.0139122 17.938259
3.019551 10.13825 17.889061
7.0344048 8.5454998 17.359585
4.1274753 10.405105 17.989784
2.414206 8.8425608 17.96817
1.215548 8.8458128 17.98838
-0.18668061 8.9719696 17.997269
1.4020274 9.0247869 17.906874
0.51696938 9.0170488 17.935329
1.0144881 8.7872448 17.911943
3.1205118 8.703125 17.978319
3.1166501 9.316205 17.866364
3.3109307 10.942676 18.01782
4.045229 10.035734 17.967106
3.211401 9.5552969 17.859182
1.8238392 8.8407307 17.967127
2.719887 9.2905512 17.898655
-0.9171114 9.5656443 18.01762
2.9218493 8.7485046 17.918734
2.4185596 8.9314785 17.844025
6.8164907 8.5526514 17.282711
3.2124527 11.054003 18.176521
3.4992023 9.6791086 17.843914
-0.39040267 9.9530373 18.079767
2.7179472 8.6555395 17.87792
3.2074003 9.3653383 17.820364
0.22111833 8.874856 17.953951
3.2162249 9.1221189 17.898094
-0.37381673 8.9472952 18.073824
3.2979014 9.9398651 17.92737
3.0083582 8.6850414 17.79108
3.3056693 8.8282204 17.951504
3.0224459 10.535639 17.953449
2.8193538 8.5017433 17.808249
-0.88701642 8.9342794 18.078861
2.8121324 8.6615744 17.880592
3.9570885 9.9747953 17.909966
-0.49031568 9.9552193 18.070869
-0.48052812 9.80723 18.108801
1.4161927 9.2108908 17.972708
2.9251409 10.845106 17.998301
-1.0606333 9.2528639 17.950825
4.0361691 9.2430925 17.842743
3.1298616 9.6232166 17.884533
0.017120063 9.1968203 17.995964
1.2185168 9.1595764 18.042952
-0.39155519 9.199645 18.018505
0.56637645 8.750493 18.043055
3.1260583 11.256081 18.059702
7.204628 8.5842915 17.511677
1.3153262 8.9723682 17.954039
3.3204157 9.0414505 17.958616
0.70741421 8.556469 18.036728
-0.57201445 9.1414022 18.066065
-0.68532836 8.9565506 18.032812
-0.39922822 9.2861309 18.057121
2.5823975 8.4655094 17.862963
6.8654418 8.6015911 17.134228
2.4262338 8.7171993 17.993839
3.0307472 10.627748 17.981335
6.6153054 8.5348244 17.710224
-0.47940373 9.2746544 18.067442
2.0144372 8.8253775 17.969769
3.8514755 10.964927 17.985167
0.21841377 8.9728794 17.980352
3.0112684 9.2783232 17.946411
4.1701307 8.7340956 18.060652
7.5370202 8.5275249 17.190464
3.8049138 9.1397018 17.987326
6.788168 8.5699139 17.10713
3.2045922 8.7445736 17.920361
3.1153419 9.1893015 17.937185
1.5163097 8.7485676 17.931162
4.0195942 10.148931 17.95574
3.7736812 10.105845 17.917747
3.5202677 8.8351088 17.965406
1.3175669 9.1566038 18.039473
3.0554264 9.7068138 17.920439
3.6146069 9.3155069 17.973259
1.6549022 8.6796856 17.997522
3.5168836 10.613037 17.978914
3.010968 8.5243769 17.719193
3.5150933 9.1479912 17.993885
3.4124141 9.1462364 17.995558
3.598489 9.3830271 17.807919
2.9177873 8.6343374 17.53657
2.7875264 10.664156 17.976742
3.2570198 8.6050901 17.610773
1.4241978 8.6470852 17.984476
5.5739241 8.7437992 17.430229
3.0372412 9.9529419 17.958506
-0.63744044 9.8072863 18.069942
3.9387617 9.6076422 17.909502
3.4153996 8.8340664 17.967457
2.5100698 8.9657688 17.938112
1.4128866 8.8273916 17.970758
0.48114532 9.3219614 18.167341
2.8880107 11.038266 18.064476
1.7241766 9.0295858 17.903465
3.9287033 9.1367903 17.966206
4.1438856 8.7616215 18.13772
3.9044414 8.7143822 17.973074
-0.8545047 9.6301823 18.144627
3.3965878 9.7145557 17.921938
3.1199033 9.9099779 17.879217
2.906646 9.2444868 17.842768
3.0208914 11.343771 18.09725
2.8437154 10.341942 17.891163
6.8095436 8.6175699 17.133673
7.7559462 8.5835276 17.39394
6.5695448 8.6090326 17.462751
-0.6871314 9.0634604 18.053991
7.004632 8.5113297 17.230621
7.3302979 8.551549 17.685804
-1.1895674 9.154994 18.099022
1.7120399 9.2058449 17.966061
0.0075039268 8.9257202 18.054018
4.0725956 10.487727 18.002567
2.7252154 9.0031548 17.866755
3.7062464 9.6395969 17.914875
0.013128042 9.269949 18.030991
3.217849 10.529716 17.958519
3.1154196 10.097817 17.915144
3.4150708 8.645237 17.876936
2.331928 8.7547913 18.019306
3.7136073 10.088075 17.942533
0.19169617 8.8947935 18.053719
3.7438669 10.177894 17.933622
3.3031068 9.2965412 17.967819
-0.066604972 8.9382648 18.070734
7.7142687 8.4887486 17.3599
6.4871054 8.6095724 17.393999
-0.28574502 8.9701071 17.99296
3.7860639 10.638725 18.026655
2.8109398 9.2058258 17.937927
-0.16551203 9.2750139 18.058146
0.81661898 8.8771 17.943304
2.6776004 10.50824 17.793228
3.4057937 8.5639467 17.605328
3.1511905 9.9318314 17.944511
3.0072947 8.7472563 17.921408
7.2165241 8.6316824 17.28618
2.8180871 9.2732973 17.951181
3.5143058 10.525471 17.943451
1.5160267 9.2088442 17.970009
2.9014173 11.580415 18.11982
-1.0842531 8.9747658 18.050882
1.2147477 8.7492065 17.938307
0.11599874 9.2688665 18.021399
3.4130361 10.418264 17.952757
2.6143918 8.6928453 17.808857
4.5022802 8.7549229 18.117119
2.1129811 8.7881413 17.887434
-0.0029012561 8.8483963 18.02408
2.8116646 8.8401756 17.941942
3.0189364 8.862175 17.905678
0.13251013 8.925559 18.059885
-0.77546895 8.9517097 18.072361
3.0016522 8.6283293 17.515934
1.6169149 8.7494736 17.9263
-0.58315122 9.2750998 18.070139
1.3122339 8.6954737 18.036469
3.5180218 8.5984707 17.82963
3.1009419 8.7469807 17.923168
0.9978981 8.6869974 18.01963
7.724009 8.5396729 17.075764
6.8141012 8.5377054 17.390768
3.0126402 9.1997013 17.936609
1.8132943 9.2036533 17.963989
3.216748 9.9086275 17.879715
3.5308204 9.2767258 17.980331
-0.37568414 9.6799746 18.138868
7.6047277 8.5529366 17.083317
6.6342964 8.5389767 17.435621
3.6881478 10.911854 18.029274
1.9046254 8.7391338 18.026482
3.3989429 10.760867 17.975214
3.4055533 9.3633051 17.818579
2.2119064 8.8388767 17.948637
-0.59060097 9.4316273 18.017149
1.4744612 8.6570206 17.98102
3.3127749 9.5657644 17.864079
2.1143703 8.9761486 17.93589
-0.48547256 8.9267817 18.084402
1.4159055 8.8775311 17.934935
7.9111223 8.5941706 17.052959
-0.28871131 8.8415508 18.028469
3.1223588 9.5950861 17.826839
5.6403384 8.8238888 17.874706
1.6168654 9.2040482 17.967058
3.7861574 9.3352451 17.983269
3.2221577 8.6903353 17.559706
3.1158521 9.8167305 17.842297
3.019767 9.3121176 17.877855
3.6017296 9.460639 17.849659
2.9274762 10.077221 17.919651
1.8110331 8.9740658 17.94219
-0.58687651 9.2383432 18.14291
3.2217574 11.252408 18.063662
3.4973269 10.106448 17.911528
2.7182546 8.840766 17.950201
7.853148 8.5603008 17.082705
3.4134412 9.2746029 17.964233
2.6927047 10.108895 17.913532
3.1242726 9.467782 17.834703
3.6899278 10.620643 18.007803
2.7478104 11.013871 18.062605
2.9339125 11.062951 18.018139
-0.17546046 8.917345 18.053499
2.7130475 9.2019453 17.945986
1.0115807 8.7500372 17.945381
2.9188774 10.310014 17.934946
2.2086408 8.8804131 17.915487
6.9744596 8.4993277 17.67997
-0.36966813 8.9123421 17.912643
3.1087682 8.6813564 17.787313
2.1163378 8.7449818 17.916477
7.8217983 8.5809317 17.334974
1.1141243 8.7511568 17.941481
3.8453302 9.8987579 17.936872
3.2161624 10.759591 17.979143
-0.67358017 9.3343258 17.968567
3.0180364 9.2445774 17.842119
3.5002229 9.6503439 17.895243
7.3290424 8.6112614 17.117424
-0.28455257 9.6681967 18.037851
0.51214451 9.0626688 17.998779
2.5111794 8.5863352 17.850452
-0.48960936 9.2225599 17.953415
-0.074432552 8.9722948 17.994055
0.12484658 9.1476707 18.056784
6.6680331 8.572443 17.285902
-0.48223376 9.0170832 17.960886
0.82826573 8.8341694 17.983175
3.9513564 10.071233 17.932943
7.5208998 8.5234184 17.351276
-0.32990336 8.9404478 18.059671
-0.48493433 8.9771023 17.999882
-0.57906449 8.9067831 17.958866
3.8705139 11.317976 18.092163
6.6058722 8.552948 17.635693
1.2160872 8.8781538 17.938316
3.6092649 9.8639383 17.907747
7.7146468 8.495594 17.22212
3.3110473 9.3285666 17.854239
2.4082243 9.0180426 17.880205
0.51654911 8.7560291 17.959263
3.132654 9.1077576 17.907137
-0.37076747 8.8289824 18.028688
0.71830714 8.8821802 17.943689
0.33000752 9.2302656 18.108936
3.5255942 10.799346 18.026535
0.41416562 8.8834848 17.956867
3.2210002 10.62426 17.976732
1.9171798 8.791255 17.895241
3.1138973 9.2856712 17.944937
-0.078174174 9.016243 17.929581
3.22225 10.09676 17.91852
3.1306076 10.130747 17.887505
3.1176724 8.51898 17.711418
-0.90169811 8.9636145 18.032841
3.2072265 11.205941 18.122227
3.4956794 8.658742 17.508896
3.2214475 9.7782297 17.879013
2.5123889 9.1089487 17.924576
2.1206143 9.0156031 17.895161
4.017065 9.3957176 17.88707
7.8782864 8.6118259 17.119007
7.2645102 8.5877657 17.400692
4.0069642 8.7744694 17.991966
2.9164827 8.8434258 17.949747
3.7963538 9.3186769 17.868637
3.5149462 10.723566 18.0172
3.2196884 9.8681011 17.900532
0.22618723 8.7831211 17.926834
3.2184565 9.3312321 17.861305
1.2067113 9.0235958 17.927349
2.934068 10.722531 18.014267
-0.17112261 9.1610451 18.091576
3.4175799 8.6524267 17.52173
7.2638969 8.6434202 17.10598
-0.47921145 9.0545712 18.035467
4.4528937 8.7760677 17.980474
3.0370133 9.5556393 17.864454
3.3076072 10.096104 17.918997
3.3142667 8.6376801 17.520008
3.771728 10.224581 17.915295
3.6184449 9.9305563 17.913328
3.7272089 9.7150211 17.919544
1.9456823 8.8221884 18.121782
2.6990764 8.7803068 17.860302
3.4054084 10.142595 17.882494
3.6170518 9.9896555 17.902447
3.2175155 10.177915 17.943434
3.31429 10.6266 17.979059
3.0337822 10.178443 17.950777
3.499331 9.9931345 17.884228
1.5143156 8.869339 17.929983
-1.09111 9.2612047 18.097385
3.210592 8.893136 17.912727
3.1162577 10.169629 17.940367
1.0173454 8.9766731 17.963137
-0.46676493 9.5199499 18.058319
3.41834 8.7067556 17.965572
2.8923261 10.160284 17.947367
3.3070717 9.998251 17.901468
1.1878896 8.9354639 17.863419
1.1164066 8.9755516 17.959211
0.91554761 9.1009235 17.956854
2.8117735 8.7482882 17.91976
-0.070017993 9.2728825 18.02916
1.0157784 8.8715591 17.94381
1.2152584 9.1036606 17.953775
2.9522429 9.9187813 17.952168
2.0086169 9.0621395 17.963625
0.61111468 8.9745884 17.966459
0.71500397 8.974165 17.965792
1.5198069 8.7923527 17.910089
1.7152805 9.0949821 17.945662
2.011323 8.9759579 17.936565
2.2078543 8.9836664 17.937292
0.61409706 8.8810158 17.949142
1.1185887 8.8798504 17.941509
1.9155768 8.9790525 17.938961
3.5276136 10.125859 17.873386
-0.39834452 9.2354984 17.945383
1.8161536 8.8740807 17.924999
2.0095708 8.8741989 17.922304
0.92190629 8.9765234 17.963041
0.2133745 8.7448177 17.969152
2.1116829 8.6683474 17.890324
2.3204408 8.7952099 17.86916
-0.7946279 9.5284805 17.986515
0.41199258 8.9769993 17.973585
2.0110195 8.6707945 17.893452
0.9133473 8.78057 17.916653
1.308718 8.8322468 17.980364
7.1701226 8.4609041 17.692892
0.22052503 9.1044579 17.968119
0.31399024 8.6671686 17.935465
0.015951514 8.9787302 17.988232
2.2105064 8.6667242 17.888523
1.1134412 9.0998106 17.956547
1.9161741 8.6692476 17.895252
1.5201294 8.846343 17.982124
2.1085811 9.0578604 17.963213
0.82743949 9.1550379 18.041252
-0.50268686 9.4945126 18.151548
3.2105839 8.6596251 17.506956
-0.65538347 9.5055513 18.065315
1.6142261 8.9743233 17.946714
1.5152578 9.0996571 17.950451
3.0080459 11.210988 18.185951
3.6704357 10.229544 17.914165
2.3175836 8.666666 17.885788
1.8157644 8.6700068 17.896355
1.8164121 8.7832708 17.899614
1.6164114 9.1015987 17.946531
1.5152546 8.9779749 17.947609
7.0877285 8.6077757 17.289215
0.80975705 9.0236139 17.927748
0.61735564 9.1076164 17.958937
0.71076453 8.7857609 17.922222
1.3138119 9.1054764 17.954197
0.60925531 9.0619707 18.002066
1.6202624 9.0644569 17.976141
1.718536 8.978219 17.942892
0.21508765 9.0553598 18.012751
-0.49208558 8.8333197 18.03405
-0.18300325 8.7944946 17.930788
2.6996036 10.714533 18.039095
1.0299207 8.8253698 17.980402
0.91728777 9.0241976 17.927275
0.32250336 9.0116129 17.933565
0.71574748 9.10324 17.963541
0.11453986 8.9708586 17.981367
2.2109008 8.7827883 17.882843
2.519166 8.7843895 17.874166
2.7098427 9.2708378 17.956203
-0.29066694 9.5049381 18.05434
-0.3776983 9.3684263 18.09219
-0.36779594 8.9685211 18.012033
2.4152575 8.9746447 17.932055
2.5143843 9.06635 17.95752
-0.3018676 9.6177845 18.097202
2.7141609 8.8747053 17.913774
7.4968252 8.5231867 17.459368
3.8965497 9.3262758 17.891848
2.4144943 8.665659 17.883162
7.027204 8.588069 17.448843
2.4148633 8.8818045 17.910181
2.9191821 8.8725605 17.912758
1.8094825 9.062459 17.970327
3.0120263 9.0732517 17.956406
2.5103145 8.6620979 17.88349
6.8547297 8.4608107 17.660578
1.8137957 9.101922 17.940407
-0.68320704 9.5589132 18.002523
2.6114721 8.6581812 17.879932
0.42858422 9.0168591 17.932503
3.108547 8.8451557 17.952068
2.3217006 8.9686089 17.939331
2.6153004 9.0631866 17.963255
3.1122162 9.0625162 17.964737
3.1295354 9.1486092 17.990753
0.71006405 9.0210752 17.934713
-0.68700361 9.9544888 18.122913
3.1153948 8.653574 17.881119
2.6198909 8.8787956 17.904728
3.4119174 9.3392029 17.863243
3.3084793 10.481997 17.979877
0.014783084 9.104804 17.967457
2.7139449 8.9692125 17.936428
3.210845 8.828023 17.943544
2.6180277 8.9699745 17.941877
3.6137443 9.4303455 17.884964
3.5011847 9.4146423 17.88426
3.8957131 11.028335 18.074194
2.8161077 8.8819189 17.915224
3.7211123 9.4284544 17.878664
3.6201744 9.3532734 17.860409
3.7099438 9.2889223 17.968065
0.61446834 9.0222082 17.934427
3.220978 9.0529499 17.966234
3.6714203 9.3448763 17.967064
3.6089015 9.7916164 17.888994
3.416162 9.0216255 18.047779
0.204768 8.9360752 17.901222
2.7104278 9.060113 17.960297
3.6494737 9.494379 17.912548
3.919127 9.2243176 18.004345
3.5399156 9.720891 17.935595
3.5010006 9.8702993 17.909193
0.29149362 8.9237604 17.908136
3.3052218 9.367383 17.817265
1.9168766 9.018446 17.90461
3.8039186 9.3965139 17.871675
3.7238543 9.3347292 17.882317
3.4164081 9.1922789 17.931263
3.8468056 9.2566719 17.98057
3.5287807 9.9488287 17.925573
3.2181501 9.180438 17.938334
3.309478 9.7791033 17.880857
3.5072849 9.7818995 17.87664
-1.3985519 9.1107616 18.146751
6.7313218 8.5989513 17.070118
2.8103085 8.9642792 17.930939
3.3024459 9.6809301 17.860117
3.116781 8.875926 17.919765
3.3114433 8.7377968 17.928591
3.0069714 8.6603746 17.881306
3.3143189 9.1460352 17.981398
-0.084101617 8.793354 17.919838
-0.078682899 9.0952997 17.967939
1.9174838 9.0564814 17.963737
3.5397558 10.722575 17.974091
6.7323866 8.5156412 17.542881
3.2231987 8.7010889 17.989189
2.7176702 9.1058493 17.922508
1.1160398 9.0157957 17.922672
3.0198693 10.500937 17.997753
2.6197891 9.1529207 17.996172
3.4165504 10.004858 17.897339
2.6189971 8.8390207 17.951267
1.8303343 9.0184937 17.898802
3.4952812 8.5651159 17.88839
2.9092739 8.6584816 17.876507
3.0177319 8.8378258 17.947973
2.7294359 10.716547 17.967596
3.308629 8.8815336 17.926672
0.016595185 8.7882681 17.927568
3.1175926 9.5592775 17.858856
3.1199703 10.306931 17.934626
3.4114821 9.056839 17.963987
6.8713188 8.5048485 17.551237
1.3208137 9.0651588 17.97879
1.9150079 9.2058058 17.964125
3.2342854 10.893228 17.954453
0.11604118 9.1058207 17.975317
-0.49632943 8.7820711 17.944469
-0.68977034 9.5967474 18.107864
2.8168738 9.3042288 17.888256
3.6136012 8.7471819 17.932608
-0.38671589 8.7929144 17.934254
-0.46945488 9.3614521 18.097094
-0.57204926 8.8157787 17.945084
2.1027353 8.838623 17.949375
-0.28783989 9.1079416 17.973589
2.9320264 10.212037 17.922485
3.5044439 10.216455 17.90535
1.5117627 9.0063639 17.908266
-0.80118918 9.9239931 18.185143
1.4211744 9.057168 17.978445
3.3102207 10.845615 17.99733
0.40939209 9.101738 17.964254
1.7083465 9.0625563 17.977715
3.2696812 8.5903978 17.564428
-0.57348335 9.5117216 18.064293
3.1224749 10.222331 17.91711
2.3295314 8.8197622 18.104408
-0.70678592 9.4666262 18.137899
1.5360229 8.6684399 18.010132
5.6257992 8.7350054 17.874018
2.9207842 8.7990103 18.047615
-0.27852595 9.3727512 18.107069
-0.67715573 9.2744045 18.080442
0.82226962 9.0662336 17.995285
-0.47920692 9.1999083 18.013687
-0.28245425 9.2620115 18.040653
3.0240068 10.214789 17.917459
-0.56736135 9.1096163 17.973555
2.6411991 10.59381 18.022259
-0.84065974 9.2905788 18.045731
3.2259927 10.451098 17.926508
-0.30213833 9.3257523 17.968483
1.7176871 8.8366594 17.963764
-0.59157681 9.1873274 18.033308
-0.15961432 9.3188047 17.968061
-0.79216361 9.2729836 18.062952
6.9560065 8.6121693 17.716751
0.96991324 8.8936472 18.152809
0.7164439 8.8458977 17.987638
-0.37887871 9.3343363 17.995857
7.641778 8.5108671 17.674997
-0.74750662 8.8531532 18.050844
-0.19178319 9.1727152 17.935495
2.5061343 10.497457 18.01321
-0.55171084 9.7125111 18.091604
3.4056058 10.62181 17.979271
4.104331 9.1554642 17.996445
3.613142 9.1916285 17.925556
0.51638913 8.7911425 17.923317
-0.6890415 9.6726255 18.145603
2.8198397 9.4722242 17.840858
3.724272 9.178278 17.937998
3.9733331 9.1688681 17.977364
2.6160772 8.7766609 17.862846
3.4858439 9.5256672 17.924103
-0.57994342 9.0000935 17.955938
-0.074985921 9.3064928 17.981676
-0.3893609 9.109724 17.978542
-0.36329722 9.4909067 18.048355
2.6128185 9.1106367 17.914515
0.10886061 9.0627785 18.009228
2.7125316 10.611279 18.016775
-0.78059793 9.9677973 18.10998
0.80838567 9.1072741 17.960535
1.6074952 8.8289595 17.973989
-0.78827095 9.3359375 18.117811
-0.78328276 9.701767 18.097288
-0.8755089 9.9602938 18.251656
3.506115 10.171368 17.93516
0.50619137 8.9306746 17.878624
1.0159894 9.1024837 17.958694
0.81292051 8.924468 17.869448
-1.0142109 9.599144 18.15453
3.8841994 11.243765 18.086924
-0.75661874 9.2143965 18.030834
3.5013533 9.3361025 17.869013
-0.6432575 9.1900578 18.175865
2.923748 11.25095 18.084776
3.6012735 10.211841 17.926397
3.0026462 9.1010351 17.913445
3.7587595 8.5246944 17.748022
3.6083281 9.6856356 17.866096
-0.64789343 9.4800291 17.995785
3.7124467 10.429484 17.957464
0.62066722 8.8360796 18.00425
0.39920819 8.9242392 18.059418
3.5840356 10.771741 17.9666
3.4766376 10.482999 17.982916
0.31895888 9.1004305 17.967302
0.11183053 9.0091906 17.945066
2.814431 8.6996632 17.971634
1.615948 9.0223703 17.920805
3.1171546 9.9987555 17.896582
-1.206709 8.9197378 18.063303
3.3314681 8.6844196 17.989145
2.6175299 9.025198 17.893412
2.7139626 8.747735 17.918974
3.2271233 9.9927425 17.898558
3.6679091 9.9558382 17.929785
0.21657288 9.0196781 17.933153
3.7097192 9.1484613 17.998953
-0.36329269 9.0071726 17.944807
-0.50038433 9.3332586 17.973238
1.9195337 8.7482119 17.921816
7.312911 8.6084223 17.250498
3.4352458 9.9504261 17.927185
3.8313131 9.9590998 17.924509
-0.25725663 9.1680079 17.932829
3.2138097 8.6552925 17.88969
3.5082486 9.0628796 17.959211
3.6038141 10.844257 17.996464
3.886797 10.854136 17.997429
3.5979133 11.032563 18.061859
3.913955 11.133508 18.0762
2.9101341 8.5774307 17.840929
3.7961164 10.411961 17.983204
3.8016269 10.504484 18.008907
4.1019793 10.606233 18.031834
4.0267649 11.02446 18.062267
3.5208113 11.160164 18.0406
3.6988137 10.30128 17.967457
3.9829686 10.36657 17.982256
3.4240508 10.317451 17.928259
4.0104589 10.492972 18.004934
3.4080539 10.495876 17.982012
4.0147066 10.577401 18.005224
4.0124245 10.644217 18.014921
2.3236747 8.8403072 17.954935
3.3125088 9.1920824 17.935305
3.9193187 9.4476757 17.878
3.9428129 9.4861536 17.874287
3.217294 8.5702801 17.845753
3.8197472 10.826757 17.98558
3.4116819 10.938511 18.016739
3.8655136 11.020358 17.965141
2.0148463 8.7890625 17.895538
3.5034773 9.5511303 17.867428
3.4065335 9.5587873 17.862635
2.9143906 8.7835102 17.856258
3.7203465 9.7464323 17.869635
3.5031748 11.067521 18.014793
1.415684 8.9777699 17.952316
1.3155502 9.0193424 17.918623
0.81112266 8.9730558 17.965649
1.2148225 8.9740839 17.955925
-0.68356895 9.1340771 18.067295
2.6162951 8.5972404 17.857136
3.9466093 10.72905 18.017548
1.9119002 8.9132757 17.844585
2.1096745 8.9373837 17.849024
0.41147161 9.0639696 18.001963
0.30003068 9.0609112 18.012026
2.3139629 8.8793535 17.909426
1.3968834 8.5802069 18.048794
7.4145913 8.5159883 17.699064
0.95799136 9.153944 18.16213
-0.76557517 9.4438858 18.067322
-0.9871763 9.0290222 18.088167
6.8752179 8.5803976 17.098761
7.2024603 8.5301905 17.302927
6.8972006 8.6021214 17.3242
3.5035465 8.6489563 17.62808
2.9935713 8.6258125 17.921648
3.1228571 10.804529 18.04031
7.326767 8.5562677 17.510191
2.7373798 11.309131 18.112125
-0.084983528 9.0649185 18.032215
2.813067 9.0129194 17.878092
2.5232477 9.0072765 17.876585
3.1515188 9.2252493 18.122837
2.8326306 10.560645 17.938751
-0.80175066 9.6958303 18.151112
1.4166656 9.1313715 18.028561
2.914583 8.6910553 17.570368
2.513978 8.6382895 17.949446
2.6042717 8.6068974 17.965776
-0.48660541 9.091074 17.98995
1.3115726 8.7491674 17.934769
2.7845643 11.365673 18.081705
3.1049662 9.248704 18.048275
0.96719408 8.8826122 17.849127
1.3519772 9.1485605 17.866543
-0.37618995 9.1430817 17.913294
3.7055366 10.51426 17.991987
2.5042672 9.1547642 18.005085
3.0720437 10.582609 18.038338
2.9232285 10.554695 18.027662
2.7714341 10.772936 18.058077
2.7631221 11.36955 18.101324
0.049182355 8.8528366 17.87328
1.7181014 8.9196587 17.861822
2.1938148 8.6330395 17.958199
1.3827039 9.132494 17.869099
3.0229144 10.823082 18.040359
2.9449115 11.348221 18.09444
2.7375836 10.593356 17.93413
7.3174725 8.6019888 17.185917
-0.30416477 9.2433815 17.957048
1.5320902 8.9437876 18.035271
1.3236067 9.2350655 18.061247
1.3960028 9.2261362 18.072163
1.6999054 9.2464991 18.062037
1.0180838 8.9020529 18.042038
2.1609497 9.0175886 18.029236
1.7866076 9.2479181 18.056499
2.9269466 9.215436 18.038681
3.004971 9.2453995 18.029099
3.3070188 9.2371626 18.039091
1.9688002 9.0625935 18.057039
2.7865493 11.296926 18.188259
1.6163483 9.2253151 18.061447
2.3146319 9.1533947 18.025129
3.1131103 8.6951294 17.553402
3.1953506 9.2375641 17.827276
1.0258319 9.1441545 18.052698
1.2126656 9.0586138 17.986435
3.2197423 9.2845926 17.957743
2.8110411 9.069293 17.955772
1.9135176 9.1459398 17.996075
0.91474509 9.1736994 18.049856
0.61918586 9.1562052 18.057537
0.6130529 9.0635853 18.123411
0.7124933 9.0622044 17.995058
-0.96786475 9.8874149 18.273867
4.1559281 9.0634212 17.995537
2.6996007 10.615969 17.749449
7.0885344 8.5412302 17.667236
0.28034949 8.988452 18.094828
0.30252382 9.1825066 18.062397
3.2164123 10.847528 17.997892
3.9128861 8.658206 17.416565
2.3146057 8.7397337 17.917984
3.4034224 11.251618 18.056808
3.6794367 11.026415 18.033827
-0.29177678 9.0660429 18.021645
2.510756 8.7417994 17.912149
3.7767758 11.094302 18.013416
0.92702639 8.9404945 17.886629
2.3132114 8.9025946 18.007414
3.3058929 11.257122 18.056023
3.1034093 8.7705383 17.858402
3.4443922 8.7760925 18.003956
3.7113051 8.6503201 17.870802
3.7891214 8.7856464 17.999935
3.2120039 9.9551382 17.934977
3.8739586 8.8837252 18.052137
3.8882103 8.7887583 18.021568
3.4093804 9.2110729 18.048893
3.5064635 8.7020102 17.985319
4.2001925 8.7805338 18.018341
3.6044853 8.7378674 17.444183
4.2274294 8.7103033 17.983791
3.2241259 10.713033 18.001995
3.5090525 8.7348442 17.46619
3.4121675 8.659502 17.649635
2.4165483 8.7401628 17.918348
1.4187174 8.7461271 17.930531
3.3238609 8.6934814 17.562201
2.6136177 8.7523165 17.917908
4.1788635 8.5823412 17.804548
3.9183614 8.9395485 17.962702
3.9040589 8.8453627 17.947231
4.008872 8.5918808 17.811279
3.7119069 8.6071177 17.799019
-0.37980592 9.1432142 18.079628
4.051012 10.962758 18.096111
3.8524392 11.07978 18.066944
3.9013398 8.7242603 17.906006
3.9130828 8.5927019 17.811047
4.1196856 8.6234713 17.858133
1.3137038 8.7853651 17.90723
-0.79423022 8.8897352 18.021461
3.7927551 8.6859245 17.233923
3.6330841 8.6832352 17.409212
2.9178736 9.0742931 17.959892
3.0137179 11.250611 18.064482
3.029695 8.9869337 18.049183
-0.88403034 9.5707188 18.199409
1.6134982 8.9264364 17.874125
7.7833462 8.5820608 17.471157
-0.39757299 9.0713711 18.039202
2.4721501 8.958127 17.854856
2.3166671 8.9110012 17.828867
2.9115565 9.5729303 17.854784
3.6116333 8.6753073 17.651367
3.6485336 9.1953039 18.058109
3.8485694 9.2547207 17.848503
-0.96777177 9.1313009 18.086592
2.2142835 8.9280472 17.854521
2.7280247 11.257382 18.075087
2.0029888 8.9309292 17.836185
-0.21723205 9.0365906 18.105978
0.41112852 9.2615471 18.104342
0.66747254 9.2748919 18.102423
3.4188185 9.2508879 17.830193
-0.5888921 9.0816412 18.041546
0.20441377 9.15483 18.072929
1.9197285 8.9132576 18.027941
3.107693 10.749584 17.977333
-0.38180184 9.6305676 18.019894
3.0258238 10.849525 17.998522
3.3165169 10.755143 17.971991
6.9389701 8.5508041 17.157331
3.0352864 10.729988 18.000658
3.5114489 11.257517 18.063765
1.1109047 9.0058479 18.061878
3.2263224 9.2101774 18.063501
1.1196225 9.063179 17.982347
1.0148096 9.0605488 17.983427
1.4546535 9.0971165 18.128147
1.4681423 8.9791956 18.107822
0.61334586 8.9122744 18.048273
1.5130709 9.2640953 18.067144
3.2313371 9.2796202 18.124506
0.71187633 8.9111986 18.022533
3.3944438 8.7258158 17.464931
3.9671605 10.263032 17.972805
3.1005082 9.1376925 18.082664
2.2291093 9.0578737 18.067947
3.6008461 8.8021955 18.049385
4.0082717 8.8660574 18.116409
7.5525846 8.5495796 17.300125
4.141078 9.1544371 18.108343
3.4161651 8.6896915 17.542871
2.6805286 9.0539083 18.052414
3.8081124 8.6980562 17.482038
3.7297435 8.697916 17.530468
3.6776512 8.7815065 17.983372
2.2945135 9.0171089 18.062916
1.4451222 8.9285612 18.02248
4.0667915 8.8912745 18.106297
1.6530503 9.311264 18.10891
1.6938987 9.0259323 18.048157
3.6333022 8.6885414 17.548
4.5756445 8.5843353 17.935667
7.4397478 8.5721865 17.274958
1.0401185 9.0608835 18.112288
3.4135551 11.037199 18.044296
3.7130103 8.6856222 17.322781
3.7013857 8.6534348 17.60989
7.8481045 8.5995111 17.263712
3.8262415 8.9675646 17.941565
3.9166057 8.6347303 17.621485
3.9531894 8.6421556 17.564274
3.9740229 8.6515942 17.425295
4.1999555 8.8589354 18.194208
3.7938395 8.6656294 17.647028
3.8119934 8.6862497 17.380772
3.694711 8.7057047 17.455885
4.4170341 8.5669241 17.861288
3.9202909 8.6437416 17.521345
3.9750962 8.6488876 17.327942
3.735064 8.65382 17.498322
3.7947776 8.6737432 17.312231
3.919343 9.5494251 17.898447
2.8168995 9.1009493 17.916195
6.6052351 8.5212526 17.157595
7.5132046 8.6385794 17.152752
3.8757446 8.8355341 18.123257
7.6185479 8.4299116 17.591042
7.2183404 8.452939 17.53578
7.2086582 8.4623919 17.471123
2.8262587 11.27154 18.078793
7.4319329 8.4981289 17.592787
7.0211663 8.5021 17.535181
7.7492609 8.4789639 17.330126
1.0743772 8.9686756 18.080879
-0.78154576 9.6448984 18.098957
-0.59355724 9.6182842 18.117128
6.3744025 8.5673761 17.623238
7.1734748 8.5591793 17.571663
3.1021752 10.365548 17.907921
7.4034615 8.508317 17.438576
3.3065886 10.526369 17.958004
3.0270948 10.31496 17.941963
3.570035 10.599505 17.972715
7.8377295 8.5249929 17.107183
6.6219726 8.6196795 17.159601
6.3674641 8.602684 17.524626
2.9224191 9.1012211 17.924547
6.9705553 8.5480852 17.58791
7.0710483 8.5795527 17.212242
7.8723965 8.6122265 17.193174
7.6122856 8.4939404 17.60416
6.8898735 8.5029659 17.482166
7.710218 8.5278559 17.150143
1.6421348 8.9431696 18.013279
6.8151245 8.5820265 17.137159
1.7070012 8.9113111 18.029781
-0.3928678 9.600543 18.103827
7.4772062 8.5297909 17.567411
2.3093421 9.0665083 17.956148
1.7786999 8.9511871 17.876617
2.1278157 8.9505415 18.002741
1.8216224 8.9376602 18.024704
0.81511158 8.7859383 17.921024
0.62144804 8.751193 17.954611
1.4204037 8.7852631 17.910526
0.31837028 8.7475166 17.96583
2.5169611 8.8795834 17.910967
1.8024445 8.6331882 17.989237
0.41156816 8.7824392 17.921215
4.3583307 8.625371 18.020138
3.7258904 8.6687107 17.286289
3.702775 8.6155796 17.365278
3.3130569 8.6604767 17.649025
3.7728939 10.303313 17.928362
3.7180967 9.2403488 17.848793
1.6132429 9.1437883 18.028189
1.7135994 8.7851725 17.902634
2.7004004 9.1052856 18.072588
4.079608 8.6342554 17.417955
2.0076575 9.1458406 18.033318
3.2136478 9.5912638 17.832533
2.2151933 9.0569057 17.959806
2.2014575 9.1517277 18.012936
1.81069 9.1352386 18.019691
2.3878362 9.0877552 18.060881
1.5231225 9.15975 18.030035
1.1332554 9.1569214 18.042536
0.61295778 8.7843237 17.918686
3.4094739 10.524882 17.958158
2.1044135 9.1631451 18.010118
1.610769 8.786438 17.905962
6.9956794 8.6231108 17.583887
-0.74112022 9.6172094 18.046219
3.2274868 10.216367 17.917444
2.6208434 10.448656 17.916258
-0.67926884 9.7573509 18.19685
1.7146926 9.1579151 18.019142
3.9358237 8.6586533 17.290257
-0.18676108 9.2559032 17.936544
1.9077736 9.2579241 18.095011
0.87168664 8.9117146 18.059351
1.3271847 8.9909916 18.048994
0.31616297 8.7867212 17.926201
1.3198862 8.9498034 18.035
3.790976 8.6909504 17.254185
3.2971792 8.7084312 17.468573
1.2078445 8.9398298 18.024853
3.8966889 8.6831408 17.279737
3.5853338 10.500213 17.976879
3.9106987 8.7013512 17.205585
3.4129026 9.7744083 17.876707
-0.39881063 9.4581661 17.955286
-0.58905911 9.4870672 17.949944
3.4100657 9.9178638 17.867088
1.2209216 8.7819777 17.906944
3.5369506 8.6707649 17.54431
2.8244085 10.752115 18.032675
0.91179168 8.6425438 17.989971
2.8129227 8.6855097 17.805092
0.86470157 9.0121746 18.117928
1.3487234 8.8589211 17.852102
2.3439226 8.6070223 17.934536
3.4958904 9.2045174 17.958567
0.29499978 8.941143 18.048126
0.11766315 8.879014 17.956594
2.1076589 8.6204672 17.964798
4.5446386 8.6121025 18.016342
2.9145334 8.9692173 17.934929
2.0484195 9.099308 18.083973
3.8166852 9.6401529 17.904764
-0.91558552 9.6191826 18.033106
3.1248927 10.705884 18.004671
3.8255863 8.6350746 17.883245
3.6229503 9.6512384 17.897856
3.4260061 9.6421595 17.893606
1.9057277 8.6274014 17.965355
1.1926641 8.6427135 17.990295
3.4084263 10.265572 17.971151
-1.0471292 9.5495472 18.197681
3.409456 9.6832514 17.856005
3.5218122 8.6494141 17.869919
3.4953458 9.9168501 17.874983
-0.4903847 9.695694 18.150047
3.2111475 10.244873 17.973349
1.9937179 8.6163349 18.019409
3.5040579 11.010671 18.040939
3.312104 9.902379 17.874115
3.3103473 9.8652582 17.905073
3.807817 8.6509809 17.477022
3.3012099 9.2502546 17.825846
1.6918166 8.6419029 17.966455
4.2988749 8.647131 17.871531
3.6271896 8.7395344 17.844038
5.0894914 8.7987595 17.348246
3.3696952 8.8030939 17.841707
4.0060225 8.6500444 17.869095
3.3116217 10.219673 17.91572
0.82297915 8.7514391 17.954161
0.92021894 8.7490826 17.947403
1.6105925 8.6211023 17.975639
0.71622378 9.1647682 18.046892
2.9085605 11.102002 18.090647
4.5224218 8.6720724 18.070457
2.8116598 11.163271 18.0436
4.0921822 8.6502142 18.052414
4.004221 8.7168179 17.972429
3.6294901 10.153993 17.935904
3.8085461 8.6998167 17.9685
3.0204685 10.759244 17.972715
4.016942 10.873644 18.056713
4.0116253 10.70901 18.050295
3.3189363 10.179035 17.94556
3.3316126 11.122626 18.096664
3.4919074 11.097793 18.064009
5.6869798 8.8471327 17.983797
5.0584278 9.272831 18.205675
-0.18390024 9.0650663 18.031715
4.6393933 8.8165808 17.365955
4.8085771 8.8066435 17.357714
4.7043486 8.7943459 17.352753
3.5909669 9.7212639 17.915869
-0.66110182 9.4616098 18.015329
7.7135139 8.5172834 17.432276
0.5568465 9.0312452 18.108845
0.60939527 9.2230988 18.132545
1.6061888 9.0123243 18.1008
4.1797848 11.036143 18.096041
3.1183934 9.2434177 17.83231
4.0529966 8.6196632 17.535173
0.81920373 8.9494915 18.041475
1.7864645 9.023591 18.055225
7.589139 8.6089993 17.58898
-1.0042934 9.1231613 18.000683
-0.96783912 9.1790257 18.057034
6.753932 8.5291386 17.475864
3.023469 8.692071 17.564426
0.4095017 9.1618023 18.045761
7.4963412 8.5898371 17.065462
2.8402231 10.421122 17.901176
4.0977483 10.714083 18.033833
7.4390564 8.5475903 17.052263
0.52539873 9.1549549 18.042898
3.8963275 8.695158 17.756311
2.4163494 8.6411953 17.958231
4.188036 8.6161003 17.843382
2.1729839 8.5422878 17.952959
3.9651732 8.6339321 17.772392
4.1354809 8.7969723 18.017006
4.1323476 9.0820112 18.056772
3.6121385 9.1533937 17.99367
0.12089276 8.7811699 17.921537
4.1048665 8.6349306 17.304146
1.5089557 9.0604353 17.980143
3.9524894 8.6139746 17.56918
2.1432481 8.5498209 17.998093
5.6883936 8.7440701 17.331591
3.9089596 8.6235752 17.870344
4.1281242 8.7018671 17.961649
1.5140814 8.8532181 18.08633
2.8369322 9.584384 17.812662
3.3161759 9.5999651 17.832743
3.7270987 10.310817 17.995684
3.2190187 9.6844215 17.859589
3.2130787 9.6345091 17.88866
3.6283207 10.265463 17.967272
3.0598943 11.098086 18.071358
2.7448008 11.100092 18.12434
3.6108382 11.096968 18.067348
2.7925026 11.133465 18.094608
1.6126647 8.8777304 17.927755
-0.58868718 9.3550196 18.113235
3.892808 9.2827806 17.9184
2.864177 9.574295 17.865572
1.8190645 8.7537699 17.922922
4.3773704 8.6484709 18.044048
4.1858168 8.6369801 18.022436
0.41729364 8.7450237 17.961336
2.6990094 10.439442 17.911186
2.9207773 9.1603451 17.990051
-0.48094845 9.6383266 18.03558
3.8351161 11.25561 18.080238
3.9880996 9.8404121 17.960285
3.3098969 10.714147 17.999178
-0.3800137 9.4306355 18.001783
1.7164775 8.7514963 17.92523
1.1129984 8.7831621 17.913679
3.854423 8.5584269 17.867323
2.0351138 8.9187393 18.067644
-0.58352554 9.6638708 18.039455
3.1211209 9.6851196 17.859854
-0.85262561 9.8030195 18.133282
-0.29111385 8.7968493 17.929478
3.8267205 10.724408 18.029331
-0.085446358 8.8761215 17.96628
0.0097571611 8.8834028 17.955711
2.6255059 8.9167328 17.987331
3.6252189 9.5402937 17.883129
2.8199358 8.9143457 18.005587
3.6359475 8.682847 18.04582
3.6102047 8.6383181 17.868212
-0.47510481 9.3943748 18.023468
3.4067986 10.214731 17.914005
3.1108513 11.129515 18.097296
1.4199206 9.1034098 17.951227
3.8250473 10.798733 17.955444
3.303612 10.441025 17.920465
-0.18151039 8.8879929 17.966482
3.7022276 9.5428982 17.885427
