# .PCD v0.7 - Point Cloud Data file format
VERSION 0.7
FIELDS x y z
SIZE 4 4 4
TYPE F F F
COUNT 1 1 1
WIDTH 948
HEIGHT 1
VIEWPOINT 0 0 0 1 0 0 0
POINTS 948
DATA ascii
0.27440131 -1.6973356 5.0094428
0.22529173 -1.5457833 4.8195276
0.35680306 -1.3107339 4.8387065
0.2180481 -1.3480805 4.794836
0.22549117 -1.6357156 4.8249841
0.62551868 0.25087169 4.6261692
0.49362171 -1.5669812 4.9262147
0.72935903 -1.4983028 4.7518773
0.48391712 -1.6254705 4.9186358
0.58977163 -1.8536327 4.9647298
0.47981131 -1.9107721 4.9302678
0.92963564 0.30982187 4.8268356
1.0600373 0.058363426 4.9071918
0.94468081 0.022106135 4.8510442
0.96626699 -0.046555359 4.8333993
0.90688646 -0.060377877 4.7930908
0.90061343 -0.13146985 4.8295393
1.0972687 -0.38534546 4.9328308
1.0698029 -0.76560676 4.9393849
0.99649322 -0.8125366 4.8679647
1.0702301 -1.1764437 4.9692349
0.48356521 -1.8315109 4.9308295
0.84796011 0.34359545 4.7710524
0.87263238 0.23048498 4.7572632
0.8128854 0.22683571 4.7634845
0.86233389 0.096353367 4.7977633
0.81976187 0.031371068 4.7731891
0.9006542 -0.32050294 4.7929702
0.41775501 -0.32462603 4.8262229
0.9696337 -1.1812505 4.9279785
0.96908438 -1.2740083 4.6906414
0.79338968 -0.50603795 4.7785573
0.89613712 -1.1625292 4.8754258
0.6173948 0.32267365 4.6521001
0.23969126 0.25496978 4.7135725
0.71738803 0.2393185 4.6875386
0.19850647 -0.57382673 4.7442198
0.48540747 -1.4400406 4.9142375
0.27999198 -1.4525523 4.8239017
0.39622128 -1.5299319 4.8920169
0.40489447 -1.9178603 4.9061127
0.40503085 -2.3550487 4.9286466
0.58154118 0.5707162 4.6192131
0.727404 0.34915534 4.693675
0.70304191 0.30664381 4.6901131
0.70445454 0.046131268 4.708571
0.74839628 -0.16517673 4.7455697
0.7145716 -0.69025475 4.7231717
0.78942907 -0.8084715 4.7849617
0.82477653 -1.1959075 4.8363895
0.54425442 0.81031054 4.5867906
0.35435784 0.29607153 4.7956915
0.55152738 0.29969704 4.6248894
0.61909854 0.23593068 4.6410546
0.62465703 0.14915885 4.6474872
0.52177727 0.13748346 4.6095877
0.50932038 0.040959142 4.6071997
0.48869622 -0.058394693 4.6003804
0.22825384 -0.11712122 4.739388
0.30950296 -0.3248722 4.783493
0.51153719 -0.31137392 4.6253076
0.52155387 -0.66529346 4.6489525
0.2252754 -0.78538042 4.774756
0.39723861 -1.4437929 4.8795524
0.30373299 -1.5544338 4.8557425
0.21918797 -1.9341313 4.830606
0.3098371 -1.9196799 4.8758712
0.29906929 1.0133919 4.7066092
0.21185482 0.90286511 4.6891065
0.30259442 0.81331497 4.7223616
0.30097258 0.34755778 4.7455831
0.41471946 -1.2788391 4.8919344
0.39689386 0.34305149 4.7840104
0.50061333 -1.3529183 4.9163475
0.37600935 1.0200521 4.7267218
0.82496369 0.39415553 4.6624093
0.73171794 0.26276872 4.6459699
0.41849673 -0.021117138 4.8029218
0.49298513 -2.0096722 4.9406962
0.94658077 -0.9257834 4.7597952
1.0983039 -0.68790126 4.8377128
0.77463448 -1.4277799 5.0009608
1.1318122 -1.6519755 4.8874359
0.70646513 -1.7988771 4.986588
0.71744454 -1.9164795 5.0053797
0.3925885 -2.3009319 4.9253082
0.86106694 0.26700482 4.9320726
1.4396192 0.13153873 4.9205413
1.3391858 -0.29431447 4.8962483
1.3422376 -0.47859594 4.9059162
1.398512 -0.58204293 4.9304924
1.3234082 -0.65697539 4.9073896
1.2076246 -0.72876447 4.8674693
1.305586 -0.76830578 4.9007955
1.3211805 -0.92507124 4.9172873
1.2477247 -0.96403062 4.8825555
0.76670659 -1.0954804 4.9419661
0.86955082 -1.1483769 4.9899821
1.2064651 -0.45470276 4.8602099
1.2385155 -0.70636237 4.8789053
1.0232445 -0.96612567 4.7930317
1.2221965 -1.2289126 4.8940454
0.86888659 -2.2566543 5.0512381
1.3000373 -0.39107051 4.8963914
1.4741796 -0.45762438 4.9828601
1.1670507 -0.48220679 4.8661308
1.4774145 -0.52786547 4.9998307
1.4843115 -0.57254159 5.0198679
1.2072536 -1.0702875 4.9082952
1.4495894 0.77453482 4.9074178
1.2001246 0.058503028 4.8548307
1.2178963 -0.12158988 4.8893294
1.2107552 -0.43328848 4.8751054
1.3098189 -0.49487311 4.9170198
1.3077437 -0.5467183 4.9216604
1.1999162 -0.75613195 4.8820333
1.1036755 -0.76912433 4.8418741
1.124211 -1.2430402 4.8799715
1.1959454 -1.224926 4.9130974
1.4444481 -0.35135207 4.9565768
1.1239442 0.13665707 4.8377023
1.0800287 -0.43185017 4.8171015
1.0904981 -0.65907907 4.8236675
1.1676205 -0.69072896 4.8743234
1.0088385 -0.77900958 4.8035669
1.1049901 -0.85499942 4.8443289
0.93263233 -0.87323028 4.7575979
1.0194293 -1.2564464 4.8369451
1.0917941 -1.3136742 4.8485336
0.9156431 -1.3333658 4.7798486
1.021093 -1.3353974 4.8251076
0.643139 -1.5731122 4.9539304
0.59811008 -1.7188778 4.9402809
0.71899259 -1.7382557 4.9992476
0.49704516 -1.7887821 4.9287095
0.61844909 -1.8187168 4.9701419
0.98770201 -0.68800062 4.8076124
0.80152738 -0.7602914 4.7253399
1.0056731 -0.86172026 4.8017173
1.0102452 -1.1697747 4.8396211
0.91021121 -1.2517486 4.7926564
0.58330905 -1.9817356 4.9739299
0.93008888 -0.28247672 4.7450457
0.91884053 -0.70216018 4.7939625
0.71126592 -0.77907646 4.6856003
0.58404791 -1.447678 4.9446263
0.69524252 -1.4558676 4.9699311
0.90957916 -0.64559191 4.738266
0.79805815 -0.68717337 4.7403197
0.71180141 -1.130392 4.9360886
0.5543617 -1.2992533 4.8899908
1.4744664 0.73195034 4.91819
1.2497064 0.059867579 4.8565683
0.79396045 -0.60705799 4.6912236
1.5066732 0.9424879 4.9103541
1.3299047 0.84194773 4.8496976
1.2830638 0.77751774 4.8191953
0.73790848 0.78910065 4.8477116
0.86254227 0.10580199 4.9506011
0.88805497 -0.51609206 4.9702368
1.4016749 0.82692856 4.8786793
1.2909275 0.28169966 4.8760262
0.81877911 -0.29290974 4.6965528
1.3138903 0.636401 4.8507767
1.4139653 0.56969178 4.885366
1.2670799 0.47040001 4.8403325
0.90308321 0.35959715 4.6780672
1.0809172 0.020958992 4.7613459
0.81730926 -0.50343698 4.7193141
1.0628649 0.75762004 4.7134395
1.4359659 0.74274623 4.876687
0.70985973 0.84369397 4.8289437
0.82379019 0.85188156 4.870769
1.4418932 0.41785836 4.8999133
1.3786224 0.3675836 4.8707666
1.5137926 0.34870556 4.9354525
1.4905382 0.29393575 4.9269109
1.262633 0.039200306 4.835588
1.1874377 -0.01806758 4.8021722
0.7979418 0.26132149 4.886013
1.088436 -0.26676852 4.7689643
1.1060466 -0.28517729 4.8179631
0.94329703 -0.47238666 4.7024693
1.0715929 -0.52927965 4.7716374
1.0074161 -0.58945489 4.771944
1.4793161 0.82538807 4.9119334
1.386556 0.27205479 4.8957787
1.374349 0.24298708 4.8891559
1.3885926 0.1864581 4.925477
1.3084837 0.094456978 4.8749185
1.1902651 -0.30205536 4.8512568
1.1108092 -0.37445393 4.805418
1.1141392 -0.50184947 4.832006
0.92137206 -0.57436758 4.7395554
1.2088901 -0.57524472 4.8766294
1.0973285 -0.58800995 4.8268437
1.0118865 -0.66530865 4.7707467
1.0677694 -0.72695071 4.7976956
1.0174154 -0.75067842 4.7715201
0.63649499 -0.43711567 4.8658085
0.73777187 -0.44194064 4.9041152
1.408271 0.63968194 4.8913636
0.90648353 0.64538771 4.6858611
1.2134637 0.32157335 4.8451567
1.1942881 0.25503731 4.8268805
1.2019271 0.16542679 4.8314867
1.1013316 0.093090504 4.7838893
1.1128744 0.038740661 4.8072896
0.80792415 -0.022690333 4.9400196
0.71074903 -0.0068189665 4.8879175
0.69566262 -0.10760691 4.8875237
0.92197669 -0.49436018 4.7591939
0.81379139 -0.10001849 4.9430904
0.9905473 -0.50592297 4.7730093
1.3716329 0.80925727 4.8858194
1.2994603 0.52656943 4.8690581
1.2138158 0.45704973 4.8208065
1.1009146 0.25797933 4.7879596
1.1159259 0.1713286 4.7913308
1.0213224 0.066536076 4.7759166
0.78088105 0.16788383 4.9078565
0.61193597 0.069812074 4.8593745
1.2115778 0.73267019 4.8106723
1.0269324 0.35986459 4.7442412
0.92031586 0.17746688 4.706851
0.80247843 0.15822348 4.6627679
1.016354 0.16147704 4.7536788
0.40443242 0.26092306 4.7787161
1.2168709 0.91822171 4.8024468
1.0044509 0.65285677 4.7183971
0.93739402 0.44815195 4.7059898
1.0133723 0.25976187 4.751523
1.010197 0.92214251 4.7167253
1.1102008 0.63601416 4.7704301
1.2969888 0.92608321 4.8347173
1.3079919 0.72425818 4.8659143
1.0000647 0.74062455 4.7211361
1.1982762 0.65223026 4.8089194
1.2052873 0.6174342 4.84198
1.2674493 0.90416241 4.8925753
0.83214104 0.071324572 4.9241381
0.51205242 0.41496471 4.5962615
0.60727966 0.72934234 4.6121583
0.49785435 -0.34099957 4.8687186
0.54182994 0.50539464 4.997767
0.81559145 -0.94577634 4.8214035
0.69847095 -1.0974988 4.7565155
0.534114 -0.75030911 5.0480299
0.89211905 -1.0863351 4.8870521
0.610412 -1.3418981 4.9203706
0.41418278 0.70600778 4.5466528
0.52697003 0.68953407 4.5888629
1.1454967 -0.25567073 4.9016128
0.38414299 -0.73576134 4.8680086
0.49284422 -0.68768889 4.8697448
0.50170982 -2.0619905 4.9344668
0.61463845 0.37745631 4.8296223
0.31746101 -1.786597 4.8477969
1.0118054 -0.13617782 4.7973866
0.82504547 -0.048442222 4.7451086
0.31434274 0.26894471 4.750761
0.52854049 0.37556726 4.7849641
0.81290901 -0.23882014 4.7781739
0.71088517 -0.23951326 4.7164803
0.24071813 -1.7745091 4.8260803
0.61660635 -0.046992149 4.6647096
0.8747896 -0.15892847 4.7519226
0.90611589 0.042443655 4.7320218
0.81481612 -0.1343555 4.7323861
1.1200067 -0.15605722 4.8265715
1.012236 -0.22284418 4.7756734
1.2842325 -0.012845038 4.8757539
0.22438133 -1.4279827 4.8112407
1.172917 -0.93290371 4.8822718
1.1629022 -0.93466121 4.9499178
1.3049971 -0.68646789 4.9383554
1.2739888 0.063784048 4.8938966
1.1993462 -0.2227484 4.8559546
1.363896 -0.037652098 4.9382181
0.71751583 -0.041823145 4.7017531
1.11915 -0.45598757 4.8035889
1.1823057 -0.875947 4.8767743
1.0971938 -0.21338329 4.8111496
0.80141056 -0.85410362 4.7053437
0.36868799 -0.54050297 4.8270841
0.21471655 -0.2356613 4.7301936
0.3895148 -0.2507228 4.8289785
0.31542325 -0.49445149 4.7862048
0.4248203 -0.49236363 4.8339629
0.31669474 -0.59210867 4.7945576
0.61949646 0.34392789 4.6244493
0.4009887 -1.0715392 4.864532
0.40351427 -0.22033764 4.8114724
0.20538151 -0.25556636 4.7367244
0.40320885 -2.2728467 4.916841
0.2870971 -0.22348173 4.7869234
0.53913558 -0.34598958 5.0165954
0.2840308 -0.32962576 4.8875437
0.32719719 -1.0807317 4.8331175
0.60752022 -0.69115692 4.6669769
0.47928464 -1.1474876 4.8908281
0.68852246 0.81041604 4.6214747
0.22033226 0.34152693 4.7107196
1.0143369 0.82056373 4.7427878
0.70981944 0.08905676 4.8769712
0.39722598 -2.1544995 5.0020986
0.40987194 -0.70772457 4.8393369
0.53165448 -0.59009016 4.8587937
0.30445528 -1.9640992 4.8996763
0.59987652 -0.011790826 4.6151462
0.23316407 0.71183366 4.8396192
0.59376633 0.46630663 4.5723791
0.62513578 0.52777714 4.603497
1.1061007 0.53388113 4.791481
0.51414311 0.34790567 4.5820332
0.91777885 0.34446415 4.7536926
0.51657498 0.51075608 4.5525107
0.48925483 0.615031 4.5600243
0.6783725 0.54178274 4.6243315
0.70004475 -0.79142946 4.7356977
0.82290947 0.4642348 4.6687102
0.68460643 0.72576249 4.6009326
0.71926868 0.99334884 4.6149769
1.103736 0.34887844 4.8083472
0.69801104 0.61041373 4.6458907
1.2061917 0.81736702 4.8376427
1.1072429 0.7328878 4.7728581
0.81361043 0.71175152 4.6634464
1.3811575 0.94437838 4.8910985
1.4211627 1.0808345 4.9357095
0.82932937 0.54298913 4.6817856
1.3698846 0.91249073 4.9311361
0.3327297 1.0384762 4.8543224
0.90226781 0.53175104 4.7077751
0.98974693 0.546058 4.7419372
1.1891965 0.54360867 4.8329434
1.3083018 0.97574168 4.9059577
0.60351646 0.6973083 4.5616722
0.51170647 -0.72930115 4.6514268
1.1060778 0.92547041 4.7558541
0.71754706 -1.3150289 4.9522033
0.50404775 0.46455064 4.7926855
0.65697014 -1.1682606 4.7606277
0.39978397 -1.1668572 4.8776717
0.33133173 -1.1542687 4.8315997
0.59669125 -1.1559745 4.8900275
0.5465709 -0.02439623 4.8344307
0.50514162 -0.088631757 4.8179078
0.61448276 0.34158793 4.8482404
0.46611321 -2.479037 5.0063729
0.69500029 0.54808772 4.8606782
0.78842413 0.52388912 4.8918719
0.31812525 -1.8313131 4.8724089
1.0445343 0.93372118 4.8691201
0.81488645 1.0698465 4.974647
0.9955231 -1.2458849 4.6226487
0.40026414 -1.7921337 4.883709
0.40166914 0.205768 4.8013206
0.4630326 -0.60687059 4.8549566
0.39677727 0.89695418 4.7609096
0.53372705 0.17406559 4.9866982
0.48491824 -2.1120663 4.9469743
1.1035498 1.0158112 4.7600603
0.86961901 -2.212698 5.0454226
0.6089114 0.60828775 4.8332572
0.64134586 0.93323076 4.9453678
0.61005557 0.82149971 4.8145103
0.5633136 -0.98328674 5.0673857
0.71047056 0.14446835 4.682219
0.81613839 0.14321804 4.7372417
0.82268298 0.42249468 4.9191985
0.90478456 0.5055933 4.7498865
0.63962114 0.52778894 4.6452823
1.2367879 0.49786678 4.9081326
0.8139509 0.47899681 4.7511678
0.99784958 0.21807769 4.8016796
0.89061701 -0.79554731 4.7528415
0.91349971 0.15566832 4.759572
0.77989495 -1.3228573 4.9643903
0.80445111 1.0684084 4.7391076
1.0033246 0.51341629 4.8044872
0.71194208 0.50620836 4.6816506
0.51696718 -0.78606373 4.87886
0.51181185 -0.20672058 4.8368526
1.2914943 1.01972 4.8415899
0.67922819 -0.70575309 4.7294102
0.36886466 0.30083096 4.8016849
1.0132602 0.42159253 4.7956791
0.62155616 0.64694798 4.8218732
0.60555065 -0.76166797 4.8863816
0.70646894 -0.52653831 4.7277703
0.58928287 -0.12054936 4.8785691
0.81498873 -1.485998 4.9912219
0.70781744 0.98490143 4.6538548
0.79439032 -2.0731854 5.0280037
0.30865192 -2.2636878 4.8697653
1.0020844 0.34023052 4.7630854
1.1179038 0.36425734 4.7869668
1.102754 0.45155644 4.7759962
0.90132058 0.72663581 4.6860223
0.84529006 0.64322728 4.6580529
1.0102955 0.12917578 4.8014884
0.8309685 1.0094546 4.6504602
0.80405962 0.42010263 4.7039905
0.60268557 0.54494131 4.8293185
0.62452304 -0.016852256 4.8606582
1.0148541 1.0086169 4.7259984
0.91691196 -0.093321972 4.7227526
0.77777851 -0.61516362 4.7541575
1.1919843 -0.19469547 4.8247848
1.3881603 1.0021061 4.8865333
0.60617244 -0.11354399 4.849895
0.91670907 1.0059788 4.6816144
0.6087712 -1.089967 4.7031016
0.9003588 -0.70095038 4.8472543
1.2853194 0.36877808 4.8924642
0.33830881 -0.21102504 5.0065331
1.1147155 -0.19276959 4.8023124
1.0648109 0.4327108 4.8265548
1.3340734 -0.95631796 4.9645433
0.78885972 -0.11337969 4.6605301
0.31431222 -1.7266628 4.856915
0.9494797 -0.17785577 4.7275739
1.0180582 0.99275869 4.7730169
1.0195302 -0.11112145 4.759747
1.1972934 -0.1168047 4.8416538
1.2113687 0.97011226 4.8693886
0.32614243 -1.9827228 4.8732128
1.0985035 0.97929859 4.812243
0.20379186 -2.0162244 4.8214722
0.44188225 0.2016594 4.5580697
0.39296782 -1.7335365 4.8887038
0.39889657 -2.0009472 4.9001555
0.25307918 -1.8585924 4.8514581
0.23131156 -1.7426122 4.825068
0.7730974 -0.66322178 4.6683378
0.21708417 0.43040648 4.7062078
0.9282161 -0.0045841485 4.6787939
0.79193056 -1.2376081 4.7834401
0.40185916 -2.0300183 4.9297752
0.80637062 0.32829461 4.6829162
0.40716755 0.5820803 4.9762788
0.8235482 -1.0809187 4.8102694
1.0203704 0.44336337 4.7471581
0.92009461 -1.0469676 4.7648969
0.43065178 -0.51086134 4.5855355
1.1808258 -1.0652398 5.0180521
1.0619293 -1.0853766 4.9654617
0.80659854 -0.99894106 4.8073106
0.80858195 -0.59266019 4.9816947
1.0373067 -1.0556952 4.9250121
1.0686408 -1.4638027 4.8534346
0.71017134 -1.4008293 4.9537663
0.79777944 -1.5445687 4.7836127
0.44753897 0.63612419 4.5464315
0.81873167 -1.4036962 5.0067534
0.554618 0.27882323 4.5725455
0.9123317 0.26612735 4.7220731
0.69422996 0.45252064 4.8605328
0.52069509 0.83073258 4.9642358
0.91779149 0.43920776 4.7737865
0.62851322 0.6176675 4.6244655
1.0112103 0.089387208 4.7397661
0.79759729 -1.051908 4.9652596
1.0032541 -0.4233115 4.7972012
1.0093676 0.79453635 4.8265648
0.8249377 -1.351617 4.7470531
0.59724176 -1.4282086 5.1383295
0.5965749 -0.96036291 5.052104
0.52361214 -0.82376462 5.0359998
0.22697532 -0.33309367 4.7506042
0.81717384 0.70676029 4.713902
0.57815588 -2.0900309 4.9469538
0.29792392 -2.0880318 5.0633841
1.2999097 -0.81841564 4.8998628
0.71991765 -2.0756688 5.0008979
0.74759805 -2.1576483 4.9978952
0.30479288 0.71216905 4.7350421
0.69326198 0.27019283 4.8786588
0.59915841 -2.2829943 5.018743
0.50722206 -0.29469073 4.8431125
0.68680751 0.57667059 4.840127
0.59391034 -1.5193771 4.9225121
0.93660271 -0.4037672 4.7792282
0.8689779 -0.48787746 4.9881067
0.60168779 0.82333571 4.5716033
0.91788876 0.82345611 4.7139778
0.91549814 -0.39819494 4.7339091
1.3484257 0.29518449 4.8733373
0.59347403 -1.3878359 4.7450023
0.6300801 -0.60955757 4.6895347
0.80864513 -0.40938619 4.7546887
0.21727419 -0.4924747 4.7431426
1.011978 0.70728093 4.7869797
1.3061215 0.82738692 4.8741546
0.31342888 0.75031865 4.7237687
0.59590471 0.29322332 4.799191
0.39927971 -1.4372163 4.9142423
0.70639789 -0.58802217 4.9163022
0.61171114 -0.57246661 4.8853822
0.31619096 -1.4974977 4.8688803
0.37858498 0.71092808 4.766283
0.63170111 -0.22042617 4.885078
0.78618038 -0.98668402 4.978931
0.39607179 0.4256711 4.7897086
1.2130471 0.28701001 4.8124251
0.79759037 -1.0110158 4.9509563
0.73855984 -2.2642422 5.0090914
0.31369245 -1.5224179 4.8392019
0.50395143 1.0131791 4.9165292
0.8980397 -0.21510634 4.7405434
0.47173011 -1.5422556 4.9051905
0.71199238 0.64276588 4.8559952
0.80158794 -0.76258349 4.9756274
0.57342565 0.48053423 4.9992356
0.48351038 -1.7104456 4.9181185
0.54161608 -0.44360611 5.0288615
0.30783737 -0.87519997 4.819303
0.40728986 -2.1079934 4.9255066
0.58562934 -1.6719466 4.9237208
0.71908987 -1.2708896 4.7739124
0.47286212 -0.88136506 4.8616552
0.72823966 -1.418296 4.8103299
0.70598376 0.067811318 4.8886514
0.5276376 0.9375242 4.9576974
1.1936594 0.36406532 4.8181028
0.50485218 -0.18175682 4.5792675
0.75688589 -1.2353375 4.7587037
0.79753149 -0.21328864 4.7108474
0.71021235 -1.8767887 4.9880757
0.14560401 0.74922055 4.6330605
0.60546815 -0.20892289 4.6440992
0.61482346 -0.33029258 4.6609879
0.77599657 -0.2283785 4.9384151
1.0596076 -1.6912664 4.8627725
0.55348575 -2.3736413 4.9654474
0.42924798 -0.16089146 4.5690212
0.67869389 0.23906042 4.953393
0.32056606 -0.9691813 4.8146935
0.45147574 0.95492578 4.9495811
0.59107888 -1.278735 4.7224321
0.35179126 -0.934214 4.9950957
0.72023785 0.18302409 4.8835692
0.91785944 0.78344554 4.7889872
0.79591644 -0.94202352 4.9489727
0.22505248 -2.0228043 4.8465447
0.73281038 -0.45686442 4.7408266
0.8158108 0.67458671 4.8868833
1.0190905 -0.18436848 4.75284
0.71439517 -0.20320949 4.7009802
0.82786739 -0.47482544 4.9464703
1.1306113 1.0341797 4.7345095
1.2682747 0.81980503 4.927598
0.31286407 -2.0284483 4.8950834
0.85391104 -0.43127409 4.8091302
0.57957804 0.71454912 4.9533663
0.50301206 -1.4704028 4.9955854
0.63079512 -0.49465278 4.8824506
1.0089179 0.62645942 4.7633777
0.60259235 -2.2724779 4.981153
0.92187059 -0.45348945 4.8508081
0.78444278 -0.43818486 4.9694357
0.61454284 -1.0747519 4.9597945
0.58849466 -0.67878568 4.8677197
0.43646181 0.82780761 4.9813509
0.4948858 -0.86934984 5.1198821
0.40446556 -0.86804056 4.8475118
0.31987727 -0.0094613545 4.7627144
0.41454375 -1.5066131 4.882659
0.6936053 0.34759131 4.9036908
1.0106512 0.90480924 4.7622147
0.50078261 0.77633148 4.9558754
0.89816391 0.6999144 4.7414165
1.0194207 -1.4429961 4.8436298
0.38705075 -0.78671777 4.8515229
1.0418819 1.0562729 4.6720881
0.42039979 -1.0301183 4.8549767
0.64402282 -0.89088082 4.9726396
0.49110472 0.69723821 4.9367661
0.63734615 -1.1999489 4.9079318
0.52478683 0.74239147 4.7828374
0.69543493 -0.8734023 4.9840384
0.81436408 0.82049185 4.671123
0.95833194 -0.64741087 4.8638864
0.45175493 0.39163068 4.8958592
0.50613272 -1.1890178 4.9599457
0.38462341 0.78246135 4.7952018
0.62726676 0.42116809 4.6236806
0.78954947 -0.23775698 4.9088345
0.93040645 -1.1972313 4.7698154
0.51825345 -2.0356889 4.9802256
0.60023081 -1.5722045 4.7385454
0.41531885 -1.2383982 4.8719549
0.80702484 0.92869282 4.8834071
0.55787909 0.11995336 4.8208389
0.87527335 -1.2798783 4.8662343
0.7717427 0.25172129 4.9137454
0.29990971 -2.2118628 4.9433851
0.69497335 -1.2343857 4.9511862
0.7960602 -1.5564581 4.8282433
0.44167507 1.024871 4.9231119
0.79933226 0.60882258 4.7423286
0.71342123 -0.77379227 4.9334784
0.697245 -1.6132268 4.9711614
0.30246198 -1.0071416 4.8304353
0.90526569 0.90324444 4.708055
1.1176029 0.98490679 4.6699057
0.91411364 -1.3991542 4.7944713
0.49585354 -1.0111239 4.9221234
0.61074173 0.099971607 4.8372974
0.7966212 0.24951376 4.6742382
0.7189244 -0.85359973 4.9252791
0.76835334 0.71446937 4.9548311
0.64209783 -1.9212956 4.9919882
0.31488562 -2.2205031 5.0325975
0.73489535 0.17359631 4.9821458
1.1424907 0.29390189 4.7833028
0.82408321 -1.1265 4.7091498
0.61008608 -2.1563964 5.0678105
0.43848503 -0.9873147 4.8901467
0.80637276 0.82032555 4.6158967
0.16380036 0.47729352 4.7748432
0.70689762 -0.48701158 4.9173307
1.1167349 -1.1239932 4.8538823
1.0239822 -1.2492594 4.9210224
0.21019268 0.505364 4.7232304
0.2167455 0.71306157 4.7015896
0.2223295 -0.4282414 4.7557979
0.74136484 -0.62651134 5.0344911
0.80322421 0.89668816 4.6907792
0.59625995 0.78069812 4.6174378
0.67684305 0.79067373 4.9626265
0.62282217 -0.69832975 4.9271283
0.69450438 -1.50982 4.9653902
0.75179613 -0.37327138 4.9571428
0.34751451 -1.2464807 4.8401823
0.31864429 -0.67631537 4.8034425
0.53334463 -0.17573808 5.0192699
0.61950696 -0.84723574 4.8947334
0.51624954 0.23108989 4.6000705
0.5418309 -1.3649943 4.7123079
0.69573581 0.80018228 4.6729274
0.64384258 -1.3996638 4.9184589
0.68952143 0.41845056 4.9019833
1.2196807 0.89781439 4.8529224
0.64305651 -0.96653771 4.8897223
0.93333614 -1.1299728 4.7659426
0.51907694 -0.65588838 5.0646243
1.0438226 -1.2634301 4.7915773
0.88957632 -0.81414479 4.8025341
0.81065142 0.44355565 4.9886708
0.47810924 -0.8089093 4.8899064
0.50659454 -0.48604539 4.8504472
0.59720767 -1.4353977 4.711576
0.70947421 -0.41516054 4.7029119
0.70285213 -0.30036193 4.902987
0.22069013 0.62291408 4.6997137
0.71217382 -1.5596265 4.7800794
0.31279743 -2.2007318 4.8750939
0.71337926 -1.4479405 4.7583079
1.2596875 -1.0006133 4.8903165
1.0958823 1.0875291 4.7761331
0.5759877 -0.17085299 4.8334084
1.0026218 -1.3934834 4.8154693
0.21797526 0.0644385 4.7127495
0.61288679 -0.41431102 4.6627049
0.46722996 -1.2636833 4.8923845
0.69981396 -1.3590873 4.7561669
0.25421989 -1.2329285 4.8062353
0.81264341 -0.84391558 4.9501424
0.31865549 -2.1087899 4.8891997
0.37886512 0.68416405 4.9455857
0.54991448 -0.94275177 4.6970363
0.398996 -2.1849988 5.0914989
0.61927116 -0.24997953 4.6705832
0.32147348 -2.2906132 4.9074006
0.69524801 -0.17566198 4.8868814
0.68353355 -0.20148188 4.8960414
0.51015198 0.35628664 4.9587736
0.53868401 -1.1911259 4.6986022
0.61565101 -1.0473882 4.9133677
0.6701473 -0.68354177 4.9169488
0.57868922 -1.4670436 4.7270861
0.37178028 -2.2180998 5.0375195
0.30644715 0.4718889 4.7291412
0.71252477 -1.0750307 5.0196247
0.81025326 -1.1676526 5.0163007
0.48725975 0.68035126 5.0015979
0.29647636 -2.1807554 5.0514841
0.52230394 -0.34576944 4.8251925
0.80400884 -0.71877986 4.7924361
0.30779207 0.42996258 4.7453566
0.42053068 0.7241978 4.7664986
0.31668401 0.069667086 4.764514
0.54552352 0.4625316 4.8746853
1.1286355 0.68543017 4.8315015
0.71740425 -0.1559556 4.922554
1.0389286 -1.1358138 4.8250532
0.66070426 -0.25729552 4.8494167
0.86459219 -0.25519937 4.8118911
0.40045559 -0.10707227 4.9945025
0.63765609 0.39278516 4.9122901
0.64497912 -1.3110261 5.0051613
0.50503981 -2.2861636 4.9501801
0.49793494 -0.39544299 4.8579721
0.63306701 -0.95814842 4.9695029
0.50841033 -1.0919738 4.9085574
0.75296938 0.55647063 4.7243428
0.7049073 0.42921242 4.6710148
0.55803216 -0.78931743 4.681706
0.93143618 0.40433213 4.8274441
0.40778482 -2.3349667 5.069097
0.47712028 -0.42581028 4.6241679
0.77410161 -0.677378 4.9406743
0.68810403 0.63099253 4.9158382
0.7075597 0.73622137 4.8435845
0.70803797 -0.48073894 4.697084
0.5232116 -0.4226355 4.6306276
0.84034193 -1.1549553 4.791502
0.2463907 -1.4908667 4.8387656
0.69907153 -1.1891571 4.776123
0.72657478 0.71314162 4.9390101
0.21730208 -0.005067111 4.7172542
0.90316164 -1.4647822 4.788868
0.78705537 -1.2534676 4.9784985
0.25717163 -1.1920273 4.799161
0.57308757 -0.16131449 5.0020714
1.0847915 -0.91983569 4.8312941
0.70234406 -0.66185838 4.9093661
0.54266298 -0.063648134 4.8706226
1.0002867 1.0988995 4.7333341
0.31357896 -0.28365225 4.7722015
1.1599096 0.67366952 4.8368545
1.1079284 0.81660795 4.790328
0.65037239 0.59254795 4.8384628
0.52231085 -0.45316929 4.8160462
0.35165155 0.6789422 4.927845
0.31260657 -0.21457961 4.7770147
0.68868005 0.79623407 4.8320513
1.0054203 -0.38208592 4.7662721
0.48172557 -2.2977085 4.9837441
0.91204202 0.09431605 4.7017498
0.21507645 0.81284457 4.690362
0.55393803 -2.1844184 4.9318442
0.99286282 -0.45793164 4.7548947
1.117246 -1.1415161 4.8880482
1.1941172 -0.39569116 4.8586783
1.2932116 0.44322741 4.8167863
0.48184502 -0.95272636 4.8844991
0.31114376 -0.80648416 4.8148365
0.70576584 -1.1736494 4.7585049
0.64951885 -1.2353801 4.921155
0.80880606 -1.4514008 4.8694267
0.91210806 -0.25367394 4.9820452
0.99063027 -1.0084308 4.892724
1.2892929 0.57482767 4.8431358
0.52518499 0.80391157 4.5475659
0.68001306 0.47496152 4.99366
0.79708946 -2.2671328 5.0370431
0.53400886 0.12373774 4.8457484
0.61213624 0.46167365 4.8301706
0.91444457 0.87354773 4.7948275
0.91630328 0.8589682 4.6697598
0.86587799 -2.3585591 5.0593228
0.22068632 0.75331795 4.6780796
0.64102519 -0.28520936 4.8799458
1.224012 0.55226368 4.8112407
1.0094374 0.81947213 4.6946278
0.79449332 -1.2718172 4.8220725
0.79911268 -1.3358911 4.79773
0.82536733 -1.4471596 4.7990561
0.61472261 -2.1276798 5.0175562
1.0986816 0.57261807 4.7563944
0.92980468 0.5485484 4.6767893
0.3109138 -0.40456918 4.7862997
0.54530704 -1.6240394 4.9157214
1.0589362 -1.415152 4.8505201
1.3088664 0.63303065 4.9167366
0.52531755 -0.23946382 4.6266346
0.26440883 -1.3917743 4.9943609
0.60990536 -0.11879658 4.647738
0.61580575 0.16750585 4.8457632
0.96319282 0.58930874 4.6895165
0.41918099 -0.4205499 4.8309269
1.1922501 1.0876129 4.8072348
0.78631842 -0.29244971 4.9334078
1.2970587 0.36669129 4.8554115
0.31006789 -1.7488132 4.8773594
0.69456565 -0.95574331 4.9094968
0.93102491 0.9224329 4.6910486
0.69197333 -2.1711993 5.007864
0.39480007 -1.7403396 4.9349217
0.7996155 0.7677142 4.712307
1.2058047 1.0130602 4.806767
0.61974275 -0.4045426 4.8954482
0.3050735 -2.1608744 4.9654312
0.78987491 -2.3640482 5.0522337
0.52993095 -0.14385594 4.6293125
0.61479008 -0.50487244 4.6845226
0.82881534 -1.1269999 4.8479443
0.90504563 -1.1890634 4.838469
0.77586901 -0.74267274 4.9353395
0.6536938 -2.3473408 5.0217204
0.47094142 -1.0506837 4.8721557
0.41707671 0.070347525 4.7963357
0.89124906 0.61850524 4.7187538
1.1061522 0.90368533 4.818604
0.80200684 0.63280827 4.6944575
1.0977062 0.59754854 4.8020945
0.70815742 -0.33785164 4.697721
0.6943363 0.69948304 4.6557531
0.69178641 -0.60436964 4.7212458
0.89453709 -0.56176925 4.8210416
0.54670036 -1.5475749 4.7120676
1.029591 -0.30575114 4.8481865
0.77611864 -0.33428204 4.7389865
0.69611251 -0.13898179 4.6831446
0.98142469 -1.7301115 4.8364387
0.97909939 -0.52130014 4.8802104
0.2129631 0.15075421 4.7221985
0.32264102 0.15387435 4.7633138
0.60639966 0.25835991 4.8401141
1.0803338 -1.7662097 4.8604407
0.91294014 -1.674943 4.7987146
0.70609438 -1.4853051 4.7740083
0.97858822 -1.676509 4.8274922
0.42586672 0.14967094 4.7962723
0.39735281 -1.834463 4.9071107
0.69275916 -1.0004909 4.7506909
0.31489873 -0.51917183 4.8028951
0.48901331 0.55694586 4.9960217
0.28032207 0.59032977 4.8988657
0.88776982 -0.9451372 4.9809079
0.88316214 -0.98123461 4.8608437
1.0851837 -1.1143346 4.9765797
0.88108814 -0.59192246 4.8027344
0.78343022 -1.2120024 4.9557099
0.61007059 -1.1805617 4.9572043
1.0887436 -1.040617 4.8484402
1.0170404 -1.0765153 4.8301592
0.38755786 -1.9324392 4.9504437
0.69455326 -0.98106498 4.9551959
0.42802966 -0.97266036 4.8582368
1.2969757 1.0805142 4.8854189
0.59935129 -1.3606607 4.7215104
0.21946001 0.78154802 4.7152748
0.14953244 0.89206851 4.7157178
0.50610411 -2.1483629 5.0302753
0.30472791 0.76915258 4.7368288
0.31137121 -0.13571236 4.7698712
0.31122971 0.53727561 4.7355809
0.40450895 0.96525371 4.7684684
0.29941249 0.98313665 4.7230058
0.40213954 0.52915043 4.7759194
0.21219003 0.54936099 4.6949806
0.55479729 -1.5056726 4.71732
0.51825988 -0.11584318 4.8504672
0.20580661 -1.9657689 4.8515568
0.17453921 0.57090324 4.7211561
0.68331659 0.66019112 4.5980048
0.4043175 -0.11009345 4.8071995
0.40148866 -2.1954901 4.9194474
0.6279887 -2.2023933 4.9994016
0.40211451 -0.77695644 4.832871
0.32213664 -0.772614 4.8000088
0.3902334 0.62223518 4.7681322
0.62128174 0.72952837 4.8126092
0.30930233 0.62357539 4.7357354
0.49648011 -2.2029693 4.9493747
0.4274987 -0.5577364 4.814302
0.22362769 -0.71599686 4.7647514
0.70659363 -0.96135527 4.7338343
0.29490113 0.90298522 4.7177629
0.30967247 -1.6785724 4.9013681
0.30217481 0.23170578 4.7617321
0.46315491 0.49621719 4.820775
0.51030338 0.091692939 4.5998497
0.91105664 -1.08631 4.853219
1.2740918 -0.19613673 4.8571296
0.70361841 -1.0447239 4.9324265
0.63126266 -0.38406891 4.875205
1.3823682 -0.23487271 4.911036
0.81277931 0.93231994 4.6382933
1.0138882 -1.5177295 4.8369241
0.9313885 -0.90868056 4.8809566
1.102369 -0.10516124 4.8010654
0.69367301 -0.93975568 4.7510858
0.79316008 -1.9875041 5.0276856
0.70838702 -1.9859048 4.9992876
0.30968797 -1.633455 4.8549085
0.31909645 0.50904053 4.7599163
0.72125089 -0.019388143 4.6649008
0.26770723 -2.0204594 5.0206795
0.4077214 0.81710893 4.774178
0.80780065 0.0063660964 4.6799479
0.85812247 -0.65698254 4.825284
0.52288973 -0.59522456 4.6469188
0.78988731 0.069027118 4.6858954
0.70320952 0.074988253 4.6805677
1.3123218 0.159501 4.8823366
0.61988032 0.062658161 4.6399393
0.55388176 -1.0751687 4.7027693
0.58937562 -0.94842339 4.6606874
0.3159833 -1.3519435 4.8425231
1.274397 -0.090682141 4.8625188
0.6337291 -0.7903229 4.7134147
0.41487157 -1.3695058 4.8863802
1.2063061 -0.034630045 4.8570151
1.1998199 0.85047019 4.7866812
0.70599854 -0.38754058 4.9036508
0.45232189 0.46778107 4.7996459
1.1760563 -1.1508181 4.8808842
0.89757192 -0.035399079 4.70999
1.0993999 -0.028764304 4.7976456
0.69907176 -0.86160767 4.7409115
0.99001205 -1.6164249 4.8326588
1.0079635 -0.9709118 4.8280396
0.44430745 -2.0545704 4.9190655
1.2925657 -1.0663573 4.9292727
0.82507384 -0.37605795 4.9521523
0.40648735 -2.2115998 4.991375
0.90273178 -0.90165734 4.8112407
1.295653 1.0160482 4.8068118
0.32707608 -2.399411 4.9034262
0.33462405 0.021608055 4.8017421
0.24374306 0.16224658 4.8401752
0.30740356 -0.035513129 4.7704115
0.99938095 -0.30307555 4.768198
0.22448134 -0.05138858 4.7351704
0.4846288 -1.2788415 4.9304962
0.1541878 0.84057963 4.6562371
0.41318023 -0.61734247 4.836287
0.98411453 -0.87520051 4.8877687
0.63376415 -0.87906134 4.7076302
0.79262412 -0.89963537 4.7671785
0.78509462 -0.97659594 4.7629466
0.54134715 0.34941202 4.9990754
0.5161978 -0.51532483 4.6322761
0.76639712 0.11344804 4.7481313
0.3977617 -0.28307512 4.8035917
0.89744604 -0.96559906 4.7876515
1.0820841 -0.96935338 4.8673606
0.40479386 -1.6409783 4.894381
1.0270733 -0.0095797991 4.763484
0.40449035 -0.041150749 4.814486
0.32305896 -1.2830876 4.8523564
0.47482288 0.70775717 4.8249016
1.1174937 0.83550471 4.7490573
