# .PCD v0.7 - Point Cloud Data file format
VERSION 0.7
FIELDS x y z
SIZE 4 4 4
TYPE F F F
COUNT 1 1 1
WIDTH 530
HEIGHT 1
VIEWPOINT 0 0 0 1 0 0 0
POINTS 530
DATA ascii
30.944929 -21.132143 4.72611
31.266188 -19.074738 4.6430874
30.957909 -18.848963 4.5760026
31.145304 -20.192842 4.6712084
30.847536 -20.715017 4.677917
30.555199 -18.859713 4.4908929
30.652016 -18.864359 4.4994445
31.117319 -19.310087 4.5336132
31.050457 -21.248941 4.7619333
30.655783 -20.105892 4.5922146
30.950691 -21.244987 4.7471995
30.853483 -20.408194 4.6541204
30.565172 -20.287052 4.5755229
30.945684 -20.409727 4.6684942
30.749285 -20.625813 4.6622458
30.646097 -20.627964 4.6537452
30.856274 -19.277039 4.6545196
30.656961 -19.411041 4.5637493
30.493319 -19.704731 4.5575824
30.938786 -21.533356 4.7878952
30.75127 -19.045067 4.5024924
30.551178 -21.071016 4.7278681
30.841969 -19.380888 4.6185169
31.204935 -21.369434 4.8334508
31.241102 -19.230886 4.7334948
30.540833 -19.877062 4.5540838
30.755354 -20.935186 4.6885986
31.043242 -20.92996 4.7350731
31.257206 -19.702894 4.6908779
30.845341 -19.049604 4.521523
31.157459 -19.055857 4.5708513
30.652864 -20.93656 4.6771426
30.552853 -20.957666 4.6629891
30.86986 -19.018002 4.4674788
30.653452 -19.042091 4.4857998
30.85294 -20.941607 4.7031302
31.464891 -21.174423 4.8648796
30.561829 -21.039383 4.6548047
31.238815 -19.540619 4.5956469
30.655275 -18.750999 4.4792833
30.853613 -21.157877 4.7389717
31.330162 -19.151293 4.5953517
31.148993 -19.142384 4.5705967
30.952816 -19.146887 4.5373302
30.963408 -19.287798 4.6506329
30.945616 -20.932068 4.7231908
30.758938 -18.760271 4.4858928
31.145617 -18.768064 4.5764585
31.048214 -18.848412 4.5979085
30.666887 -18.834867 4.4695883
30.449577 -20.343815 4.6088915
31.319014 -20.205929 4.7546434
30.750614 -21.131382 4.6944032
30.654778 -20.067909 4.5615263
30.951948 -18.838217 4.5220008
31.160114 -21.166702 4.7882667
30.844643 -21.535059 4.7711954
30.855484 -18.848011 4.5479164
31.14151 -18.841274 4.6063514
31.122017 -19.502682 4.4458256
30.937967 -21.167761 4.7502027
31.252741 -19.98757 4.6622801
30.646511 -20.198523 4.5939474
31.044001 -21.156324 4.7682242
30.831944 -21.527548 4.7188387
30.84675 -18.832535 4.4970083
31.04859 -18.918753 4.5194578
31.146772 -18.837399 4.5507054
30.539753 -20.508467 4.5961533
31.1782 -19.598455 4.7362819
30.570837 -21.138426 4.6938696
31.142258 -19.352013 4.5883379
30.555319 -19.134338 4.4743142
30.75782 -20.231812 4.6714325
31.230209 -18.914412 4.5420461
30.968325 -19.692686 4.6483417
31.142941 -18.92601 4.541122
30.935184 -20.230087 4.6979656
30.762045 -19.142883 4.499578
30.564512 -20.708677 4.6245656
30.863054 -19.857172 4.5543232
30.85107 -20.62768 4.6836114
30.768105 -18.857323 4.5278611
30.967333 -20.15007 4.6002417
30.754751 -18.829643 4.483314
30.948505 -20.19623 4.6396842
31.044458 -19.356016 4.5733209
30.846891 -18.757948 4.5182557
30.761934 -20.065931 4.5745287
31.388905 -20.054512 4.6819263
30.966675 -19.34543 4.4960923
31.032082 -21.130388 4.727983
31.41753 -19.708691 4.7374353
31.070826 -21.371771 4.8286762
31.14308 -20.065947 4.6384659
30.548012 -20.027287 4.5905194
31.045557 -20.07048 4.6208372
31.15279 -19.393513 4.6473322
31.252768 -20.068354 4.6560998
30.837978 -21.391825 4.7739034
30.761644 -19.845745 4.5385737
30.555323 -20.878191 4.6636219
30.864008 -19.306547 4.4989538
30.760567 -21.166365 4.7199974
30.546471 -21.117193 4.6460838
31.043959 -19.138092 4.5543046
30.667328 -20.600548 4.6244731
31.13788 -21.39135 4.838799
31.013163 -20.735296 4.8030281
30.743471 -20.378988 4.5933919
30.448547 -20.514011 4.6278181
31.333778 -19.052542 4.6029882
30.433496 -20.209457 4.6088352
30.668339 -19.147898 4.4906139
30.953098 -19.359653 4.5608702
31.267406 -19.395439 4.6746006
30.414928 -20.004484 4.5953212
30.577852 -19.417465 4.5505276
31.026819 -19.323092 4.5194755
30.926451 -18.992121 4.4926758
30.951948 -21.030685 4.7212076
30.752682 -20.408148 4.6380563
30.647383 -21.029312 4.6715684
30.724884 -20.147409 4.5555344
30.661869 -19.878651 4.5641766
30.354918 -19.803949 4.5562
31.402637 -20.36161 4.7013159
31.486219 -19.634638 4.6905856
30.767097 -19.300739 4.4769044
31.262259 -20.186985 4.6945686
31.049213 -19.761736 4.5913334
30.856253 -20.218807 4.6805916
30.834131 -20.168503 4.5690722
30.97014 -19.04294 4.5956192
31.007236 -20.143911 4.6104107
30.636307 -20.23856 4.6570415
31.247137 -19.361002 4.6087847
30.757286 -19.260159 4.5291719
31.344248 -20.200783 4.6973848
30.747086 -19.39242 4.5877328
30.945324 -20.379616 4.631485
30.852102 -21.12944 4.7066145
31.146576 -20.101746 4.6763673
30.651045 -21.133718 4.6716638
31.24992 -20.089403 4.6969595
30.956789 -21.473156 4.7830901
30.562321 -19.245659 4.5014248
30.638126 -20.823929 4.6422653
30.750055 -18.957441 4.5016708
30.845522 -20.072033 4.5884657
31.045185 -20.239069 4.7039905
30.540401 -20.422674 4.6087437
31.14394 -20.204029 4.7381916
31.440075 -19.351461 4.6807151
30.553719 -19.675106 4.575325
30.760273 -19.359789 4.5285254
31.032784 -19.621939 4.5392923
30.92169 -19.10545 4.6808801
30.47069 -19.180683 4.500845
30.768927 -20.676296 4.6345458
30.856375 -19.354866 4.5414338
31.159466 -19.607948 4.5583072
30.748079 -20.506426 4.6373649
30.948376 -21.345533 4.7522268
31.049284 -19.041941 4.5592637
30.851852 -19.538166 4.527576
31.046503 -21.527142 4.7445803
31.050106 -20.192814 4.6593127
31.035757 -21.53863 4.8134131
31.132282 -20.382317 4.6527376
31.046532 -21.493984 4.8183126
31.24641 -21.528616 4.8657312
31.244749 -19.322697 4.7537904
30.944489 -20.0723 4.6082587
31.447346 -20.253084 4.7545104
31.216166 -20.37401 4.6845522
31.32189 -18.911867 4.5308943
30.552605 -20.199186 4.5712714
31.330791 -21.53874 4.8332496
30.850639 -21.473221 4.7607355
30.84815 -20.380802 4.6100831
31.441015 -19.548134 4.6315432
30.862827 -20.845709 4.7172232
30.75766 -21.037825 4.6891675
30.652506 -20.008581 4.6094265
31.261711 -19.132032 4.5888844
31.041697 -20.370499 4.644289
30.461239 -20.36105 4.562037
31.329819 -20.726107 4.7708678
31.051369 -20.289431 4.6545987
31.152058 -20.153496 4.6185737
30.947369 -20.508158 4.6679945
31.282152 -18.998388 4.5385199
30.561914 -19.052565 4.4809508
31.35688 -19.702755 4.7197189
30.57325 -20.442522 4.5607247
30.475883 -19.830204 4.5471807
30.656481 -19.765882 4.5294867
30.949593 -19.976387 4.6148448
31.102928 -21.524052 4.7618113
30.654226 -20.37027 4.5800605
30.664387 -19.70896 4.5917692
31.160883 -21.080994 4.8010674
31.341429 -19.520197 4.6027808
30.855656 -19.759613 4.5669656
31.233633 -21.032721 4.7588315
31.309641 -19.752201 4.6458755
31.236233 -18.944206 4.5947661
31.423908 -21.032173 4.7959723
31.05175 -19.710619 4.646945
30.655922 -19.862833 4.5189691
30.661388 -20.839922 4.7054348
31.020016 -21.047884 4.7933078
31.583082 -19.885092 4.7539172
31.002426 -19.290668 4.6353455
31.140051 -20.939377 4.7505369
31.336603 -19.871819 4.6762009
30.640753 -19.535727 4.4949985
31.14356 -19.568897 4.6193409
30.9034 -20.977678 4.6793714
30.761044 -20.982285 4.6524377
31.05341 -19.576395 4.6032953
30.618176 -20.978466 4.6253562
30.791975 -20.148355 4.6850395
31.088957 -20.15757 4.7317915
30.554544 -20.105669 4.5787516
30.855886 -20.103067 4.6290321
30.955946 -19.569538 4.5883327
31.039949 -20.095798 4.6565189
30.854435 -19.98089 4.5965261
30.848051 -20.817875 4.6808887
31.506496 -19.54273 4.7345529
31.350904 -19.566734 4.6571112
31.337606 -20.106098 4.7169933
30.947006 -20.097292 4.6453671
30.641865 -20.544258 4.6692381
31.050022 -20.721962 4.7051167
30.759346 -20.721621 4.6635718
31.127731 -20.817175 4.7204032
31.124067 -20.905409 4.7120667
31.131739 -21.12233 4.7569814
30.74921 -21.253124 4.7128739
30.753651 -21.34734 4.7159672
31.151722 -21.037941 4.7613845
30.852028 -21.240711 4.7313023
30.854475 -21.347889 4.736177
30.564156 -20.604019 4.6058388
31.2377 -20.635765 4.7576504
31.230362 -21.137899 4.7617688
31.233366 -21.188469 4.7905755
31.255619 -21.34197 4.797646
31.138882 -20.410751 4.7020431
31.13982 -20.50733 4.70123
30.853806 -20.594246 4.6503463
31.142935 -20.729401 4.7256246
30.741735 -20.287594 4.6064267
31.036856 -20.408455 4.6856599
30.453039 -20.419327 4.5904732
31.045128 -20.504848 4.6830449
30.461885 -20.612297 4.626029
31.049421 -20.813608 4.7044892
30.754286 -20.818352 4.6636524
31.047485 -21.03002 4.7282262
30.54351 -19.765242 4.5069504
31.143881 -19.666555 4.6162491
30.856398 -19.879013 4.5964198
31.13533 -19.971441 4.6376882
31.135353 -20.288877 4.6682444
30.554663 -20.316221 4.611558
30.854403 -20.505327 4.6528358
31.149172 -20.603199 4.6968961
30.749195 -19.671736 4.5555477
31.052246 -19.668974 4.6038718
31.04673 -19.787888 4.6338763
30.754126 -19.889956 4.5817661
31.047983 -19.973577 4.6301908
31.403553 -20.420395 4.7161679
31.039251 -20.603453 4.675323
31.414722 -20.671284 4.7307172
31.439837 -20.703701 4.7843432
31.418934 -20.849051 4.765449
31.421925 -20.91291 4.7676158
30.650238 -19.45249 4.5079327
30.941906 -19.666624 4.5851254
30.651245 -19.666407 4.5335913
30.951584 -19.877617 4.6132216
31.049053 -20.908037 4.6933064
31.04537 -20.63051 4.7086101
31.054049 -21.348475 4.7564988
30.761316 -20.898663 4.6575847
31.050079 -21.220734 4.7280879
30.657139 -20.312527 4.6378164
30.847776 -20.289349 4.6230516
30.95273 -20.319674 4.6782746
30.849728 -20.3193 4.6620064
31.252005 -20.537697 4.7588882
30.932711 -20.537056 4.7082229
30.950687 -20.599316 4.6664171
30.942558 -20.633562 4.6993151
30.942368 -20.720564 4.693121
30.636492 -20.744209 4.7291398
31.243801 -20.727297 4.7517347
31.249805 -20.842661 4.7959518
30.945337 -20.821198 4.6945491
30.943064 -20.907522 4.6905031
30.952166 -21.03957 4.7971525
30.957783 -19.388222 4.6133471
30.955231 -20.68578 4.6492391
31.051748 -19.535944 4.5565724
30.749058 -19.763113 4.5507312
31.049126 -19.882498 4.6326427
30.857281 -20.534264 4.7022829
30.655128 -20.506262 4.6223488
31.234449 -20.517233 4.7282543
31.267298 -20.936043 4.7709908
30.652603 -21.160925 4.7068634
31.240658 -21.245211 4.808816
30.953344 -21.406527 4.7931414
31.478493 -19.433899 4.6835423
30.85318 -19.483133 4.5773773
31.145967 -19.468485 4.6319408
31.247297 -19.57379 4.6402817
31.240818 -19.671453 4.6402564
30.953823 -19.79034 4.6187725
31.517311 -19.776489 4.7222638
31.251514 -19.782969 4.6734023
31.242064 -19.890823 4.6734219
31.273907 -20.310886 4.7354546
31.268877 -20.4081 4.7376714
31.422831 -20.513319 4.7626514
31.133196 -20.623203 4.7290225
31.462734 -20.843399 4.8440423
31.460459 -20.941914 4.8307352
31.132017 -21.343496 4.7826447
31.251335 -19.485209 4.6560073
31.54698 -19.458721 4.7142844
31.05138 -19.927876 4.6868858
31.050936 -20.008474 4.6717863
31.310579 -20.306385 4.7443314
31.050402 -20.31966 4.696919
30.856005 -19.451618 4.5413704
30.856228 -19.571568 4.5702906
30.943954 -21.435204 4.7511101
31.142651 -20.311031 4.708621
31.143009 -19.449787 4.5856247
30.856247 -19.66522 4.5694942
31.140184 -19.880232 4.6429119
30.648029 -19.977123 4.5640659
31.245522 -20.287651 4.6818705
30.952316 -20.288195 4.64011
30.654596 -20.405645 4.6201735
30.759678 -19.979588 4.5813975
30.563568 -20.634094 4.6309586
31.113611 -20.681341 4.6808581
30.563995 -20.823339 4.6340284
30.842068 -20.901571 4.6742325
30.854055 -21.0338 4.7040253
30.465654 -19.265888 4.4716964
31.028816 -19.236244 4.5298057
31.048891 -19.453714 4.5698905
31.154924 -19.539551 4.5768967
30.650198 -19.572111 4.5308309
31.023787 -19.399708 4.6370316
30.859957 -19.78631 4.6043568
30.754187 -19.79163 4.5869727
31.144497 -19.906277 4.7073836
30.659054 -19.803593 4.5732522
30.672703 -20.915733 4.636302
30.457548 -20.319757 4.575994
31.046005 -19.260614 4.5824213
30.760189 -19.446892 4.5290399
30.768505 -19.543278 4.5156798
30.551245 -19.566074 4.5199094
30.640371 -20.714556 4.6415362
30.771349 -19.237751 4.4927235
30.655848 -19.262711 4.5145483
30.952253 -19.759455 4.5833712
30.760998 -20.60088 4.6381707
31.046534 -19.484222 4.609416
30.859848 -19.910559 4.6594214
31.154837 -21.537979 4.8306732
30.766874 -19.713942 4.6010156
30.949158 -19.261583 4.5633984
30.658491 -19.355799 4.5061326
30.649929 -19.482933 4.5502577
30.649591 -20.286531 4.589797
31.132601 -21.246134 4.7802591
30.561022 -20.898487 4.6282721
30.747696 -21.217533 4.6788316
31.138735 -19.767862 4.6085768
31.142197 -19.857361 4.5989203
30.840784 -21.212347 4.6941094
30.855404 -19.228287 4.5118504
31.054985 -20.68306 4.6687098
30.945175 -19.448765 4.5545421
30.749905 -19.565025 4.5542111
31.236649 -19.765684 4.6299567
30.754877 -20.319077 4.6510277
30.938496 -21.208735 4.7136536
31.140907 -21.434374 4.7779121
31.256021 -19.451605 4.6027722
30.851067 -19.264929 4.5417366
31.330345 -19.347551 4.6201873
31.147985 -19.786055 4.6602054
31.340437 -19.976254 4.698195
31.3624 -20.28442 4.7165208
31.335094 -20.435099 4.7262897
31.347023 -20.506002 4.736177
31.356968 -20.613348 4.7621913
31.339424 -20.835136 4.7803111
31.3349 -21.050045 4.7945995
31.350727 -21.218731 4.8265405
31.341084 -21.333818 4.8303103
31.140139 -20.854845 4.7543759
31.34374 -21.132811 4.8379698
30.775267 -19.607033 4.6951795
30.558762 -19.345966 4.5066366
30.851982 -20.690704 4.6370368
31.091824 -19.395134 4.5183053
31.07272 -21.013235 4.689971
31.058996 -21.301268 4.715436
30.964003 -19.536844 4.5476255
31.237303 -20.819466 4.7325311
31.302221 -21.12023 4.7831535
30.850227 -21.441816 4.731914
31.046747 -18.843676 4.5321975
30.848276 -19.139809 4.5186996
30.774679 -21.066879 4.740912
30.94342 -20.857637 4.7244048
31.236185 -19.267239 4.6142654
31.425678 -19.579151 4.6779933
31.437195 -19.750053 4.7021799
31.451679 -20.338028 4.7551675
31.464008 -20.632986 4.7992311
31.033232 -20.847189 4.7523742
31.342098 -20.002939 4.7185507
30.947424 -20.007292 4.6580253
30.978268 -19.834698 4.5683699
30.815329 -20.45042 4.5975432
31.358265 -19.500601 4.6916127
30.655281 -20.679619 4.611372
30.660236 -19.226036 4.4771495
30.998413 -20.448753 4.6261902
30.830521 -20.980249 4.6586375
30.883484 -21.289616 4.6902814
30.951023 -19.050846 4.5427542
30.752071 -19.475309 4.5600972
31.304153 -20.870407 4.7947998
31.150017 -19.260817 4.5974922
30.955231 -19.232101 4.5220213
31.228024 -21.227198 4.7566791
31.144716 -19.226141 4.5494881
31.241009 -20.924417 4.7357678
31.148073 -21.207449 4.7370663
31.274538 -21.453724 4.7818046
31.277956 -21.506542 4.7898941
30.745745 -19.166824 4.5383172
30.951353 -19.477654 4.6026764
31.143089 -20.001925 4.6922131
30.547237 -19.972137 4.5500221
30.853956 -20.012455 4.6405845
30.846117 -19.17144 4.559154
31.218082 -20.602598 4.7078023
30.84663 -18.917168 4.484817
31.202471 -20.970541 4.7156129
30.663645 -18.950794 4.4923286
30.732645 -18.91724 4.4748182
30.850878 -18.947515 4.5279088
31.042877 -19.176844 4.5900664
30.748804 -20.012768 4.6217346
30.749207 -20.534492 4.6862173
30.955042 -19.173843 4.5795741
30.867157 -19.681246 4.6259756
30.652924 -19.186441 4.5193844
31.355839 -20.929949 4.7876811
31.302 -19.148392 4.7482886
31.232801 -19.912664 4.7366896
30.967873 -19.403011 4.4157672
30.562908 -19.79064 4.560535
31.341536 -19.592751 4.7223892
30.919264 -21.524689 4.736177
31.032185 -20.553062 4.7144895
31.107914 -20.560434 4.7301259
30.956917 -19.319498 4.4034524
31.007812 -19.609041 4.6528897
30.969976 -19.601969 4.6557369
31.149384 -19.70434 4.6836305
31.325006 -19.654406 4.6608071
30.949842 -18.948385 4.5419898
31.25049 -18.834625 4.5714159
30.943066 -19.929115 4.6775355
31.226116 -19.17594 4.6441255
30.852064 -19.0797 4.5848651
31.147158 -18.954403 4.5732555
31.258583 -19.214199 4.5658231
30.944071 -18.91172 4.5021081
31.332514 -19.255396 4.6184816
31.47937 -19.207035 4.6270795
31.50322 -19.429453 4.6423707
31.534653 -19.341782 4.6389918
31.251808 -19.038338 4.58251
30.798338 -19.527012 4.6911502
30.899229 -19.18092 4.6797433
30.873274 -20.460711 4.7371182
31.334862 -18.959969 4.6148882
31.056467 -18.952423 4.5630245
30.620693 -20.382797 4.6929989
31.136522 -19.171671 4.6010175
31.172701 -19.078394 4.6379309
30.626488 -19.094833 4.5308223
31.054379 -19.854383 4.5806756
31.338734 -19.156221 4.6503091
31.330635 -19.792233 4.6876035
30.484146 -20.064724 4.5795937
30.568213 -19.182236 4.4987893
30.757931 -20.096788 4.6158714
31.138443 -21.474054 4.8234072
31.2393 -19.995049 4.7015848
30.757254 -20.190035 4.6096759
31.248064 -21.472668 4.843245
31.303015 -21.498222 4.823637
30.850277 -20.196556 4.6249075
31.435499 -19.835463 4.7028418
31.05175 -19.077753 4.6055226
31.352869 -19.45714 4.6318445
30.749632 -20.831867 4.7077689
31.051359 -20.435215 4.7593493
30.840788 -20.759089 4.7523236
31.058508 -21.432062 4.7584896
31.451818 -19.503904 4.6353788
