# .PCD v0.7 - Point Cloud Data file format
VERSION 0.7
FIELDS x y z
SIZE 4 4 4
TYPE F F F
COUNT 1 1 1
WIDTH 653
HEIGHT 1
VIEWPOINT 0 0 0 1 0 0 0
POINTS 653
DATA ascii
-8.3716612 25.101776 -23.213522
-9.5927372 23.939779 -23.094381
-9.533803 23.870337 -23.206987
-8.3278217 25.399221 -23.212208
-9.7086859 23.933281 -23.200132
-10.106707 24.711063 -23.058218
-9.643466 25.055441 -22.977789
-10.058917 24.395166 -23.037355
-9.5083017 25.140455 -23.091312
-9.8904333 24.196955 -23.146013
-8.4104595 25.17754 -23.233101
-9.2986345 25.185959 -23.096487
-9.630023 24.781717 -23.019489
-9.4477043 24.900331 -23.026888
-10.111972 24.708471 -22.987785
-9.5982018 24.341724 -23.194546
-9.6107903 24.015125 -23.166964
-9.492444 24.884989 -23.051682
-9.4192877 24.819811 -23.090616
-8.8506765 25.471205 -23.081022
-8.6441765 25.43911 -23.123795
-9.1302109 24.136135 -23.155807
-9.3608294 23.917471 -23.065573
-9.034483 24.199194 -23.25766
-9.8230858 25.591532 -22.941883
-8.3542557 24.181137 -23.18844
-9.1307259 24.11339 -23.107073
-8.5938292 24.147022 -23.323254
-8.1357307 24.275604 -23.330353
-9.6193066 24.718969 -23.030792
-8.2743092 24.685221 -23.246239
-8.8233938 24.355183 -23.208088
-9.6914301 24.686546 -23.066151
-8.3395605 24.926649 -23.187342
-8.3610525 24.697485 -23.215349
-9.2020464 24.903147 -23.097225
-9.6018009 23.943052 -23.026436
-8.1376123 25.002375 -23.323343
-8.9338579 24.402006 -23.180719
-8.7359247 24.480886 -23.353615
-9.288228 24.527771 -23.077227
-9.0554113 25.286201 -23.043558
-8.8801832 24.321939 -23.22629
-8.7972927 24.209972 -23.240126
-8.9950733 25.2015 -23.110952
-9.9355946 24.133785 -23.050102
-8.5615273 25.156382 -23.170458
-7.4522266 24.313665 -23.411551
-8.5185633 24.29154 -23.26512
-8.1169462 24.808439 -23.31426
-8.2280064 24.279261 -23.31254
-8.1616383 24.700298 -23.212452
-8.73909 24.178505 -23.281803
-8.3736572 25.150124 -23.254393
-8.3352947 24.738922 -23.267826
-9.556139 24.19099 -23.174465
-9.849328 24.174984 -23.114803
-10.02133 24.142099 -23.05587
-9.5087652 25.282532 -22.965982
-8.5668554 25.559706 -23.210783
-8.9236021 24.201122 -23.252443
-9.3128939 24.91547 -23.081314
-7.415617 24.869133 -23.401245
-9.4212894 24.186621 -23.186205
-9.7314482 24.10206 -23.041277
-8.4341574 24.926762 -23.236992
-9.4146814 25.211668 -23.053259
-8.4374838 24.73258 -23.281414
-8.9408216 25.261333 -23.108498
-8.5258265 25.172506 -23.207291
-8.5700397 24.617836 -23.148478
-9.4600697 23.924423 -23.118416
-9.2093515 24.471289 -23.120514
-8.4417639 24.672976 -23.231829
-9.8389187 25.731092 -22.829809
-9.6963167 24.815563 -23.027054
-10.119293 24.144718 -23.021851
-7.6486349 24.678047 -23.340698
-7.5829849 24.786091 -23.358631
-8.3770218 24.797091 -23.248363
-8.0797415 24.72209 -23.277624
-9.9350986 25.856903 -22.807661
-9.6259651 25.885174 -22.811676
-8.9299431 24.138769 -23.186029
-9.9351082 25.574682 -22.917624
-9.2286434 25.831587 -22.931988
-9.231596 24.197084 -23.222687
-9.3626814 25.65206 -23.057232
-9.2327957 25.627642 -23.074387
-9.6271248 25.845272 -22.86853
-9.3565807 24.813129 -23.044142
-8.4101973 25.878057 -22.905821
-7.5197849 25.163252 -23.368931
-7.4180255 24.377512 -23.417086
-8.8809366 24.916122 -23.25375
-9.6107731 24.803766 -23.077116
-9.832243 24.102953 -23.093311
-9.4405384 24.490601 -23.126991
-8.9434519 25.211786 -23.090117
-9.1279478 24.921629 -23.102629
-8.7737818 24.614477 -23.098125
-9.9251642 24.038639 -23.016005
-8.8356962 24.045528 -23.181253
-9.7411356 24.757023 -22.965984
-8.6275063 25.178381 -23.183138
-7.6343513 25.184715 -23.326036
-8.5329208 24.733503 -23.231398
-8.4213514 24.816832 -23.224907
-9.5550289 24.622295 -23.094688
-8.5483093 24.803249 -23.211386
-9.7303057 24.949572 -23.074854
-8.4399586 25.294361 -23.197315
-8.6480818 24.464622 -23.205563
-9.2288027 25.807207 -22.996628
-7.4169178 25.189821 -23.362682
-8.472353 24.36454 -23.159708
-9.6215115 24.249161 -23.112614
-8.8397093 25.273806 -23.120623
-7.7303042 24.33885 -23.421591
-8.3217163 25.710291 -23.159246
-9.0019646 24.881365 -23.184587
-8.5410509 24.682125 -23.21055
-7.3502336 24.667421 -23.410309
-8.9631891 24.282766 -23.149345
-9.5240974 24.060406 -23.143885
-8.7300816 24.076027 -23.251036
-8.5247936 24.514872 -23.244736
-9.1304541 25.443253 -23.046778
-7.4402552 24.645004 -23.389929
-7.5132141 24.673582 -23.415874
-9.325058 24.06687 -23.173176
-8.8904819 24.176888 -23.09038
-7.5333033 25.409912 -23.332701
-7.752852 24.659985 -23.375351
-9.4009018 24.464712 -23.181351
-8.3543119 24.105627 -23.175077
-7.7886877 24.404243 -23.372046
-7.9239812 24.161371 -23.383434
-7.5132761 24.39155 -23.375881
-8.7667742 24.237906 -23.227068
-8.9207859 25.137678 -23.111832
-8.6265392 24.740332 -23.210154
-9.1323671 25.807056 -23.002811
-9.2983837 24.123199 -23.085381
-9.2230787 24.385237 -23.156952
-10.03231 24.102961 -22.991299
-8.5249996 25.276619 -23.176445
-8.7272253 24.111891 -23.162636
-8.7914886 24.557783 -23.213747
-10.239862 24.121555 -22.935219
-8.7152185 24.521725 -23.210083
-8.7481499 24.693417 -23.172365
-9.2252016 25.295578 -23.011614
-9.2598448 25.243889 -23.026731
-9.0291958 24.071547 -23.208918
-7.2677302 25.230501 -23.371521
-8.7008572 24.484556 -23.189661
-8.4351635 24.50794 -23.257935
-8.6851521 25.520157 -23.071604
-9.3488903 24.59219 -23.230623
-9.8344402 25.755445 -22.794287
-7.5432639 24.500504 -23.394857
-8.9312172 24.067778 -23.220623
-7.4205542 24.718897 -23.391996
-8.6280947 24.077974 -23.257238
-8.6260328 24.912367 -23.175522
-8.4174013 24.449324 -23.241331
-8.3483763 24.497547 -23.274487
-8.3991785 25.021877 -23.158222
-7.6165872 25.290852 -23.364635
-9.4418583 24.466146 -23.112978
-8.1123457 24.449163 -23.35173
-7.7324381 25.481319 -23.288376
-8.8474321 25.185804 -23.169228
-8.6346102 24.506481 -23.235975
-9.2215033 24.512032 -23.170105
-8.9295692 24.955198 -23.155394
-9.022027 25.136824 -23.095085
-9.2326689 25.707565 -23.052475
-9.0205803 25.210831 -23.069952
-8.427948 25.799479 -23.106104
-9.0139036 24.721052 -23.172722
-8.5170841 24.200306 -23.301512
-8.4197836 24.375097 -23.37381
-9.0274515 24.140833 -23.166927
-7.8246508 25.305328 -23.303501
-8.4351282 24.436436 -23.288937
-8.5205603 25.807438 -23.088604
-9.0645094 24.807564 -23.05562
-8.6484728 25.593016 -23.188953
-9.3152485 24.511127 -23.163572
-9.3237305 24.138639 -23.133842
-8.795701 24.091745 -23.130579
-8.4281816 24.076834 -23.283714
-8.8242254 25.344997 -23.105677
-8.7282019 24.608044 -23.188604
-9.1285143 24.209747 -23.224834
-8.4237556 24.204439 -23.303274
-9.6335859 24.523552 -23.137768
-9.3386812 25.783016 -22.942518
-8.7401857 25.269264 -23.139576
-9.2169838 24.808023 -23.109175
-8.0704861 24.639351 -23.319281
-8.4316988 24.141779 -23.269264
-8.9496775 24.516541 -23.222301
-7.6213713 25.490456 -23.313229
-8.9063416 25.087738 -23.1877
-9.380373 25.512234 -22.972027
-9.5088482 24.106588 -23.069092
-9.7237511 24.073145 -23.123575
-9.8773584 24.317255 -23.118511
-9.9559479 24.370506 -23.027048
-9.7674818 24.262419 -23.07934
-9.6069756 25.296999 -23.18564
-8.6386509 25.39711 -23.163811
-9.4289131 24.066595 -23.160007
-8.3292627 25.81098 -23.123281
-9.526329 24.495216 -23.116484
-8.8386812 25.137096 -23.131571
-8.635541 25.131447 -23.169313
-9.7212305 25.782341 -22.880199
-8.9204035 24.828135 -23.156406
-9.7296572 25.251648 -22.948082
-9.1283436 25.128763 -23.074612
-8.7334509 24.531639 -23.15033
-8.9516544 25.334082 -23.095091
-8.9326458 24.91769 -23.127602
-8.0607243 24.317047 -23.337198
-9.1233358 24.818853 -23.136284
-7.5752444 25.03241 -23.417025
-9.3311319 24.430738 -23.189434
-7.7898612 24.732805 -23.331732
-8.8274755 24.816946 -23.16942
-9.0009451 24.362267 -23.282907
-8.7353077 24.91115 -23.157478
-8.463376 24.539803 -23.191065
-10.020547 25.753738 -22.866655
-7.9592118 24.411285 -23.324158
-7.5196304 24.631966 -23.370966
-7.720005 25.190691 -23.344275
-8.5092783 24.633896 -23.272745
-9.2178278 25.498676 -22.999922
-9.7445936 24.926355 -23.016916
-8.3388205 24.597044 -23.256687
-9.4298925 24.3456 -23.207529
-8.2393551 24.601816 -23.296078
-8.0379868 24.460487 -23.294146
-9.1366463 24.650253 -23.1931
-9.0140781 24.921011 -23.109976
-9.4021072 24.013004 -23.194813
-8.8194113 24.860674 -23.058853
-8.6229649 24.268425 -23.210644
-7.5431271 25.497221 -23.331083
-9.0516262 25.65424 -23.030571
-7.7939997 24.952089 -23.341648
-9.2480021 24.690046 -23.111456
-8.4410353 24.288996 -23.283545
-9.1000452 25.233847 -23.061527
-7.7861733 25.188074 -23.294487
-7.4360228 24.501833 -23.404928
-9.4498186 24.218256 -23.08688
-9.6972446 25.267586 -23.089842
-8.9413338 24.635773 -23.217312
-9.3562422 25.358936 -23.024937
-9.2355232 24.444496 -23.201847
-8.3300066 24.391224 -23.281208
-9.5580025 25.762957 -22.829735
-9.3187714 24.400999 -23.141115
-9.1237888 24.733921 -23.159992
-7.5717506 25.392824 -23.293749
-8.7301493 24.826433 -23.17926
-8.5360918 25.701262 -23.123924
-8.3317833 25.658787 -23.137197
-9.0313063 25.046227 -23.104908
-8.5280733 24.465727 -23.222792
-9.6728716 25.546305 -22.945463
-7.5588923 25.046583 -23.346827
-8.4210434 24.392979 -23.264551
-9.1282454 25.05341 -23.092236
-8.2674246 24.64662 -23.290619
-8.2252197 24.199272 -23.341455
-9.0131083 24.645962 -23.206875
-8.734663 25.132669 -23.147892
-8.9369469 25.195166 -23.136616
-9.6854725 23.885738 -23.146778
-8.6199083 25.368256 -23.142359
-9.1322002 24.983604 -23.086231
-7.5117073 24.745298 -23.379665
-8.7299261 25.039051 -23.167574
-9.2920561 25.304834 -22.987606
-7.7500291 24.619658 -23.348389
-9.1078033 25.87215 -22.84985
-9.0286245 24.99123 -23.070971
-9.0166693 24.401047 -23.198982
-8.8324537 24.918829 -23.142096
-8.5343418 24.603806 -23.22554
-9.431016 25.802401 -22.970572
-9.3400574 24.610743 -23.100655
-8.5322313 25.838562 -23.019934
-7.7166553 25.395481 -23.33408
-9.2182026 24.724709 -23.132828
-9.2816029 24.670782 -23.145655
-8.7433243 25.181784 -23.16213
-7.4523401 24.640657 -23.401644
-9.8338203 24.880281 -22.989586
-8.6381226 25.806643 -23.067602
-9.3796549 24.637596 -23.192762
-8.2483358 25.671841 -23.153593
-8.2420969 24.264448 -23.269405
-9.3038712 25.41028 -23.032255
-8.9300423 24.989193 -23.109232
-9.1120968 25.273588 -23.081507
-7.6164536 25.33573 -23.300533
-9.7278061 24.024111 -23.05024
-8.022933 24.364248 -23.306448
-8.9159946 25.58601 -23.082964
-8.7753496 25.213299 -23.12396
-9.5329494 25.701077 -22.975372
-8.3274851 25.588997 -23.16254
-8.4591246 24.641315 -23.263952
-9.1136036 25.36355 -23.060747
-8.731369 24.736572 -23.211632
-8.4273119 25.836622 -23.037809
-9.0364304 25.34605 -23.077784
-8.7257376 25.537502 -23.084797
-7.6279144 24.735243 -23.36887
-7.8039227 24.643656 -23.433002
-9.5005627 25.142899 -23.165632
-9.3997459 25.686943 -22.992611
-8.5668869 25.204782 -23.150665
-9.025239 24.603138 -23.181244
-8.847064 24.996685 -23.106869
-9.0940523 24.72588 -23.2507
-7.6351857 25.089939 -23.386076
-9.1266775 25.835152 -22.935438
-8.3429718 25.488979 -23.178413
-8.9254847 25.040264 -23.129128
-8.3246803 24.426125 -23.307663
-9.0148373 25.273201 -23.096264
-8.2131681 24.519756 -23.296267
-8.9744606 25.703531 -23.043867
-9.9627228 24.300367 -23.082823
-9.8201256 25.321789 -22.939924
-8.6072683 24.655628 -23.275763
-8.4387074 25.674026 -23.120638
-8.4318476 25.582569 -23.140882
-8.763319 24.991808 -23.137426
-8.1150208 24.597935 -23.321627
-8.7255087 24.66321 -23.236223
-8.5284615 24.74691 -23.144772
-8.6228638 24.136726 -23.239565
-8.3409863 25.422346 -23.162645
-9.2231007 25.858946 -22.968376
-8.5562944 24.260408 -23.208563
-8.4417162 24.593531 -23.237249
-9.5986166 25.398785 -23.13254
-9.147193 24.566826 -23.235998
-8.6193676 25.569025 -23.103273
-9.4749098 25.201023 -23.041025
-9.1526842 25.404816 -23.107491
-9.3271389 24.235807 -23.137829
-9.9520102 24.609325 -23.058867
-9.8432446 24.83267 -23.010187
-9.2102795 25.374208 -23.048183
-7.8254395 24.190971 -23.392296
-9.1580372 24.683645 -23.110336
-8.6516609 25.472933 -23.138054
-8.2130346 25.198771 -23.271244
-7.7603908 25.113884 -23.293026
-8.8308296 24.967674 -23.170864
-8.8287392 25.043379 -23.147123
-8.8497028 24.776314 -23.118874
-8.9953585 24.957346 -23.151737
-9.7883205 24.620607 -23.027298
-7.6102691 24.40913 -23.385414
-8.8443098 25.223448 -23.095638
-8.7240295 25.362997 -23.123091
-8.2543058 25.586117 -23.17017
-8.6357079 24.81189 -23.194477
-9.1448317 25.560766 -23.04265
-8.7005396 25.484684 -23.109402
-7.5688286 25.074137 -23.373466
-8.4084721 24.238682 -23.230747
-8.4379644 25.37388 -23.173286
-8.6357822 24.341192 -23.327572
-8.6555042 25.735628 -23.110617
-7.7031322 24.901373 -23.376986
-9.0178261 25.576546 -23.081205
-8.2387648 24.374268 -23.296013
-8.5319576 24.390066 -23.249781
-7.4404469 24.806425 -23.386765
-9.6297131 25.78355 -22.89502
-9.6126356 24.108423 -23.045008
-8.6174955 24.686987 -23.196806
-9.4902439 23.949133 -23.024406
-8.2252254 25.702061 -23.176994
-7.792377 24.509399 -23.361645
-8.9386835 24.617966 -23.19208
-7.5112057 25.269819 -23.328825
-8.2394543 24.708361 -23.281498
-8.2502031 24.44882 -23.275291
-7.8087344 24.631264 -23.344086
-8.4398355 25.447344 -23.148478
-8.900528 24.728323 -23.140764
-8.7329903 24.764574 -23.149054
-8.2618732 25.411047 -23.232246
-8.5090466 25.392412 -23.199774
-8.4256916 25.429464 -23.202486
-9.236021 24.600945 -23.142113
-8.5903435 24.435881 -23.257336
-9.0169182 24.692759 -23.138573
-8.8250656 24.697863 -23.148478
-9.4398088 24.700294 -23.06811
-8.8980198 24.782347 -23.107519
-8.9193678 24.7353 -23.184919
-9.5180054 25.40163 -22.979921
-7.9209447 24.280434 -23.374174
-8.6316786 25.058477 -23.181524
-9.2298164 25.486698 -23.052219
-9.8526392 25.677872 -22.949078
-9.0049505 24.842098 -23.150131
-8.3112574 25.885281 -22.973736
-9.2201853 25.451004 -23.030354
-8.7548618 24.560093 -23.273455
-8.7967148 24.887445 -23.198034
-8.8251143 24.749575 -23.194096
-7.7216611 24.959948 -23.337034
-8.2718048 25.469833 -23.28183
-8.3580847 24.884628 -23.137932
-8.9374304 25.426527 -23.088234
-8.5471315 25.059826 -23.207754
-7.7931614 24.848167 -23.327602
-8.1234856 24.203545 -23.349848
-9.6269131 25.488974 -22.962269
-7.5253386 25.125013 -23.344124
-9.4567699 25.718361 -22.98465
-9.1021776 25.693401 -23.063684
-8.4026203 25.041006 -23.228924
-9.5871429 24.556925 -23.168835
-9.2425976 25.8873 -22.844358
-8.8971519 25.719963 -23.072783
-8.3183432 25.039837 -23.233355
-8.2677298 25.028677 -23.227175
-7.7407875 24.827063 -23.344465
-8.7506199 24.864359 -23.226107
-8.1386957 24.374945 -23.312832
-8.6199484 25.256407 -23.160069
-9.1924658 25.915922 -22.923244
-7.7153797 25.041325 -23.337698
-7.3899059 25.273493 -23.349752
-9.2199039 25.78418 -22.959122
-8.8298492 24.381992 -23.257957
-7.7401819 25.294451 -23.314699
-8.7160425 25.448799 -23.091288
-8.4357576 25.481445 -23.162518
-9.2371082 25.660973 -23.018824
-9.4103661 24.102472 -23.064457
-9.0047493 24.10713 -23.130068
-7.6432853 25.297182 -23.330858
-9.6168842 24.064264 -23.131783
-8.5277224 25.437378 -23.136202
-8.727643 24.130249 -23.217655
-8.5162687 25.478268 -23.152269
-9.4290791 25.021551 -23.0273
-9.4456711 24.04446 -23.094593
-9.5755615 25.47053 -23.088808
-7.5146422 24.297182 -23.404055
-7.5986228 24.894093 -23.38055
-8.7136869 25.327892 -23.233931
-7.5749846 24.669889 -23.275599
-8.618103 24.286718 -23.237404
-8.5322113 24.425066 -23.27301
-9.4238901 24.605978 -23.097639
-9.1508417 24.453146 -23.152885
-8.5296936 25.568707 -23.124458
-8.1763773 25.522863 -23.188021
-8.6348429 24.95483 -23.201292
-8.1139326 25.581871 -23.199224
-8.2526236 25.49962 -23.18432
-8.1109428 24.518894 -23.309149
-9.7363224 25.03796 -23.019964
-9.0558157 24.962969 -23.000128
-9.3227882 25.664272 -23.005152
-8.6061306 25.239712 -23.263224
-9.2839851 25.504915 -22.99472
-9.2229595 25.57592 -23.029408
-8.1880379 25.204563 -23.221651
-8.9802198 25.712824 -23.062178
-8.4574022 25.567085 -23.228956
-9.852581 25.119398 -23.038082
-8.2917509 25.262297 -23.211292
-9.5258226 24.135424 -23.12081
-8.524663 23.962294 -23.208044
-9.7204285 24.173965 -23.158691
-8.3666592 25.361958 -23.195324
-8.5624123 25.264847 -23.2691
-8.649045 25.257607 -23.251156
-9.4533377 25.048262 -23.032986
-8.786252 25.294201 -23.237684
-8.2776508 24.445536 -23.300573
-9.6157322 24.027639 -23.074768
-7.7168245 25.073698 -23.370594
-8.1370373 25.249203 -23.242918
-9.3086786 25.468647 -23.039114
-7.894393 25.11883 -23.333586
-8.6591473 25.614273 -22.998499
-9.0450335 25.663893 -22.921852
-8.6199894 24.383604 -23.222727
-8.1599312 25.03043 -23.278008
-9.4895411 25.386841 -23.022345
-9.5138712 24.030943 -23.082941
-8.5264177 24.959682 -23.248611
-9.3226452 24.333984 -23.068254
-9.1138287 24.360012 -23.189957
-9.6725168 24.215729 -23.075596
-9.4033585 23.944813 -23.002636
-9.7918806 24.054127 -23.048916
-9.9810638 24.762566 -22.996012
-10.056486 24.680933 -23.004789
-9.5928879 24.955513 -22.998259
-9.5565557 25.125879 -23.01943
-9.1227512 24.223383 -23.16593
-9.7871599 25.144121 -22.978273
-9.3221159 24.468529 -23.113775
-8.5043421 24.092772 -23.170795
-8.3576784 24.889458 -23.261347
-9.6542339 25.024929 -23.008625
-10.132997 24.123541 -22.97617
-9.2170877 24.762192 -23.069071
-9.4454079 24.751934 -23.076723
-8.0235767 24.736536 -23.31222
-9.6114397 24.48872 -23.052471
-9.3596077 24.822365 -23.085375
-8.9954453 24.431391 -23.143095
-9.4722443 25.132694 -22.997393
-9.2954407 25.035519 -23.026955
-8.522521 24.141279 -23.255146
-9.2360811 24.136358 -23.089993
-9.9099808 24.309698 -22.943726
-9.2893934 24.932295 -22.98102
-9.3300533 25.718794 -23.021467
-9.6952658 24.721598 -23.082544
-9.5555553 23.995104 -23.132454
-8.132472 24.135462 -23.309978
-8.251502 24.824564 -23.233818
-9.9559536 24.115019 -23.009029
-8.5285168 24.078304 -23.273125
-7.815753 24.455465 -23.415102
-9.079936 24.979893 -23.109417
-8.7330236 24.963331 -23.182585
-7.3626151 24.852982 -23.400621
-8.9466372 24.414825 -23.253166
-7.5319905 24.811655 -23.362833
-10.015703 25.854095 -22.806158
-8.6469536 24.090921 -23.189295
-9.2326403 24.136021 -23.147642
-8.7143078 25.110064 -23.2307
-9.7239323 25.471664 -22.910791
-9.5798445 24.704525 -23.080568
-9.6320639 24.129564 -23.096291
-8.9317169 24.09091 -23.120571
-8.1218643 25.137278 -23.255329
-8.5634127 24.911503 -23.185551
-9.0291243 25.406666 -23.133598
-8.3273745 24.140749 -23.284843
-9.1399059 25.775675 -22.85062
-8.5741444 25.796535 -22.936327
-9.4448214 24.346302 -23.003046
-8.7534218 25.79327 -22.898094
-9.1337128 24.602001 -23.148899
-9.7995062 24.367908 -23.166418
-8.3276434 24.20554 -23.327738
-9.9196529 24.589254 -23.101881
-7.3771434 25.023172 -23.385975
-9.2863798 25.081829 -23.123384
-8.9820776 25.107292 -23.171415
-9.4152498 25.13592 -23.161322
-9.7431707 25.123672 -22.98431
-9.5361528 25.042492 -23.029278
-9.1223793 24.428865 -23.208292
-7.6538506 25.053553 -23.340609
-7.2420411 25.113789 -23.390318
-9.3244743 25.600588 -23.002651
-9.3843765 25.563692 -23.015614
-8.5302868 25.78429 -23.052555
-9.8925667 24.231276 -23.020161
-9.0259256 24.441916 -23.210623
-9.497941 24.290329 -23.216553
-8.4386778 25.710413 -23.136713
-7.5353546 24.898912 -23.378012
-7.4547205 25.04748 -23.35737
-8.4337168 25.787394 -23.061541
-9.4382372 25.589664 -22.921415
-9.2176523 24.333658 -23.230341
-9.1491623 24.331627 -23.240875
-9.6241131 25.103065 -23.004187
-9.2065639 24.650951 -23.205545
-7.3390412 24.915888 -23.393057
-7.5279026 24.93593 -23.359758
-8.2971783 24.665096 -23.27561
-7.4362454 24.936396 -23.385563
-7.6306915 25.39226 -23.34519
-7.6290636 24.953886 -23.358971
-7.4711485 24.999601 -23.434738
-9.1322565 25.785381 -22.963758
-9.5305805 25.77668 -22.907663
-9.6935349 25.840073 -22.73308
-9.6561985 23.916986 -23.251535
-7.7878237 25.500492 -23.285309
-9.1344843 24.309191 -23.197428
-7.4560657 25.092226 -23.377117
-8.6294575 25.840246 -23.008146
-8.8083 24.498453 -23.168882
-9.7941341 24.301931 -22.974478
-7.8254194 24.318586 -23.359056
-10.019961 24.514187 -23.10503
-8.4422274 24.08762 -23.186283
-8.5329151 25.355833 -23.15971
-8.8249683 24.139799 -23.19858
-7.7259431 24.329115 -23.389563
-9.3204021 25.828821 -22.919697
-9.7181034 24.143419 -23.090816
-9.4262705 24.140749 -23.126968
-8.2271023 24.136593 -23.301615
-9.8175316 24.134098 -23.069265
-9.0414658 25.487751 -23.097832
-8.5259972 25.673807 -23.098116
-8.9767694 25.481749 -23.067972
-8.6434717 25.784632 -23.025826
-9.131197 25.478783 -23.072569
-8.7423973 25.786055 -23.020525
-8.8171272 24.621698 -23.18853
-8.8238478 24.622679 -23.241404
-8.6339951 24.598373 -23.209721
-7.7382231 24.374453 -23.335188
-9.0231247 25.785933 -22.982759
-8.9314203 25.790148 -22.989758
-9.4313488 25.783056 -22.932003
-8.6014557 25.670151 -23.081161
-9.5460234 24.814709 -23.050371
-8.5412245 25.09128 -23.247042
-9.8743229 24.435385 -23.147087
-9.1616821 25.662079 -23.012291
-9.8944969 25.692078 -22.86281
-9.1245375 24.520067 -23.171865
-9.2282181 24.294586 -23.19725
-8.3270769 24.301579 -23.298662
-9.4980545 24.293371 -23.134897
-9.3624125 24.371738 -23.21138
-9.3124361 24.293947 -23.184828
-9.0552187 24.29991 -23.216736
-9.4277401 24.296743 -23.16741
-9.0301609 24.526213 -23.199888
