# .PCD v0.7 - Point Cloud Data file format
VERSION 0.7
FIELDS x y z
SIZE 4 4 4
TYPE F F F
COUNT 1 1 1
WIDTH 563
HEIGHT 1
VIEWPOINT 0 0 0 1 0 0 0
POINTS 563
DATA ascii
7.0323133 6.8419805 -18.819071
7.1277227 7.4835701 -18.762011
7.4438548 6.596777 -18.691954
7.1656971 5.7447839 -18.764791
7.2261615 8.2896023 -18.68042
7.0970774 8.3103666 -18.69364
7.2014599 7.6177392 -18.72275
7.2654004 9.1662664 -18.612734
7.3073912 8.8893166 -18.677727
7.2327051 9.0494976 -18.622679
7.2114625 6.4984565 -18.801098
7.0621662 7.8890796 -18.816525
7.3039374 5.3239708 -18.72896
7.1167712 6.0361142 -18.789276
7.0960011 7.36656 -18.708092
7.2422323 6.2032309 -18.761541
7.1980753 9.1713562 -18.647099
7.2824965 6.6517067 -18.786213
7.2402782 6.6523442 -18.840279
7.0414042 6.2879496 -18.85376
6.9824295 6.6395707 -18.89909
7.0862827 6.4982457 -18.787052
7.0220842 4.7195787 -18.855719
7.0166788 6.7159381 -18.814188
7.1854806 6.4156985 -18.823807
7.0087795 6.1510901 -18.875244
6.9849906 7.6183004 -18.805128
7.0023546 7.7412505 -18.811956
7.0865679 6.4761457 -18.868044
7.2912188 6.0836148 -18.781725
7.3065834 7.7456088 -18.732456
6.9440575 6.6554589 -18.892647
7.1849246 6.0024762 -18.810295
7.4080377 6.1678853 -18.782467
7.2781372 5.0716376 -18.751499
7.4499702 5.7041292 -18.795
7.720614 6.4636068 -18.725647
6.9065442 8.5044718 -18.033566
6.9795513 8.5528469 -17.949102
7.062891 8.5556917 -17.956989
7.3886204 6.2302175 -18.858526
7.2723246 8.148632 -18.583309
7.2674894 7.0409889 -18.558737
7.3006401 8.2946959 -18.632105
7.1872039 7.7730498 -18.622601
7.2842727 6.9758921 -18.627369
7.5693855 6.0413427 -18.718161
7.1479197 7.3586335 -18.693533
7.2031026 7.4292831 -18.603519
7.3255177 6.4317484 -18.592876
7.1931977 6.3882017 -18.683035
7.3783817 7.0427103 -18.589113
7.2696447 7.1776986 -18.63043
7.3930678 7.2584844 -18.56863
7.2597971 9.1535625 -18.525982
7.2854056 7.4218755 -18.743767
7.1710973 7.4245052 -18.777014
6.8192353 7.8026066 -18.674791
7.1949854 7.5447431 -18.759613
7.4005499 6.8561234 -18.597431
7.3639312 6.7988167 -18.644123
7.1850567 8.4448843 -18.569296
7.0230026 6.576272 -18.734669
7.2686172 8.4840155 -18.563337
7.1385345 9.0484428 -18.55077
7.0193014 9.0297594 -18.583109
7.1690502 8.8261023 -18.519316
7.2008562 8.9020348 -18.637192
7.4355726 4.5545421 -18.612104
7.2914829 8.5228176 -18.483727
7.2758665 4.5382147 -18.68148
7.0187502 6.3896489 -18.745161
7.200356 5.300488 -18.763054
7.1885452 4.6976223 -18.766788
7.2354846 8.9897785 -18.553825
7.3062367 4.4637957 -18.688879
7.1155066 4.6787791 -18.793509
7.0355968 8.3605604 -18.584402
6.9152985 8.8262968 -18.593317
7.0055375 7.6615753 -18.817337
7.3710527 5.3826447 -18.788956
7.223999 9.0873661 -18.502441
7.1968269 6.7097206 -18.795454
6.9349418 6.6768069 -18.861076
7.2189016 7.8318081 -18.701851
7.2217021 7.5501266 -18.841059
7.1840448 6.5613608 -18.840014
7.011507 8.0691538 -18.738632
7.3077178 6.7711663 -18.810188
7.1604958 6.6370797 -18.860874
7.1187668 7.6920209 -18.795681
7.1931834 7.6398811 -18.780823
7.0242405 6.4715109 -18.914255
7.2901831 6.5611639 -18.830753
7.2789922 7.5355287 -18.788101
7.3065748 6.351779 -18.809395
7.3660312 8.3812742 -18.523151
7.3802705 6.5039349 -18.811857
7.0909424 6.5378795 -18.871346
7.1958961 8.1478119 -18.578102
6.9331803 8.7424078 -18.610985
6.9825225 8.2146254 -18.623081
7.1849632 8.2332706 -18.565264
7.1881075 9.2359161 -18.529829
7.1937027 7.8639193 -18.600723
7.0049839 7.8558698 -18.660185
7.0748596 7.7954497 -18.603392
7.101737 6.6301155 -18.864355
6.9425993 7.7205362 -18.631012
7.0924134 7.7102089 -18.604792
7.1855078 8.9376001 -18.543068
7.1868305 7.2655468 -18.63986
7.1792927 9.0175095 -18.535706
7.1069212 7.0745416 -18.678846
6.8564568 7.8782201 -18.651207
7.0885096 8.9233398 -18.571995
7.0987973 8.8102636 -18.554964
7.1625481 7.2455201 -18.591257
6.9971995 8.8204308 -18.585468
7.0845289 7.1472306 -18.661396
6.8733082 7.1770754 -18.687601
7.0207443 6.4094567 -18.863459
7.0892467 8.5096874 -18.564415
6.8160987 8.4978924 -18.622349
7.0615463 7.6697831 -18.56148
7.0754623 6.8730049 -18.597248
7.0646591 6.8413796 -18.61178
7.1941729 5.3882866 -18.742628
7.009212 8.1942654 -18.556124
6.8813434 8.172267 -18.592859
7.0122881 8.0999346 -18.579741
7.1361041 7.2989159 -18.551426
7.0816536 6.7627492 -18.838095
6.9864182 7.5991559 -18.607996
7.0328994 7.1044993 -18.607201
7.0032063 6.5139842 -18.893425
7.0302887 7.5188761 -18.825129
7.0158277 8.3205786 -18.574842
6.8694196 8.3130159 -18.607166
6.9563336 7.3736243 -18.622299
6.9058032 7.3044219 -18.638533
7.1141577 7.5627513 -18.642698
6.8879356 7.5063744 -18.656885
6.9718428 8.6175165 -18.596794
6.9958081 8.5292454 -18.583761
7.011991 7.6391888 -18.673046
7.0035677 8.4454384 -18.592733
7.1020784 7.348424 -18.659971
6.9996071 7.3309836 -18.686382
6.9962902 6.2559061 -18.687792
7.0972538 8.4279509 -18.586075
6.8584118 8.4249477 -18.640121
7.1091003 8.1563187 -18.603697
7.0718241 7.0956807 -18.608164
6.9679327 6.1258564 -18.709972
7.0977745 6.0644736 -18.71767
7.018436 8.1212587 -18.631737
7.1040292 8.0541439 -18.628036
7.1031089 8.0055618 -18.58507
6.9139161 8.2133245 -18.621096
6.8549995 8.1201992 -18.661301
6.9869881 7.1347528 -18.646931
6.9798164 7.0427041 -18.660212
6.9297676 7.0016408 -18.674343
7.0984688 6.9894061 -18.599253
6.9813423 5.9676914 -18.700336
7.1129355 7.8572731 -18.629934
7.116251 7.7743311 -18.64262
7.096746 7.6396937 -18.630669
7.1050229 6.7600789 -18.685085
6.9614172 7.7869568 -18.649769
6.9751096 7.7211485 -18.655708
7.0052476 6.8139529 -18.705893
7.1043277 6.6430597 -18.655731
7.1049485 6.7388387 -18.880571
6.9716597 7.5263286 -18.636408
7.0960684 7.4913645 -18.595453
6.9981117 7.4361644 -18.637472
7.1107616 7.5382648 -18.834963
6.9878793 7.299614 -18.630308
7.1045165 4.9316583 -18.86434
7.111896 8.4672499 -18.621559
7.0614638 6.714252 -18.642437
6.8415675 6.0143757 -18.727917
7.0060573 5.99438 -18.688618
7.1014137 5.0598264 -18.722731
6.9968858 5.2757134 -18.782534
7.1874051 6.0510941 -18.677307
7.1952596 5.0938029 -18.747122
7.1980491 5.0899653 -18.689438
6.9920998 5.0833445 -18.764395
7.2719488 4.690032 -18.702408
7.2169423 5.3540411 -18.685684
6.9991755 4.8423834 -18.863831
7.2862997 8.2173433 -18.710869
7.1900673 8.3669834 -18.576342
7.1976233 4.634418 -18.700104
6.9937172 4.6316137 -18.760433
7.2048397 4.581316 -18.70085
7.2949119 8.1791134 -18.734283
7.2104063 8.1055727 -18.681
7.1081953 8.7482462 -18.600334
7.1957674 5.2840881 -18.713928
7.0883374 5.4892106 -18.843531
7.3194814 5.3741703 -18.644125
7.195899 5.5562134 -18.694189
7.2965746 5.4282513 -18.800533
7.2885809 5.5608158 -18.62697
7.0811787 5.3588023 -18.72864
7.0303082 5.3525209 -18.748322
7.3949399 6.0647964 -18.805037
6.8998122 5.1266227 -18.754374
7.2599158 5.4960365 -18.778332
7.3641028 5.506496 -18.729235
7.2496343 8.5690069 -18.674751
6.8181472 5.1640635 -18.793835
7.1725664 5.8820224 -18.802179
7.0938387 8.202755 -18.597271
7.5446415 6.0181656 -18.684338
7.3272419 6.0620856 -18.812658
7.556447 6.6610928 -18.711475
7.0934711 4.888669 -18.77944
7.5585585 6.3672042 -18.776371
7.0867591 8.6368761 -18.596039
7.020824 8.6436987 -18.622231
7.2708578 7.2639647 -18.581518
6.9974823 8.7312107 -18.590033
7.1951542 7.1757979 -18.65307
7.7755303 6.0581002 -18.565287
7.8049145 6.8722386 -18.567816
7.826642 6.2097096 -18.577452
7.5675282 6.5018034 -18.678486
7.1746931 8.6452446 -18.555674
7.1011357 7.258769 -18.6768
7.7407708 6.7095323 -18.695162
6.9775128 7.2584758 -18.71866
7.1067572 6.4733558 -18.706356
7.1990452 5.8561087 -18.682718
7.0946045 5.8674207 -18.719942
6.9151616 8.5799103 -17.955902
7.4110975 6.4096923 -18.71179
7.372828 5.0333257 -18.72846
7.655221 6.480814 -18.616365
6.8408394 8.0471992 -18.663843
6.8929205 8.0170326 -18.628922
7.7993369 6.5595651 -18.67766
7.7751036 6.7670016 -18.706358
7.9233618 6.2485642 -18.605356
7.0126925 8.5490217 -18.638817
7.6222181 6.5453296 -18.72183
7.0067253 8.0427427 -18.608328
7.2796431 4.5856586 -18.738792
7.4907837 4.9232454 -18.667866
7.3335648 4.7593613 -18.641245
6.8273497 8.4013834 -18.623917
7.0968194 7.942347 -18.617603
7.6448197 6.2483959 -18.851025
7.3510332 5.099288 -18.680784
7.1805782 5.1328669 -18.693546
7.3884931 6.1993771 -18.666039
7.1999707 8.7270947 -18.535194
7.2300987 7.9758892 -18.615278
7.1873789 7.6884003 -18.660677
6.977078 5.1428461 -18.775959
7.2053924 4.8945937 -18.756554
6.8900127 7.8161373 -18.709969
7.6908917 8.8998442 -18.334551
7.1900249 8.0704622 -18.596739
7.1974707 7.944778 -18.57604
7.0161276 8.6767845 -18.675098
7.1968575 6.1774001 -18.687359
7.4108143 6.5601625 -18.782415
7.5948257 6.7670479 -18.763706
7.8088574 8.8685513 -18.432795
7.3776469 5.1055932 -18.75045
7.4897757 8.5289583 -17.862185
7.5424299 6.5633478 -18.71608
7.2485237 7.6738896 -18.600319
7.2629576 6.1734161 -18.688753
7.5141144 6.4159646 -18.710724
8.0126829 8.8217688 -18.554573
7.6992292 8.8744059 -18.462048
7.9835434 6.6472821 -18.598103
7.0886164 8.5635643 -18.611389
6.8025489 7.6791525 -18.644629
7.1236567 7.6908007 -18.647223
7.4161773 5.451407 -18.61606
7.8095422 6.0459261 -18.638741
6.9146214 7.9388928 -18.661734
7.2849474 5.4712396 -18.700752
7.6136169 5.9405446 -18.611242
7.0780101 7.9822159 -18.806305
7.1919975 4.5895481 -18.776842
7.4952536 6.4447722 -18.797508
6.8776865 4.7154708 -18.836199
7.4677849 4.456461 -18.655188
7.3614173 4.8396354 -18.624334
7.4137416 5.2489862 -18.650263
7.1018434 8.8350172 -18.587879
7.1180363 8.3369665 -18.59828
7.0699382 8.202117 -18.643761
7.5873652 6.6540718 -18.745461
7.6976719 6.2698255 -18.7523
7.1899638 9.3352985 -18.540085
7.0148125 8.8642416 -18.623775
7.1593628 9.2505226 -18.567711
7.2876105 7.9330215 -18.765388
7.1841726 9.4397879 -18.526196
7.6948876 8.8054981 -18.354683
7.2879577 5.1668835 -18.710932
7.6653013 8.822916 -18.342834
7.2982969 7.9054732 -18.546631
7.7035198 6.8063555 -18.65579
7.1978254 5.4299111 -18.832405
7.6789341 8.5454617 -18.351801
7.7902408 6.4464092 -18.678841
7.1795559 4.7574039 -18.733576
7.1042519 4.7609692 -18.776794
7.3138657 8.4089384 -18.56451
7.5246439 6.122272 -18.6497
7.6001697 6.781805 -18.713192
7.1878858 8.8443384 -18.544821
7.6860824 6.7311306 -18.693855
7.5129595 6.6966109 -18.747875
6.9991412 8.9066877 -18.61058
7.094048 8.7372904 -18.565737
7.0277638 5.2214069 -18.792463
7.5421548 6.1079483 -18.744875
7.6788812 6.2426286 -18.690796
7.4835644 6.7136879 -18.779396
7.1122913 4.4877605 -18.780018
7.4846725 6.2078094 -18.583855
7.4158707 5.108263 -18.5567
7.3134527 5.9825788 -18.716658
7.2156806 8.7549667 -18.565372
7.1848888 6.1626825 -18.846243
7.2504349 8.0760498 -18.637398
7.3667035 6.1077199 -18.718142
7.2792311 7.981452 -18.703785
7.1900034 7.3747702 -18.627781
7.906383 6.7276921 -18.575861
7.3687677 6.7271495 -18.6518
8.1434488 6.4767008 -18.504049
7.2937241 8.3356075 -18.51037
7.0838771 5.9624486 -18.664526
7.3889017 5.3820248 -18.75618
7.2659764 8.9609966 -18.522636
6.9760046 6.7340322 -18.687616
7.2492437 7.8673902 -18.553299
7.1033411 5.1881809 -18.771038
7.0842605 5.1375422 -18.707523
7.3727636 5.171483 -18.682903
7.489985 5.2859159 -18.702841
7.8165889 6.365797 -18.677942
7.8373899 8.7952147 -18.350212
6.9888754 7.2354345 -18.640047
7.1875334 5.1883006 -18.734659
7.7786412 6.5745606 -18.654913
7.6866622 6.3384671 -18.634979
7.7995129 6.1189699 -18.62118
7.8793964 6.6205649 -18.59001
7.9985666 6.5694962 -18.618359
7.8898735 6.2220106 -18.575788
7.791873 6.2357569 -18.637659
7.105629 6.2779298 -18.712278
7.3777714 4.4752827 -18.727091
7.7049198 6.7329421 -18.62468
7.0982418 5.4582939 -18.751518
7.065351 9.2708702 -18.589249
8.1600056 6.4767618 -18.493567
7.0219617 5.4397769 -18.864075
7.9003372 6.7139716 -18.674528
6.9209805 7.2385845 -18.651318
7.6123056 8.6174307 -18.41046
7.5498066 6.4942007 -18.726694
7.5680151 6.4109006 -18.714417
7.5911508 6.2554212 -18.760967
7.5065975 6.6856871 -18.705141
7.272819 8.2108107 -18.604109
7.4232669 8.5178976 -17.907009
7.7318382 6.6042066 -18.702789
6.9871235 7.5589008 -18.700794
7.7895851 8.6832247 -18.286718
7.246417 4.8336124 -18.69034
7.2863188 8.6397581 -18.502762
7.113194 4.8758178 -18.726725
7.0919161 9.1545763 -18.579857
7.2648573 7.3519664 -18.589296
7.0657835 8.3985777 -18.551476
6.9740219 8.4609222 -18.555855
6.9150009 8.4085121 -18.581923
7.3018985 4.8387117 -18.678133
7.2654815 6.4900203 -18.650881
7.1976447 6.4781127 -18.672424
7.0358868 7.5763326 -18.85025
7.5891156 6.5985727 -18.786331
7.2691946 5.8754168 -18.694265
7.4403281 4.9134178 -18.714741
7.1127973 5.0782599 -18.783562
7.3103304 5.2977676 -18.832891
7.2616205 4.7537708 -18.752546
7.1018534 4.8200445 -18.782415
7.2880888 5.0577788 -18.66382
7.3825083 5.0908961 -18.595369
7.1225863 9.2129507 -18.554207
7.3896227 6.7133064 -18.815483
7.1802769 9.1367273 -18.543423
7.179143 9.0632753 -18.550064
7.1092606 9.3378706 -18.573919
7.1716661 8.5571194 -18.577991
7.188653 6.2610774 -18.675518
7.2849002 8.4384098 -18.54323
7.1247635 8.26476 -18.612816
7.1900101 8.2669506 -18.590799
7.0184474 8.0577936 -18.66498
7.1903019 7.7468243 -18.57399
7.1884832 6.7722282 -18.657475
7.0263586 8.246582 -18.650146
6.9603853 9.0276518 -18.63826
7.2812266 6.7696824 -18.634089
7.4122887 6.7569942 -18.576101
7.562489 6.2209044 -18.788919
7.1041751 7.9725652 -18.636866
7.1260538 9.0450602 -18.583672
7.0780005 6.8466139 -18.711048
7.3524637 6.8907719 -18.584337
7.1894889 7.6494179 -18.610029
7.2157278 7.5541644 -18.613842
7.1129255 7.4554243 -18.624195
7.28971 8.263155 -18.519165
7.2513266 7.648942 -18.582525
7.2290983 8.5129938 -18.52861
7.1029406 7.1724563 -18.681768
7.184762 7.1461139 -18.623222
7.1788254 7.0868883 -18.653242
7.1133609 7.4573736 -18.659998
7.2619715 7.0614638 -18.624947
7.1882877 6.9754996 -18.655533
7.0234985 7.4632301 -18.702627
7.2010345 7.4769711 -18.629946
7.0961332 6.9602709 -18.689148
7.1793919 6.8294878 -18.650095
7.2569685 8.2469521 -18.573618
7.7275648 8.7229395 -18.308041
7.1723499 6.6256289 -18.666941
7.1925731 6.5532885 -18.665716
7.260448 8.0098143 -18.586617
7.2468982 7.5873165 -18.606876
7.3099437 9.0360413 -18.521502
7.0226688 7.0340152 -18.708174
7.1110964 6.5727773 -18.70351
7.2983227 8.5496159 -18.546503
7.1012206 6.6668601 -18.708824
7.1451182 8.7037907 -18.599342
7.2698421 7.121089 -18.612169
7.0074668 6.9670954 -18.731857
7.196022 6.6947351 -18.675232
7.271224 7.9757261 -18.59292
7.3024993 6.6954041 -18.652437
7.2938304 6.8345633 -18.620556
7.0278382 6.7570701 -18.725779
7.1183891 6.595892 -18.710861
7.2846069 6.5772133 -18.625212
7.1067343 6.3831396 -18.71726
7.279108 5.9831862 -18.667089
7.256855 6.3772416 -18.647076
7.0978599 6.1666312 -18.726286
7.1178741 6.0934048 -18.732641
7.1920342 5.9816575 -18.706869
7.1862431 6.1060705 -18.709517
7.0948787 5.9744701 -18.728973
7.1936536 5.8924184 -18.711464
7.0958805 6.3426242 -18.70579
7.2176723 6.3480678 -18.651958
7.0285115 6.177475 -18.748272
7.1929464 6.9078197 -18.655701
6.9799366 6.078681 -18.752525
7.0973926 5.7701259 -18.733904
7.1916375 5.7489381 -18.694288
7.1916351 5.6710358 -18.706497
7.2875051 6.3725967 -18.656364
7.176815 6.1361575 -18.676193
7.1009741 5.6786113 -18.74666
7.0162649 6.6867566 -18.730293
7.2860637 7.4594388 -18.59339
7.2034793 5.5757761 -18.740488
7.1955218 5.5211301 -18.783422
7.1754675 5.4777622 -18.729498
7.0762367 5.8885365 -18.762478
7.2803283 6.0533032 -18.659397
7.1914902 4.9912424 -18.771652
7.1023245 5.2707558 -18.750513
7.2184796 5.823328 -18.714993
7.0077333 5.3235354 -18.814377
7.1150017 6.8564305 -18.69845
6.9874721 5.3977604 -18.826479
7.0940771 5.3917012 -18.762297
7.0372281 5.9153113 -18.737061
7.1920104 6.4278874 -18.639946
7.122324 6.1488008 -18.674242
7.0912504 4.9779234 -18.764717
7.1697431 6.7106495 -18.631361
7.0289707 4.9865208 -18.782463
6.944119 5.220356 -18.781988
6.8940287 6.7868381 -18.751465
7.6666994 8.6335878 -18.351835
7.1922364 4.9906154 -18.738813
7.2531252 7.4032717 -18.61355
7.2884264 6.2907157 -18.63096
7.2882667 5.7566648 -18.653267
7.166707 6.6224217 -18.696768
7.2751889 5.3577504 -18.725155
7.0125551 4.7168183 -18.825258
7.2035007 4.511622 -18.782415
7.2970152 6.0585256 -18.694613
6.9921923 4.7657256 -18.811411
7.0324373 4.5995979 -18.836441
7.0888195 4.5829325 -18.797689
7.0213504 6.1030054 -18.790115
7.1319838 5.0186729 -18.793139
7.1877403 4.8100004 -18.792566
7.1304512 6.3224368 -18.739092
7.1744494 6.2780256 -18.749546
7.3026385 4.9690323 -18.694836
7.3595214 6.3133941 -18.678816
7.2897296 5.6061749 -18.751976
7.0965962 5.3268209 -18.787149
7.2852106 4.7338042 -18.760029
7.3232937 6.5706625 -18.652905
7.3691492 8.2194881 -18.550003
7.3543568 6.2266498 -18.62781
7.3537426 5.4087095 -18.636848
7.3557463 5.2800431 -18.684816
7.5073395 6.1685829 -18.760303
7.4474645 6.3361826 -18.747446
7.066987 7.5977883 -18.796427
7.2757387 5.2611132 -18.669453
7.2923598 9.2450228 -18.651186
7.3027616 5.8140831 -18.599598
7.2895951 5.7942848 -18.756573
7.2496009 5.7521286 -18.781609
7.362577 5.6892276 -18.737389
6.9312253 6.5211239 -18.928661
6.9914207 7.9708142 -18.668234
7.3816223 6.0548358 -18.571762
7.3052645 6.942513 -18.550385
7.3207741 4.8753529 -18.671455
7.281621 6.6472464 -18.613012
7.3753862 4.931694 -18.655272
7.4535699 6.9388056 -18.559492
7.2742496 6.9276042 -18.659225
7.3946295 4.5836544 -18.68124
7.4274564 5.9829001 -18.63629
7.484664 4.5315304 -18.625547
7.5173879 6.0111718 -18.575983
7.3714318 5.7402091 -18.64031
7.3979869 6.4364915 -18.603504
7.4151363 6.9807739 -18.61758
7.6563377 6.0646024 -18.527254
7.4717855 6.4303279 -18.591829
7.4500747 4.7939558 -18.661655
7.6328506 8.3976507 -18.384907
7.7161264 8.291832 -18.371317
