# .PCD v0.7 - Point Cloud Data file format
VERSION 0.7
FIELDS x y z
SIZE 4 4 4
TYPE F F F
COUNT 1 1 1
WIDTH 546
HEIGHT 1
VIEWPOINT 0 0 0 1 0 0 0
POINTS 546
DATA ascii
21.654625 -4.669734 -13.367219
21.783285 -4.913166 -13.349191
22.888607 -4.7558308 -13.439035
22.464676 -4.3960924 -13.681068
22.40604 -4.4124975 -13.657407
22.619112 -4.3702493 -13.700399
23.449007 -4.3399792 -13.914788
25.319859 -4.452692 -13.761132
23.405884 -4.6320953 -13.595386
23.805223 -4.478888 -13.899843
24.114433 -4.3994741 -13.908755
23.728613 -4.4456 -13.772479
24.521111 -4.4782963 -13.982843
25.992939 -4.4698234 -13.858727
24.452042 -4.5145936 -13.901363
22.78657 -4.4375124 -13.785052
23.637644 -4.4407973 -13.771883
22.799416 -4.4799366 -13.587846
24.258018 -4.4216318 -13.91467
25.611702 -4.4764881 -13.826415
23.785532 -4.4954844 -13.6385
22.688683 -4.3905616 -13.734685
22.980095 -4.443644 -13.725632
22.732361 -4.4088125 -13.825815
23.190266 -4.4694004 -13.724642
22.526012 -4.4063745 -13.77078
22.590179 -4.4836144 -13.725311
23.384878 -4.5373197 -13.843094
21.990677 -4.4945498 -13.619932
24.099154 -4.49332 -13.922079
22.403843 -4.4781766 -13.629725
25.146847 -4.4673166 -13.723794
25.170589 -4.3743267 -13.763904
24.098001 -4.4491615 -13.655568
24.495611 -4.344491 -13.7298
23.306299 -4.4433966 -13.620044
22.54171 -4.5893426 -13.720991
24.189232 -4.479413 -13.668706
24.599649 -4.3722992 -13.732393
21.638149 -4.6051927 -13.545286
21.285677 -4.6123366 -13.536847
24.691671 -4.3498764 -13.730715
22.273455 -4.6337543 -13.653719
21.537188 -4.5816789 -13.688773
21.301037 -4.674623 -13.500465
21.283491 -4.6234727 -13.584865
22.68437 -4.5133882 -13.695821
22.003822 -4.6077623 -13.670643
21.514826 -4.6027093 -13.603227
22.204102 -4.5922937 -13.7634
21.254126 -4.677248 -13.486066
22.992432 -4.4057078 -13.75171
22.114847 -4.567533 -13.573106
22.481571 -4.4817357 -13.716162
21.259327 -4.7088079 -13.41025
21.252308 -4.6862779 -13.543799
23.514372 -4.5684519 -13.841635
21.506052 -4.7298865 -13.462251
21.427889 -4.5893426 -13.594048
24.205542 -4.2964039 -13.809276
24.588732 -4.4740553 -13.698717
22.475695 -4.650743 -13.649493
22.41716 -4.5483799 -13.669335
24.402206 -4.3726406 -13.708344
22.516262 -4.4772296 -13.641386
24.90093 -4.4954705 -13.707716
23.442774 -4.49892 -13.73433
22.145004 -4.5111904 -13.749024
21.580591 -4.7298899 -13.490648
22.957932 -4.6927052 -13.47518
24.508312 -4.4446697 -13.70555
21.793888 -4.6701312 -13.511408
24.310057 -4.3089724 -13.803012
25.705425 -4.4744868 -13.845669
24.826025 -4.601419 -13.809474
24.711245 -4.4825206 -13.699857
23.899973 -4.4593506 -13.658759
23.504311 -4.7189302 -13.604018
24.293663 -4.4708166 -13.687201
25.189682 -4.4711967 -13.730544
24.416656 -4.463263 -13.665825
23.794029 -4.3496804 -13.918658
24.237564 -4.734066 -13.652221
24.585749 -4.6133523 -13.787476
23.819668 -4.5815024 -13.771923
24.183058 -4.4853892 -13.824212
25.008459 -4.5504327 -13.687124
25.002794 -4.455924 -13.72231
24.018114 -4.3674092 -13.682557
21.686209 -4.6595421 -13.52224
22.319317 -4.8383741 -13.377023
22.299585 -4.7040086 -13.51424
21.903145 -4.5122676 -13.612969
23.779018 -4.3478622 -14.050675
21.832499 -4.7822313 -13.498988
22.00267 -4.4752545 -13.66674
24.093935 -4.2610288 -14.064283
21.852356 -4.5694733 -13.632667
21.97559 -4.9735007 -13.314655
21.316074 -4.7460341 -13.463784
21.631233 -4.515511 -13.688964
25.795389 -4.4718485 -13.958115
25.894573 -4.4787288 -13.957801
24.998272 -4.4616323 -13.862171
21.59276 -4.8215675 -13.33018
21.511021 -4.7971444 -13.336237
25.500263 -4.4801097 -13.931408
24.304237 -4.3858061 -13.786878
25.167616 -4.5527935 -13.882863
21.819752 -4.7467451 -13.408637
24.528696 -4.5359278 -13.795282
25.611336 -4.4764071 -13.93431
25.217659 -4.4899673 -13.885481
25.084618 -4.4711199 -13.867435
25.316341 -4.3978844 -13.911648
21.526115 -4.6717877 -13.435515
21.612307 -4.7373633 -13.423841
25.114489 -4.6179276 -13.814795
25.115654 -4.3870707 -13.907224
25.319534 -4.4711089 -13.896805
23.923981 -4.6621327 -13.758787
25.110003 -4.540792 -13.692331
22.414259 -4.6405787 -13.471142
24.519119 -4.7013192 -13.575661
24.605591 -4.706018 -13.595155
23.205696 -4.6107512 -13.436417
22.098133 -4.6294746 -13.347129
22.112789 -4.7108068 -13.443837
21.456566 -4.72332 -13.428818
22.799412 -4.6082354 -13.41734
23.908981 -4.7198033 -13.533487
21.390017 -4.6815867 -13.516992
23.292088 -4.8472171 -13.288773
23.702545 -4.7038355 -13.511391
21.897305 -4.6460018 -13.434664
24.105083 -4.7067928 -13.566722
24.507088 -4.6388364 -13.613788
22.60899 -4.6435637 -13.492496
22.503855 -4.6524906 -13.487967
21.740862 -4.5647502 -13.713021
24.907337 -4.4630327 -13.860963
22.302828 -4.8324714 -13.293965
24.105381 -4.638896 -13.581553
23.707769 -4.6897726 -13.458762
21.99597 -4.7050462 -13.453361
22.106272 -4.5055065 -13.688941
22.138737 -4.7649541 -13.610586
21.515163 -4.7256684 -13.412319
22.703756 -4.7100101 -13.459421
23.407291 -4.7107306 -13.485787
22.019585 -4.7894545 -13.20915
25.012131 -4.2903252 -13.940239
21.686552 -4.7842317 -13.170317
25.70289 -4.4634705 -13.944054
23.011881 -4.6025534 -13.424832
22.0989 -4.8074903 -13.408729
22.813547 -4.725966 -13.35586
22.992714 -4.7871876 -13.368833
23.672495 -4.7088037 -13.604482
23.106373 -4.885798 -13.377985
23.103949 -4.6770782 -13.314066
22.811815 -4.6961136 -13.281729
23.013992 -4.689815 -13.30537
23.403749 -4.8007655 -13.394375
23.145969 -4.9163394 -13.435619
23.855772 -4.4463716 -13.557934
23.010969 -4.7189226 -13.372477
21.906496 -4.7033696 -13.422175
23.004416 -4.7732611 -13.272042
23.21958 -4.8026814 -13.389785
22.323038 -4.7377887 -13.340747
22.403257 -4.8319178 -13.319263
23.098217 -4.766192 -13.278414
23.11466 -4.7882719 -13.387474
21.731445 -4.5964103 -13.629915
23.149784 -4.4449034 -13.472004
23.00493 -4.6410046 -13.51496
24.194838 -4.7127914 -13.560415
22.906477 -4.7229619 -13.362312
23.278128 -4.7534909 -13.343298
22.300148 -4.7096448 -13.249453
21.722231 -4.7071056 -13.288326
22.896488 -4.5605302 -13.528328
22.572929 -4.8119774 -13.415191
22.217352 -4.8196077 -13.297491
21.98959 -4.8233728 -13.289021
22.220623 -4.6968603 -13.353179
22.112154 -4.808001 -13.297912
22.914574 -4.6917758 -13.287572
22.704212 -4.7880344 -13.337362
22.609583 -4.7991972 -13.329982
22.804728 -4.7733517 -13.347377
21.893341 -4.7046723 -13.361954
22.39488 -4.7110372 -13.356589
22.216558 -4.6360645 -13.470778
22.916018 -4.6441469 -13.51203
24.207651 -4.6390786 -13.590257
24.707798 -4.6386428 -13.626472
25.008512 -4.6413608 -13.646704
24.597546 -4.8398376 -13.655769
22.204454 -4.7125959 -13.44406
22.400051 -4.5679479 -13.488976
22.495724 -4.5633612 -13.531581
22.408031 -4.701551 -13.455215
22.303612 -4.7101102 -13.439377
23.703094 -4.7917633 -13.511186
24.206112 -4.5564795 -13.642944
24.304228 -4.6402154 -13.59783
22.30331 -4.63908 -13.476135
24.604561 -4.6373525 -13.623312
23.906761 -4.6429443 -13.565775
24.110121 -4.5620389 -13.623307
23.657204 -4.8199596 -13.423967
23.513556 -4.778564 -13.424498
22.135811 -4.7106228 -13.353609
22.89583 -4.7703538 -13.268705
23.533239 -4.7762022 -13.477283
24.404533 -4.6397305 -13.605821
23.107027 -4.6020522 -13.421537
22.471336 -4.9855142 -13.352401
22.798973 -4.9355593 -13.406599
22.716114 -4.6432328 -13.558858
22.600645 -4.6100535 -13.389707
23.993469 -4.7214479 -13.552952
23.29497 -4.803462 -13.406246
22.314173 -4.6522427 -13.538282
23.591043 -4.7846966 -13.51371
22.709976 -4.643961 -13.499323
22.621346 -4.9007974 -13.379827
22.713898 -4.5709887 -13.59381
23.405313 -4.6941781 -13.44246
23.795382 -4.6947293 -13.524148
22.504459 -4.9068708 -13.370694
22.616024 -4.5673232 -13.51039
22.96315 -4.8744483 -13.393433
23.605461 -4.700809 -13.512859
22.405174 -4.9190326 -13.375542
23.300854 -4.7000875 -13.425487
23.198826 -4.7004337 -13.41072
24.4235 -4.6625338 -13.670863
23.806362 -4.6422005 -13.56111
24.413628 -4.5646853 -13.646696
24.007734 -4.6405478 -13.576004
23.110233 -4.7132192 -13.389375
22.709164 -4.6093044 -13.403073
22.614145 -4.4821019 -13.637565
23.507849 -4.6447425 -13.543767
23.604343 -4.6439576 -13.546908
21.902447 -4.8327909 -13.305266
22.520241 -4.7188296 -13.338231
21.623787 -4.9005198 -13.27624
22.210327 -4.7248917 -13.23243
21.703138 -4.8393559 -13.253468
23.706629 -4.6448622 -13.553284
21.702744 -4.9072356 -13.2592
23.914085 -4.56148 -13.617118
23.697746 -4.5595794 -13.604512
24.002237 -4.5603423 -13.622534
23.205931 -4.6475048 -13.526385
23.800352 -4.5706449 -13.611121
24.31456 -4.5624938 -13.639243
23.500578 -4.5631847 -13.591393
24.605198 -4.560102 -13.647395
23.302906 -4.697659 -13.480747
22.61211 -4.7139049 -13.347417
23.104881 -4.6485314 -13.523816
22.916689 -4.6176529 -13.422071
23.304398 -4.6451278 -13.534199
21.644386 -4.6506853 -13.532341
21.730057 -4.6453719 -13.409272
22.724602 -4.7251997 -13.354406
24.588951 -4.7146978 -13.677848
24.912868 -4.6506553 -13.713717
21.792173 -4.6665187 -13.442486
24.999039 -4.6523919 -13.716162
22.117966 -4.6555228 -13.466834
25.111668 -4.658072 -13.720223
22.80686 -4.6420431 -13.503993
22.60825 -4.6450801 -13.554235
23.517746 -4.7001104 -13.490453
22.683117 -4.5699682 -13.503736
22.795099 -4.5863624 -13.536247
22.41296 -4.6503692 -13.53382
22.901073 -4.7706389 -13.35583
22.302937 -4.9162035 -13.357935
22.637403 -4.6591563 -13.653736
22.512579 -4.8129644 -13.320194
24.204069 -4.6581192 -13.677103
22.388702 -4.933949 -13.467548
22.786688 -4.8419027 -13.433504
25.18688 -4.5588064 -13.69481
22.310749 -4.5716724 -13.576243
23.114107 -4.5538187 -13.438339
23.308975 -4.5592308 -13.576075
22.26536 -4.4829707 -13.629608
23.811075 -4.6347723 -13.627552
22.981504 -4.7866745 -13.43021
24.699509 -4.5616984 -13.668011
24.899212 -4.5551152 -13.680511
22.727324 -4.8806849 -13.391494
24.507782 -4.6456547 -13.672256
23.209988 -4.7187586 -13.478638
24.419241 -4.7067928 -13.581938
23.100403 -4.7006969 -13.456943
22.39665 -4.6000242 -13.376721
22.000357 -4.6566739 -13.437708
21.8153 -4.8972588 -13.274202
21.814106 -4.8231978 -13.298039
24.011999 -4.3102016 -14.034273
21.696386 -4.8315396 -13.348364
21.649483 -4.6075702 -13.593967
21.690941 -4.6943092 -13.395663
21.730419 -4.4944234 -13.64983
21.720797 -4.5672646 -13.570481
21.797068 -4.8297596 -13.369407
24.813015 -4.4637799 -13.690413
21.782768 -4.5569386 -13.573367
22.097754 -4.9248419 -13.3397
23.913544 -4.3006592 -13.846369
24.008556 -4.3113246 -13.954397
23.917248 -4.2473769 -14.061909
25.101242 -4.5578728 -13.752252
23.815769 -4.2534585 -14.045008
25.176088 -4.4565792 -13.973058
25.150623 -4.3933716 -13.987806
24.210581 -4.3247199 -13.967465
24.91156 -4.3085604 -14.010597
24.08267 -4.320632 -14.140654
23.883749 -4.3196774 -13.963762
23.403101 -4.3032975 -13.767536
25.202837 -4.3840966 -13.905386
24.302288 -4.2951908 -13.953406
25.106041 -4.3033433 -14.010559
24.906689 -4.4696956 -13.787548
21.884911 -4.8763103 -13.39837
25.013384 -4.3102183 -14.023643
24.108238 -4.3878803 -13.829137
24.004387 -4.3826785 -13.832661
23.910137 -4.3812919 -13.813934
24.814728 -4.4732084 -13.775604
23.82757 -4.6628852 -13.723221
24.931566 -4.4052005 -13.961878
24.503893 -4.4859776 -13.84785
24.708439 -4.3896351 -13.81359
25.508696 -4.4729371 -13.823571
24.410656 -4.3864875 -13.843494
24.511124 -4.3828974 -13.854139
24.60968 -4.5548744 -13.720114
24.206612 -4.2918758 -13.866204
24.40852 -4.2898998 -13.881099
25.302565 -4.4716697 -13.807358
24.209095 -4.5489697 -13.69069
25.004936 -4.4718447 -13.793238
25.004313 -4.3988991 -13.892415
24.310659 -4.3752503 -13.853847
24.505823 -4.4659095 -13.757557
24.010506 -4.2914963 -13.85398
24.813181 -4.6502285 -13.718558
24.907568 -4.5611463 -13.746521
25.010624 -4.5632367 -13.752236
21.912535 -4.6462469 -13.532752
24.702776 -4.4687223 -13.771
24.304302 -4.4655366 -13.740486
25.10248 -4.4745607 -13.797393
24.407871 -4.4676046 -13.746332
24.264816 -4.4508281 -13.81979
24.305464 -4.2983813 -13.869702
24.906614 -4.3811269 -13.88916
24.704111 -4.6485586 -13.69799
24.189066 -4.2640705 -14.075858
21.525894 -4.5882254 -13.510942
21.513186 -4.6799769 -13.514646
26.103743 -4.3726292 -13.893487
25.518066 -4.3791814 -13.871181
25.085756 -4.3819175 -14.126785
24.802916 -4.5513887 -13.675218
25.191498 -4.3801446 -13.84399
24.899378 -4.3976684 -13.821768
22.135519 -4.5419502 -13.641468
25.609516 -4.3950729 -13.8721
24.998432 -4.3904281 -13.827937
23.205709 -4.2933946 -13.795861
23.604759 -4.3905716 -13.739089
22.934713 -4.3937249 -13.73375
24.110495 -4.3830013 -13.780643
23.806887 -4.2920303 -13.83398
23.710606 -4.2893057 -13.830106
25.413382 -4.4662385 -13.814496
21.997375 -4.6519203 -13.524232
23.614426 -4.3762698 -13.811439
23.308645 -4.2881055 -13.795255
23.113325 -4.2986026 -13.800789
22.565947 -4.3623476 -13.759059
23.699253 -4.2459707 -14.04107
23.91501 -4.300261 -13.800178
25.892944 -4.3992958 -13.899532
23.806189 -4.3159485 -13.791752
24.001287 -4.2522731 -14.047543
25.79273 -4.4546113 -13.883081
25.71876 -4.3858628 -13.862582
25.875431 -4.4571705 -13.870954
25.815615 -4.4030914 -13.879662
26.041449 -4.4118481 -13.906554
22.495762 -4.6464863 -13.551167
22.798203 -4.7103972 -13.469398
23.626234 -4.6492443 -13.614249
22.379488 -4.8510089 -13.372997
23.109903 -4.6381984 -13.586401
22.822323 -4.640378 -13.565552
22.522711 -4.7330227 -13.449224
22.615484 -4.7232728 -13.449156
22.905069 -4.6441216 -13.575244
23.004387 -4.6484866 -13.571929
23.192547 -4.6559076 -13.597602
22.212996 -4.9022655 -13.354732
22.102667 -4.6641445 -13.533958
23.095074 -4.5632153 -13.616064
22.001249 -4.9231791 -13.354372
21.946001 -4.9479604 -13.332479
22.912943 -4.5502176 -13.618212
22.804647 -4.5729942 -13.598582
21.776939 -4.4850488 -13.609471
22.209845 -4.8218584 -13.37128
22.482872 -4.8036757 -13.391262
23.344154 -4.6405087 -13.590823
23.713814 -4.5472937 -13.65169
23.398947 -4.5672169 -13.590652
22.102596 -4.4907432 -13.620864
22.784756 -4.480926 -13.651129
23.124582 -4.4562259 -13.674571
23.608585 -4.56638 -13.604837
23.807861 -4.4739981 -13.698045
22.421722 -4.408524 -13.703078
23.002951 -4.4669795 -13.653527
23.504417 -4.2923689 -13.81391
23.478718 -4.6189556 -13.601789
23.608566 -4.4683819 -13.689554
23.799458 -4.3846149 -13.757185
24.001602 -4.4731183 -13.716162
22.204521 -4.5729356 -13.584926
22.51486 -4.5762177 -13.572219
22.891008 -4.4806924 -13.655596
23.214514 -4.3752117 -13.718699
24.105091 -4.2985835 -13.811916
23.703753 -4.394434 -13.747913
22.410624 -4.4946442 -13.671141
22.615744 -4.5620422 -13.602174
22.909159 -4.2993217 -13.798909
23.807228 -4.5496325 -13.655509
23.507076 -4.4698467 -13.686749
23.905737 -4.4717255 -13.709805
22.390741 -4.5709319 -13.584435
23.1 -4.3884807 -13.70901
23.413826 -4.4711785 -13.677537
22.323654 -4.3967528 -13.709599
23.111792 -4.5465765 -13.567327
24.009144 -4.4669943 -13.637935
23.612659 -4.2985921 -13.822728
22.194113 -4.655448 -13.534053
22.199667 -4.4078517 -13.709788
24.513422 -4.3856678 -13.800614
22.195894 -4.4885898 -13.625236
23.308161 -4.4722738 -13.674053
23.012913 -4.5624037 -13.608605
24.708158 -4.5548677 -13.731309
23.905037 -4.3869019 -13.766241
23.907034 -4.5427198 -13.66605
24.603794 -4.3850665 -13.810669
24.49482 -4.5733194 -13.650707
25.09774 -4.3771648 -13.843212
24.809347 -4.3902712 -13.818405
24.008884 -4.3803139 -13.776657
23.713945 -4.4651661 -13.697259
24.116766 -4.2898316 -13.857842
24.407627 -4.5477433 -13.693983
23.215612 -4.5477133 -13.625527
24.210527 -4.3782268 -13.784162
24.298283 -4.5486155 -13.69433
24.005484 -4.2984877 -13.77779
24.107779 -4.5512347 -13.685009
25.415363 -4.3783445 -13.856459
23.004791 -4.5531163 -13.555696
22.791784 -4.3252258 -13.775571
23.41688 -4.2852325 -13.809456
23.306562 -4.5515409 -13.629524
23.601225 -4.5478058 -13.646588
25.204355 -4.4710774 -13.804018
24.00971 -4.5509343 -13.673791
23.22588 -4.2913947 -13.747947
22.702435 -4.4714031 -13.626943
23.10648 -4.309135 -13.734519
23.306721 -4.3007727 -13.752278
22.910194 -4.4094238 -13.672159
22.747623 -4.4977942 -13.567912
23.721737 -4.2952533 -13.790771
22.990429 -4.3957362 -13.696088
22.620312 -4.4870443 -13.562393
22.877279 -4.3093348 -13.718549
22.82016 -4.396843 -13.688175
23.205235 -4.4700265 -13.666806
23.515245 -4.2967277 -13.77595
23.610922 -4.3021264 -13.783773
24.509544 -4.5511851 -13.709812
24.800137 -4.5546646 -13.736111
24.413986 -4.3835654 -13.797604
24.606148 -4.3802824 -13.872597
23.205717 -4.5594697 -13.579501
24.815615 -4.3851652 -13.884953
23.104534 -4.4829564 -13.600166
23.410213 -4.4901099 -13.610373
23.200142 -4.485415 -13.611674
24.600969 -4.6476607 -13.687932
24.194923 -4.388195 -13.940639
24.005878 -4.4041715 -13.913512
23.487339 -4.4644341 -13.793671
24.52491 -4.4213319 -13.983359
23.401031 -4.5482812 -13.632423
24.307705 -4.6434755 -13.666518
24.211731 -4.382184 -13.845695
23.609962 -4.4147635 -13.910159
23.409929 -4.575942 -13.83367
23.512568 -4.549861 -13.645371
23.703363 -4.3766603 -13.802435
24.108906 -4.6421156 -13.647557
23.932896 -4.6483097 -13.663142
23.997295 -4.6427579 -13.648007
24.100031 -4.4636269 -13.842317
23.98494 -4.4773612 -13.82597
22.944683 -4.711885 -13.5904
23.717632 -4.6512666 -13.621935
24.69972 -4.4760222 -13.847554
24.596832 -4.4844561 -13.821157
24.807444 -4.4679222 -13.856334
24.095139 -4.7467494 -13.659184
24.525209 -4.7443032 -13.680488
24.142584 -4.308147 -13.94925
24.416077 -4.7272816 -13.663382
21.899864 -4.4571257 -13.668885
24.381975 -4.3925428 -13.938723
25.310518 -4.3868866 -13.850531
23.922354 -4.4862165 -13.815794
23.315918 -4.4868608 -13.767461
23.456772 -4.7294979 -13.575135
23.797253 -4.3769078 -13.810178
24.021069 -4.5981669 -13.763856
24.045996 -4.7558236 -13.631288
