# .PCD v0.7 - Point Cloud Data file format
VERSION 0.7
FIELDS x y z
SIZE 4 4 4
TYPE F F F
COUNT 1 1 1
WIDTH 1035
HEIGHT 1
VIEWPOINT 0 0 0 1 0 0 0
POINTS 1035
DATA ascii
24.596382 65.771286 -31.355591
21.284565 65.815445 -31.410728
24.023813 65.537773 -31.327721
24.685135 65.524849 -31.327467
22.298651 65.299599 -31.161268
23.91987 65.813934 -31.377602
25.10623 65.901146 -31.348078
24.668383 65.869293 -31.358696
23.650923 65.442192 -31.327534
26.573709 65.735558 -31.356943
26.419575 65.674469 -31.334852
26.45813 66.034653 -31.580868
26.490112 65.903793 -31.550972
26.588142 65.894646 -31.43314
26.543318 65.850243 -31.590637
26.146255 65.910583 -31.491142
26.544146 65.9226 -31.616848
26.560076 65.920273 -31.51976
26.566967 65.824203 -31.486729
26.374153 65.901253 -31.600874
26.644331 65.907669 -31.487698
26.250851 65.639969 -31.433556
26.34803 65.697029 -31.360405
26.639933 65.814674 -31.582003
25.227457 65.475342 -31.55192
24.053223 65.550201 -31.547997
23.678551 65.544685 -31.553497
24.070538 65.652565 -31.570433
24.26366 65.699089 -31.35849
25.057209 65.760651 -31.637369
24.462421 65.776108 -31.65267
25.142815 65.773079 -31.66552
25.390476 65.248917 -31.263269
24.836788 65.260468 -31.273903
25.249704 65.258522 -31.262215
24.846872 65.476532 -31.313774
25.249834 65.619293 -31.544266
24.758675 65.701668 -31.369762
22.081293 65.757988 -31.542454
25.465668 65.809189 -31.442259
22.704351 65.662422 -31.433989
20.747326 65.510651 -31.522364
20.295582 65.472664 -31.364384
25.879009 65.269951 -31.340353
20.718365 65.514366 -31.450459
20.904846 65.553619 -31.54509
23.182043 65.282364 -31.290476
20.062147 65.529007 -31.385181
23.254576 65.539192 -31.464216
24.980072 65.649628 -31.531139
24.443586 65.899117 -31.449371
25.257835 65.904686 -31.493149
25.161032 65.624123 -31.453499
21.712717 65.876297 -31.520691
24.851196 65.520432 -31.457912
24.835648 65.653458 -31.541077
26.086632 65.404198 -31.324198
21.049458 65.398415 -31.471424
21.868483 65.455452 -31.487869
22.422823 65.743507 -31.529089
23.371334 65.708008 -31.405714
24.840477 65.417404 -31.481537
21.35066 65.447502 -31.524456
21.892403 65.751503 -31.535866
25.461088 65.627319 -31.449614
24.258665 65.621994 -31.459764
19.690094 65.482559 -31.514315
24.157509 65.532814 -31.456734
23.896194 65.460312 -31.305399
25.256014 65.621941 -31.451073
22.96035 65.663857 -31.426966
24.33654 65.420982 -31.474094
21.059046 65.649353 -31.520063
21.954233 65.770653 -31.553204
20.778152 65.634171 -31.519163
21.706272 65.792358 -31.42408
20.852673 65.757828 -31.587595
22.772186 65.552948 -31.474779
19.91263 65.650963 -31.607494
22.760221 65.623474 -31.462147
25.537542 65.726791 -31.502842
19.892258 65.756622 -31.623596
22.656981 65.75885 -31.534483
22.070454 65.530174 -31.48901
25.369452 65.627327 -31.452
22.54961 65.758537 -31.526525
22.756514 65.84272 -31.518318
20.058784 65.369003 -31.487364
20.972542 65.522758 -31.481239
20.05241 65.58329 -31.507812
20.933723 65.740501 -31.528555
20.228043 65.502365 -31.535473
22.6551 65.539993 -31.469557
20.095226 65.735855 -31.584482
23.955481 65.534286 -31.459749
19.583481 65.524391 -31.533167
21.46418 65.724884 -31.470905
25.260925 65.840408 -31.510344
20.173309 65.298737 -31.433695
20.57988 65.620453 -31.46279
26.633553 65.762527 -31.291855
20.553356 65.808395 -31.468513
25.361132 65.404762 -31.395937
22.458969 65.625145 -31.467628
20.786417 65.78244 -31.533895
23.464006 65.592018 -31.43119
19.693312 65.716362 -31.568584
19.761868 65.391151 -31.492033
24.553221 65.53019 -31.457037
20.693752 65.560616 -31.485617
20.23175 65.737038 -31.531219
23.259192 65.881523 -31.477888
21.754583 65.511894 -31.493092
23.1539 65.621712 -31.459726
20.567677 65.714264 -31.505548
25.062841 65.841377 -31.514585
22.074802 65.619835 -31.486238
25.024069 65.670883 -31.505545
19.949469 65.61026 -31.496834
22.868206 65.533737 -31.461048
22.370613 65.533676 -31.481459
24.759867 65.741684 -31.531412
25.163918 65.500763 -31.392847
21.549597 65.720825 -31.478712
25.066423 65.422356 -31.466702
20.947121 65.613121 -31.418528
20.889322 65.711395 -31.422039
20.102894 65.73922 -31.511341
21.177437 65.53006 -31.487726
20.656673 65.609016 -31.506701
19.673744 65.631424 -31.541164
20.219765 65.776657 -31.566864
20.263035 65.567886 -31.512819
25.154608 65.840141 -31.50857
19.851898 65.718864 -31.524458
25.932051 65.761993 -31.516813
19.657583 65.507561 -31.492249
23.661098 65.505646 -31.427393
22.646204 65.60202 -31.431355
22.655041 65.620117 -31.471943
26.174763 65.758415 -31.480637
19.657482 65.714821 -31.555624
25.161751 65.53521 -31.45122
20.459301 65.768654 -31.513449
20.487907 65.540855 -31.459101
24.459375 65.62278 -31.463287
21.464226 65.662437 -31.477943
26.59338 65.816872 -31.413176
20.055706 65.803642 -31.548845
20.725384 65.422211 -31.476101
23.064299 65.618538 -31.458712
20.676188 65.737274 -31.52281
24.560173 65.842201 -31.512264
23.057739 65.842949 -31.529751
22.362785 65.631134 -31.474842
24.358009 65.714088 -31.468637
24.654787 65.524254 -31.459888
22.162531 65.626068 -31.46656
22.102188 65.778481 -31.422543
22.230881 65.447487 -31.354141
22.750046 65.691811 -31.390764
20.974752 65.440567 -31.423315
22.759825 65.906601 -31.517664
23.261036 65.621887 -31.459068
25.748405 65.748802 -31.515461
24.458723 65.532181 -31.459938
23.366232 65.586609 -31.426554
20.312374 65.743546 -31.469063
20.875412 65.431496 -31.465471
22.65885 65.819183 -31.486336
21.957737 65.734032 -31.480436
25.063824 65.823532 -31.458965
23.362312 65.61898 -31.459581
21.248127 65.822174 -31.481201
25.865063 65.742569 -31.510824
21.256464 65.609802 -31.425877
19.678513 65.809669 -31.51852
21.292816 65.734589 -31.474087
25.371244 65.5233 -31.446157
20.147282 65.427933 -31.46426
19.584267 65.625053 -31.493965
20.118725 65.54483 -31.448626
19.297434 65.777679 -31.506689
20.310841 65.273438 -31.451954
25.05485 65.622185 -31.451454
22.563894 65.612289 -31.464993
25.057508 65.910942 -31.496264
23.273739 65.587868 -31.422157
25.749628 65.683952 -31.373615
25.243217 65.676804 -31.377113
24.36355 65.625618 -31.458073
24.960451 65.906792 -31.497778
23.762144 65.615555 -31.45595
22.855267 65.888084 -31.47798
22.959164 65.894653 -31.479841
26.021265 65.75325 -31.48455
19.749125 65.761993 -31.52837
20.135597 65.740326 -31.517954
20.699158 65.795876 -31.514364
22.258099 65.73172 -31.484871
21.757872 65.410454 -31.421934
25.875275 65.414055 -31.453785
20.387384 65.653793 -31.466114
20.302343 65.610039 -31.429726
24.261501 65.899185 -31.504395
20.9643 65.308014 -31.378115
21.061367 65.60183 -31.398737
19.935682 65.74646 -31.490973
23.557774 65.613976 -31.45508
22.771006 65.893059 -31.476425
20.615805 65.581741 -31.402283
20.615316 65.514061 -31.377296
20.605001 65.461754 -31.384064
22.564863 65.884232 -31.476871
23.457726 65.893669 -31.504839
23.457727 65.812866 -31.48122
22.398888 65.70874 -31.419455
21.28171 65.523247 -31.423838
23.363861 65.902954 -31.507357
19.534348 65.633614 -31.414291
21.476963 65.515556 -31.421543
23.850222 65.501289 -31.42655
25.401577 65.905815 -31.597279
24.255808 65.844048 -31.517841
19.889715 65.810631 -31.418499
20.941031 65.679077 -31.401196
19.874388 65.577301 -31.397045
20.975697 65.514084 -31.36187
19.868956 65.442596 -31.363111
22.664894 65.888908 -31.479504
20.457617 65.835655 -31.487026
24.762531 65.820473 -31.465525
21.563223 65.804871 -31.47118
26.709745 65.758362 -31.42551
20.485985 65.715584 -31.43412
21.559914 65.590698 -31.421608
23.057575 65.823586 -31.481888
21.958584 65.411156 -31.425686
25.848623 65.727707 -31.444332
23.099316 65.665611 -31.429192
24.157267 65.619377 -31.45788
22.047287 65.690041 -31.426615
25.44136 65.940041 -31.584904
23.357229 65.818207 -31.482197
22.244385 65.695938 -31.431318
26.355568 65.73896 -31.457281
20.074402 65.703217 -31.433996
21.166527 65.613144 -31.404474
21.148817 65.476341 -31.380468
25.558002 65.526428 -31.439953
20.853891 65.730553 -31.482792
22.455925 65.600136 -31.423744
20.254683 65.297935 -31.416664
21.957373 65.810211 -31.486328
23.064093 65.724609 -31.474531
22.972702 65.58847 -31.43054
25.159937 65.604027 -31.396233
22.063133 65.803268 -31.485529
24.756926 65.897408 -31.497831
22.45484 65.816795 -31.480743
23.56304 65.501129 -31.42576
22.351595 65.595581 -31.428495
25.358971 65.414658 -31.46303
21.956079 65.682007 -31.431322
23.067881 65.594307 -31.422962
20.862139 65.594345 -31.419334
22.859049 65.688354 -31.424202
20.642435 65.722023 -31.395136
21.759165 65.598068 -31.420317
21.065235 65.696381 -31.408621
19.953777 65.520645 -31.429419
21.038568 65.318604 -31.35491
23.864456 65.527405 -31.468842
23.56325 65.8908 -31.501808
25.560486 65.719681 -31.447598
25.460501 65.531281 -31.446819
23.061115 65.902878 -31.509764
21.86912 65.819893 -31.482439
22.960772 65.812149 -31.484274
24.058992 65.617699 -31.456478
22.95713 65.500465 -31.430536
21.670267 65.806442 -31.465347
20.328506 65.708817 -31.424627
24.365536 65.900414 -31.504576
25.378242 65.220062 -31.358257
25.458347 65.351334 -31.314516
25.256092 65.397293 -31.402052
25.777752 65.386551 -31.314026
25.859529 65.371025 -31.322775
24.957664 65.841904 -31.512486
25.554371 65.380829 -31.321733
24.249735 65.583443 -31.41223
22.757992 65.722816 -31.477524
24.263529 65.81987 -31.474943
25.358322 65.816872 -31.445818
22.470505 65.712257 -31.472652
21.040035 65.493149 -31.372713
22.959732 65.846642 -31.532761
24.969959 65.701416 -31.390299
25.250378 65.718216 -31.452511
22.860033 65.722466 -31.471474
25.155384 65.814247 -31.457203
23.357874 65.720047 -31.472301
25.666407 65.387085 -31.320858
25.256573 65.844696 -31.616726
24.863153 65.621323 -31.455769
20.971243 65.587364 -31.502632
20.9545 65.782532 -31.413158
20.636116 65.757629 -31.42017
22.564352 65.819054 -31.485355
21.384806 65.499428 -31.517557
25.275801 65.915146 -31.61459
25.180513 65.914436 -31.595528
20.546295 65.485016 -31.561359
24.354763 65.884346 -31.453089
24.458948 65.721542 -31.467285
23.461075 65.615105 -31.459572
24.665043 65.722015 -31.466162
23.661118 65.61853 -31.458048
24.260098 65.716515 -31.46707
20.711115 65.741547 -31.581339
20.609259 65.793419 -31.590677
19.60092 65.730965 -31.530273
21.929764 65.830597 -31.388126
21.285713 65.600021 -31.535904
24.565351 65.715538 -31.464994
25.45628 65.20816 -31.345928
23.659279 65.884132 -31.468433
24.865715 65.899956 -31.498133
24.759138 65.720734 -31.466536
23.744234 65.536797 -31.451668
23.663193 65.845306 -31.518099
24.660702 65.844208 -31.515671
25.873283 65.90255 -31.511797
22.045038 65.596176 -31.432878
24.558998 65.613625 -31.453854
23.556459 65.535034 -31.456587
24.663149 65.819946 -31.467356
24.463932 65.497688 -31.415236
23.960543 65.617409 -31.457983
23.457092 65.532242 -31.458988
21.861389 65.723083 -31.487612
21.948954 65.606735 -31.472586
21.34507 65.629639 -31.498755
25.855597 65.397041 -31.391941
25.075064 65.710655 -31.688932
22.856298 65.818817 -31.476988
20.301262 65.807198 -31.550053
25.365908 65.603447 -31.383686
22.868151 65.622688 -31.461863
19.720133 65.67263 -31.552252
19.651066 65.430534 -31.472885
21.785616 65.631752 -31.49724
23.561119 65.581238 -31.424244
22.465239 65.471519 -31.354786
24.761431 65.401962 -31.404396
21.76895 65.72818 -31.4781
21.759827 65.495171 -31.421131
21.064631 65.51284 -31.421003
24.05932 65.532326 -31.461926
23.955051 65.582779 -31.419317
21.559654 65.511551 -31.412838
21.659361 65.55426 -31.482162
22.55497 65.4972 -31.429211
22.93203 65.631958 -31.557125
21.062237 65.743118 -31.502028
21.66942 65.502037 -31.41968
23.166004 65.817253 -31.482447
24.055714 65.718544 -31.469776
24.959776 65.598991 -31.398373
24.06052 65.745506 -31.395578
24.561792 65.584618 -31.413103
21.867268 65.59726 -31.427511
24.249649 65.883698 -31.470491
22.148474 65.589973 -31.427212
21.363728 65.600517 -31.417965
21.664694 65.596741 -31.405102
24.559498 65.821609 -31.464907
22.758974 65.59037 -31.43285
22.157587 65.714439 -31.478418
22.053083 65.812508 -31.527163
22.361086 65.838181 -31.528584
22.472683 65.843613 -31.528673
23.859825 65.72097 -31.468121
21.350664 65.47464 -31.374487
21.657049 65.723999 -31.483669
22.556368 65.590202 -31.429247
21.151077 65.400352 -31.457397
23.765245 65.595718 -31.421133
22.85536 65.586365 -31.43231
21.957411 65.605293 -31.428268
21.379322 65.496567 -31.415825
24.156996 65.718445 -31.469471
21.455656 65.397568 -31.425873
21.562815 65.372505 -31.371214
24.959009 65.81749 -31.457287
24.065453 65.586227 -31.413355
24.958822 65.507088 -31.405542
23.155317 65.725021 -31.473873
24.360678 65.82103 -31.467112
24.64562 65.690125 -31.398727
23.267931 65.660202 -31.4112
21.555332 65.410576 -31.436905
22.760227 65.8162 -31.479553
24.657232 65.600693 -31.399981
23.660706 65.713478 -31.470444
21.859852 65.408195 -31.428949
21.149647 65.482567 -31.413061
23.963774 65.724121 -31.468866
24.16049 65.498566 -31.424383
23.264097 65.396729 -31.417095
22.264902 65.585777 -31.426023
23.559635 65.84726 -31.521545
21.867977 65.504562 -31.422308
22.202875 65.453751 -31.532612
21.744036 65.372185 -31.370981
22.183811 65.69548 -31.431299
24.862734 65.398872 -31.398279
22.173531 65.81015 -31.485065
23.361298 65.506821 -31.426659
25.450748 65.395401 -31.390074
19.504936 65.440453 -31.492357
24.487446 65.368332 -31.334585
22.059917 65.726639 -31.480587
22.739254 65.501068 -31.348221
22.568386 65.723053 -31.477821
21.441998 65.689667 -31.425993
22.121264 65.277359 -31.279701
22.890045 65.295906 -31.284859
22.686094 65.280746 -31.266327
24.572039 65.368439 -31.311472
21.751987 65.880852 -31.456303
22.249386 65.301704 -31.283323
23.49501 65.376152 -31.368637
22.661367 65.404762 -31.422649
21.678429 65.396194 -31.43314
21.660097 65.901505 -31.467096
20.594679 65.61129 -31.500008
23.759357 65.815735 -31.476093
21.742594 65.48391 -31.369707
21.381893 65.733681 -31.467045
21.555204 65.907425 -31.473825
21.749254 65.878479 -31.404724
20.852894 65.816666 -31.483673
20.96851 65.787521 -31.491558
22.063074 65.349373 -31.254093
22.147953 65.403748 -31.428516
22.458132 65.402496 -31.420956
22.059576 65.405159 -31.434214
21.952118 65.356415 -31.384037
22.364996 65.402878 -31.419003
24.362404 65.843254 -31.518028
21.866102 65.380539 -31.377195
24.457872 65.843948 -31.517759
21.659088 65.390251 -31.369852
22.561403 65.400497 -31.425169
24.956808 65.519142 -31.453413
24.969385 65.747391 -31.513798
21.986366 65.331917 -31.221746
24.759157 65.619675 -31.455721
24.956377 65.616257 -31.448116
22.454742 65.380798 -31.372669
24.859884 65.83902 -31.511806
20.654003 65.839935 -31.576765
22.254745 65.811317 -31.480768
23.859465 65.616608 -31.456409
21.671555 65.610123 -31.500683
21.767439 65.704407 -31.428854
25.672215 65.125038 -31.433647
23.589048 65.335632 -31.275488
24.850838 65.405144 -31.19692
20.585634 65.574524 -31.616808
25.251682 65.218628 -31.36228
25.194195 65.277969 -31.261267
23.563879 65.76088 -31.532028
22.967356 65.355118 -31.357328
23.158173 65.501961 -31.43181
23.460539 65.504776 -31.426001
24.943827 65.782646 -31.366793
22.360273 65.812012 -31.489782
22.960741 65.39817 -31.419271
23.85817 65.900314 -31.510416
24.314384 65.463943 -31.314001
25.06032 65.525414 -31.444983
23.263903 65.507324 -31.425016
23.068956 65.505028 -31.428946
20.545214 65.386108 -31.526726
24.366165 65.733383 -31.535683
25.559969 65.27861 -31.345804
20.168938 65.573006 -31.521944
24.059017 65.418594 -31.503292
21.913712 65.927391 -31.384619
20.058945 65.385384 -31.405951
25.847319 65.807869 -31.423668
25.261654 65.280983 -31.347948
20.15143 65.80249 -31.502174
26.274233 65.7985 -31.339952
20.08884 65.810272 -31.454504
23.76054 65.719566 -31.469622
22.950485 65.6194 -31.462765
20.597185 65.310081 -31.378725
24.459602 65.7556 -31.528318
23.168255 65.843109 -31.529152
23.58642 65.356499 -31.356611
24.351006 65.377884 -31.328529
25.944717 65.402634 -31.328785
25.461132 65.279747 -31.346466
21.953217 65.276764 -31.259367
25.354145 65.382042 -31.330088
24.159851 65.358582 -31.313913
25.643921 65.285751 -31.338379
24.167135 65.902122 -31.502172
23.738943 65.361938 -31.327261
23.009762 65.626152 -31.330626
26.176014 65.299858 -31.373285
25.639408 65.41864 -31.46418
22.548269 65.464783 -31.341333
25.456532 65.841675 -31.503784
23.964836 65.896431 -31.50741
24.278063 65.420502 -31.487696
23.661636 65.402611 -31.413904
24.648121 65.39016 -31.295113
20.735867 65.34584 -31.428806
21.855871 65.705406 -31.428547
24.934166 65.27359 -31.234943
24.063599 65.901421 -31.504244
26.155132 65.621437 -31.420103
24.760172 65.841591 -31.512108
19.717947 65.801544 -31.590498
26.072439 65.807899 -31.4515
25.856459 65.284538 -31.396204
21.472172 65.587875 -31.426804
24.662327 65.404053 -31.407734
22.974638 65.506699 -31.315765
24.853586 65.34314 -31.306599
23.861338 65.761986 -31.548162
22.121708 65.933693 -31.458109
23.26078 65.719864 -31.470835
22.663174 65.501755 -31.431473
26.254217 65.789642 -31.428446
19.972099 65.799469 -31.586346
25.948559 65.842163 -31.616028
24.455551 65.586311 -31.414871
24.86458 65.58667 -31.40086
24.462307 65.820946 -31.469625
25.465755 65.424606 -31.455534
21.019424 65.545586 -31.332554
26.053923 65.300735 -31.377085
24.14361 65.892693 -31.462666
22.862642 65.403267 -31.419569
25.95875 65.294739 -31.402374
23.954657 65.383499 -31.358458
22.364645 65.721748 -31.47113
25.965561 65.797234 -31.428698
25.247629 65.528198 -31.455656
21.855537 65.62278 -31.475634
23.255156 65.764862 -31.538614
26.052681 65.277634 -31.335831
21.74753 65.796852 -31.542765
25.159 65.718422 -31.455606
23.666435 65.365891 -31.346647
22.566292 65.844589 -31.533751
22.465647 65.48365 -31.471668
25.147882 65.380089 -31.332918
25.751972 65.843475 -31.627007
22.158258 65.76133 -31.545067
23.433161 65.886559 -31.473188
21.86138 65.278206 -31.298195
22.257925 65.525444 -31.471748
23.260784 65.371704 -31.346678
25.26293 65.736099 -31.517254
26.429066 65.787537 -31.404119
25.065502 65.48822 -31.310452
20.353642 65.495804 -31.478312
26.148994 65.81501 -31.495939
22.857939 65.364937 -31.342424
24.363657 65.589127 -31.390892
24.606478 65.540131 -31.327698
22.369188 65.370621 -31.363729
21.857931 65.822517 -31.536625
24.553774 65.733292 -31.528097
21.586615 65.633202 -31.47891
24.452759 65.43351 -31.471916
20.852978 65.473976 -31.434496
19.859049 65.520645 -31.533127
23.894276 65.364098 -31.34869
22.260277 65.356094 -31.382427
25.572811 65.793732 -31.647238
22.169138 65.832497 -31.524254
19.840141 65.795815 -31.562115
26.39237 65.813934 -31.40699
25.003223 65.500801 -31.330235
26.616829 65.781532 -31.390575
20.314999 65.799492 -31.629978
24.756729 65.402443 -31.474518
26.040257 65.858437 -31.508751
25.142801 65.744659 -31.526947
26.074081 65.395561 -31.366295
22.254581 65.842705 -31.526623
24.937225 65.44249 -31.468893
21.659401 65.48336 -31.369823
25.071745 65.265396 -31.258528
26.641769 65.869576 -31.476456
24.745649 65.524704 -31.570843
22.166798 65.501549 -31.432226
22.052813 65.497612 -31.445086
22.023548 65.510628 -31.347038
25.955006 65.400948 -31.391113
24.666174 65.749344 -31.523512
25.963474 65.828041 -31.504044
21.037453 65.440407 -31.516474
21.953623 65.49762 -31.429195
26.355595 65.870285 -31.49645
20.669277 65.510498 -31.442278
25.166502 65.4907 -31.293747
24.660059 65.496468 -31.415897
24.557011 65.501701 -31.419312
23.078077 65.464737 -31.499718
21.972504 65.8265 -31.536444
25.159243 65.280312 -31.342268
26.174782 65.407455 -31.372444
26.276121 65.850296 -31.516691
25.462502 65.716438 -31.450876
21.664661 65.697174 -31.419014
25.363832 65.755356 -31.521957
24.977804 65.371635 -31.330982
20.83931 65.648193 -31.514219
20.179266 65.317505 -31.461411
24.060272 65.505287 -31.422047
24.775715 65.371262 -31.312229
19.695583 65.789078 -31.593378
26.14469 65.811638 -31.427025
23.359732 65.75808 -31.518763
25.939148 65.276741 -31.340347
24.06217 65.3657 -31.334099
26.026623 65.29718 -31.236103
25.455341 65.300133 -31.408474
26.27235 65.29406 -31.315727
23.761179 65.502281 -31.427286
23.160315 65.380959 -31.344355
25.260321 65.823761 -31.455803
21.283131 65.40168 -31.3396
22.648277 65.348656 -31.352135
20.221014 65.376823 -31.547171
23.776855 65.897011 -31.464495
26.452105 65.382446 -31.374937
19.968615 65.427345 -31.569986
23.357912 65.40152 -31.415119
25.351843 65.503838 -31.398752
23.960566 65.401291 -31.412487
24.864161 65.497391 -31.403126
24.362297 65.402306 -31.413134
26.279655 65.423851 -31.374483
24.26322 65.400658 -31.414017
19.835251 65.47036 -31.501524
23.969112 65.882019 -31.471739
20.041334 65.284691 -31.38092
23.859659 65.849014 -31.519819
19.771847 65.370705 -31.407543
25.056793 65.499435 -31.400002
25.843781 65.843445 -31.507765
25.047245 65.361099 -31.348074
26.454947 65.797646 -31.531687
22.055069 65.907112 -31.463326
21.362064 65.376366 -31.369989
21.160236 65.349518 -31.366289
20.842937 65.393845 -31.375359
23.462397 65.714951 -31.470825
21.466156 65.380836 -31.366009
22.043354 65.366219 -31.381315
24.761932 65.500031 -31.409525
23.458761 65.403717 -31.418034
23.653381 65.896034 -31.504665
24.535202 65.356827 -31.260927
22.659998 65.850998 -31.539719
20.978582 65.385735 -31.350346
23.757544 65.399048 -31.410503
24.053558 65.401642 -31.411383
19.91478 65.25029 -31.335474
25.358446 65.295692 -31.409008
19.886595 65.681763 -31.374252
26.15729 65.724152 -31.428375
24.659822 65.618515 -31.454628
25.457846 65.505455 -31.396189
22.161789 65.457497 -31.340752
22.957441 65.724899 -31.471107
24.31406 65.660652 -31.409903
23.062975 65.405342 -31.417778
25.365177 65.721428 -31.452831
19.763048 65.486359 -31.465982
23.047997 65.890503 -31.475767
24.06193 65.890694 -31.457661
25.254522 65.42971 -31.46167
25.157829 65.425056 -31.478985
23.974819 65.419891 -31.48757
19.801634 65.807938 -31.500557
25.841648 65.848068 -31.359865
23.761707 65.895454 -31.503431
20.298246 65.766342 -31.467297
23.553465 65.817169 -31.480265
24.856817 65.722786 -31.463209
19.542551 65.703514 -31.43314
26.076584 65.735252 -31.432899
21.977772 65.445808 -31.35603
25.750753 65.29512 -31.400114
22.761213 65.369431 -31.348598
25.259907 65.6036 -31.38229
25.047453 65.585953 -31.393705
25.977091 65.721863 -31.421755
24.763744 65.594261 -31.404068
24.159733 65.574875 -31.409492
25.253716 65.502281 -31.388744
22.462107 65.505814 -31.434053
25.859592 65.216324 -31.410484
23.557671 65.399544 -31.411709
25.764614 65.217216 -31.408161
23.359476 65.359192 -31.333925
24.769049 65.527557 -31.459574
25.007526 65.573174 -31.532452
25.562784 65.619675 -31.432615
23.262129 65.892502 -31.506824
21.363644 65.875938 -31.467945
21.044693 65.890694 -31.436068
21.055313 65.813354 -31.475027
23.656532 65.816322 -31.479769
22.760473 65.394905 -31.416908
25.203671 65.344162 -31.253313
20.794256 65.671898 -31.578733
25.02231 65.362099 -31.250765
20.610443 65.428871 -31.444454
26.461983 65.428772 -31.308786
23.962185 65.845177 -31.519535
24.964569 65.718063 -31.460949
23.878368 65.900208 -31.470291
25.962477 65.22036 -31.410206
23.7572 65.844719 -31.519333
25.752401 65.720146 -31.441563
25.662275 65.219063 -31.421173
21.396357 65.798294 -31.469772
25.259386 65.36795 -31.327551
22.247389 65.393463 -31.421555
24.160736 65.824371 -31.472164
24.861738 65.820282 -31.46287
24.055758 65.819359 -31.469585
21.363405 65.78524 -31.422031
25.459558 65.229179 -31.415022
23.959822 65.820679 -31.477474
21.161497 65.720467 -31.418768
23.860666 65.82103 -31.477949
25.650301 65.722252 -31.447083
23.185446 65.493294 -31.286766
23.160198 65.398521 -31.418438
19.762016 65.32032 -31.480913
19.789944 65.270775 -31.435064
20.254473 65.504944 -31.448252
23.962498 65.504715 -31.42264
25.157261 65.392075 -31.392147
23.473269 65.479889 -31.342976
25.6581 65.29657 -31.400311
24.457495 65.404175 -31.409893
24.06218 65.842056 -31.517864
24.361858 65.500122 -31.4198
20.355299 65.791618 -31.49291
19.92909 65.380623 -31.39189
24.157234 65.844589 -31.517761
25.054556 65.401352 -31.401529
24.159588 65.399094 -31.41157
21.159609 65.823776 -31.449137
23.558886 65.718613 -31.468897
22.860559 65.499237 -31.430098
22.463036 65.667648 -31.421618
24.558706 65.402634 -31.411598
24.257109 65.493645 -31.41877
23.858747 65.398376 -31.412174
22.763912 65.506508 -31.429695
25.551779 65.40081 -31.386341
25.555647 65.221725 -31.41655
22.535009 65.372192 -31.3575
23.86783 65.583084 -31.423679
22.660646 65.727936 -31.479111
25.058722 65.723145 -31.461998
23.659266 65.582153 -31.422417
24.962265 65.398941 -31.400898
25.658895 65.399506 -31.387211
22.360386 65.505234 -31.42593
22.1525 65.36969 -31.361937
22.260101 65.480484 -31.430349
24.151682 65.424255 -31.474802
21.766909 65.813606 -31.476009
23.360067 65.443871 -31.468142
21.239271 65.397453 -31.429756
23.042953 65.374596 -31.340693
21.465609 65.818901 -31.464767
21.476322 65.776634 -31.416285
21.743698 65.770447 -31.394039
25.558519 65.206024 -31.356506
24.056807 65.328949 -31.236399
21.971266 65.885696 -31.474405
20.731377 65.276314 -31.39097
20.438936 65.912544 -31.577791
20.210402 65.366241 -31.490047
21.250832 65.671997 -31.440571
21.351028 65.665146 -31.407467
19.495148 65.497917 -31.5846
25.544127 65.298561 -31.409554
20.666389 65.283524 -31.448885
23.256706 65.818474 -31.48262
23.833473 65.71286 -31.384119
23.870367 65.833969 -31.368446
23.017546 65.795769 -31.404013
23.758646 65.678101 -31.382906
25.363068 65.283432 -31.334492
25.659044 65.760628 -31.512491
22.267757 65.563377 -31.314056
23.000828 65.808876 -31.361609
23.458714 65.713837 -31.415033
22.491314 65.630348 -31.547678
23.13702 65.528824 -31.470383
25.061895 65.747314 -31.529379
22.853451 65.87207 -31.37569
23.59515 65.827431 -31.389299
25.071459 65.685356 -31.364433
22.127527 65.756279 -31.357492
24.267036 65.753563 -31.533522
21.947618 65.521423 -31.486368
25.460602 65.745247 -31.512688
22.604216 65.709557 -31.349165
23.336708 65.833397 -31.357094
22.633583 65.80658 -31.345266
22.322752 65.620049 -31.328663
25.566996 65.705841 -31.375679
26.031342 65.780312 -31.351608
24.149908 65.747162 -31.531555
23.058399 65.542755 -31.473799
24.264435 65.377678 -31.350723
25.757582 65.400772 -31.38438
24.656908 65.435547 -31.460571
20.798485 65.343895 -31.325138
22.201094 65.389091 -31.282827
25.561577 65.122314 -31.425325
20.384052 65.796341 -31.673752
25.661266 65.838928 -31.508011
21.375111 65.405838 -31.407583
21.982847 65.728378 -31.293329
21.900053 65.657806 -31.293629
25.749575 65.28418 -31.346655
25.551575 65.82914 -31.509392
22.259413 65.61705 -31.469412
23.159069 65.575897 -31.435154
24.964186 65.894707 -31.448046
24.46347 65.895508 -31.494928
25.356161 65.843353 -31.617548
24.874798 65.887207 -31.457466
24.754244 65.89296 -31.457211
24.562054 65.902588 -31.498316
23.356594 65.840675 -31.520294
23.252224 65.845695 -31.526669
22.126541 65.551201 -31.481113
22.867352 65.846878 -31.535763
23.457943 65.84169 -31.522646
21.867876 65.521118 -31.495169
25.135889 65.884033 -31.445976
22.547764 65.538048 -31.471682
25.358879 65.842674 -31.508833
24.670252 65.904358 -31.503298
25.263178 65.888695 -31.441538
25.667824 65.817177 -31.446617
23.559427 65.908043 -31.463295
25.072998 65.885239 -31.442051
25.450539 65.892296 -31.439453
22.345436 65.899445 -31.529539
22.681871 65.896629 -31.520483
25.555759 65.823257 -31.45125
25.571054 65.904144 -31.487961
21.066652 65.549286 -31.532278
21.860662 65.912735 -31.553473
25.865671 65.853508 -31.600191
25.365715 65.910309 -31.442802
22.967402 65.900017 -31.514599
25.355988 65.912086 -31.501228
24.72216 66.02916 -31.579023
25.461895 65.905418 -31.498688
25.744534 65.90995 -31.496885
20.929525 65.510887 -31.566395
21.972952 65.911598 -31.530018
23.157045 65.894089 -31.503639
23.364538 65.880539 -31.483187
23.359419 65.527557 -31.462288
24.551886 65.88987 -31.453878
25.449944 65.847748 -31.61109
24.362623 65.990089 -31.505083
24.57062 66.004845 -31.461113
22.944147 65.530937 -31.474926
24.860203 65.750862 -31.543249
24.130507 65.681458 -31.412176
24.648088 65.881981 -31.449572
25.655376 65.908455 -31.49868
25.674223 65.894478 -31.425852
22.865093 65.894821 -31.514668
25.527637 65.991684 -31.516708
21.532005 65.460213 -31.360235
20.160746 65.47422 -31.514282
25.654858 65.922783 -31.592772
25.758282 65.811729 -31.440216
23.653484 65.538422 -31.460499
26.171604 65.28289 -31.317986
20.322315 65.667862 -31.646544
22.288765 65.872429 -31.478621
24.263084 65.525032 -31.462929
19.976889 65.334816 -31.558504
20.553192 65.360641 -31.535543
19.977631 65.511162 -31.572369
22.214205 65.766205 -31.525152
19.864689 65.627251 -31.593416
24.361015 65.525124 -31.464632
20.504583 65.614899 -31.563982
20.199347 65.69915 -31.611742
20.540987 65.300117 -31.478563
20.080521 65.356216 -31.505465
25.74802 65.909401 -31.61046
26.135309 65.927971 -31.622183
24.048361 65.758377 -31.5329
23.148676 65.711868 -31.4021
23.156994 65.897308 -31.475887
24.154005 65.974617 -31.436378
25.111885 65.990334 -31.393665
24.791935 65.985924 -31.405783
25.440844 66.06398 -31.400036
20.837749 65.288307 -31.395712
23.54295 65.71064 -31.404167
25.652357 65.858078 -31.611132
21.58041 65.887115 -31.524935
26.101002 65.91584 -31.618303
25.998447 65.316254 -31.248182
22.057266 65.896019 -31.539211
25.861019 65.903778 -31.602785
26.044436 65.871841 -31.592463
26.277905 65.878242 -31.592722
25.741127 65.940163 -31.725786
25.271685 65.776146 -31.646889
20.766512 65.723114 -31.54023
21.147715 65.60244 -31.538784
21.158518 65.684464 -31.53688
21.419687 65.569901 -31.556431
24.344942 65.779129 -31.659071
25.757376 65.981911 -31.776989
25.543522 65.889862 -31.440174
24.665936 65.774933 -31.636465
23.614382 65.987007 -31.451508
24.590633 66.092628 -31.474405
25.635025 65.670578 -31.503807
22.877411 66.006088 -31.521286
22.93198 66.017853 -31.535309
24.671879 65.994728 -31.523886
21.562843 65.726883 -31.429298
21.428446 65.885307 -31.497606
23.161253 66.017754 -31.518618
23.596613 66.117661 -31.540936
21.240173 65.551262 -31.489098
21.149433 65.886459 -31.457088
20.602081 65.354149 -31.455603
20.863176 65.498863 -31.361151
20.954634 65.86409 -31.414104
21.023699 65.430214 -31.354959
23.667166 65.768272 -31.514858
24.508682 65.633965 -31.542086
22.739067 65.688469 -31.533533
24.353075 65.635292 -31.556704
20.748167 65.554321 -31.353273
25.57723 65.837921 -31.613285
21.145477 65.769386 -31.423397
23.767403 65.754272 -31.519304
24.658276 65.839325 -31.629406
25.158062 65.846947 -31.607386
24.675955 65.925026 -31.606831
24.553297 65.907875 -31.581964
21.042578 65.763954 -31.422737
21.27179 65.461906 -31.384056
24.445148 65.929031 -31.599524
24.729401 65.9272 -31.601187
23.958059 65.755005 -31.538742
25.979954 65.729736 -31.359922
24.758957 65.778694 -31.634754
25.748329 65.828011 -31.508078
26.301676 65.902161 -31.484949
24.560102 65.839745 -31.624376
24.759129 65.838661 -31.627533
24.461266 65.839508 -31.62989
24.35988 65.920647 -31.598261
25.055202 65.83992 -31.62159
24.855646 65.842323 -31.622684
25.693739 66.047447 -31.554344
25.07756 66.00956 -31.532001
24.382677 66.029922 -31.552496
24.642284 66.065971 -31.565985
25.463856 65.786339 -31.628191
23.806728 65.651505 -31.550686
25.453512 65.966988 -31.706942
22.130617 65.904892 -31.542446
23.660286 65.835381 -31.391396
22.773348 65.842598 -31.378189
25.368013 65.794586 -31.61179
23.231956 66.040924 -31.530321
24.756725 65.992401 -31.525335
25.647385 65.69458 -31.374168
22.280758 65.904198 -31.511314
24.845299 65.773842 -31.630316
24.950851 65.78653 -31.65345
24.551178 65.782028 -31.656284
24.478395 65.535713 -31.549738
24.548702 65.637779 -31.541067
23.473354 65.701675 -31.523909
25.728378 65.907013 -31.42057
25.169342 65.737839 -31.388155
26.250214 65.870811 -31.361826
26.264856 65.925842 -31.593115
25.962559 65.911217 -31.446543
25.575735 65.911209 -31.594597
25.472878 66.03511 -31.465542
26.210548 65.995094 -31.423571
25.394646 66.042274 -31.540148
26.351671 65.887779 -31.438204
26.35515 65.944748 -31.523998
26.31312 65.92215 -31.559229
26.046028 65.890274 -31.469032
26.42507 65.878189 -31.437586
26.140146 65.662704 -31.382887
25.921227 65.890404 -31.526966
25.848669 65.717842 -31.367514
23.940506 65.662033 -31.538525
24.654587 65.661873 -31.539497
24.770403 65.64901 -31.548876
23.861851 65.64193 -31.568266
24.123674 65.675316 -31.529478
24.322884 65.496552 -31.56361
