# .PCD v0.7 - Point Cloud Data file format
VERSION 0.7
FIELDS x y z
SIZE 4 4 4
TYPE F F F
COUNT 1 1 1
WIDTH 1394
HEIGHT 1
VIEWPOINT 0 0 0 1 0 0 0
POINTS 1394
DATA ascii
32.976547 -11.884861 16.36091
33.124855 -12.179004 16.453297
33.006138 -11.614048 16.345778
33.227898 -11.03862 16.278902
32.865948 -11.144595 16.09967
33.112503 -12.133519 16.569117
32.920967 -12.721133 16.518854
33.19278 -10.91851 16.181816
33.068367 -11.214359 16.192245
33.107582 -11.208389 16.132509
33.416649 -12.287697 16.617926
32.803467 -12.58629 16.48851
32.918777 -11.91714 16.402668
33.207054 -11.310799 16.326387
32.951576 -12.504712 16.599119
33.190762 -12.39462 16.490736
33.093323 -12.361486 16.459606
33.048676 -12.525269 16.505264
33.009197 -12.079959 16.306927
32.781639 -11.558957 16.286907
33.269306 -12.007198 16.496649
33.114059 -12.731115 16.392963
32.983295 -11.296844 16.13307
32.961903 -13.036936 16.544415
33.204979 -12.418494 16.45682
33.405487 -10.70708 16.151161
33.392929 -10.68254 16.242971
33.22963 -12.634348 16.496582
33.102615 -12.627807 16.444176
33.310848 -13.077616 16.624369
33.214512 -12.94021 16.517366
33.515614 -11.611675 16.72463
33.883793 -10.581216 16.592274
33.686264 -11.209661 16.332146
33.586273 -11.834295 16.672821
33.98344 -13.025395 17.082424
33.790157 -11.407843 16.407846
33.580345 -11.240525 16.34186
33.400013 -11.998406 16.370152
33.998543 -12.527351 16.626505
33.978756 -12.26073 16.56916
33.676449 -11.340438 16.606298
33.883995 -11.336465 16.694632
33.789345 -12.167514 16.508896
33.888725 -10.804228 16.30545
33.744167 -12.260104 16.481771
33.875378 -12.059247 16.875315
33.974953 -12.771095 16.708302
33.698521 -12.245224 16.427763
33.384083 -11.957326 16.711388
33.291889 -12.735784 16.752155
33.781029 -12.061122 16.839603
33.217598 -12.764539 16.453577
33.270245 -12.977532 16.580437
33.272545 -12.242904 16.590939
33.680641 -12.930722 16.947824
33.984543 -11.299149 16.432907
34.089916 -10.807498 16.373652
33.099194 -12.150694 16.595627
33.976852 -12.528225 16.975918
33.692493 -11.413103 16.381287
33.30592 -11.356238 16.352039
33.07386 -12.321695 16.565367
32.907524 -12.370723 16.576269
34.172733 -11.281814 16.490126
33.301361 -11.75092 16.620075
33.171112 -13.032224 16.74168
34.151855 -12.417413 16.723318
33.377892 -11.03568 16.355188
33.214558 -12.40928 16.665728
33.486427 -12.040106 16.683634
34.249229 -11.679203 16.989347
33.281742 -12.62355 16.703251
33.385181 -12.827983 16.785442
33.700779 -11.329482 16.468643
33.908688 -11.68656 16.856148
33.288506 -11.468659 16.28874
34.180874 -11.950695 16.600208
33.221012 -11.270736 16.373819
33.78754 -11.70022 16.800297
33.784073 -10.826859 16.304441
33.59182 -10.76593 16.475468
33.712006 -11.369199 16.339476
33.386532 -11.295764 16.220428
33.979195 -10.825877 16.369703
33.691486 -10.802656 16.2395
33.272491 -12.706085 16.702061
33.488174 -12.487239 16.50499
33.075893 -12.621647 16.36762
33.192085 -12.83498 16.718353
34.089268 -11.711617 16.945932
33.101608 -12.421596 16.573256
34.166275 -10.894066 16.808695
33.677917 -10.758165 16.515759
33.688232 -11.251998 16.62216
33.271187 -10.807348 16.073948
33.206089 -12.999184 16.724165
33.986656 -10.806072 16.338835
33.486145 -10.768375 16.427248
32.91119 -12.268824 16.491737
33.584358 -12.725246 16.810673
34.172016 -11.791237 16.585581
33.691845 -11.961244 16.417723
33.203815 -12.71922 16.652271
33.880554 -13.019752 17.040985
33.370487 -11.751574 16.665834
33.507313 -12.312379 16.518221
33.691391 -12.169398 16.472898
34.216228 -11.159978 16.864498
33.411335 -12.18011 16.368858
33.385159 -12.757512 16.459127
33.678391 -11.447233 16.42627
34.17791 -12.080217 16.647112
34.087864 -11.279662 16.811468
34.287521 -11.068288 16.476004
33.363834 -10.767528 16.371996
33.030514 -12.274133 16.2589
33.588341 -11.28459 16.293903
34.17379 -10.812553 16.390501
33.379143 -10.862086 16.374153
33.688805 -10.862574 16.560255
33.500782 -10.801142 16.158886
33.596554 -12.648996 16.864531
34.274048 -11.219887 16.513891
33.69178 -11.030031 16.327202
33.462658 -12.763543 16.481741
33.980053 -11.238047 16.737612
33.982178 -11.275906 16.772638
33.788292 -11.289241 16.691124
33.081425 -11.343262 16.346443
33.68531 -12.516751 16.790848
33.882946 -11.274351 16.731655
34.271919 -11.280238 16.922941
33.881172 -12.978404 16.72678
33.081406 -11.486985 16.522736
33.798111 -10.679023 16.438673
33.748455 -11.093191 16.715384
33.284859 -10.703472 16.441622
33.132538 -10.807536 16.264015
33.123268 -10.767086 16.294243
33.480747 -11.283707 16.592897
33.785275 -11.251994 16.66501
33.172199 -10.755701 16.048298
33.392239 -11.284328 16.56422
33.401085 -10.686564 16.466827
33.880604 -10.900094 16.703508
33.892513 -11.769055 16.837111
33.68557 -10.823923 16.272528
33.781696 -10.912065 16.308083
33.496548 -11.206559 16.268774
33.788338 -10.798845 16.274214
33.882462 -10.7857 16.635931
33.983692 -12.170352 16.577181
33.501579 -11.239808 16.317509
34.003716 -10.604252 16.700115
33.981895 -12.034098 16.879183
33.043282 -12.259459 16.364712
33.573139 -11.799543 16.717176
32.994904 -11.351517 16.364288
33.223106 -10.734005 16.44681
33.592457 -11.252959 16.579288
33.595978 -10.867653 16.521017
34.093498 -10.878671 16.780949
34.069645 -11.969867 16.945896
33.315994 -12.706375 16.631969
33.472507 -11.246435 16.455494
33.426193 -11.14126 16.136417
32.929611 -12.187871 16.458755
34.143559 -11.004618 16.424332
34.136436 -12.658663 17.105597
34.207829 -11.215899 16.48509
33.690826 -11.66767 16.372747
32.976124 -10.805517 16.230833
33.289894 -11.7561 16.550573
33.775379 -11.091845 16.312756
33.238487 -12.03648 16.272434
34.097557 -10.677002 16.718258
34.154827 -12.803387 17.183109
34.470791 -10.898061 16.95771
34.079697 -11.00631 16.411713
33.774303 -11.244765 16.409306
33.273937 -11.097263 16.100887
33.364441 -10.879661 16.504814
33.071011 -11.165059 16.059113
33.3507 -12.733662 16.583031
33.02853 -10.989921 16.06678
33.39101 -12.736151 16.795488
33.087379 -13.133252 16.712984
32.933109 -11.505211 16.363701
34.07972 -11.166211 16.413044
34.151493 -12.923912 17.137428
33.410805 -11.662553 16.266468
33.882935 -11.166861 16.701513
33.46172 -11.674869 16.284649
33.780323 -11.113564 16.350752
34.182316 -10.684459 16.771538
33.592678 -11.267278 16.619251
33.644321 -10.563607 16.087233
33.391937 -11.369511 16.557674
33.778584 -12.14988 16.842129
33.978619 -12.688804 16.710062
34.177456 -11.970138 17.013216
33.588364 -12.907865 16.873514
33.070408 -11.31399 16.066673
33.848415 -11.17106 16.32608
34.079884 -11.695547 16.549274
33.345005 -11.695605 16.642742
33.249508 -11.841623 16.678881
33.595055 -11.69558 16.390112
33.227222 -10.822125 16.118599
33.978767 -12.046709 16.923935
33.992268 -10.911979 16.744112
33.57098 -11.230991 16.475468
33.885048 -10.833696 16.344379
33.282997 -11.054278 16.400518
33.674877 -12.719259 16.844963
33.182217 -10.762656 16.303385
33.785599 -11.79221 16.465265
33.118061 -11.921457 16.525187
33.012726 -10.83167 16.059015
33.380096 -11.331165 16.495346
33.971069 -11.158163 16.733007
33.539104 -12.472252 16.366615
33.265423 -11.407092 16.228592
34.191711 -11.247231 16.847916
33.517132 -12.197232 16.514313
33.587704 -10.801299 16.195877
33.186848 -12.247178 16.616978
34.181042 -11.168368 16.819807
34.182343 -12.68934 16.775185
33.506393 -10.676785 16.080935
33.591743 -11.746195 16.675797
33.298004 -10.86311 16.437761
33.313789 -11.976174 16.286606
34.37318 -10.607272 16.824505
33.399956 -12.566113 16.465452
34.260082 -10.609833 16.80912
34.157143 -10.57715 16.71323
33.967392 -10.579944 16.622246
33.303547 -12.59053 16.422632
33.591549 -11.950684 16.725605
34.091797 -11.096108 16.427832
34.16626 -11.071018 16.448915
33.889324 -11.091672 16.353235
33.558521 -10.880867 16.624283
33.016705 -10.877602 16.226727
33.481632 -10.849084 16.424475
34.084934 -11.211919 16.46348
33.27066 -11.671312 16.639278
33.298462 -10.887917 16.496977
33.398865 -11.008192 16.191702
33.694775 -11.004445 16.292782
33.389561 -12.659305 16.864136
33.967022 -11.099729 16.786182
34.082619 -11.114779 16.452229
33.591969 -10.823931 16.250715
33.590862 -11.142476 16.5168
33.593163 -11.090055 16.24847
33.119286 -10.794143 16.026501
33.177055 -10.966461 16.356609
33.698845 -11.092012 16.292288
33.486927 -11.74338 16.637629
33.695858 -11.281571 16.66029
33.595062 -11.208471 16.302691
33.68084 -11.746957 16.716114
33.146645 -11.763808 16.501133
33.3186 -10.8361 16.148104
33.78476 -11.695893 16.456619
33.314373 -11.947878 16.695171
33.612217 -10.912607 16.194897
33.782627 -11.206781 16.361662
33.502724 -12.509175 16.56538
34.087513 -12.67813 16.748499
33.496304 -10.664907 16.43668
34.185734 -11.691389 16.579275
33.276512 -12.882615 16.528505
33.682434 -12.728918 16.562757
33.097889 -11.752989 16.497377
33.987541 -11.102869 16.384846
33.389175 -11.742526 16.58979
33.871788 -11.746476 16.794306
33.405128 -11.708027 16.328951
33.688961 -12.662706 16.570101
33.512424 -11.099648 16.225897
33.634243 -11.937411 16.409609
34.164307 -10.871405 16.754051
33.404655 -11.614275 16.434258
33.355515 -12.706411 16.724991
33.394939 -12.1855 16.42535
33.68681 -12.682189 16.622385
34.079857 -12.670994 16.710909
33.488747 -12.66928 16.482317
33.304077 -11.197309 16.220245
33.383839 -11.201291 16.234442
33.592388 -11.117826 16.292643
33.679543 -11.228215 16.377138
34.126453 -12.111881 17.046062
34.278152 -11.985586 17.026714
33.107845 -12.152608 16.357115
33.280712 -10.867974 16.360304
33.794216 -11.164194 16.6619
33.395523 -10.861261 16.320648
33.213188 -11.155689 16.090879
33.904953 -11.754709 16.445711
33.981651 -10.592192 16.284924
33.784367 -11.65644 16.405798
33.315598 -11.643847 16.233631
33.972279 -12.664322 16.667095
34.166695 -12.687048 16.733431
33.493519 -10.82204 16.210646
33.024117 -11.193964 16.034647
33.606735 -11.164323 16.581728
33.689529 -11.164651 16.609446
33.886055 -11.121248 16.385633
33.399628 -10.818946 16.182735
33.969028 -11.111858 16.415014
33.385361 -11.120518 16.236265
33.87709 -12.394205 16.629566
33.484921 -12.882473 16.599632
32.89645 -11.116951 16.082417
34.172924 -12.795651 16.780869
32.79314 -11.20227 16.264259
34.078434 -10.584213 16.667116
33.682224 -11.073534 16.603144
34.180531 -12.540639 17.101286
33.786087 -11.994087 16.508177
34.142658 -11.125367 16.457642
33.484451 -12.122677 16.683725
33.380733 -12.937407 16.846159
33.698322 -11.993641 16.806629
33.791149 -12.660892 16.60825
34.018658 -12.613669 16.561155
33.389645 -12.566422 16.812399
33.696857 -13.016731 16.73333
33.809795 -12.660309 16.494467
34.197273 -12.480523 16.685057
33.133545 -11.638661 16.334555
33.878799 -10.869058 16.642239
33.663879 -12.7006 16.675102
33.301006 -10.668983 16.367844
33.784569 -12.397806 16.601177
33.039474 -10.770577 16.33222
33.873833 -11.971842 16.873484
34.078274 -12.845531 17.107107
33.991058 -11.853169 16.881439
34.144672 -10.986096 16.736889
33.118488 -12.814173 16.703558
33.883194 -12.19376 16.580996
34.257183 -12.039063 17.014679
33.321262 -12.78245 16.6849
33.268414 -12.843143 16.809942
33.960361 -12.729442 16.66604
33.198971 -11.604767 16.273634
33.982487 -11.371015 16.437393
33.723888 -13.074176 17.010796
33.878086 -11.948542 16.838177
33.095577 -11.643145 16.194639
33.311287 -12.613149 16.644339
33.596218 -11.316564 16.343992
33.243866 -12.3033 16.539906
33.200607 -12.167621 16.287006
33.68079 -12.614475 16.855036
33.663727 -10.846781 16.484072
33.075127 -12.295393 16.236216
33.882519 -12.933889 17.035913
33.546223 -12.735383 16.512236
34.186901 -11.972828 16.622826
33.484966 -11.987212 16.408716
33.587627 -10.961899 16.529039
34.07933 -12.543838 16.647774
33.48254 -12.796291 16.613686
33.481979 -11.832968 16.637482
33.6922 -12.848531 16.948589
33.282032 -11.977081 16.332132
33.398384 -12.677893 16.456148
34.183315 -11.891438 16.956501
34.184803 -12.369138 16.690121
33.264229 -11.230042 16.374079
34.378407 -12.704818 17.271786
33.386494 -12.844847 16.84964
33.879333 -12.331217 16.648174
33.566879 -12.72378 16.645283
34.226063 -12.885928 17.239756
33.30479 -12.66458 16.414906
33.594929 -12.792825 16.640289
33.493015 -11.785041 16.351414
33.079597 -12.302839 16.257097
33.889915 -12.670607 16.643282
34.088688 -12.77463 16.756386
33.588173 -11.784904 16.392395
34.079449 -11.791438 16.55139
33.978336 -11.742295 16.825218
33.584354 -12.767214 16.587614
33.789124 -11.827787 16.751768
33.243107 -12.482862 16.409121
33.698383 -11.776021 16.761452
33.194809 -11.82676 16.495247
32.917088 -12.864775 16.546824
33.149273 -12.791421 16.324959
33.751286 -11.506832 16.55356
33.390553 -11.794308 16.320501
33.659481 -10.94718 16.327105
33.692226 -11.789688 16.429911
33.387058 -11.83679 16.590498
33.370987 -11.959854 16.312735
33.202564 -12.95295 16.751045
33.194847 -12.685921 16.594776
33.224567 -12.226422 16.419952
34.399948 -11.097287 16.953209
33.949844 -11.965673 16.510958
33.49305 -11.964435 16.342808
33.687172 -12.097651 16.524485
32.977005 -12.239799 16.335766
33.112423 -12.990501 16.742716
33.687584 -12.824789 16.914751
32.994904 -13.159818 16.500982
33.096107 -13.093734 16.560535
33.384941 -12.616571 16.735826
33.089516 -12.092854 16.325544
33.788326 -13.089885 16.752642
32.986664 -10.896302 16.094749
33.157516 -11.833397 16.410139
33.688862 -11.116219 16.322912
34.066898 -11.940116 16.917267
33.17733 -11.435793 16.251797
33.870476 -11.967669 16.460108
32.932236 -12.604548 16.382309
33.597862 -12.281178 16.491114
33.489769 -12.97519 16.61034
33.774475 -12.868336 16.652294
33.80302 -10.564201 16.510216
33.211441 -12.783351 16.61672
33.789986 -12.306744 16.607063
33.981033 -12.931052 17.070026
33.598885 -12.161366 16.441032
33.493523 -12.166285 16.397156
33.477245 -12.861336 16.877235
33.405285 -12.276855 16.419043
33.981987 -12.460667 16.623001
33.989429 -12.600027 16.972889
33.977753 -12.107254 16.618612
33.585281 -12.302945 16.538725
33.883961 -12.575466 16.636015
33.882492 -12.14593 16.883505
33.697083 -13.068051 16.677311
33.596718 -12.850855 16.91622
34.089085 -10.483849 16.672552
34.17757 -12.066022 17.000666
34.279324 -10.872429 16.861181
33.685425 -12.309334 16.571774
34.176041 -12.58342 16.741446
33.686234 -11.841587 16.7101
33.378353 -12.785981 16.56222
34.212025 -12.750988 17.212282
33.489998 -12.684968 16.555464
33.68095 -12.594034 16.617611
33.977776 -12.837278 17.065189
34.102703 -12.866665 17.180086
33.414459 -12.297465 16.479771
33.889 -12.162593 16.544329
33.206871 -11.882796 16.308229
33.538078 -11.631628 16.433296
33.794186 -12.770668 16.995153
33.600101 -12.658418 16.539305
33.77705 -12.54094 16.461315
34.338341 -12.838744 17.150782
33.983906 -11.793739 16.524019
33.588074 -11.656903 16.670898
33.210705 -12.528922 16.34436
33.587223 -12.237472 16.772217
33.285755 -13.036281 16.490015
33.883232 -11.241206 16.702328
33.192371 -12.658315 16.387243
33.581306 -12.940145 16.577017
33.398636 -11.713388 16.377108
33.497097 -11.006492 16.540157
33.693096 -12.573732 16.573725
33.961266 -11.831986 16.577406
33.688824 -12.880451 16.673466
33.389534 -11.930758 16.581024
33.789425 -12.57378 16.60537
33.594891 -12.590194 16.592793
33.114304 -12.702359 16.615725
34.2509 -12.222217 16.703632
33.497818 -11.808517 16.415342
33.394421 -12.260012 16.755877
33.150757 -12.519985 16.600431
33.392281 -12.771646 16.850904
32.806229 -11.818064 16.321707
33.279022 -12.727997 16.39784
33.271824 -12.931293 16.805498
33.491314 -12.939307 16.87528
33.41954 -10.982833 16.531242
33.165638 -11.717699 16.463581
33.039223 -11.061955 16.295889
33.211685 -11.6483 16.491518
33.170055 -12.911155 16.600565
33.22044 -11.621795 16.58894
33.682407 -12.193356 16.524336
33.292271 -11.491434 16.580837
33.284813 -12.647842 16.749485
33.293453 -12.763028 16.476105
33.108017 -12.737206 16.668119
33.189232 -12.303225 16.257452
33.214153 -12.53782 16.77146
33.153091 -13.105632 16.670307
33.318459 -12.231571 16.33058
33.179955 -12.618615 16.654526
32.81221 -11.865097 16.331114
33.274952 -12.355846 16.344175
33.882183 -12.943612 16.68364
33.405987 -11.443977 16.54397
34.074093 -12.190481 16.649172
33.082413 -12.862441 16.358002
33.200161 -12.360147 16.335894
33.016403 -12.084575 16.237411
33.171871 -12.722806 16.68906
33.314781 -10.722088 16.321245
33.218601 -12.327525 16.326521
33.477951 -12.61774 16.777763
33.480595 -11.440584 16.516785
33.486877 -12.532357 16.783813
33.781879 -12.240475 16.856567
33.782356 -12.351206 16.890913
33.103905 -12.268407 16.604044
33.695621 -12.435076 16.861
33.197285 -12.335076 16.613653
33.487797 -12.4397 16.783449
33.103363 -12.536346 16.621838
33.782898 -12.444904 16.899212
33.099373 -12.462581 16.623056
33.784351 -12.530658 16.901976
33.092232 -12.652718 16.591305
33.173302 -12.911499 16.724775
33.224442 -11.067916 16.432758
34.187302 -12.531943 17.073507
33.495945 -12.70821 16.781719
33.294994 -12.753612 16.830704
33.405243 -10.802952 16.127337
33.294945 -11.655378 16.563267
33.298599 -12.970095 16.46591
33.488419 -12.23986 16.734629
33.18644 -12.415481 16.619501
33.186043 -13.073534 16.457388
33.291344 -11.610806 16.289568
33.408581 -11.424454 16.342871
33.247654 -11.622935 16.225386
33.59021 -11.334114 16.425882
33.222012 -12.065395 16.295265
33.593987 -12.822465 16.877714
33.468132 -11.316855 16.456226
33.295921 -10.916521 16.136786
33.477024 -11.498702 16.306639
33.685368 -12.241879 16.817389
33.035294 -12.251451 16.548752
33.291859 -12.329022 16.662298
33.681267 -12.323467 16.814375
33.022903 -12.392968 16.564137
33.596169 -12.407782 16.767801
32.980236 -12.527673 16.534914
33.121758 -11.843754 16.503124
33.494305 -11.403551 16.316149
33.471188 -12.206029 16.68
33.512238 -12.964204 16.544582
34.085526 -11.292172 16.467226
33.777863 -11.323981 16.401583
33.381405 -12.871073 16.499027
33.480427 -11.641679 16.583904
33.784031 -12.284853 16.559048
33.980114 -11.328484 16.4701
33.779816 -12.734496 16.950926
33.424366 -11.419141 16.637831
33.979698 -11.407184 16.46567
33.512646 -11.373535 16.255968
33.478333 -11.551733 16.568485
33.499207 -12.375538 16.458448
33.590569 -12.230349 16.546928
33.885704 -12.043545 16.838482
33.29401 -12.045538 16.614834
33.579086 -12.035108 16.723528
33.880463 -12.239366 16.888163
33.292583 -12.244241 16.65789
33.876049 -12.315813 16.876957
33.591518 -12.441236 16.816914
33.870277 -12.439168 16.93545
33.282185 -12.445324 16.709955
33.588593 -12.530792 16.824694
33.597595 -12.728367 16.874975
33.881779 -12.737366 16.990871
33.594978 -12.933363 16.915947
33.986454 -11.361693 16.779873
33.685638 -11.359346 16.656889
33.494152 -11.366776 16.589314
33.288803 -12.530746 16.704813
33.875195 -12.530627 16.942377
33.582504 -12.616503 16.82365
33.387512 -13.024578 16.836931
33.793072 -11.367445 16.701967
33.272503 -11.891516 16.326559
33.593479 -11.405644 16.347414
33.490982 -11.316233 16.305553
33.502911 -11.475389 16.647581
33.36636 -12.920159 16.772869
33.976196 -12.823992 17.030306
33.684036 -13.028964 16.961782
33.589241 -12.147549 16.760475
34.196796 -12.150143 17.001915
34.183582 -12.350287 17.056049
33.590889 -12.333125 16.777655
33.784115 -12.037593 16.807333
33.785465 -12.126704 16.801926
33.287476 -12.131275 16.60994
33.283424 -12.144249 16.652609
33.783382 -12.62124 16.899147
33.780861 -12.633666 16.939981
33.780979 -12.813942 16.953543
33.68869 -11.313 16.372713
33.897449 -11.381425 16.401205
33.878277 -11.407603 16.430101
33.882397 -11.365981 16.739017
33.293083 -11.107787 16.194628
33.98737 -11.94822 16.883204
33.386631 -12.044852 16.64295
33.688156 -12.036512 16.761969
33.979675 -12.148234 16.922441
33.490379 -12.149846 16.72872
33.977394 -12.238167 16.921743
33.984215 -12.34565 16.971754
33.685612 -12.644137 16.901245
33.979843 -12.731157 17.022139
33.487057 -12.736108 16.833193
33.780941 -11.373189 16.364286
33.19297 -11.398006 16.556479
33.692474 -12.147586 16.808664
33.392803 -12.155738 16.698175
33.38641 -12.235181 16.69619
33.401737 -12.345241 16.756372
33.974201 -12.436195 16.971184
33.390049 -12.439936 16.745989
33.381893 -12.529297 16.737223
33.982025 -12.557115 17.020958
33.403168 -11.4163 16.292635
33.401173 -11.469595 16.195488
33.379745 -11.307691 16.26372
33.383362 -11.395187 16.213236
33.599052 -11.39575 16.300106
33.594891 -11.358662 16.617102
33.304489 -11.595379 16.639124
33.878418 -11.855038 16.830656
33.694714 -11.853838 16.756294
33.386986 -11.866926 16.656494
33.694595 -11.953516 16.766199
33.689365 -12.060385 16.803944
33.686886 -12.529324 16.869345
33.689884 -12.732162 16.91188
33.710659 -11.488791 16.318792
33.380116 -11.547195 16.545946
33.375854 -11.427763 16.499529
33.877026 -11.327619 16.43244
33.275829 -12.917916 16.747278
33.880623 -11.206582 16.390034
33.969723 -12.329214 16.915146
33.482571 -12.915408 16.823589
33.480556 -13.013565 16.659281
33.68013 -11.543341 16.668215
33.688339 -11.656985 16.710821
33.483509 -11.857387 16.681805
33.987335 -11.819544 16.829006
33.788208 -11.940763 16.80262
33.78323 -12.323376 16.840605
33.491714 -12.820088 16.834202
33.777046 -13.026345 16.999281
33.408726 -10.663933 16.35038
33.361012 -12.982927 16.896246
33.466747 -11.736637 16.549982
33.599602 -11.334982 16.573853
33.294273 -11.462916 16.504427
33.130836 -12.698028 16.430809
33.292763 -11.548102 16.504763
33.273617 -10.734893 16.137506
33.786598 -11.85418 16.793585
33.306145 -11.913758 16.572905
33.276546 -12.815044 16.757982
33.779667 -12.847493 16.984844
33.27507 -13.025394 16.791946
33.873604 -12.351638 16.928545
33.784817 -11.74538 16.75803
33.384823 -11.945203 16.649899
33.39082 -12.631088 16.796352
33.875973 -12.639466 16.98381
33.590786 -13.023883 16.922449
33.282642 -11.348751 16.587633
32.978085 -12.915274 16.536482
33.395672 -12.328751 16.703196
33.697327 -12.34956 16.858065
33.25729 -11.489408 16.218336
33.492756 -11.658139 16.637285
33.490208 -11.945148 16.682039
33.490486 -12.639502 16.827909
33.786709 -12.933216 16.993542
33.489052 -10.7415 16.209257
33.19062 -13.148278 16.484682
33.269524 -12.323508 16.349823
33.591831 -11.865861 16.714079
33.286743 -11.952443 16.598663
33.59948 -12.06858 16.767992
33.58252 -12.353708 16.8139
33.272411 -12.074082 16.69236
33.683731 -12.121799 16.746693
33.284073 -12.345215 16.748203
33.264362 -11.108007 16.239544
33.400879 -10.926308 16.187702
33.384747 -12.024744 16.560774
33.580791 -12.134198 16.707584
33.570518 -12.211492 16.707598
33.398869 -12.413023 16.696606
33.88018 -12.807357 16.987984
33.965454 -12.109482 16.856754
33.795078 -11.176499 16.70475
33.484329 -10.993727 16.205383
33.254654 -10.874305 16.069559
33.187851 -11.916257 16.502575
33.166496 -11.95251 16.546263
33.686939 -12.907356 16.90361
33.487434 -13.030728 16.881651
33.200657 -13.08336 16.750978
33.476135 -11.343362 16.521755
33.181416 -12.138577 16.571974
33.171425 -12.531472 16.650753
33.800251 -11.342906 16.654953
33.174118 -11.535245 16.169346
33.290825 -11.427026 16.338921
33.314758 -11.378068 16.498062
33.202984 -12.809756 16.277937
33.282036 -11.884964 16.278049
33.387676 -11.620702 16.538084
33.482796 -11.459319 16.579485
33.48476 -12.568331 16.497532
33.781345 -11.659262 16.747602
34.055916 -12.233249 16.966021
34.071144 -12.33954 17.00655
34.087711 -12.642731 17.058599
34.085155 -11.848341 16.909256
34.061871 -12.445584 17.024071
34.082569 -12.728031 17.076134
34.083481 -12.921144 17.116922
33.593323 -11.985503 16.442318
34.250671 -12.004227 16.991232
34.280029 -12.221564 17.04126
34.175755 -11.402807 16.517868
33.483578 -11.780329 16.686039
33.258434 -10.82255 16.475468
33.208229 -12.458037 16.335876
33.29826 -12.864161 16.449974
33.041328 -13.032118 16.647142
33.591099 -11.458397 16.625862
33.584988 -11.538693 16.622042
33.781208 -11.541765 16.704514
33.49506 -12.096837 16.459696
33.692303 -11.993143 16.482529
33.689598 -12.005715 16.53278
33.384766 -13.062763 16.542524
34.089478 -11.364651 16.825832
33.410591 -13.10836 16.758324
33.397762 -11.887192 16.316813
34.25082 -11.846465 16.999474
33.982655 -11.208502 16.422367
33.591244 -12.866337 16.586155
33.882946 -11.454945 16.748884
34.074467 -12.510888 17.016117
34.070477 -12.559236 17.064508
33.70015 -12.555244 16.907246
33.88485 -11.821273 16.791334
33.688114 -12.078469 16.477467
33.882622 -11.660464 16.79397
33.590126 -11.650581 16.613508
33.399723 -11.654243 16.60684
33.407703 -12.121693 16.647442
33.486923 -12.427626 16.719807
33.482456 -11.251338 16.535994
33.678688 -11.455947 16.659428
33.874165 -11.534139 16.738598
33.490929 -11.697118 16.374929
33.595196 -12.464802 16.483063
33.873947 -12.845677 17.024946
34.07238 -13.030757 17.123236
33.47578 -11.563598 16.629383
33.788601 -11.566281 16.745365
33.491356 -12.349682 16.784878
33.789207 -12.085111 16.511286
33.598248 -12.079557 16.441181
33.391281 -12.099806 16.420996
33.883789 -12.081625 16.543545
33.647259 -12.058187 16.337496
33.403385 -12.094072 16.367224
33.824871 -12.108631 16.931591
34.082848 -12.000024 16.610147
33.283665 -11.34602 16.456842
33.574638 -11.573585 16.66132
33.784531 -12.022975 16.55345
33.298992 -12.452333 16.370935
33.377697 -12.231411 16.507057
33.492649 -12.091192 16.398706
33.776314 -12.10691 16.551346
34.060307 -12.038317 16.913668
33.885437 -11.566348 16.785275
33.393391 -12.765275 16.514868
33.190166 -12.867093 16.428291
33.309643 -11.427592 16.457619
33.390507 -10.869522 16.447533
33.316574 -12.284904 16.756815
33.135128 -12.358404 16.288046
33.66917 -12.13955 16.357357
33.509197 -12.354943 16.334965
33.383392 -12.457588 16.411283
33.979843 -11.989594 16.565842
33.49725 -12.065988 16.739334
32.959839 -11.541459 16.35931
33.597141 -12.099502 16.493265
33.970863 -11.19617 16.770088
33.989494 -12.641074 17.023792
33.881016 -11.988868 16.536585
34.083065 -12.085459 16.616964
33.503624 -12.05441 16.33124
33.493252 -12.016718 16.458086
33.305408 -11.551289 16.411739
33.290295 -12.195843 16.392384
33.465313 -12.182467 16.288399
33.486069 -12.776421 16.546444
33.791042 -11.877206 16.461306
33.487938 -11.884707 16.346224
33.685825 -12.952528 16.615286
33.977558 -12.078377 16.572926
33.886314 -12.374694 16.591928
33.589851 -11.667639 16.34189
33.694843 -11.874567 16.429525
33.880917 -12.280465 16.584526
33.49506 -12.288606 16.453497
33.882233 -12.481917 16.635302
33.689281 -12.86211 16.621037
33.498154 -12.390851 16.509623
33.784622 -11.498404 16.410482
33.398342 -11.478461 16.262884
33.788982 -13.063409 16.703264
33.529182 -12.15747 16.849277
33.458286 -10.880906 16.141205
33.584709 -12.378633 16.482691
33.688652 -12.48443 16.578426
33.828167 -12.167305 16.94976
33.670994 -12.445024 16.505171
33.270111 -11.837864 16.550268
33.691795 -12.376799 16.524414
33.582634 -12.975803 16.639561
33.889248 -13.069171 16.735361
33.49297 -11.11297 16.269331
33.491085 -12.193778 16.453257
33.183037 -11.843472 16.587961
33.471928 -11.567687 16.294714
33.688469 -11.702716 16.429392
33.594265 -12.575887 16.539711
33.2729 -11.634133 16.496931
33.501801 -11.278639 16.255758
33.688786 -11.500334 16.383265
33.592342 -11.49417 16.345978
33.379719 -12.975756 16.561983
33.781693 -12.976999 16.696552
33.876961 -12.772418 16.672953
33.602402 -12.018907 16.495113
33.585365 -10.7064 16.198219
33.695255 -11.586249 16.382545
33.881622 -11.788088 16.494646
33.982121 -12.194148 16.609974
33.78804 -12.774987 16.653616
33.406429 -11.587746 16.278376
33.792496 -11.589567 16.417027
33.360447 -12.942719 16.502481
33.389957 -11.249073 16.492819
33.781429 -12.955326 16.654703
33.587215 -13.068431 16.636368
33.593742 -11.580583 16.344938
33.685276 -12.775084 16.624014
33.41293 -11.738248 16.266342
33.357338 -12.180158 16.749647
33.858688 -12.460183 16.578758
33.480507 -12.474804 16.445021
33.296913 -12.142307 16.303432
33.690434 -12.286071 16.531513
33.367195 -12.373626 16.383718
33.787483 -12.375933 16.560183
33.806038 -12.464187 16.559025
33.394699 -12.486873 16.470194
33.86116 -12.748608 16.626959
33.88158 -12.868762 16.686066
33.492607 -12.867657 16.545088
33.204884 -11.445361 16.427006
34.064079 -12.961972 16.748985
33.170513 -12.706946 16.40855
33.19001 -12.932344 16.446642
33.692135 -12.975445 16.671398
34.051876 -10.885821 16.358856
33.185772 -11.449094 16.436565
33.785217 -12.485324 16.600273
33.182137 -12.058819 16.57378
33.385708 -11.479 16.615131
34.166531 -10.813184 16.806986
33.976292 -10.774905 16.670006
34.096565 -10.586879 16.334732
33.489365 -13.065905 16.612005
33.596069 -12.480296 16.545965
33.969616 -12.867301 16.710537
33.224102 -11.476593 16.540556
33.601402 -11.867208 16.387978
33.402969 -11.149819 16.450075
33.392269 -11.909636 16.383282
33.975136 -12.282232 16.612795
33.98241 -12.379034 16.621765
33.590858 -11.896677 16.446894
33.293655 -11.858032 16.616991
33.980499 -12.486491 16.660202
33.691891 -11.301411 16.335447
33.980961 -12.991706 16.758448
33.991177 -13.065116 16.761938
34.084084 -12.466647 16.657537
34.073246 -12.163795 16.61323
33.88546 -11.587487 16.451426
33.772594 -11.952502 16.450174
33.887135 -12.250943 16.539354
34.101215 -12.299025 16.606354
33.48526 -11.17017 16.531923
34.069565 -12.381472 16.647635
34.072678 -12.571598 16.705395
34.087524 -12.491951 16.709284
33.493507 -10.962335 16.483488
33.392628 -11.606901 16.331585
33.878815 -11.668612 16.446627
33.885864 -11.878599 16.494352
33.491367 -11.895549 16.414511
33.970947 -12.571675 16.664194
33.884193 -11.700177 16.489553
33.883652 -11.498955 16.442274
33.736263 -11.736628 16.386429
33.693024 -11.901635 16.475775
33.588333 -12.197397 16.495657
34.077034 -12.284761 16.656092
34.081482 -11.871375 16.569839
34.143452 -12.002659 16.952826
33.988026 -11.496548 16.473476
33.587727 -11.44146 16.564232
33.746502 -12.42601 16.433842
33.694916 -10.607234 16.171144
34.164871 -11.893766 16.598894
34.215466 -12.176835 16.653639
34.271175 -12.331358 16.692993
34.275814 -12.349849 16.658499
33.972443 -12.954926 16.7211
33.935101 -12.320601 16.483006
33.952496 -12.381211 16.502367
33.824078 -12.714726 16.504082
33.206936 -11.042145 16.366045
34.075493 -11.908521 16.597424
34.063713 -11.590981 16.516731
33.599232 -11.036713 16.537756
34.082806 -12.86263 16.749693
33.783218 -11.295744 16.369709
33.585388 -10.845755 16.464027
34.26968 -12.033222 16.626171
33.995766 -11.662415 16.483812
33.98373 -11.874138 16.530272
34.258343 -12.020339 16.65004
33.970062 -11.580544 16.474171
33.877136 -11.294806 16.397409
33.678177 -11.044458 16.55887
34.266777 -11.894392 16.627148
34.150993 -11.399082 16.492348
34.170387 -11.495423 16.551029
34.284531 -13.024035 16.818338
34.089497 -13.076006 16.794928
34.215092 -12.877998 16.790218
34.260731 -12.46489 16.704916
33.683197 -12.21228 16.752373
34.177826 -12.488461 16.724073
33.779579 -11.008685 16.317808
34.066383 -11.6715 16.507408
34.076271 -11.497514 16.501585
34.169033 -12.302296 16.681704
33.788277 -12.190356 16.551456
33.971779 -11.905215 16.562187
33.705658 -12.267079 16.863047
34.247993 -12.765944 16.766184
34.244942 -12.733242 16.78351
33.981846 -11.698694 16.516146
34.164886 -12.962853 16.813286
34.244228 -11.625209 16.587301
33.678833 -12.219359 16.579037
33.78664 -11.896923 16.500542
34.171646 -11.576043 16.541906
34.268108 -11.36611 16.520033
33.782887 -12.892371 16.699047
33.591503 -12.881762 16.641909
34.070633 -11.634727 16.537836
33.882317 -10.918121 16.341902
33.690384 -10.915065 16.281786
33.881554 -11.903697 16.539209
33.779442 -11.610607 16.456484
33.78455 -12.684747 16.650946
33.592575 -12.396889 16.542179
33.979183 -12.392711 16.664003
33.872669 -12.897588 16.726889
33.59787 -12.680965 16.592426
33.971542 -11.612637 16.517693
33.501629 -10.921636 16.219011
33.786026 -10.717308 16.271694
34.142517 -11.903589 16.617382
33.970032 -11.012362 16.378534
33.578938 -10.910132 16.245472
34.183922 -11.651409 16.548689
34.083214 -11.407866 16.496969
33.884808 -11.608624 16.485031
33.691067 -10.716349 16.235819
33.884556 -11.000746 16.348267
34.159676 -12.72526 16.734825
33.593708 -11.002316 16.255215
33.589172 -13.046067 16.970331
33.686272 -12.39209 16.573738
33.898399 -10.888967 16.306087
33.9809 -10.91512 16.374578
33.685791 -10.88853 16.221512
33.874962 -12.687869 16.678648
33.686184 -11.813947 16.47463
33.489868 -11.600101 16.358307
33.687756 -11.60775 16.422945
33.414799 -10.782147 16.484022
33.877716 -11.811351 16.543165
33.96677 -12.609186 16.711416
33.590012 -11.607595 16.394775
33.865547 -11.024214 16.384142
33.487411 -10.868508 16.488169
33.593033 -11.80942 16.437492
33.782288 -11.524778 16.454206
33.97356 -11.524431 16.517107
33.491684 -10.717386 16.16333
33.695713 -10.742013 16.276144
33.79108 -10.624254 16.261496
33.781677 -10.744714 16.3064
33.685322 -10.625449 16.226997
34.075321 -12.98391 16.805292
33.972172 -11.036029 16.423269
33.398155 -12.070683 16.701508
33.88121 -10.623194 16.291798
33.882553 -12.591926 16.680996
33.896297 -11.530709 16.497087
33.782814 -11.042362 16.350824
33.576702 -10.736791 16.245005
33.584412 -11.02803 16.289099
33.775375 -12.600368 16.656555
33.689472 -13.098551 16.730415
33.58667 -11.515614 16.393768
33.385292 -12.509928 16.530357
33.372139 -11.198469 16.558971
33.889275 -10.711476 16.301226
33.410042 -11.808504 16.385597
33.403492 -10.664804 16.398659
33.59214 -13.087723 16.686211
33.686573 -11.516376 16.422888
33.79092 -11.815736 16.509083
33.377392 -12.875554 16.566526
33.495808 -11.0284 16.25848
33.389435 -12.589375 16.522102
33.413986 -12.448631 16.816559
33.401531 -11.568315 16.626682
33.386658 -11.060963 16.511656
33.889156 -10.729651 16.342236
33.495316 -13.086179 16.648874
33.277485 -11.029939 16.200745
33.608086 -10.941572 16.304907
33.482006 -11.517788 16.353867
33.397125 -11.520935 16.326702
33.685555 -12.511598 16.630068
33.493652 -12.595757 16.549929
33.603912 -12.516652 16.598402
33.400036 -12.684506 16.524452
33.218899 -12.447369 16.760658
33.290512 -11.565442 16.59938
33.289715 -12.096165 16.384033
33.266087 -12.532705 16.782103
33.579491 -10.665669 16.244421
33.706352 -11.156297 16.390251
33.597672 -11.729632 16.450754
33.702457 -11.945305 16.532209
33.394897 -12.01816 16.461721
33.291367 -12.993222 16.54793
33.510406 -11.711389 16.436989
33.231243 -12.47019 16.438934
33.29034 -12.592202 16.496454
33.207623 -12.262375 16.712313
33.229923 -11.524996 16.542402
33.274319 -10.765572 16.442122
33.508804 -10.949341 16.265842
33.244709 -12.197189 16.717861
33.416489 -10.713743 16.182552
33.306786 -11.000521 16.498011
33.394958 -13.096283 16.632303
33.397488 -10.980406 16.448433
33.373611 -11.033504 16.215618
33.293316 -12.199194 16.46711
33.283871 -11.182611 16.553703
33.566273 -12.983952 16.688791
33.082115 -11.542316 16.425198
33.291901 -12.675076 16.491306
33.475193 -12.546633 16.831142
33.486198 -10.776872 16.487545
33.480423 -11.056927 16.545036
33.587303 -11.713379 16.615442
33.316967 -12.369021 16.458452
33.233055 -12.737386 16.819756
33.294308 -10.93555 16.19437
33.272133 -12.422557 16.795897
33.607399 -11.084596 16.573217
34.084286 -11.071904 16.763489
34.08733 -10.924963 16.410046
33.575932 -10.779393 16.521595
34.10223 -12.881783 16.795275
34.07745 -10.718825 16.365919
33.972927 -10.713843 16.320883
34.094749 -10.617237 16.355467
33.989258 -10.873712 16.337891
34.146881 -11.583129 16.565535
33.8936 -10.599745 16.263268
33.711773 -11.49578 16.72308
34.239853 -12.274426 16.687408
34.261032 -11.65242 16.57988
34.087631 -11.379599 16.479828
34.291733 -10.935296 16.444654
34.1819 -10.939833 16.433025
34.294891 -10.914519 16.476606
33.781097 -10.5937 16.208115
33.88768 -10.699166 16.636789
33.791706 -12.555541 16.940165
34.139248 -12.979399 16.780514
33.280155 -11.30346 16.190346
34.077232 -11.16236 16.767513
33.668877 -10.701381 16.551983
33.880398 -11.072478 16.684488
34.18354 -13.127724 17.208912
34.082344 -11.471711 16.462799
33.835049 -10.874697 16.289028
34.171505 -11.068282 16.801182
33.484535 -11.185577 16.595583
33.544559 -12.166458 16.831465
33.788494 -10.712059 16.201672
33.581348 -10.673303 16.118952
33.020386 -12.599945 16.540844
33.590488 -10.585982 16.156706
33.290085 -11.239316 16.44829
33.487198 -12.609536 16.675196
33.421333 -12.637016 16.666166
33.184013 -11.23905 16.416592
33.215614 -10.904568 16.099598
33.906479 -11.190816 16.759947
33.196587 -11.52483 16.456465
33.592335 -12.577012 16.873302
33.794064 -13.059084 17.042179
34.013287 -12.381824 17.049704
33.7925 -12.734153 16.602419
34.153004 -12.329954 17.100641
33.687191 -12.780937 16.952322
33.875389 -12.549631 16.976667
33.906078 -12.474112 16.993229
34.14716 -10.569496 16.348564
33.979557 -12.760641 17.064411
34.209667 -13.064383 17.24132
33.544586 -10.672313 16.385578
33.498547 -13.048664 16.51717
34.284111 -12.465535 17.1555
34.072876 -12.254647 17.012119
34.070854 -12.151042 16.959404
34.297424 -12.1377 17.056782
33.979237 -11.973297 16.926228
33.979328 -11.765056 16.881712
33.980911 -11.648355 16.82938
34.08989 -11.664324 16.870863
33.98727 -11.564329 16.824961
34.00119 -11.476941 16.835459
33.973892 -11.445306 16.781897
34.18 -11.35936 16.860378
34.077644 -12.751353 17.127619
34.07106 -12.467558 17.062614
34.070709 -12.065079 16.961237
33.79707 -11.99019 16.858526
33.792686 -11.776432 16.797354
34.25948 -11.771732 16.988394
34.246628 -11.63246 16.954041
34.192959 -11.558457 16.92943
33.792042 -11.48248 16.754852
34.191616 -11.457918 16.918745
33.445671 -11.794104 16.535975
33.900116 -12.76347 17.029535
33.807163 -11.049089 16.621284
33.675133 -10.95861 16.488274
34.177483 -11.694144 16.975643
33.885925 -12.267153 16.933456
34.186924 -11.776555 16.968199
34.063553 -12.803679 17.076128
34.261047 -12.827591 17.189724
33.793262 -12.26947 16.898594
34.104729 -11.784231 16.911854
34.354359 -12.547984 17.240511
34.191517 -12.58156 17.168875
34.276588 -12.527985 17.133749
33.978291 -11.659854 16.899544
32.996758 -10.898552 16.054424
34.278294 -12.371138 17.147415
33.451794 -11.968672 16.72961
34.245125 -11.914496 16.634937
33.68037 -12.404816 16.796591
33.780334 -11.898295 16.851824
33.970451 -12.191781 16.980211
34.175587 -12.059982 17.067207
34.093704 -12.152137 17.037121
33.278225 -12.419693 16.632267
34.129566 -11.749144 16.891253
33.488808 -12.99368 16.821617
33.696297 -10.991057 16.612284
33.495316 -12.510374 16.696928
33.58194 -12.481255 16.713623
33.574974 -13.019513 16.839685
33.388447 -13.002421 16.747999
33.685417 -12.990682 16.896795
33.296043 -13.01538 16.740088
33.16251 -13.030647 16.555679
34.088123 -12.665722 17.125849
33.408375 -11.711959 16.545486
33.403465 -11.167858 16.490574
33.688187 -10.665737 16.519745
33.976082 -10.874436 16.678907
33.884331 -10.95744 16.651316
33.290428 -10.953066 16.410206
33.134575 -11.721683 16.4508
33.686108 -11.564133 16.70149
33.682362 -10.960768 16.570494
33.788982 -10.574481 16.548378
33.786713 -10.674457 16.562813
34.084766 -10.779956 16.719368
34.088501 -10.866164 16.727285
34.079308 -10.678391 16.662582
33.893597 -10.495013 16.587219
33.886139 -10.67372 16.599112
33.691097 -10.787848 16.556002
33.876247 -10.746751 16.592607
33.463886 -11.142506 16.461956
33.244968 -12.815709 16.384567
33.213142 -11.155747 16.458605
33.793037 -11.454098 16.709158
33.487118 -11.053968 16.477804
33.264263 -11.184013 16.448126
33.168159 -11.360587 16.445513
33.116596 -10.976613 16.08543
33.172714 -10.682998 16.299057
33.673248 -10.652639 16.446257
33.289543 -10.780007 16.359325
33.786835 -10.874561 16.604692
32.918091 -12.511149 16.483135
33.778919 -10.75275 16.560024
33.398891 -11.063581 16.434624
33.228748 -11.344142 16.448626
33.083126 -13.152293 16.424431
33.059689 -11.452687 16.413794
33.100204 -11.664824 16.478933
33.077965 -11.634694 16.44552
33.09647 -11.437531 16.375622
33.20657 -12.162192 16.61702
33.132771 -12.006142 16.554417
33.079037 -11.569183 16.182695
33.353844 -12.504488 16.683619
33.395821 -10.960137 16.381475
33.791859 -10.782099 16.596554
33.198242 -12.00615 16.490076
33.216099 -11.665177 16.253057
33.984688 -10.964631 16.691637
33.971394 -10.490195 16.622051
33.808369 -10.998754 16.653893
33.791542 -11.073678 16.648779
34.103561 -11.451792 16.832445
34.08865 -11.57144 16.863688
33.979301 -10.673066 16.641935
33.973862 -10.701078 16.670519
34.086636 -13.039086 17.174257
34.169754 -10.666528 16.699902
34.167778 -10.787412 16.759661
33.980045 -10.9891 16.722567
33.980701 -11.067099 16.727491
34.177723 -11.959078 16.954536
34.286476 -10.698329 16.792509
34.384636 -10.970947 16.904488
33.884155 -10.98729 16.684168
33.892754 -13.057282 17.079927
34.236423 -10.573741 16.743099
34.276096 -10.862954 16.804758
34.074291 -10.980509 16.753719
34.296299 -11.029216 16.849298
34.28701 -11.192018 16.885616
34.173023 -12.441565 17.04883
33.880283 -11.479767 16.777411
34.146461 -11.646256 16.892323
34.249474 -12.456325 17.104242
34.24131 -12.249683 17.05555
34.310944 -13.14544 17.253117
34.162975 -10.96384 16.799692
34.197315 -10.58238 16.776699
34.314297 -10.756847 16.846546
34.380905 -10.759152 16.870371
34.382797 -10.799616 16.881298
34.398911 -11.037476 16.929569
33.978821 -12.253983 16.974045
34.188702 -12.4576 17.119303
33.007389 -11.938462 16.421387
34.087822 -10.9641 16.713585
33.797073 -10.961782 16.619331
34.071709 -11.49588 16.873222
34.104786 -11.872874 16.995226
33.984791 -13.056779 17.117191
34.038551 -12.312563 16.956491
33.937916 -11.90601 16.928654
34.39901 -12.070868 17.114908
33.333969 -10.681424 16.324265
33.192738 -10.855099 16.320499
33.17733 -10.886692 16.339596
33.269852 -11.150352 16.365191
33.173248 -10.734036 16.232054
33.018631 -10.775361 16.186888
33.265274 -10.800907 16.269371
33.195503 -10.928942 16.29154
33.063381 -11.036047 16.246569
33.241226 -11.05447 16.31131
33.104877 -11.51955 16.324133
32.81636 -11.896851 16.334492
33.035355 -12.147705 16.442305
32.904503 -12.421815 16.482519
33.026138 -13.062012 16.617022
33.134914 -10.627604 16.236588
32.967049 -10.709348 16.205732
33.022156 -10.98056 16.281385
33.027657 -11.025626 16.273485
32.959492 -12.167037 16.454029
33.051826 -12.232092 16.499149
32.866619 -12.318032 16.475878
32.953926 -12.623453 16.548174
33.088303 -12.889396 16.643347
33.001057 -12.914961 16.630068
33.016296 -12.974677 16.642929
33.055122 -13.095389 16.661654
33.481018 -10.925263 16.417009
33.038574 -11.973149 16.470985
32.914143 -12.930204 16.274553
33.601372 -12.306234 16.711685
34.254433 -12.359139 17.078508
34.352165 -10.687123 16.849766
34.181721 -12.271456 17.062082
34.001179 -12.465596 17.05121
34.239014 -12.667308 17.150785
34.248962 -12.76123 17.182735
34.275635 -12.954096 17.229567
33.956104 -11.402133 16.839481
34.203056 -11.366835 16.917913
34.147835 -11.857306 17.00194
34.268944 -12.19897 17.113605
34.41967 -12.268224 17.162926
33.964306 -12.933064 17.125837
33.805779 -12.980459 17.083797
34.306995 -10.787315 16.878361
34.542469 -10.884472 17.011585
34.24892 -11.583476 17.00906
33.907398 -11.577363 16.861824
34.276417 -11.898908 17.07546
34.198292 -12.629153 17.184914
34.386402 -12.795199 17.294008
34.198135 -12.923076 17.228672
34.088028 -12.957911 17.189495
33.958477 -11.618975 16.884506
33.774136 -11.631615 16.696697
33.482288 -10.622502 16.377251
33.099792 -12.791493 16.332951
33.187611 -12.855971 16.359686
34.050732 -11.521922 16.80261
33.777802 -10.702221 16.597031
34.241344 -11.611784 16.960056
33.167107 -10.642716 16.228001
33.573738 -11.01945 16.563719
34.261055 -11.718978 16.601889
34.270149 -11.520996 16.575382
34.281502 -11.342964 16.500757
34.286076 -11.019036 16.489851
33.215981 -11.004746 16.114258
33.707077 -12.842308 16.542923
