# .PCD v0.7 - Point Cloud Data file format
VERSION 0.7
FIELDS x y z
SIZE 4 4 4
TYPE F F F
COUNT 1 1 1
WIDTH 552
HEIGHT 1
VIEWPOINT 0 0 0 1 0 0 0
POINTS 552
DATA ascii
41.270309 104.15216 -35.475529
41.24205 103.79737 -35.408226
41.252666 103.61807 -35.497467
40.567585 103.16264 -35.510029
40.679321 103.48192 -35.54541
41.346626 104.20252 -35.58408
41.335304 104.89896 -35.636124
41.116467 103.26891 -35.52478
41.256786 104.64737 -35.590965
41.042027 103.81891 -35.563847
41.246864 104.05993 -35.568451
41.348057 104.67726 -35.616268
41.285728 104.9035 -35.615906
41.356583 104.24645 -35.561275
41.168858 104.91114 -35.628723
41.135414 104.55027 -35.656914
40.782333 103.18699 -35.527378
40.677914 103.73067 -35.560314
41.073055 104.6885 -35.599537
41.082718 103.58618 -35.519375
41.355671 104.21357 -35.54763
41.196991 104.35849 -35.589382
41.141071 104.67391 -35.602463
40.872334 104.89777 -35.627403
40.97385 102.89226 -35.520493
41.06324 104.89705 -35.62505
41.154335 104.56866 -35.604031
41.064449 103.50716 -35.54644
41.246365 102.92131 -35.554523
40.595901 104.56909 -35.613258
41.060753 102.88001 -35.50967
41.063828 103.04124 -35.613903
41.16835 103.09808 -35.545071
41.056316 104.05808 -35.579571
40.872391 104.6986 -35.593628
40.75235 103.54842 -35.527493
40.675587 103.193 -35.51902
40.669716 103.41122 -35.556824
40.326385 103.48232 -35.532928
40.789398 102.88006 -35.516544
41.161758 105.01022 -35.603325
41.257278 104.08887 -35.599865
40.481236 103.63773 -35.594292
40.439682 103.38591 -35.566589
40.187229 105.23717 -35.685631
40.365517 104.16797 -35.624676
40.18327 104.4059 -35.648685
40.269718 104.16182 -35.619949
40.266949 103.09465 -35.547516
41.297279 103.97041 -35.487778
40.695927 103.18861 -35.646797
40.295391 103.25055 -35.615829
40.770325 102.94762 -35.642689
40.295803 103.22649 -35.586124
40.473717 103.76652 -35.615948
40.692474 103.24059 -35.640675
40.263733 104.20245 -35.648365
40.788712 103.25732 -35.648109
40.257256 103.03448 -35.587589
40.856815 104.41145 -35.699638
40.293892 103.88217 -35.636192
40.478226 103.8778 -35.643585
40.302746 103.144 -35.598942
40.730682 103.73223 -35.686043
40.361221 103.66393 -35.613091
40.376095 103.36121 -35.612858
40.375164 103.13025 -35.589939
40.573399 104.64992 -35.719887
40.583138 103.26011 -35.623779
40.659634 102.96384 -35.612942
40.383171 103.88346 -35.641052
40.476479 103.3508 -35.605976
40.776257 103.04887 -35.611187
40.573154 104.43426 -35.688026
40.37849 104.19953 -35.652496
41.220802 103.92388 -35.656506
40.859058 103.27635 -35.627987
41.18058 103.91702 -35.652424
41.187805 103.33442 -35.643009
41.199577 103.44376 -35.618649
40.561306 103.35407 -35.615746
40.778366 103.8913 -35.666023
40.756191 104.44379 -35.68795
40.865757 103.36577 -35.619396
40.668968 103.09781 -35.540844
41.320381 104.26278 -35.645817
41.321823 104.50103 -35.652065
41.056694 104.58461 -35.619423
41.333298 104.8161 -35.634518
41.067295 105.13275 -35.657467
40.780502 103.42744 -35.558815
40.473446 103.09792 -35.545212
40.967636 103.10603 -35.547386
41.068249 103.34914 -35.62257
40.666534 104.39651 -35.638645
40.4786 103.22968 -35.585045
41.06131 104.52528 -35.6754
40.750019 105.05761 -35.713223
41.152325 103.42638 -35.557934
40.961563 103.89314 -35.654495
41.238697 104.70416 -35.653416
40.780243 104.583 -35.613132
41.189465 104.09126 -35.431492
40.477119 103.27079 -35.628124
41.057079 105.15538 -35.69418
41.242565 105.16893 -35.686157
40.966381 103.4212 -35.557739
41.342426 103.84908 -35.59391
40.574287 103.13307 -35.587639
41.049812 103.23503 -35.574631
40.764362 103.36051 -35.617607
41.262447 104.50846 -35.62822
40.842506 104.34315 -35.724487
41.062107 103.09677 -35.54174
40.582523 103.10231 -35.544273
40.57262 104.39411 -35.651314
41.063103 103.44148 -35.614559
40.466984 103.67033 -35.626801
41.075859 103.42194 -35.557022
40.880096 104.58557 -35.612801
41.432339 104.57819 -35.645721
41.166267 104.70206 -35.646584
40.767963 105.15139 -35.697403
40.763947 105.24318 -35.68388
41.260693 104.28725 -35.644257
41.060524 104.38966 -35.633999
40.963505 104.49911 -35.627686
41.260002 104.63763 -35.667675
40.969051 104.81018 -35.646156
41.24419 104.80663 -35.626694
40.772362 103.1397 -35.587929
40.665279 103.35101 -35.609913
40.971184 104.70605 -35.715527
41.156876 104.2833 -35.596485
40.961258 104.31089 -35.643883
40.566666 104.20909 -35.657417
41.061966 104.08393 -35.623482
40.766544 104.39709 -35.640045
41.16227 103.23035 -35.575714
40.671139 103.22935 -35.57991
40.870682 103.41468 -35.557228
41.054119 103.64682 -35.577942
40.87241 104.81123 -35.642151
41.165649 105.02826 -35.652523
40.874874 105.23981 -35.679298
41.204502 104.22859 -35.444366
40.872948 104.27328 -35.606174
41.160992 104.28521 -35.647945
40.97533 104.20811 -35.666805
41.266178 104.92469 -35.660381
40.96151 104.4028 -35.630089
40.374466 104.7089 -35.661785
40.658131 104.73858 -35.699902
40.869789 105.14937 -35.690323
40.87043 104.29931 -35.64304
41.164333 104.81095 -35.641438
41.162498 104.92601 -35.674412
40.765602 102.91329 -35.553761
41.062786 103.01598 -35.546993
40.645012 104.32986 -35.709854
40.774685 103.10836 -35.541698
40.962009 103.22969 -35.571537
40.663738 103.88924 -35.660084
40.657707 103.03114 -35.611534
40.858891 104.51833 -35.668262
40.664677 102.87697 -35.507694
41.17355 102.91622 -35.558784
41.171146 103.00863 -35.551498
41.180264 103.64157 -35.585678
40.769161 104.08125 -35.622139
40.486465 104.17436 -35.621464
40.667446 104.29877 -35.644535
40.279026 103.85879 -35.601532
40.869568 102.8813 -35.517868
40.76984 103.22781 -35.574905
40.47916 104.49074 -35.630596
40.960117 102.91373 -35.562397
40.861229 103.22644 -35.569851
40.574085 103.22907 -35.581589
40.773819 104.26935 -35.603985
41.068577 104.26289 -35.606533
41.153992 102.88818 -35.516357
40.875404 103.10818 -35.550892
40.47057 103.13624 -35.586086
41.105499 104.73105 -35.710716
41.060654 104.93423 -35.671734
40.473713 104.62071 -35.668232
41.05962 102.90462 -35.558437
40.666084 104.62338 -35.662136
40.953812 104.58139 -35.619736
40.578423 104.61903 -35.665314
40.863045 104.84096 -35.680962
40.486 103.19672 -35.639126
40.46859 104.20425 -35.661282
41.166092 104.7666 -35.706902
40.97451 104.04707 -35.581303
40.374882 104.63091 -35.670635
40.468903 102.91303 -35.561897
40.474792 103.04485 -35.59671
40.96151 104.7087 -35.648773
41.073845 104.7091 -35.64682
40.583778 102.87263 -35.510544
40.574955 103.4519 -35.608559
40.455486 104.7462 -35.694462
40.56879 104.74252 -35.696224
40.571186 103.89002 -35.653793
40.590183 104.26559 -35.603313
40.471474 104.95972 -35.731644
40.488415 102.86264 -35.520893
40.97036 104.92963 -35.667049
40.878738 104.39456 -35.630268
40.956444 105.15757 -35.689751
40.973282 105.1219 -35.653248
40.963314 103.57558 -35.648026
40.575214 104.96391 -35.732426
41.059036 105.03239 -35.663296
40.67128 103.54615 -35.587158
41.15807 105.11152 -35.656567
41.076019 105.06293 -35.709286
40.357574 102.85551 -35.496094
40.277725 104.42949 -35.672523
40.878258 104.49714 -35.623714
40.377758 103.44372 -35.606564
40.862446 105.2111 -35.756496
40.88316 104.35781 -35.590996
41.166786 103.21152 -35.524799
41.159904 103.47992 -35.537727
41.271515 105.01827 -35.653111
40.859421 102.81757 -35.581295
40.663544 104.44185 -35.69025
41.155712 104.82688 -35.68639
41.170338 104.08271 -35.611588
40.269699 103.44795 -35.594212
40.862328 103.98199 -35.633141
40.370865 102.91316 -35.571125
40.568352 103.04893 -35.609169
40.969574 105.02596 -35.663403
40.859184 103.04465 -35.60759
40.871017 105.0271 -35.66626
41.256058 103.54113 -35.599281
40.660118 105.33265 -35.713173
40.767853 103.45214 -35.600094
41.070251 102.82154 -35.580231
40.276951 104.40356 -35.643246
41.206013 103.0459 -35.473225
40.464497 103.78419 -35.661232
40.676598 103.32812 -35.567944
40.97226 104.08276 -35.61729
40.633762 104.01368 -35.703415
40.674809 103.44667 -35.604786
41.157932 104.44946 -35.687309
41.164112 104.17631 -35.60421
41.070862 104.62498 -35.65852
40.602131 103.4792 -35.66386
40.574669 103.54717 -35.591835
41.064018 103.5491 -35.587296
41.164825 103.54607 -35.594673
41.060623 103.89759 -35.53801
40.384022 103.86295 -35.609467
40.860302 103.89083 -35.652992
40.95702 103.45523 -35.60173
40.380337 103.03635 -35.592838
41.244698 103.7394 -35.558033
41.062546 102.97714 -35.498981
41.194847 103.30171 -35.512482
40.962658 103.53744 -35.585846
40.778725 104.66432 -35.713017
40.274578 104.29136 -35.648602
40.867416 104.07832 -35.613926
40.868973 104.71374 -35.644421
40.667915 105.05646 -35.711224
40.868343 103.66174 -35.625996
40.766327 103.76073 -35.610733
40.963657 103.32132 -35.559818
40.675007 103.76902 -35.612976
40.87175 103.18335 -35.538822
40.883636 105.0787 -35.707256
40.478298 102.97015 -35.612793
40.565983 104.30651 -35.64505
40.777008 103.54787 -35.591846
41.060055 103.18227 -35.535431
40.477352 103.31261 -35.579575
40.902241 103.3275 -35.492657
41.278984 104.38432 -35.62764
40.467785 103.97826 -35.635136
40.37067 103.54024 -35.595123
41.345428 104.11305 -35.616894
40.726414 104.33616 -35.579483
40.766434 104.71047 -35.653229
40.775574 104.0468 -35.574921
41.072021 104.35079 -35.593765
40.477661 103.85841 -35.613678
40.379944 104.41245 -35.67421
41.247837 104.8108 -35.706989
40.27776 103.76717 -35.619293
40.296703 104.49144 -35.629726
40.866489 105.28883 -35.757721
40.469276 103.01474 -35.571194
40.831612 102.9632 -35.495232
40.666275 102.90615 -35.57069
40.475929 103.54147 -35.598064
40.292667 104.10845 -35.673061
40.373856 103.75719 -35.61586
40.867897 103.327 -35.564667
40.322514 102.91509 -35.609718
40.866276 103.13208 -35.591923
40.667999 103.13066 -35.593773
40.77037 103.32275 -35.569126
40.378048 103.5847 -35.628574
40.288025 103.5596 -35.628685
40.367264 103.3224 -35.568623
40.373215 104.65973 -35.699844
40.455044 103.57404 -35.640961
41.218937 104.55862 -35.670811
40.770313 103.008 -35.553196
40.862404 103.54272 -35.584671
40.579243 103.63454 -35.581451
40.863869 103.00716 -35.548096
40.5648 103.58324 -35.64241
40.363743 105.06763 -35.693012
41.004711 102.71162 -35.609184
40.765194 104.82951 -35.680569
40.669556 103.00695 -35.547058
40.48064 104.93637 -35.684734
41.267712 103.84006 -35.545605
40.336826 105.03053 -35.67207
41.154667 104.39171 -35.644375
41.163464 105.06223 -35.745949
40.194481 102.97017 -35.609184
40.408695 103.647 -35.585663
40.660549 104.67074 -35.710793
41.083282 103.14881 -35.581223
41.259827 103.6236 -35.582775
40.682236 104.58865 -35.609184
41.231167 103.16614 -35.581821
40.959953 104.84505 -35.683281
40.984154 103.8283 -35.551685
40.477352 104.84022 -35.684265
40.474731 104.29659 -35.653126
40.549576 103.19341 -35.644558
41.357635 103.90208 -35.537987
40.379898 104.11348 -35.666756
40.951298 105.06353 -35.71909
41.060986 103.32431 -35.563004
40.95726 104.35677 -35.58794
40.709908 104.88166 -35.634827
40.459724 105.03629 -35.672615
40.571182 103.75845 -35.61367
40.952106 102.81781 -35.58028
40.244942 103.29657 -35.570377
41.06477 104.84538 -35.691368
41.160744 104.05433 -35.572773
41.167435 103.83041 -35.556641
40.269844 103.9965 -35.63662
40.373158 103.97337 -35.635632
40.317123 103.64316 -35.575367
40.77578 104.48843 -35.629959
41.06385 104.49618 -35.625229
40.380848 104.30829 -35.64941
41.164516 103.96278 -35.582745
41.266964 103.95425 -35.591187
41.321053 104.62669 -35.659229
41.070415 103.85811 -35.601254
41.044392 104.002 -35.636082
40.845047 104.10204 -35.695774
40.572777 104.1128 -35.670391
41.343952 103.9325 -35.618595
40.976734 103.28003 -35.500038
40.464958 104.4009 -35.650036
40.46991 103.94552 -35.59906
40.964577 103.19636 -35.524609
40.761467 104.74657 -35.697746
40.815155 104.02317 -35.706848
40.880718 103.50072 -35.53648
40.864876 102.9198 -35.556461
40.960026 104.52776 -35.670532
40.669815 103.85637 -35.602188
41.32251 104.03204 -35.485153
40.575928 102.91876 -35.575191
40.57478 103.32949 -35.575089
40.417889 103.81096 -35.650902
40.76236 103.72581 -35.573582
40.970535 103.67213 -35.630798
41.166115 103.73692 -35.580666
40.973 103.73025 -35.571079
41.093094 103.65969 -35.634796
40.688564 103.63983 -35.582668
41.279491 103.48261 -35.63615
41.170582 103.68106 -35.63018
40.758022 103.68211 -35.622971
40.994976 104.41484 -35.698658
40.373615 103.93213 -35.601543
40.674904 104.1768 -35.613697
40.675064 105.11381 -35.651073
40.774506 103.86493 -35.603336
40.870052 103.72707 -35.564224
40.67289 103.66671 -35.629501
41.231197 103.77123 -35.610779
40.967308 103.98793 -35.635502
41.070129 104.43498 -35.702354
40.570892 103.66728 -35.623283
40.773132 104.17609 -35.617165
40.275883 103.98485 -35.578381
40.579254 103.94545 -35.589298
41.162636 103.13735 -35.589527
40.866734 103.8179 -35.541889
40.659367 103.79543 -35.676212
40.673801 105.03866 -35.666042
40.95155 104.14729 -35.698322
40.965359 104.61597 -35.655094
40.873093 104.61909 -35.652367
41.162853 104.61855 -35.660091
40.770462 104.80346 -35.644379
41.05925 103.74209 -35.568298
40.670296 104.79375 -35.645561
40.565956 104.80438 -35.648163
40.498253 104.79772 -35.651802
40.863052 104.77039 -35.705841
40.96447 103.96175 -35.593315
40.480949 104.10413 -35.668274
40.21312 103.27471 -35.536022
40.576008 103.40304 -35.557762
40.34824 104.57687 -35.718689
40.664848 103.98931 -35.630733
41.250519 103.97099 -35.669952
40.577938 104.48096 -35.631611
40.821274 104.67796 -35.723049
40.670345 104.20869 -35.66679
41.262676 104.58981 -35.624882
40.772648 104.19627 -35.666134
41.169262 105.16252 -35.689049
41.068546 104.21642 -35.689117
40.766674 105.26537 -35.761089
40.674606 104.48913 -35.630814
41.445869 104.83578 -35.620117
40.950871 103.13516 -35.590324
40.355648 103.23239 -35.580418
41.268185 104.1753 -35.628288
41.179226 104.16307 -35.558174
40.461933 104.67247 -35.714466
41.059559 104.17914 -35.61665
40.368828 104.07813 -35.634712
40.858749 104.20557 -35.652969
40.176865 104.5164 -35.651012
40.566299 104.52055 -35.669964
40.548912 103.82605 -35.671829
40.567688 104.08332 -35.63295
40.865391 103.63754 -35.577488
40.969963 103.76842 -35.607109
40.868206 103.44799 -35.591259
40.271397 104.08471 -35.630436
41.055824 103.9571 -35.595467
40.866173 103.76801 -35.604088
40.940262 103.50393 -35.538853
40.869331 103.96282 -35.591599
40.675156 103.95164 -35.590481
40.57444 103.98174 -35.6399
40.665657 104.12253 -35.684425
40.666878 104.25423 -35.607269
40.773819 104.297 -35.642483
40.588108 104.7168 -35.65173
40.665321 104.71282 -35.650841
40.568108 105.06657 -35.710304
41.248665 103.00053 -35.550861
41.259445 102.99254 -35.482368
40.968075 104.17609 -35.604954
40.728859 104.87843 -35.629887
40.967247 103.006 -35.552097
40.759174 104.11069 -35.687019
41.191139 103.97526 -35.642406
40.958977 103.64202 -35.580723
40.476299 103.46084 -35.60527
40.966827 103.03503 -35.61536
40.763969 103.98282 -35.634869
41.053288 104.1283 -35.688541
41.173332 104.48204 -35.625984
40.768913 103.95914 -35.590084
40.855301 103.79652 -35.677425
41.055641 103.76446 -35.611908
40.974396 103.85921 -35.597519
41.247406 104.27393 -35.60202
41.166618 103.8523 -35.606174
40.470829 104.09602 -35.634975
41.056808 104.3016 -35.648949
40.38147 104.742 -35.694302
41.342125 103.79125 -35.549759
40.770813 104.61733 -35.654854
40.971592 104.27496 -35.604481
41.182442 104.18797 -35.680504
41.153069 103.76814 -35.627407
40.578064 103.8616 -35.608265
40.471039 103.48831 -35.645485
41.437466 104.524 -35.624771
41.154949 103.32874 -35.562473
41.198288 103.37672 -35.398293
40.674156 104.08068 -35.62307
40.871349 103.86542 -35.60062
40.772293 105.02846 -35.666782
41.234314 104.14407 -35.420013
40.331512 103.23209 -35.506096
41.178375 103.79581 -35.42741
40.477875 104.50754 -35.672665
40.480148 104.71719 -35.657974
40.481232 104.89595 -35.73328
40.583645 104.1722 -35.627903
40.667747 103.46906 -35.66703
40.67057 104.83715 -35.682407
40.309422 103.47398 -35.656502
41.003502 104.67622 -35.601551
40.77647 103.64413 -35.58453
40.476807 105.05234 -35.709507
40.883366 105.11496 -35.655106
40.561947 105.02795 -35.670567
40.959763 102.96044 -35.49897
41.176773 102.97579 -35.495956
41.0298 104.42967 -35.567806
40.362965 104.53474 -35.673725
40.277821 104.52301 -35.664173
40.9618 103.36144 -35.614754
40.568638 103.00842 -35.561489
40.36124 103.00861 -35.559757
40.26424 103.00627 -35.554119
41.239563 103.86006 -35.611794
41.001316 104.89438 -35.626141
40.721352 105.19512 -35.75631
40.579884 105.1451 -35.702168
40.191196 105.14808 -35.685699
40.771755 104.5327 -35.671707
40.876709 104.05071 -35.572025
41.279644 104.05101 -35.499245
40.674709 105.15101 -35.700188
40.638203 104.07948 -35.55909
41.245804 104.13033 -35.353252
40.588936 103.71566 -35.575558
40.664257 104.51937 -35.669643
41.061741 104.80196 -35.638393
40.769505 105.11241 -35.653545
40.875126 104.18461 -35.614861
40.577374 104.86282 -35.743111
40.571156 104.84075 -35.688557
40.67355 103.57289 -35.64867
40.571659 104.9343 -35.674873
40.767273 104.98904 -35.720516
40.671909 104.9323 -35.682602
40.762268 104.93141 -35.674534
40.787498 103.58093 -35.648842
40.657207 104.9575 -35.727901
40.834641 104.96481 -35.748287
41.011639 104.95411 -35.748508
40.868416 104.93362 -35.667435
41.033211 104.98802 -35.734051
40.941788 104.97285 -35.610321
