# .PCD v0.7 - Point Cloud Data file format
VERSION 0.7
FIELDS x y z
SIZE 4 4 4
TYPE F F F
COUNT 1 1 1
WIDTH 866
HEIGHT 1
VIEWPOINT 0 0 0 1 0 0 0
POINTS 866
DATA ascii
53.050854 21.357344 56.433319
53.08728 24.970707 56.469662
53.382179 28.222454 56.56543
53.545998 27.718115 56.54731
53.280834 27.640423 56.546333
53.344582 27.143703 56.516251
53.633526 27.196867 56.508801
53.354362 27.95093 56.579304
53.323685 26.62969 56.505386
53.830738 27.553759 56.514946
53.569141 27.549267 56.5578
53.819813 26.946304 56.489353
53.700703 26.669861 56.425083
53.546719 26.109127 56.450989
53.428299 26.635859 56.490963
53.627605 26.718456 56.474472
53.533573 27.958937 56.545628
53.421715 27.991678 56.533508
53.728924 27.424522 56.478638
53.751896 26.920933 56.464222
53.71143 26.84033 56.456894
53.534218 28.043922 56.542713
53.46579 27.655777 56.550365
53.669518 26.950787 56.471985
53.652683 27.742926 56.516525
53.755249 27.963133 56.518074
53.840034 27.848183 56.511574
53.835979 27.552471 56.485149
53.759293 27.5 56.501011
53.903633 27.108385 56.467815
53.852348 27.684017 56.475113
53.921745 27.237123 56.445705
53.836853 27.020233 56.466072
53.647072 27.959129 56.526134
53.472233 27.781553 56.552647
53.744339 27.551378 56.487938
53.725418 27.655758 56.497074
53.611282 27.417458 56.505726
53.795662 27.772514 56.467285
53.53529 27.750963 56.523132
53.649178 27.650394 56.509758
53.566528 27.659698 56.525707
53.770439 27.982422 56.47506
53.466587 27.936098 56.55162
53.721405 27.891876 56.510391
53.720707 28.086351 56.525173
53.661411 28.026125 56.535889
53.333981 20.649448 56.261333
53.291508 20.953327 56.313255
53.285034 21.46715 56.306049
53.272263 20.312269 56.230473
53.3106 20.345549 56.256714
53.262032 20.599062 56.252811
53.285282 20.369221 56.237309
53.248367 21.222538 56.305084
53.170059 20.976963 56.320961
53.265511 22.758385 56.402214
53.294758 24.211182 56.437847
53.305351 22.313944 56.361511
53.246452 20.098919 56.238976
53.249378 21.174019 56.314171
53.313931 20.951937 56.296196
53.254745 20.18788 56.248447
53.661591 23.153423 56.346008
53.499664 23.661892 56.402828
53.30328 20.380936 56.250687
53.778706 23.488819 56.352402
53.560749 23.483988 56.391678
53.261513 22.849709 56.412617
53.249111 22.131813 56.367104
53.562622 21.182264 56.282665
53.725952 21.540064 56.269787
53.332275 24.835367 56.502026
53.258343 20.463366 56.279636
53.284344 24.449961 56.466244
53.255054 23.148144 56.426888
53.779743 21.570759 56.232006
53.606888 22.205803 56.30492
53.279068 21.628019 56.331963
53.496346 24.735449 56.444874
53.701698 24.699699 56.400509
53.313553 23.511343 56.429733
53.676815 23.506807 56.36842
53.616207 24.786228 56.442101
53.182564 20.840206 56.293079
53.720757 24.511007 56.402946
53.597404 24.749365 56.436069
53.771286 22.496649 56.30991
53.761093 23.802702 56.363968
53.639793 25.231754 56.435101
53.305984 21.225914 56.299282
53.476238 23.419727 56.39539
53.665936 23.574921 56.36562
53.43644 25.854431 56.510532
53.441383 24.284468 56.455128
53.593422 24.909142 56.457138
53.255032 20.643744 56.301144
53.266926 23.615589 56.442108
53.575775 24.12258 56.419453
53.26527 20.89225 56.29467
53.501785 20.350721 56.233654
53.41066 20.730644 56.269333
53.760269 20.760872 56.210415
53.521729 24.506159 56.437836
53.554626 25.161772 56.446945
53.730663 25.244469 56.427963
53.537403 25.249519 56.461983
53.696777 21.238878 56.249325
53.462097 25.110416 56.481392
53.26907 20.597324 56.269218
53.453148 25.044943 56.479115
53.444027 25.179441 56.474545
53.236256 25.175943 56.526165
53.645866 26.149078 56.493385
53.75737 24.398985 56.382072
53.645229 26.079651 56.470543
53.670635 23.395042 56.349998
53.630329 23.902811 56.387016
53.539165 24.857586 56.441883
53.618202 25.773375 56.455502
53.5182 22.628067 56.368828
53.355289 23.741938 56.45755
53.458225 23.90414 56.426838
53.525368 24.047342 56.442184
53.725563 24.248419 56.419636
53.677345 24.374544 56.428921
53.439598 24.421146 56.451683
53.471958 24.545336 56.462551
53.456333 24.831501 56.50671
53.533543 24.954096 56.496269
53.7374 26.06839 56.488228
53.742157 27.054161 56.510597
53.580475 27.059557 56.554104
53.538544 27.293869 56.569599
53.521641 27.436806 56.554417
53.34024 27.447897 56.596012
53.473984 27.426826 56.552509
53.331303 21.999462 56.364571
53.492519 23.214535 56.405876
53.459145 25.357292 56.490387
53.630318 26.801668 56.476212
53.641716 26.898479 56.508018
53.635773 27.021963 56.538044
53.732021 27.055523 56.503769
53.267139 21.7118 56.349293
53.269917 21.529503 56.326912
53.6408 22.558304 56.307228
53.346748 22.847229 56.399048
53.646667 27.133907 56.512455
53.554955 27.20437 56.535271
53.288048 27.518591 56.612461
53.598282 23.057423 56.359779
53.534805 23.283432 56.382286
53.459038 26.069334 56.516315
53.438721 27.020853 56.582527
53.661633 21.842472 56.280045
53.536243 25.047998 56.452385
53.780827 23.08198 56.308693
53.428947 26.810654 56.51997
53.24596 22.11673 56.389923
53.356346 26.828461 56.573406
53.659481 21.744053 56.278107
53.309692 22.065453 56.326843
53.316128 20.715492 56.263645
53.645927 25.114464 56.415245
53.544415 26.92083 56.516666
53.439102 27.19908 56.542706
53.550407 27.040171 56.509789
53.333435 21.828274 56.333561
53.551647 26.987183 56.54937
53.416691 22.122444 56.352745
53.542622 26.801069 56.512253
53.346836 23.432205 56.43232
53.453735 22.838188 56.378227
53.482124 20.684967 56.26421
53.584156 23.811548 56.416611
53.410927 23.597193 56.423454
53.432579 23.437105 56.428524
53.743553 23.6835 56.376492
53.28688 24.076817 56.482521
53.497032 26.194111 56.537804
53.390823 20.629929 56.235214
53.468822 24.231806 56.442963
53.53307 24.415792 56.427414
53.712677 24.797861 56.394032
53.350266 24.936543 56.493519
53.518845 25.654749 56.502308
53.330578 20.163013 56.225704
53.32832 20.457848 56.250385
53.614826 24.399862 56.415878
53.357147 21.472225 56.313507
53.799114 24.944897 56.388092
53.461601 24.951595 56.461525
53.459404 25.779766 56.482578
53.269871 21.513498 56.33852
53.65126 25.326027 56.444942
53.788586 25.416611 56.425758
53.544289 22.12908 56.306046
53.736423 25.6066 56.475952
53.260796 23.455452 56.446526
53.557529 23.18821 56.370453
53.602245 23.807659 56.382133
53.446377 25.24806 56.473934
53.799301 25.316479 56.411007
53.769917 25.480097 56.405926
53.546383 23.879244 56.395397
53.648972 24.11812 56.387596
53.256428 24.185368 56.463211
53.767921 24.647385 56.388035
53.361023 24.615274 56.474773
53.332535 25.118233 56.4865
53.81102 25.427658 56.421997
53.314144 22.238411 56.352562
53.152988 20.47928 56.345089
53.299259 24.03454 56.453735
53.31385 21.189186 56.303677
53.344967 21.593788 56.316845
53.270317 25.046879 56.504444
53.310837 20.766476 56.295078
53.368786 24.419401 56.454388
53.401409 21.234447 56.30249
53.43565 23.065842 56.387112
53.449535 21.693968 56.324162
53.860207 24.77187 56.394955
53.321289 23.268696 56.420742
53.424988 20.096094 56.236279
53.360741 24.215616 56.474285
53.424114 23.643179 56.402039
53.372082 23.827385 56.428211
53.325409 23.723217 56.422115
53.49387 25.630417 56.527767
53.544765 21.425346 56.277649
53.549152 25.857019 56.484394
53.426777 23.173128 56.398369
53.590729 22.96912 56.321804
53.255478 20.078287 56.257431
53.326962 20.891464 56.289459
53.351715 25.755545 56.521736
53.42667 21.509727 56.307838
53.454906 23.811296 56.405144
53.352695 23.187265 56.381603
53.563633 22.195705 56.302223
53.666523 20.668484 56.178211
53.549095 24.235403 56.415985
53.278347 25.840691 56.546223
53.335533 24.554657 56.454044
53.568451 20.464424 56.146282
53.533665 24.812672 56.460365
53.641159 24.948076 56.418957
53.50695 23.595591 56.379269
53.361839 25.871181 56.526146
53.533978 26.085545 56.493931
53.575806 22.343075 56.258247
53.730198 22.855684 56.315796
53.261005 22.893896 56.384647
53.582176 23.350397 56.37904
53.736816 24.073208 56.365063
53.78101 24.961971 56.432148
53.734516 25.859888 56.42104
52.75045 24.701155 56.222679
53.983448 21.088505 56.135983
53.642818 25.867281 56.458027
53.77449 25.332047 56.409801
53.853828 22.215929 56.225166
53.740974 25.772963 56.440975
53.547993 22.909729 56.336735
53.432671 26.117414 56.470531
53.26078 26.170498 56.560535
53.845917 24.568089 56.360718
53.747257 22.398775 56.300583
53.540344 25.672903 56.458614
53.775265 22.323803 56.304054
53.984303 24.913851 56.365715
53.357952 26.689032 56.566666
53.325966 26.166864 56.562542
53.616241 26.678713 56.493366
53.977795 25.047703 56.344715
53.747044 26.294584 56.450905
53.522797 25.954353 56.516224
53.715302 26.487108 56.489338
53.967823 25.119171 56.315418
53.72514 24.724178 56.344109
53.416412 25.940098 56.531425
53.708851 26.405228 56.476315
53.456524 22.898373 56.346668
53.74342 26.63653 56.492329
53.87907 25.065527 56.336048
53.745827 26.665852 56.502571
53.533878 24.000107 56.416683
53.674896 24.860386 56.36272
53.631226 26.598938 56.48402
53.545376 26.195938 56.471378
53.642059 26.478838 56.511665
53.349304 26.208773 56.524757
53.455509 26.190311 56.488739
53.749691 23.976938 56.38179
53.618423 26.381063 56.499012
54.008686 21.083761 56.098175
53.417534 26.417562 56.501457
53.452816 26.37991 56.538155
53.447346 26.59767 56.523739
53.352562 26.504383 56.582352
53.540344 26.473982 56.52977
53.7953 24.706635 56.356647
53.475632 26.45857 56.531944
53.645679 27.257051 56.503716
53.688122 24.006823 56.39212
53.546768 26.603449 56.506313
53.241695 26.404009 56.58416
53.392315 26.398893 56.542774
53.471939 26.681025 56.552479
52.893463 26.712811 56.656479
53.363495 22.295368 56.30481
53.456272 25.975494 56.469902
53.56583 26.433453 56.4491
53.204617 25.890108 56.538944
53.325649 25.795626 56.461872
53.360123 25.980145 56.520161
53.547058 25.337543 56.466221
53.535908 25.996395 56.466873
53.004551 24.281324 56.551666
53.187531 27.805876 56.685051
53.453369 26.513428 56.509476
53.169136 25.343 56.562901
53.266926 24.511173 56.5163
53.361824 26.497349 56.528519
53.337574 25.368301 56.535706
53.392185 24.276295 56.500149
53.513721 21.560822 56.260891
52.828186 26.609665 56.680607
53.704453 23.321423 56.319691
53.289921 26.602186 56.550987
52.919254 26.572254 56.636425
53.258602 25.34635 56.527603
53.126865 22.479704 56.425392
53.150486 25.994808 56.557243
52.849575 25.43442 56.513603
53.090431 24.878736 56.431213
53.077187 23.551397 56.542831
53.399673 23.268351 56.35284
53.262695 23.264149 56.422859
53.042374 21.041044 56.239239
53.455742 21.455755 56.264122
53.365841 23.075888 56.340405
53.499969 23.135845 56.305786
52.717133 25.440367 56.591484
53.255074 20.139446 56.29805
53.248405 27.617027 56.67741
52.907593 26.524809 56.666992
52.83453 27.962059 56.688206
52.937817 20.822899 56.370762
53.437115 21.890867 56.3316
53.006248 20.751581 56.363121
53.527607 20.89966 56.226967
53.31995 22.366642 56.326099
53.160706 27.362492 56.603893
53.136375 22.382635 56.397953
53.26033 22.353659 56.336052
53.423286 27.74848 56.567467
53.282429 20.796858 56.279621
53.889942 23.966299 56.356106
53.537262 22.052721 56.305111
53.131153 26.574802 56.595806
53.650368 27.020063 56.493908
53.629154 26.278948 56.405552
53.493862 24.642683 56.502506
52.836456 27.474924 56.635418
53.090652 21.506229 56.37405
53.330605 22.443512 56.357445
53.196926 27.748215 56.687229
53.257259 22.455196 56.384628
53.043827 22.482227 56.393463
53.663731 22.451139 56.311108
53.476704 21.882862 56.270931
53.324841 23.986931 56.459949
53.502441 22.473663 56.320774
53.452209 22.434942 56.280167
53.326824 21.932503 56.340748
53.48243 20.550589 56.195065
52.858105 25.474869 56.47744
53.509727 21.917624 56.252319
53.26807 21.82892 56.340878
53.439472 28.065619 56.554256
53.439079 25.460892 56.464096
53.170433 26.193129 56.556026
53.605297 23.869427 56.316593
53.496181 20.289457 56.230751
53.407108 22.198898 56.409615
52.98048 24.378048 56.51088
53.662849 27.45088 56.458767
53.324001 27.560875 56.574768
52.957241 27.529442 56.637848
53.016689 20.623638 56.323524
52.689571 24.503435 56.53207
53.635738 26.512718 56.467472
52.741875 24.216684 56.523731
53.548264 27.549416 56.519436
53.24456 28.18968 56.619785
53.362057 26.595325 56.559563
53.533741 26.524021 56.478771
52.803631 26.330957 56.483025
53.456192 25.43454 56.528625
53.617569 25.417732 56.473286
53.169556 20.211363 56.343189
53.072701 27.666975 56.691704
53.624966 21.843493 56.229649
53.147083 24.254707 56.463852
53.244076 20.424667 56.329147
53.667721 27.87849 56.567665
53.628155 28.094923 56.516029
53.653812 21.145102 56.229996
53.271164 24.603537 56.472553
53.548656 26.385107 56.513348
53.485268 23.94174 56.348576
53.636543 26.205378 56.440483
53.133827 25.600344 56.486832
53.621696 25.96269 56.47617
52.677715 25.413445 56.589348
53.644276 25.924904 56.438774
53.540627 25.897442 56.449192
53.340912 25.90366 56.476604
53.452328 25.617657 56.459896
53.161743 25.873835 56.544384
53.444069 26.716784 56.510426
53.456924 25.350273 56.462223
52.686371 25.466738 56.554409
53.242134 23.217161 56.464973
53.799347 21.078669 56.171478
53.355099 26.728992 56.524609
53.762936 23.098989 56.376965
53.485233 22.953346 56.339657
53.230057 25.559412 56.492359
53.189854 25.156393 56.519028
53.156162 21.633886 56.351276
53.529865 23.993921 56.345875
53.668388 25.47134 56.458145
53.709473 26.009136 56.417305
52.696884 25.5581 56.543919
53.35062 24.120899 56.439121
53.628803 22.902229 56.282932
53.153194 24.084909 56.49667
52.995739 25.423738 56.488106
53.249454 23.65016 56.440716
53.547035 26.716101 56.489418
53.372505 23.666079 56.42448
53.163727 20.152485 56.271408
53.468254 23.770363 56.330288
53.456314 24.010563 56.406101
53.735802 23.738144 56.270004
53.570217 23.722235 56.308022
53.119621 23.477261 56.453049
53.323578 21.115177 56.290352
53.048038 27.526342 56.571178
53.464615 27.495552 56.520157
53.41877 27.553539 56.552666
53.112656 24.470644 56.504818
53.538956 27.464838 56.489594
53.53207 21.119698 56.22047
53.536869 26.290621 56.488766
53.004402 24.40134 56.476837
53.617287 25.68812 56.430588
53.30291 25.753235 56.592503
53.257355 27.558275 56.592701
52.874569 24.708797 56.428089
53.143974 27.644196 56.64518
53.72369 25.690996 56.420483
53.603355 27.373568 56.61515
53.040245 20.658009 56.286312
52.956905 25.356644 56.51046
53.44136 26.957672 56.501072
53.315643 22.524349 56.372932
53.30101 23.779213 56.569534
53.224934 28.058086 56.678509
53.257164 25.994259 56.538155
53.062248 26.985701 56.651173
53.21851 27.066568 56.644886
52.950207 25.175524 56.406445
52.622414 25.711681 56.476486
52.952969 25.226433 56.585434
53.454243 24.718077 56.464832
53.461643 26.911402 56.56403
52.940857 25.213383 56.434784
53.527897 27.988852 56.504364
52.728516 25.582752 56.506077
53.448654 27.120934 56.538639
53.142483 21.287405 56.360329
53.475403 20.311172 56.211651
52.95274 24.602705 56.389328
53.072613 24.772005 56.442081
53.253609 22.603664 56.428299
53.177746 24.151283 56.529686
53.377007 25.091055 56.51207
52.958858 22.867407 56.46027
53.425621 21.317053 56.280399
53.704342 22.963701 56.253334
53.51791 25.304321 56.409306
52.854084 25.627367 56.531296
53.512184 21.596933 56.265156
53.425591 24.084204 56.459549
53.461246 20.308243 56.1698
53.346107 25.255219 56.490459
53.444344 20.409281 56.17696
53.25565 26.529701 56.628441
53.332462 21.27603 56.355534
53.260174 22.963354 56.412136
53.030907 24.274469 56.495728
53.350983 21.53809 56.282864
53.44632 20.369881 56.243492
53.629158 25.617428 56.394405
53.571686 22.65126 56.274826
53.351357 27.639585 56.587883
53.243145 27.030342 56.580727
53.343571 21.31349 56.305843
53.545357 27.327579 56.514542
53.631096 23.915359 56.290787
53.553761 24.631586 56.41716
53.258919 23.897961 56.454979
53.533733 26.694149 56.533146
53.596031 21.943529 56.213993
53.269707 23.39073 56.426567
53.668491 23.627695 56.309807
53.161461 23.031019 56.479843
53.252453 21.782619 56.357777
53.784473 23.657885 56.259182
53.242752 20.361628 56.272926
53.120354 20.959064 56.277519
53.181458 20.558628 56.311413
53.045033 20.554184 56.356392
53.158676 26.816769 56.6409
53.14526 26.689323 56.581806
53.220093 26.844753 56.590717
52.947102 23.526382 56.539734
53.3209 21.722137 56.335918
53.01572 25.203445 56.560329
53.475533 21.536608 56.245415
53.178932 21.078806 56.323059
53.500031 28.031597 56.568134
53.15469 22.14805 56.380638
53.251137 22.646542 56.385086
52.896484 24.362671 56.59687
53.247318 25.475208 56.524509
52.980198 21.258572 56.41626
53.024433 23.553938 56.440727
53.166027 24.597469 56.505051
53.15469 23.212301 56.421349
53.156693 23.424637 56.394558
53.123199 25.561069 56.585644
52.962608 26.821463 56.650864
53.059944 24.9727 56.518845
53.159473 23.866587 56.435997
53.158825 21.2183 56.306049
53.21714 25.753305 56.484829
53.198692 22.919464 56.471516
53.126854 23.703985 56.489941
53.263027 24.732285 56.499687
53.227123 27.312334 56.53928
53.014519 26.182043 56.623383
53.006447 23.730789 56.464062
52.989323 21.246405 56.382736
52.947601 27.091919 56.701611
52.97438 24.557123 56.522629
52.966705 28.137234 56.696491
52.943878 25.551281 56.585144
52.819752 27.930338 56.718681
52.935421 25.044552 56.586498
53.045879 20.630394 56.360455
53.238743 27.869076 56.59798
53.246536 25.241882 56.534409
53.263855 22.655697 56.51511
53.169312 27.290745 56.541882
53.170738 24.67873 56.536667
53.081932 27.705784 56.649662
53.112823 25.122002 56.583355
53.232105 22.542362 56.391598
53.159466 26.931831 56.58535
53.352089 20.257755 56.239105
53.342552 25.452578 56.495911
53.142254 23.769335 56.456936
53.146851 21.36673 56.373577
53.072392 26.238979 56.558052
53.087246 23.826498 56.453121
53.042885 26.72028 56.592964
53.139885 24.32995 56.471409
53.060287 25.134295 56.505829
53.058277 22.672686 56.432716
52.935608 24.811567 56.514938
52.974403 22.463692 56.455193
53.264187 25.554039 56.535378
53.331352 23.057306 56.400902
53.257172 26.77281 56.501152
53.287071 24.282845 56.465103
53.609795 24.093914 56.296902
53.237846 27.270988 56.56694
53.26907 24.822681 56.474121
53.319046 22.155376 56.327148
53.342335 22.673859 56.377407
53.317757 28.003836 56.547787
53.364429 25.666529 56.499981
53.469059 26.166986 56.54034
53.441212 22.808914 56.320934
53.194572 25.345211 56.50769
53.232609 22.795389 56.364864
53.237549 25.370739 56.502415
53.238594 23.201073 56.424038
53.03883 28.156368 56.656063
53.06295 25.639656 56.639687
53.115608 23.007971 56.441746
53.164391 28.064604 56.612972
53.181145 25.66288 56.559513
53.240551 23.076944 56.415005
53.243042 26.136211 56.539898
53.359257 27.053925 56.533577
53.445961 25.663258 56.467163
53.43079 27.156496 56.494225
53.359871 27.343357 56.569153
53.342854 26.279285 56.556862
53.384342 26.061363 56.516384
53.260818 25.763813 56.515587
53.231552 25.292175 56.495808
53.275665 27.938307 56.711895
53.542484 25.771257 56.470818
53.559765 22.740801 56.297016
53.548798 23.449053 56.301479
53.734943 27.755819 56.512337
53.737431 25.055254 56.437836
53.747093 26.742687 56.410629
53.437454 27.685333 56.526875
53.356567 27.470182 56.544743
53.346985 27.763773 56.552876
53.336155 27.656286 56.656448
53.409023 25.804264 56.455418
53.308014 25.943373 56.555695
53.160858 26.110004 56.544231
53.006966 26.255793 56.636086
53.363773 26.993752 56.680035
53.64217 28.005005 56.493599
53.607872 26.221846 56.519859
53.186787 27.769127 56.672352
53.834881 27.435177 56.453869
53.540039 26.627501 56.46056
53.208099 26.760214 56.622234
53.248554 27.148756 56.602425
52.893597 27.115023 56.637383
53.256683 26.394308 56.512367
52.979382 27.245743 56.645027
53.349113 22.975937 56.392715
53.526943 25.592587 56.437836
53.619495 27.349546 56.515018
53.433125 27.235481 56.530872
53.324715 22.745445 56.380146
53.533001 25.354977 56.44577
53.350449 27.114702 56.571098
53.341122 25.593899 56.481342
53.446617 27.037294 56.527271
53.529716 26.948496 56.487629
53.624622 27.751181 56.492039
52.878075 25.473528 56.607655
53.698463 27.26564 56.484016
53.314732 27.876823 56.569218
53.622471 27.632219 56.451946
53.502663 21.731533 56.277531
53.458424 27.874283 56.516071
53.332603 26.948019 56.530258
53.27491 26.294458 56.564137
53.098328 27.596048 56.566582
53.536724 27.258333 56.514938
53.820118 27.221146 56.453117
53.727913 27.143381 56.494545
53.334751 27.253193 56.554825
53.833744 27.083984 56.453304
53.110748 20.514055 56.280121
53.439232 26.279116 56.506775
53.065876 25.074764 56.51651
53.72028 27.349936 56.482857
53.536438 27.160149 56.478973
53.1101 20.824049 56.369362
53.671757 26.821619 56.404808
53.180473 27.12085 56.605026
53.020016 25.108469 56.592911
53.401985 23.556854 56.465961
53.002293 20.988441 56.41254
53.605568 24.319023 56.4342
53.262066 22.240677 56.367004
53.424442 24.345201 56.442619
53.702732 25.349436 56.386047
53.651722 24.000412 56.297482
53.272995 24.00189 56.474037
53.541515 25.451668 56.457123
53.433502 25.87953 56.472126
53.457481 27.334621 56.544556
53.583763 24.519257 56.399555
53.849625 27.30481 56.475685
53.525169 23.069756 56.339424
53.633595 25.09004 56.453918
53.161282 27.959881 56.64991
52.979908 23.498322 56.517818
53.657879 26.107042 56.385715
53.649376 26.666357 56.438915
53.520397 27.116768 56.514046
53.734772 23.484282 56.327381
53.525211 23.584764 56.288445
52.75803 24.3099 56.478138
52.775314 24.503069 56.517811
53.440136 23.991798 56.436665
53.648632 27.555595 56.481449
52.972572 22.515314 56.481716
53.041683 26.828213 56.623219
53.34206 22.798584 56.342499
53.168362 24.886803 56.550827
53.166264 22.979334 56.498955
53.11916 24.784397 56.474747
53.089367 21.257786 56.305489
52.994202 21.156733 56.424191
53.587605 22.937511 56.355984
53.088894 22.554033 56.389442
52.978016 21.017052 56.368404
53.714912 25.173964 56.347755
53.14621 24.955828 56.560471
52.914253 21.089237 56.404152
52.748524 23.910988 56.572678
53.01413 22.633608 56.517239
53.13332 22.418238 56.462421
53.373585 21.708889 56.267799
53.004326 26.354334 56.603104
52.905746 20.883862 56.343517
52.869835 25.233791 56.52055
52.694935 25.39698 56.570786
53.548679 27.859547 56.522682
52.941555 27.859772 56.680698
52.725365 24.670467 56.50169
52.923969 26.381353 56.593742
53.018703 25.661726 56.528179
53.254463 21.092129 56.309479
53.256546 21.288742 56.322102
53.243256 26.56263 56.512608
52.884102 20.687664 56.352562
52.975258 27.184694 56.564838
52.846359 24.523636 56.508198
53.640236 27.861986 56.490761
53.037804 24.830486 56.475758
52.856342 24.610941 56.477501
53.739685 22.746355 56.287823
52.831394 25.561255 56.63356
53.050438 27.634253 56.538322
53.382629 26.0802 56.468277
52.945278 25.435089 56.567902
53.004009 21.124966 56.365314
52.661049 24.504721 56.565979
53.37141 21.390179 56.250168
53.037724 26.667435 56.589165
53.208244 20.950899 56.279877
53.120384 24.82658 56.518223
53.071663 23.354986 56.47533
53.185608 26.907377 56.593884
53.282356 28.02924 56.607384
53.168144 26.198406 56.61861
53.009598 22.391989 56.48254
53.250217 21.039557 56.350731
53.242397 20.699503 56.283142
53.216274 26.113462 56.543819
53.240837 21.41168 56.32571
53.262394 21.012108 56.290157
53.177662 25.254526 56.587887
53.093037 27.181772 56.67849
53.15995 22.598797 56.435303
53.144287 26.414135 56.568787
53.336601 20.588766 56.27441
53.027279 24.686087 56.561054
52.974586 25.127851 56.556744
53.023277 27.12389 56.716187
53.058079 21.233894 56.371399
53.728146 23.35088 56.230167
53.069881 25.548912 56.661469
53.25174 20.281633 56.274994
53.230419 23.822014 56.449211
53.258106 21.763063 56.329121
53.145405 28.223265 56.597012
53.342247 23.88064 56.447533
53.343376 28.190105 56.579147
53.352528 24.867895 56.459087
53.360031 23.209097 56.419548
53.314987 21.391909 56.314194
53.177414 25.074575 56.556862
53.175934 23.266151 56.451496
53.368103 27.712658 56.530663
53.436092 22.540962 56.363132
53.450218 25.064053 56.446072
53.410385 23.347704 56.323929
53.336094 21.033108 56.295586
53.42001 24.268587 56.384708
53.516781 20.375513 56.180119
53.611462 20.543968 56.151501
53.341141 26.440239 56.521702
53.565819 24.316324 56.403732
53.596123 20.97283 56.181114
53.545448 26.255945 56.540489
53.518654 21.080118 56.188862
53.46796 28.162405 56.562817
53.460991 24.882303 56.429577
53.437988 24.757448 56.410107
53.470573 23.190771 56.335403
53.495068 21.317131 56.241028
53.505234 24.237333 56.374134
53.6441 24.259846 56.315567
53.614536 24.528706 56.369892
53.657536 22.684587 56.268417
53.544403 27.354555 56.46463
53.642853 24.539745 56.423012
53.724434 22.601995 56.287609
53.647381 26.418869 56.428448
53.650826 24.643152 56.327499
53.654701 22.764639 56.299831
53.533173 28.157173 56.554489
53.675007 20.808662 56.206345
53.719894 22.637035 56.205242
53.750923 20.455141 56.114677
53.758125 23.885511 56.254379
53.757942 24.910309 56.328102
53.646904 27.060432 56.416557
53.764938 23.558363 56.23856
53.73394 26.802097 56.368614
53.473648 25.549578 56.470917
53.305119 25.236069 56.441925
53.650345 24.306961 56.345581
53.575901 27.674059 56.465572
53.650387 23.51399 56.310711
53.543591 26.053261 56.427631
53.629021 25.362434 56.413452
53.552948 25.551003 56.465767
53.736946 25.552217 56.457542
53.657269 25.305975 56.363281
53.845131 21.012905 56.132057
53.493404 25.303389 56.441605
53.640255 24.611462 56.407532
53.841213 25.560991 56.413174
53.531506 23.789448 56.392979
53.439449 28.225372 56.525742
53.688889 21.24688 56.221504
53.648285 25.532207 56.438793
53.631039 23.684654 56.378075
53.342598 25.543501 56.51704
53.489555 22.908379 56.367645
53.445686 22.793543 56.357853
53.435833 24.096025 56.428158
53.430096 24.649332 56.45546
53.265545 27.650446 56.585445
53.242435 25.803011 56.626411
53.301792 24.900126 56.583542
53.134308 28.144138 56.669212
53.330822 23.363811 56.428219
53.34285 23.569279 56.42411
53.35165 28.063822 56.564011
53.325077 25.05595 56.512558
53.51741 20.530304 56.254951
53.378613 25.649883 56.526043
53.469368 22.676834 56.358639
53.514416 20.77092 56.232998
53.337418 24.52301 56.47826
53.350529 24.333899 56.454819
53.351841 26.886175 56.572033
53.357162 25.342281 56.47438
53.363312 24.750801 56.475765
53.222027 26.898197 56.610115
53.266712 22.308809 56.384186
53.192719 26.952486 56.684349
53.433849 20.489386 56.207172
