# .PCD v0.7 - Point Cloud Data file format
VERSION 0.7
FIELDS x y z
SIZE 4 4 4
TYPE F F F
COUNT 1 1 1
WIDTH 1611
HEIGHT 1
VIEWPOINT 0 0 0 1 0 0 0
POINTS 1611
DATA ascii
37.886482 54.135296 47.273762
37.874958 51.406769 47.372047
37.955364 55.622383 47.404083
37.962265 53.892128 47.449574
37.985615 55.145741 47.483601
37.801384 53.440025 47.444939
37.857059 56.894222 47.418606
38.192734 55.08469 47.419724
38.121082 57.361481 47.594269
37.985523 55.055477 47.457863
38.275154 55.065079 47.411121
37.879818 53.538685 47.267376
37.918941 57.256176 47.44762
37.866421 55.18858 47.358463
37.812408 55.59425 47.333557
37.881771 51.081432 47.17205
38.067978 52.442802 47.169319
38.076672 52.517197 47.38031
37.860554 56.974194 47.411087
37.901855 52.195625 47.222107
37.248043 53.295826 47.515568
37.850739 55.38171 47.292633
37.805153 52.186161 47.260399
38.319771 57.693199 47.409504
38.630539 55.897617 47.248322
38.382095 57.782303 47.477928
38.134102 55.364838 47.343266
38.318085 57.78883 47.4786
38.570377 52.016083 47.341179
38.106899 52.77269 47.126659
38.878448 55.427605 47.362301
35.442539 53.427025 47.797626
37.781509 56.539627 47.661282
38.74176 51.516727 47.166866
39.035187 51.038185 47.239883
38.900356 56.06163 47.383427
38.790661 56.178532 47.342415
38.792721 52.349686 47.317707
38.874332 51.545559 47.28257
39.208279 51.319073 47.222809
38.681683 51.388512 47.194038
39.113831 50.970566 47.1796
38.783291 51.045658 47.234932
39.110886 51.355373 47.245426
39.288647 51.457409 47.215626
39.377068 51.94445 47.214611
39.156548 52.146835 47.268425
39.065849 52.19463 47.296753
39.280216 51.028233 47.205547
38.857407 51.022858 47.280079
39.406006 51.193764 47.2145
39.386627 51.250549 47.215771
39.344856 51.322731 47.215286
39.00116 52.359451 47.330738
39.115601 52.442307 47.300068
39.329292 51.87653 47.234108
39.103279 51.920609 47.282028
39.143074 53.124889 47.312695
39.199593 53.170902 47.297657
39.040962 53.223396 47.35075
39.097298 53.269318 47.336151
39.027107 53.518169 47.342937
38.700115 55.741535 47.246235
39.264477 52.058483 47.247799
39.209061 53.568642 47.295662
38.998314 53.998981 47.358582
39.208229 52.382748 47.264622
38.735813 51.752041 47.126232
39.030491 54.085121 47.357773
39.164646 52.943501 47.297546
39.082321 51.459038 47.236168
38.682003 51.649101 47.323467
39.091194 54.157402 47.353294
38.898418 54.185093 47.372093
38.90406 54.22662 47.379608
38.706554 52.812401 47.334831
38.915081 51.506466 47.241398
38.892384 51.56303 47.262131
38.990673 54.12233 47.350616
38.812092 53.943481 47.366741
38.663563 52.481014 47.330257
38.874401 52.612602 47.26815
38.793362 51.246651 47.253059
38.89045 51.268837 47.238312
38.863037 51.359718 47.25425
38.587616 55.62513 47.246819
39.184288 52.000053 47.244022
38.986828 53.630478 47.338982
39.04261 53.456989 47.303886
38.774986 52.183071 47.296722
38.571674 55.806297 47.297966
38.780102 53.407444 47.369568
38.905045 53.450462 47.336788
38.776405 50.929073 47.078701
38.969833 53.718475 47.348251
38.958046 53.435722 47.33094
38.802837 52.047039 47.293121
39.174107 53.258244 47.281731
39.154366 53.327755 47.288639
39.074783 53.420044 47.332066
39.182579 52.071404 47.233879
39.241096 51.975868 47.220242
38.793152 51.982876 47.296112
39.089813 53.095638 47.301212
38.915146 52.823769 47.333458
38.971397 51.655857 47.272633
38.86689 52.917881 47.182556
38.98481 52.478756 47.309238
39.076763 52.721626 47.29044
39.086002 52.823257 47.269001
39.162548 52.794796 47.267891
39.051258 52.879787 47.294289
39.121696 51.61507 47.23988
38.980438 51.457825 47.260689
38.776394 54.007648 47.175701
39.076561 52.405361 47.265007
39.151493 52.461601 47.258469
39.026432 52.605312 47.29192
39.00642 52.69928 47.269234
38.897621 52.354843 47.299915
39.374638 51.159843 47.151501
39.06963 51.289661 47.21777
39.074036 51.37085 47.227226
39.068432 51.891281 47.255833
39.009277 52.081974 47.268799
39.333763 51.677486 47.214989
39.167286 51.651413 47.233437
38.867123 51.6675 47.288441
38.989918 51.972767 47.272835
39.066711 51.977161 47.273884
39.056339 52.064999 47.275448
39.293644 51.882744 47.203602
38.882 51.987011 47.284645
39.060417 51.768349 47.248291
38.780807 51.670666 47.295834
38.675804 51.464962 47.314861
38.883785 51.442127 47.271103
38.976616 51.012577 47.250893
38.98053 51.055408 47.227997
39.176781 51.430256 47.210339
38.800827 51.335278 47.27026
38.780289 51.451878 47.285484
39.234138 51.262806 47.174175
39.2201 51.301071 47.171478
38.966072 51.351154 47.252228
38.968658 51.273697 47.224247
39.065063 51.068077 47.217995
35.9772 53.173546 47.665138
39.258835 50.932999 47.182026
39.021698 50.982819 47.212135
39.057411 50.913315 47.208981
37.339176 53.606953 47.49189
38.05653 56.056351 47.582302
36.468769 53.401691 47.770763
35.486176 53.517704 48.058853
39.054783 53.00705 47.285545
37.006836 53.2901 47.487392
37.902473 53.36055 47.272572
36.196217 53.546661 47.659153
38.63158 54.452042 47.286461
35.873672 53.479881 47.713211
38.975533 53.325016 47.318665
36.398449 53.385647 47.627903
36.144985 53.506248 47.66515
38.764153 55.988335 47.358315
35.500427 53.006042 47.944969
35.292587 52.993206 47.971664
38.465511 56.435795 47.281666
36.776825 53.374451 47.686016
35.696625 53.028996 47.891693
36.242649 53.010754 47.766003
36.473125 53.31184 47.68232
38.285713 55.506695 47.50885
38.366657 58.64637 47.357079
36.934078 53.575966 47.512264
36.47765 53.561489 47.613827
36.673149 53.570919 47.559048
37.584846 56.365322 47.555969
36.301746 53.177097 47.582466
36.771011 53.186531 47.464584
36.980694 53.190838 47.446938
36.262787 53.561653 47.663265
35.966476 53.371773 47.741364
36.574173 53.57 47.592236
36.456047 53.220413 47.575264
38.383499 58.888607 47.539738
38.365776 56.869873 47.289143
38.460915 56.058552 47.496532
38.874973 56.184074 47.365177
38.845432 57.910828 47.457653
38.295998 58.591446 47.318943
38.482178 58.690647 47.521881
38.2187 58.690525 47.346649
38.583046 58.38496 47.485802
38.527042 56.624695 47.387817
38.75597 55.406544 47.365185
38.747475 57.632389 47.465275
38.961491 57.868977 47.485256
38.760551 56.568924 47.4412
38.277809 58.690655 47.551273
38.290367 56.953884 47.305328
36.368359 53.558975 47.633549
38.884666 55.746758 47.358891
38.833584 56.430527 47.403404
38.840054 58.228043 47.486698
37.584442 53.461998 47.528992
38.481316 57.860371 47.484413
38.372478 56.34964 47.279331
38.274109 55.654396 47.237122
38.867153 55.322803 47.346172
38.578655 56.01413 47.451397
38.734425 56.056702 47.434746
38.586014 56.56086 47.466164
38.777431 58.867508 47.497807
38.686199 53.523518 47.32967
38.672447 55.965611 47.421375
38.674213 56.245567 47.437267
38.663227 57.082363 47.468506
38.28162 52.153812 47.329876
38.28096 52.368729 47.103535
38.776062 53.458282 47.290695
38.381702 58.669643 47.579063
38.083916 56.384033 47.364666
38.778984 52.719948 47.279797
38.073147 53.454563 47.44088
38.839088 57.339317 47.42918
38.278553 52.644428 47.116013
38.25774 54.005032 47.172703
38.288582 57.40852 47.305187
38.591827 57.068241 47.478226
38.270592 56.90102 47.296566
38.777191 52.098721 47.284229
38.493675 58.665462 47.551075
38.646194 51.181274 47.214371
38.57795 55.192818 47.416344
38.29306 55.704491 47.510784
38.423023 58.214119 47.565613
38.297432 58.463448 47.599152
38.558727 52.701107 47.333176
38.598137 53.014297 47.329643
38.748848 54.684784 47.407719
38.767166 54.803329 47.337555
38.465347 55.209999 47.446075
38.563335 57.386257 47.506134
38.674599 57.612514 47.481483
38.279285 52.123379 47.104942
38.56834 51.194759 47.243923
38.672668 52.190544 47.292072
38.714207 54.969288 47.406811
38.573914 55.730461 47.436985
38.377766 56.557945 47.510727
38.67728 58.136204 47.488487
38.778465 58.352444 47.464848
38.190449 55.523643 47.257931
38.571293 58.700008 47.504032
38.394695 57.865204 47.496147
37.996136 53.22105 47.218456
38.380077 58.69606 47.540741
38.449825 56.381016 47.284325
38.906456 58.837154 47.469044
38.865177 58.668369 47.47073
38.38868 58.875774 47.574516
38.756672 57.534683 47.451385
38.752636 58.262707 47.472832
38.590897 57.87817 47.472397
38.184101 55.140858 47.437981
38.381512 57.626431 47.553173
38.510185 57.398544 47.517757
38.159538 57.362846 47.614616
38.658985 55.737576 47.418381
38.568928 55.43161 47.41967
38.686161 54.893803 47.371441
38.180676 57.319714 47.578167
38.657055 56.471436 47.430393
38.525829 51.649181 47.298183
38.51609 51.373447 47.287495
38.461662 51.056522 47.279675
38.558773 51.363667 47.274937
37.546848 56.475941 47.667694
38.574913 56.293972 47.42403
38.747116 54.409348 47.341412
38.377369 58.481262 47.547562
38.568279 58.48016 47.511875
38.571159 56.263573 47.455662
38.667053 58.403214 47.474236
38.384769 57.949276 47.524982
38.771233 58.6689 47.487392
38.179882 57.198597 47.327801
38.664574 59.003792 47.512306
38.474255 51.086342 47.246319
38.197575 57.618996 47.587215
38.478424 51.184235 47.260048
38.17952 51.17186 47.312275
38.375175 51.085781 47.267586
38.292007 51.096882 47.281395
38.79179 57.30146 47.448318
38.766533 51.474205 47.217094
38.573383 57.641216 47.475948
38.473091 55.159184 47.397617
38.200752 53.802635 47.395107
38.380428 51.176907 47.274296
38.393005 57.30991 47.527683
38.283733 57.085136 47.554462
38.47514 51.281151 47.275677
38.6744 58.670193 47.512024
38.491222 56.542194 47.483158
38.29018 53.525303 47.41748
38.387836 51.638596 47.331436
38.408867 51.356789 47.307789
38.274006 51.340343 47.357201
38.481426 57.651058 47.494457
38.675301 57.642982 47.450588
38.769085 56.282497 47.383675
38.769409 56.259235 47.413319
38.584312 59.003983 47.519958
38.475544 57.606998 47.520885
37.672222 53.553127 47.508469
38.480495 58.357685 47.537231
38.48431 51.576515 47.282665
38.288151 51.26667 47.309074
38.638912 55.904091 47.371613
38.57896 58.874779 47.532547
38.47961 55.76844 47.428047
38.194191 53.505817 47.403767
37.466217 53.122742 47.527637
38.677555 56.569149 47.452843
38.57806 56.36084 47.495625
38.380123 56.25106 47.504177
38.378353 54.97797 47.474312
38.209869 54.902744 47.511353
38.573051 54.074398 47.371311
38.577385 53.540375 47.353882
38.56673 53.464897 47.335388
38.485294 52.712673 47.335957
38.675766 52.114506 47.272469
38.392082 51.580715 47.308422
38.568298 51.489544 47.259174
38.759277 58.031853 47.463112
38.185902 52.121021 47.12495
38.577278 57.212852 47.468597
38.179684 55.337799 47.476589
37.782391 53.486488 47.472477
38.065544 56.874107 47.33765
38.18148 54.399689 47.432518
38.185104 54.098728 47.414467
38.195965 51.766727 47.341228
38.581284 58.611713 47.457733
38.384686 57.52644 47.531616
38.214741 56.018375 47.545902
38.492725 55.718483 47.455723
38.28096 54.877495 47.465412
38.746086 57.63586 47.439716
38.280968 57.642647 47.535
38.661648 57.523952 47.461414
38.294033 57.314537 47.55497
38.766624 56.086861 47.387886
38.666039 55.995651 47.388382
38.382824 54.932545 47.4114
38.663662 57.873745 47.452103
38.198807 57.856155 47.560421
38.67519 56.386002 47.413948
38.481926 54.818466 47.405113
37.26878 53.492638 47.576523
38.491127 56.477375 47.471249
38.66959 56.277596 47.399025
38.712017 54.029163 47.262146
37.168617 53.485699 47.609684
38.188335 53.454803 47.167664
38.680847 58.047695 47.475391
38.285671 56.465931 47.51458
38.486473 55.033386 47.403309
38.286407 54.938286 47.435131
38.681068 53.986176 47.324112
38.218914 52.517315 47.359558
38.57127 52.103367 47.286671
38.773327 58.46286 47.470345
38.199844 56.880428 47.312283
38.384258 54.324821 47.36797
38.661903 54.320709 47.324203
38.579144 56.519493 47.419964
38.479218 55.241302 47.414211
38.067863 53.494995 47.415047
38.177948 51.838036 47.324944
38.50251 55.500561 47.454525
38.280308 55.410263 47.49004
38.098606 55.332973 47.535374
38.568443 52.62439 47.298645
38.060673 56.488098 47.559532
38.557236 58.754829 47.58947
38.095974 56.267345 47.574776
38.288845 55.334637 47.466835
38.57254 55.026993 47.389332
38.182198 54.971249 47.516911
38.486984 53.531666 47.366276
38.491577 57.08149 47.500546
38.03315 54.164791 47.231598
38.680813 52.017624 47.241707
38.572186 55.338306 47.40295
38.277771 54.026474 47.37027
37.571411 53.579784 47.543064
38.373829 57.075996 47.536987
38.476791 55.423744 47.44677
38.474041 55.339775 47.421452
38.574638 55.240971 47.391655
38.484749 54.896793 47.420422
38.681747 54.080528 47.354786
38.394947 52.702385 47.364082
38.379429 53.15731 47.359722
38.776627 56.379082 47.396286
38.763775 54.722836 47.335438
38.56427 53.682327 47.336857
37.68502 53.451096 47.529499
36.660923 53.610737 47.581387
38.571503 57.527756 47.48534
38.662613 55.327744 47.384575
37.786869 56.388966 47.434902
38.825935 58.733498 47.549282
38.381283 57.64222 47.506977
38.767704 55.156879 47.324436
38.686642 55.148849 47.343807
38.380943 55.153538 47.413631
38.38216 52.633148 47.339863
38.477226 52.323246 47.300896
38.264473 56.38604 47.288486
38.482002 52.228069 47.29417
38.666012 55.768097 47.384441
36.857975 53.636494 47.544899
38.379059 54.415005 47.391338
38.286121 52.957699 47.116329
36.768524 53.58308 47.555805
38.291214 57.613121 47.564045
38.246071 57.381237 47.601433
38.675911 57.30497 47.460011
38.39093 55.064987 47.373966
38.472305 56.291943 47.447487
38.090141 56.306469 47.528015
38.753433 54.004719 47.26366
38.384872 52.228806 47.304058
38.077557 54.135365 47.326073
38.400581 56.459675 47.296509
38.74818 57.860455 47.402832
38.466953 57.714027 47.427692
38.570953 55.764305 47.405895
38.477081 55.592144 47.383884
38.279613 55.464596 47.450699
36.890614 53.577118 47.523071
37.875507 53.487957 47.448662
38.761391 54.13995 47.356171
38.407032 54.083706 47.42445
38.75798 57.442524 47.445179
38.386177 55.242512 47.426399
38.065166 53.073143 47.214848
38.480865 53.884411 47.357845
38.374313 53.793049 47.361256
38.582989 53.797733 47.322689
38.681221 53.489624 47.277615
38.280384 53.156879 47.371311
38.56741 52.536076 47.287388
38.651291 52.533577 47.269878
38.568909 52.40332 47.302605
38.780521 52.612446 47.273602
38.48159 54.324928 47.354599
38.483841 53.461441 47.356453
38.279419 55.356628 47.422035
38.660664 55.250027 47.366962
38.190434 55.231216 47.460876
38.191189 55.030685 47.457283
37.368931 53.410244 47.543747
38.566753 55.155022 47.371826
38.778114 53.578903 47.260815
38.125946 57.656315 47.422619
37.502468 56.573925 47.677185
38.132294 57.690105 47.662914
38.666294 55.425583 47.407887
38.411949 55.203007 47.468876
38.385643 55.121521 47.44458
38.695587 56.030907 47.441227
38.289787 56.037285 47.539677
38.567127 52.32019 47.281239
38.272923 52.236271 47.335316
38.096512 52.914177 47.165676
38.20216 52.942619 47.130665
38.558937 51.282581 47.268353
37.986927 56.39003 47.379704
38.386982 55.767826 47.445461
38.801373 55.747635 47.397602
38.636723 52.058178 47.35408
38.806057 56.992489 47.501705
38.775673 53.146385 47.282757
38.285732 52.616226 47.359383
38.657616 52.637676 47.285282
38.480518 52.524387 47.310764
38.576084 56.477726 47.456482
38.173565 56.476128 47.555149
38.378944 55.462681 47.433388
38.690784 53.703674 47.261436
38.224899 57.155777 47.612011
38.778847 55.9482 47.403286
38.766323 55.768021 47.365574
38.679825 53.464729 47.31155
38.677101 55.023701 47.367546
38.57169 54.895779 47.401112
37.85899 53.472355 47.49831
38.471855 55.692348 47.144974
38.191574 55.139378 47.485451
38.671124 54.81654 47.361156
38.774601 54.599815 47.352577
38.780285 54.2925 47.335602
38.378502 57.684502 47.578194
38.855656 57.460587 47.494816
38.380085 54.895977 47.452545
38.865543 54.85989 47.381813
38.57077 54.81221 47.387363
38.678577 54.290985 47.351257
38.836124 54.644951 47.377697
38.77433 54.055996 47.342037
38.381317 55.425232 47.465607
38.778584 55.350105 47.356392
38.290829 55.24165 47.445503
38.485191 52.627773 47.31739
38.480392 54.288185 47.387211
38.191216 54.736172 47.447918
38.669422 54.717243 47.344505
38.5686 54.595604 47.39006
37.679482 56.391808 47.453575
36.17889 53.37392 47.67754
38.285049 53.886421 47.383915
38.381813 54.196068 47.394241
38.28656 53.806644 47.374836
38.293728 56.250626 47.526627
38.39225 53.458691 47.372524
38.577335 53.154354 47.316559
38.371998 55.330933 47.448997
38.774223 55.229168 47.346268
38.283508 55.158974 47.430683
36.759121 53.62907 47.564766
38.392857 53.000942 47.378429
38.755959 54.09943 47.298958
38.578434 53.97847 47.356678
38.676449 55.218449 47.408981
38.331554 55.693859 47.26535
38.355854 56.036072 47.520741
38.864403 55.858292 47.428535
38.271313 58.31517 47.369366
38.575592 54.294655 47.371658
38.85598 54.599129 47.363983
38.743458 51.455185 47.079132
38.356129 57.145432 47.578846
38.178062 57.011654 47.557064
38.025185 54.01498 47.282066
38.758072 54.931564 47.327271
38.873558 55.843403 47.373917
38.829895 53.565437 47.235992
37.990845 52.342037 47.312935
38.573742 55.118969 47.401768
35.078583 53.210052 47.895214
38.772839 51.868587 47.33041
38.198841 56.688789 47.540241
38.5158 54.368015 47.398533
38.280506 52.451962 47.333691
38.014515 53.607883 47.276733
38.770012 58.57259 47.473099
38.576672 57.953514 47.494061
38.669014 56.078014 47.405678
38.485058 55.117477 47.418591
38.434563 56.498844 47.243668
38.904278 52.822662 47.193237
38.928352 53.849594 47.342278
38.284042 55.602863 47.427425
38.063026 56.998966 47.594833
38.671925 55.118279 47.387486
38.188229 56.507999 47.29533
38.277008 52.696327 47.2122
38.265648 57.733749 47.555424
37.665577 52.808395 47.395916
38.471684 55.683453 47.409744
38.5676 54.928944 47.382847
39.077076 53.864559 47.3465
38.196392 57.728153 47.545395
39.300838 51.751625 47.219898
38.581673 54.311035 47.116249
38.116566 52.191185 47.421101
38.26894 54.864487 47.296108
38.682331 51.537125 47.195072
38.978962 51.749989 47.273277
37.080917 53.229145 47.624088
37.833061 56.929386 47.478645
35.474537 53.340431 47.913967
38.578457 58.177597 47.489582
38.665474 56.517048 47.394707
38.172066 54.167469 47.508354
38.283558 56.915596 47.519142
38.388351 56.484318 47.254124
38.778275 58.398628 47.441761
38.759911 51.236546 47.289993
38.095352 55.630978 47.319118
38.576481 58.136055 47.516483
38.325623 51.024559 47.298862
38.491631 56.519119 47.427322
38.139053 52.949257 47.517933
37.268627 53.573265 47.604847
38.2812 56.165558 47.296555
38.278919 57.203018 47.30862
38.271049 56.783092 47.542736
38.495716 51.528358 47.203197
38.15221 51.823071 47.117428
38.75996 51.69088 47.181271
38.863541 52.274742 47.295727
38.163177 54.670387 47.321201
38.20134 58.602444 47.577286
38.762604 57.945896 47.453171
37.173706 53.444412 47.646717
38.381275 55.677452 47.423679
38.294025 55.681881 47.445995
38.283974 58.377911 47.542255
37.984512 51.794456 47.114265
38.340336 56.528553 47.375385
38.266415 56.19656 47.239372
38.606056 55.360565 47.204189
36.177567 53.494366 47.81918
36.985046 53.41222 47.594597
38.570919 55.954121 47.440914
38.098454 51.489521 47.347454
38.840946 58.462498 47.456055
35.271301 53.134335 47.885414
38.152252 54.332142 47.415104
38.00906 51.091854 47.072079
39.07568 52.485249 47.261909
37.49147 53.188267 47.307968
36.389046 53.182247 47.577335
38.557781 55.310062 47.328259
38.527969 52.105877 47.009335
38.27869 53.879993 47.176903
38.087669 55.944054 47.55183
38.176807 57.944443 47.341003
38.856487 52.026386 47.001163
38.274971 58.654137 47.600033
38.981541 54.261074 47.368313
36.186543 53.156338 47.844868
38.287354 58.080776 47.533375
38.061813 55.091347 47.323792
38.574722 53.434757 47.173756
38.484196 58.395645 47.509975
38.188549 52.202728 47.14444
37.997089 52.235458 47.219589
38.383434 52.701714 47.18409
37.484402 52.925606 47.411358
38.279606 52.794868 47.228584
38.502056 57.67477 47.53484
38.099022 57.609257 47.630043
37.889641 52.806305 47.369728
37.491196 53.47271 47.436539
38.275787 58.135998 47.588013
38.272396 50.995789 47.049232
37.266926 53.173519 47.368343
37.87394 53.207916 47.330421
38.097496 53.497566 47.156975
38.896038 52.726181 47.284843
35.784336 53.43914 47.805271
37.867367 51.914772 47.224583
36.076565 53.197365 47.721313
35.280159 53.405762 47.987164
38.074722 56.507698 47.490894
36.035774 53.142651 47.928524
38.392632 54.713177 47.404079
36.081707 53.495464 47.844063
35.574989 53.410385 47.919842
38.197273 55.652374 47.238506
38.661633 51.748173 47.315857
38.730816 56.53035 47.404247
35.174332 53.400696 48.012032
38.203671 55.652802 47.5065
37.875328 56.506283 47.533344
38.296623 55.772102 47.46664
36.583691 53.206661 47.608528
38.375904 51.622765 47.096375
38.19072 51.578644 47.100311
38.571934 55.906445 47.359131
35.694351 53.575172 47.889469
38.61908 53.328636 47.350479
36.965763 53.461472 47.551483
38.89994 52.159 47.291115
38.489513 58.043606 47.517494
38.580002 57.608028 47.497608
37.454273 53.28714 47.455513
38.27713 54.387745 47.1227
37.290882 53.165699 47.604733
37.734077 53.433937 47.337795
38.917801 57.401478 47.434986
37.882214 51.174305 47.235477
36.99559 53.142948 47.656654
36.579254 53.154602 47.763977
38.183197 52.800873 47.244976
36.031788 53.142872 47.647278
35.183254 53.125206 47.906647
37.729317 53.690205 47.444565
36.375561 53.482838 47.774204
38.386215 51.305668 47.268852
36.080521 53.438679 47.742886
38.438961 58.211414 47.566849
38.966526 54.314526 47.372795
37.565735 56.400074 47.481709
35.773918 53.414871 47.882442
35.090725 53.509598 47.903027
38.95573 52.191914 47.282803
38.83654 58.239151 47.446465
38.263954 56.522659 47.378677
37.384438 53.592339 47.580105
37.884377 53.58828 47.453773
38.286152 58.568466 47.581528
38.485519 56.250023 47.473927
38.931179 56.297657 47.412891
38.473549 58.265247 47.523632
38.566261 54.097607 47.342422
38.389183 58.262699 47.540543
37.772087 53.074066 47.449261
38.58046 58.263916 47.507866
38.209717 55.665222 47.461456
38.064125 57.81308 47.423782
37.160671 53.138378 47.618683
38.08588 56.091911 47.460293
38.007763 56.126652 47.475048
38.095245 55.806583 47.506081
38.282204 53.77409 47.417862
38.195877 55.778259 47.47625
38.173824 50.905956 47.180054
37.456047 53.485603 47.54924
37.905239 52.650505 47.40435
38.103771 55.374561 47.445
37.891884 53.079308 47.429211
38.701454 55.844318 47.28952
37.906883 51.242672 47.354176
38.856014 56.249348 47.406818
38.78001 56.461655 47.41354
37.927025 51.309368 47.333881
38.379578 53.690487 47.313457
38.100132 58.593273 47.631729
38.003967 55.467808 47.466724
38.071697 55.529835 47.526932
38.198826 58.151772 47.608562
38.475491 58.134911 47.532928
38.17902 58.651947 47.616364
38.38591 56.994305 47.513203
38.294617 55.547367 47.459538
38.140385 52.363075 47.123093
38.46727 53.878578 47.163609
38.386127 58.124393 47.557816
38.568745 53.762848 47.351376
37.793758 53.672348 47.511658
35.67767 53.496517 47.935829
38.486977 58.574715 47.534733
39.099915 52.684132 47.320026
35.385822 53.006275 47.991985
38.36377 57.279938 47.27224
35.075256 53.415874 48.025925
38.188175 57.115704 47.325714
37.886776 55.094318 47.373508
37.978622 53.592098 47.436661
38.008404 56.183144 47.558094
38.460983 55.613625 47.241219
38.492668 53.243038 47.210659
38.872303 52.747128 46.981815
37.879002 53.06675 47.280651
38.665844 58.359314 47.498199
38.382622 58.043938 47.541939
37.379734 53.211323 47.434017
38.752434 52.433842 47.203274
38.572163 52.446316 47.275673
38.283882 51.475285 47.131668
38.333847 53.994904 47.159519
36.269497 53.322639 47.728352
38.376785 52.443199 47.313595
38.853477 51.756481 47.30484
38.666527 57.962303 47.469402
37.831001 52.265064 47.180038
39.156719 51.74905 47.245815
37.886505 51.56311 47.272301
38.283699 52.744358 47.15855
39.356758 51.798756 47.217625
38.163254 58.120827 47.47393
36.676075 53.072296 47.534458
38.784096 52.974056 47.230907
38.669655 57.917198 47.495796
38.17057 52.979691 47.354828
38.289326 52.966824 47.347458
38.774525 52.865204 47.253834
37.86068 55.422501 47.350689
35.585773 53.140793 47.815582
37.675129 56.50565 47.582661
38.1898 57.641563 47.548359
38.668594 56.688553 47.442043
38.97298 56.652302 47.421318
38.369724 52.097279 47.329243
37.831463 51.615379 47.423958
35.681427 53.525757 47.83548
38.677166 52.911709 47.116486
38.078255 52.869968 47.308804
37.718971 52.949966 47.312298
38.46114 51.076775 47.053272
37.991688 52.871784 47.353897
37.495987 53.562222 47.550652
37.987602 52.798946 47.305565
35.473122 53.436729 47.868431
38.569313 51.087727 47.028187
38.771801 50.986061 47.125027
38.807938 56.898674 47.45435
37.363071 53.217598 47.351562
35.274799 53.096474 47.958412
36.707726 53.221981 47.518307
38.881138 51.79887 47.266293
38.668961 58.701267 47.488159
38.177437 58.695992 47.589443
37.269966 53.071255 47.39397
38.18129 53.915958 47.311695
37.545013 53.278217 47.501537
38.275425 56.29211 47.489975
38.171623 56.309101 47.513561
34.694138 53.444618 48.034687
38.076717 53.187756 47.351288
38.57774 55.669991 47.382549
38.068005 53.587215 47.421772
38.110062 56.320187 47.588444
34.805012 53.511116 48.020863
36.60984 53.179043 47.527847
38.766548 51.042625 47.012672
38.681301 52.44664 47.242931
38.101002 54.286514 47.292622
38.480598 52.440197 47.293415
35.380829 53.513855 47.903702
35.678436 53.439178 47.824017
38.28809 57.217506 47.529854
35.298367 53.147293 47.814754
36.468391 53.166348 47.549587
34.77615 53.455284 48.026012
38.116806 55.048866 47.461086
38.158878 57.494293 47.349812
37.975117 53.02499 47.291431
38.190067 56.171196 47.510468
37.617477 56.542793 47.735188
36.374645 53.564106 47.794064
38.048157 55.908577 47.272858
38.147053 52.257111 47.438816
38.439201 58.159752 47.30098
37.880676 51.951488 47.277721
38.873966 53.767143 47.340107
38.67075 52.362694 47.212612
37.478184 53.037643 47.41666
38.574982 54.353985 47.211151
35.702221 53.530197 48.003906
38.579704 52.300594 47.097919
38.294479 57.83136 47.577614
38.485035 57.83424 47.51992
38.286995 51.994816 47.146523
38.272255 55.536999 47.238678
38.939423 51.988422 46.954964
38.87077 54.288815 47.369923
38.180939 58.028149 47.663864
38.480839 53.364948 47.171364
38.281746 52.181572 47.190624
39.314095 51.863533 47.216469
38.693245 57.998035 47.524982
38.674736 55.451721 47.364414
38.663891 52.267174 47.129436
38.912708 51.831089 46.905537
38.996433 53.179893 47.306614
38.943871 53.953598 47.364956
37.576382 53.214748 47.390972
38.63118 53.928478 47.39896
39.059582 53.92207 47.333874
38.466736 57.903763 47.277687
38.280846 53.752045 47.239025
39.307819 51.645058 47.222412
35.977898 53.608234 47.778137
38.60117 51.006618 47.162785
38.782661 52.178329 47.065674
38.397396 54.97863 47.293682
36.777435 53.089745 47.616272
38.40015 54.67477 47.45211
38.47678 51.774841 47.102676
36.179001 53.070477 47.828663
34.787983 53.075645 48.15263
38.784729 53.558891 47.352074
38.176838 52.120647 47.373859
38.007591 52.606674 47.26487
35.879612 53.085201 47.831848
38.085033 51.571548 47.340034
37.956367 53.154549 47.441647
35.66494 53.366093 47.820766
38.471626 52.106297 47.304623
38.086678 55.962746 47.490311
37.778091 53.213444 47.351215
38.630264 51.236004 47.25906
38.350304 56.888195 47.354477
38.084637 54.450687 47.402122
38.67202 54.940659 47.349552
38.765949 55.100163 47.340672
38.5695 59.07494 47.601967
39.053661 54.356457 47.341503
39.054173 51.538425 47.269154
38.471996 52.175858 47.149792
38.751316 52.730034 47.237957
37.986992 51.386204 47.181084
38.844284 55.450817 47.344414
36.178459 53.083199 47.759224
38.259922 55.69215 47.352108
38.179337 52.581116 47.269005
38.383904 56.068119 47.467094
39.149902 51.572216 47.248028
38.861164 58.440132 47.479408
35.975903 53.130188 47.889904
35.975834 53.498058 47.866852
38.070175 58.466774 47.469467
38.453381 57.408047 47.277058
38.104828 57.44083 47.51088
37.966095 53.07716 47.412392
38.096287 56.611908 47.447742
35.478409 53.520546 47.883556
38.381134 50.834713 47.115211
38.275185 56.073372 47.494999
38.162975 51.755955 47.098465
38.371864 53.894333 47.172504
38.224186 51.322819 47.373573
38.178898 58.185467 47.561516
38.275932 58.47303 47.342964
38.082531 54.010929 47.224186
37.715721 53.71793 47.464245
38.238811 57.390285 47.377632
38.201138 57.362949 47.432255
38.486618 54.936977 47.392857
38.146027 57.898201 47.645538
38.281944 57.128258 47.523209
38.480774 51.797634 47.281384
35.300934 53.465729 48.066689
38.832962 52.176811 47.059521
38.672668 55.650818 47.402378
39.116627 52.37162 47.252346
38.581718 57.000488 47.468388
36.981419 53.069885 47.463852
37.789448 56.39484 47.59296
37.489223 53.27211 47.503639
38.274826 57.963074 47.543129
38.801456 54.350178 47.312012
39.066284 52.592552 47.287601
38.278473 54.954853 47.364491
38.572578 55.647591 47.423145
38.115894 54.786594 47.495594
38.080235 50.862457 47.30064
37.78067 53.808769 47.450943
38.752872 51.614681 47.199158
36.976257 53.201527 47.525043
38.242622 54.669304 47.509239
38.276184 52.439758 47.123325
38.399723 58.78801 47.559189
38.484268 56.802151 47.251961
38.366638 53.256092 47.119568
38.449802 56.283394 47.302479
38.560635 55.370743 47.355587
38.304462 58.87339 47.602467
38.266991 55.935616 47.319084
38.474773 56.203098 47.414967
38.276756 58.383274 47.328575
38.773174 55.386181 47.339775
34.863529 53.169537 47.923695
35.185234 53.331665 47.976032
39.17498 51.844193 47.255249
38.382843 57.735893 47.52673
35.06839 53.330872 48.010479
38.742752 52.912472 47.216991
38.291073 53.671299 47.38372
38.756317 52.667591 47.231812
38.568539 52.752472 47.287979
37.285793 53.229767 47.371899
38.076008 55.929131 47.355907
38.167946 56.18734 47.502331
38.478455 52.753948 47.308895
37.981663 52.081379 47.242809
38.290272 52.750828 47.345604
36.301422 53.244316 47.604458
38.846603 58.347614 47.459221
35.465031 53.548161 47.986546
38.683693 52.757202 47.256306
36.592163 53.226093 47.522686
38.068577 53.680157 47.462292
38.667068 57.701347 47.5112
34.783077 53.100685 48.078346
38.672424 52.332443 47.269482
37.778378 56.502789 47.559063
36.473476 53.199787 47.628674
38.192337 53.26202 47.369492
38.168648 52.409286 47.412209
38.570385 57.832512 47.500195
38.560303 57.908176 47.515373
34.472561 53.466007 48.179653
38.283913 56.603413 47.298847
38.087189 52.697182 47.26318
38.283306 57.286106 47.340389
38.002342 56.525856 47.366203
38.180653 52.187798 47.209946
38.730015 53.462669 47.114552
35.897259 53.139126 47.909161
35.272003 53.490505 48.030136
38.284389 53.446472 47.221912
34.58007 53.466526 48.160553
38.205563 56.33263 47.591694
38.507385 51.606487 47.061783
35.673824 53.331093 47.853481
37.994556 51.878658 47.240353
38.556885 51.798344 47.271408
37.890934 51.849121 47.278328
38.159691 56.507584 47.479919
38.385235 58.612579 47.52636
37.986599 53.449692 47.447338
36.776417 53.184242 47.636898
38.260353 57.752636 47.290447
35.898155 53.181877 47.690498
38.970081 51.234009 47.261684
37.44347 53.437889 47.532509
38.473576 58.435272 47.552681
38.672741 52.959225 47.253033
34.868504 53.148159 48.139194
38.873356 53.528801 47.344315
37.7841 53.137104 47.31102
38.569168 51.779774 47.082626
38.271309 56.978657 47.544365
38.38084 53.827415 47.407906
34.688232 53.379349 48.028854
38.685921 51.297878 47.18541
35.080673 53.481838 48.063747
38.74173 58.702991 47.467899
37.081036 53.18993 47.567196
38.173538 52.693111 47.236534
38.740265 53.00491 47.323578
38.666897 54.597832 47.364136
38.894733 51.388172 47.187492
38.284088 56.306786 47.57193
38.804581 58.470749 47.487373
38.048275 53.842712 47.386299
38.747391 55.901127 47.348614
38.577164 57.735462 47.486542
38.287773 58.783039 47.577454
37.890396 53.542892 47.574356
39.20562 52.690483 47.271461
38.657688 52.706238 47.2985
38.291397 56.720528 47.264885
38.962906 56.325386 47.380482
38.478596 55.647392 47.437904
38.89262 52.684109 47.197624
38.370449 52.044075 47.203518
37.464882 53.414116 47.552208
37.373257 53.181389 47.342888
38.459915 57.900005 47.545311
38.385601 57.833332 47.544632
38.710846 51.055565 47.239784
38.559391 52.874763 47.231163
37.570454 53.185307 47.307613
39.007423 54.455284 47.370079
38.779644 53.744362 47.397877
38.064293 56.825359 47.468746
35.050953 53.121891 48.103016
38.780891 57.746162 47.457367
38.866455 57.750378 47.434826
38.674702 57.739075 47.465965
38.289333 50.907677 47.162682
38.306747 57.92112 47.58947
38.862183 54.216404 47.291615
38.069225 52.256943 47.261024
38.347095 58.38699 47.333675
39.142628 51.057064 47.172127
35.171017 53.20137 47.929512
38.182312 58.475658 47.591118
38.073345 55.829899 47.553432
38.015553 56.026592 47.320625
38.565727 55.551765 47.409218
38.669884 52.636955 47.239544
38.081329 53.58643 47.193478
38.479591 55.947117 47.457447
38.068001 52.951172 47.475609
38.274799 52.043003 47.088829
38.098923 52.621128 47.243179
38.280418 52.085785 47.174
37.888699 52.171455 47.291649
38.477501 57.310169 47.505505
38.278496 54.294216 47.181702
38.771027 51.311234 47.176796
38.80711 53.116524 47.351238
35.383144 53.244865 47.840843
38.898148 53.695065 47.352924
38.573349 55.052902 47.325275
38.777016 57.674965 47.495026
38.960361 53.083019 47.321159
37.719967 53.84449 47.294254
38.552719 57.688301 47.527149
38.663681 53.853558 47.184025
38.582123 58.923363 47.492069
36.883148 53.487057 47.661198
37.846149 53.214523 47.247135
38.185043 55.874912 47.500019
38.263565 58.256756 47.573692
38.283546 52.398121 47.370667
38.182831 55.961926 47.521145
38.6656 52.946903 47.298557
38.567295 54.660202 47.422562
38.353104 57.492245 47.468075
38.44878 53.756874 47.201153
36.984596 53.070328 47.633724
37.963337 51.783348 47.416378
38.86998 55.121117 47.341465
37.992752 52.511772 47.234032
38.277946 58.241806 47.337795
35.675793 53.097542 47.872887
38.354591 57.375065 47.545975
38.375595 51.873562 47.148483
38.968639 51.542297 47.259464
34.879948 53.177246 48.075794
38.569817 55.461288 47.389778
35.758564 53.447609 47.970081
38.669567 53.869267 47.406906
38.36842 57.425396 47.303383
38.191402 57.834904 47.60146
38.204762 55.953224 47.335613
38.401829 57.899712 47.566078
36.275444 53.087643 47.737576
38.168636 52.774551 47.365582
38.741207 57.006989 47.391262
37.887428 56.369053 47.478085
39.062672 51.135891 47.215099
34.669212 53.467659 48.160988
38.272991 55.858837 47.484467
38.573292 55.864506 47.423939
38.296162 56.855892 47.553982
38.08202 52.113377 47.320015
37.993561 52.69825 47.282524
36.279324 53.439236 47.696697
37.581974 56.65662 47.568138
38.367714 56.336674 47.367653
38.694607 53.192623 47.240688
35.276157 53.35107 47.885696
38.10223 52.747627 47.359741
38.384563 56.433388 47.412903
38.891579 54.323631 47.269405
38.081764 53.94717 47.362686
38.863358 53.909897 47.379372
38.048649 58.208187 47.527767
38.758919 53.826721 47.391003
38.477745 52.268536 47.163048
35.181278 53.35743 47.907547
38.66679 57.829525 47.487598
35.080963 53.384857 47.936134
37.94944 53.876751 47.559307
38.671585 58.885582 47.51408
38.337265 56.312206 47.547314
38.573372 52.09013 47.097458
38.577568 56.43861 47.385094
38.77998 55.44519 47.357391
35.077347 53.447678 47.949627
38.872627 53.849415 47.356022
38.179253 52.594692 47.214554
37.766994 53.818607 47.385082
38.185154 58.880173 47.628441
38.521099 56.332329 47.372917
39.1418 53.004383 47.29248
38.677082 56.596424 47.416721
35.746418 53.363483 47.801773
38.390446 52.327225 47.322399
38.484074 55.860428 47.436771
37.921043 53.715458 47.351395
39.073318 51.239601 47.216324
38.480457 58.883373 47.555569
37.984009 53.409279 47.34885
35.559147 53.02203 47.931034
38.385208 55.731487 47.478298
38.171654 56.427082 47.439377
38.680077 56.445271 47.365883
34.778515 53.380291 47.988979
38.479473 56.430599 47.383247
38.663326 54.094471 47.32032
38.488701 56.59676 47.464836
38.005577 52.824829 47.516609
36.963169 53.599377 47.567234
38.574505 56.596081 47.445415
38.180607 51.867825 47.197468
38.750118 53.510765 47.253273
37.687569 53.248421 47.280731
38.254063 56.436752 47.436211
38.076645 56.24498 47.37595
34.989868 53.439316 47.971771
38.771152 54.371487 47.219383
38.671928 51.499607 47.22683
38.191505 55.544689 47.482201
38.370667 52.261234 47.181023
38.872623 53.637787 47.349972
38.386292 54.62867 47.396191
37.105976 53.464741 47.657513
38.565247 56.845539 47.494362
37.913628 53.367142 47.418957
38.671745 51.59721 47.017929
34.973598 53.156059 48.142422
38.398079 51.044388 47.297436
38.576881 51.691288 47.055538
38.194893 52.669693 47.333187
36.767742 53.06979 47.683701
34.973747 53.399261 48.054108
38.569504 52.939487 47.319218
35.573303 53.443443 47.852058
38.078491 52.234722 47.180889
35.20734 53.006817 48.009109
38.369381 54.292824 47.414715
38.485191 57.740852 47.506371
38.177887 54.660534 47.441105
38.678963 53.962814 47.163162
38.758068 57.900269 47.473106
36.037895 53.540974 47.927464
38.487759 53.268124 47.136391
38.291695 52.662037 47.320641
38.681744 51.992893 47.042667
37.884293 56.424717 47.499119
35.543903 53.364334 47.823124
38.683029 55.669781 47.353748
35.287361 53.426689 47.91103
38.072971 52.788776 47.273407
38.831429 56.943031 47.444199
38.941856 54.391815 47.35421
38.376842 54.278515 47.223301
37.778271 53.5844 47.492519
38.469276 58.620037 47.498203
38.670143 55.552593 47.385273
38.756386 56.601669 47.410652
38.89312 52.781891 47.194744
38.765808 54.20303 47.31929
38.384727 55.862312 47.461796
38.25362 52.837929 47.474129
38.075684 52.00098 47.20055
38.382683 52.741879 47.330093
38.475933 51.689476 47.08633
38.270447 53.348991 47.109802
37.976875 53.789497 47.462799
37.272865 53.081749 47.569408
38.784084 53.758179 47.321846
38.090591 56.363651 47.439934
38.561825 52.667252 47.270359
38.282948 52.611397 47.184086
38.766262 54.403172 47.35778
37.808002 53.343956 47.30891
38.764751 55.542965 47.361385
38.179905 51.693184 47.154221
35.084793 53.032864 47.987961
38.2766 51.605579 47.300915
38.475182 50.820812 47.085411
35.178757 53.427818 47.928822
38.580444 58.433758 47.530689
38.848003 55.639973 47.310074
38.068066 55.705223 47.564342
38.483238 56.10915 47.391918
36.881943 53.077961 47.661407
38.278381 57.839912 47.351189
38.25013 56.516914 47.635426
36.776821 53.440067 47.646057
36.491028 53.456127 47.800293
38.669006 58.448448 47.512417
38.013779 52.130268 47.310081
38.284653 52.930351 47.38406
38.281853 53.709404 47.336296
36.104763 53.382904 47.701851
38.083397 52.674889 47.363682
38.574066 53.588036 47.323135
34.971527 53.473679 48.085361
38.672436 51.979404 47.098751
37.073456 53.219658 47.419823
37.873501 53.139355 47.292946
38.576767 53.193756 47.265602
38.672283 51.144104 47.06065
36.676098 53.068359 47.709084
38.871735 53.959423 47.295746
38.668472 51.702923 47.238777
38.965542 56.145256 47.44265
36.670982 53.432716 47.673618
39.008816 53.965664 47.252781
37.582359 56.393967 47.633564
38.176575 51.718441 47.325626
38.580154 57.118813 47.458416
37.976234 55.787647 47.407143
37.787346 51.709564 47.476238
37.859318 56.413841 47.583633
38.787327 53.634476 47.368904
38.472679 53.453793 47.179623
37.882034 57.07954 47.447906
38.556202 52.052681 47.178593
34.780689 53.158001 48.113346
38.056789 54.262314 47.470585
38.377712 52.670185 47.304794
38.66766 54.188919 47.325508
38.271603 57.936684 47.328621
36.868675 53.431408 47.631981
37.159576 53.582424 47.611053
38.766079 57.848038 47.449207
38.389156 53.534943 47.394531
38.660999 52.225918 47.240101
38.671997 53.519405 47.133434
38.751999 53.519215 47.14933
37.891949 51.708569 47.165749
38.775745 53.888798 47.29924
36.96703 53.471455 47.687737
38.104786 51.720684 47.336651
38.482674 53.497349 47.326199
38.174057 53.903431 47.400879
38.378822 52.141838 47.291603
38.571651 52.705196 47.134777
37.964298 53.404339 47.545376
37.978535 56.428471 47.4804
38.737057 55.698486 47.359428
38.07383 56.428894 47.45805
38.385235 55.554031 47.440655
38.132751 55.149406 47.272038
38.574764 57.302078 47.483257
38.487362 57.004993 47.486523
35.873779 53.437386 47.930416
38.202908 57.133324 47.405205
38.130001 56.123348 47.269299
38.194496 52.046471 47.103073
38.296211 56.114227 47.432022
38.140263 51.294182 47.312958
38.481731 52.13591 47.278347
39.136662 52.319046 47.247353
38.513439 53.834465 47.378506
38.454636 53.299515 47.451656
37.011757 53.651882 47.675579
38.383255 56.47522 47.498058
38.47937 57.950405 47.507973
38.27462 53.007904 47.222256
38.187546 56.911297 47.543705
38.170029 52.056458 47.24509
38.496994 52.315151 47.042358
38.286297 56.769562 47.287624
38.189442 56.804127 47.293556
38.787502 51.308571 47.309055
37.375896 53.494102 47.54636
37.675655 56.631767 47.564419
38.187744 58.776676 47.596855
38.86515 51.852177 47.306583
38.669846 55.373707 47.340797
38.184929 57.964264 47.561317
38.673916 58.168079 47.464058
38.471725 51.138226 47.106552
38.843864 53.679142 47.262981
38.14465 51.058056 47.063942
38.479568 54.238194 47.218578
38.385929 54.764549 47.331913
36.767513 53.119766 47.71479
38.657654 51.776276 47.055412
38.478817 53.796051 47.344864
36.266811 53.119125 47.823986
36.386837 53.15942 47.806416
35.780857 53.165577 47.962509
35.382412 53.142155 48.025826
38.559273 58.213406 47.53455
38.480316 56.907455 47.475544
38.384155 56.506676 47.45525
38.664391 54.375603 47.386936
37.172577 53.094597 47.529793
38.33897 53.820087 47.16151
38.973095 52.27121 47.28775
38.454178 54.211147 47.167095
38.669823 52.138348 47.21941
38.575493 52.968948 47.28775
38.387138 56.904537 47.497684
38.865005 54.467415 47.39616
38.475632 57.977509 47.441154
38.639301 58.832153 47.443264
38.669041 55.863594 47.40271
38.232872 52.586193 47.114395
38.083935 51.5793 47.131428
38.083538 55.281391 47.282661
38.003353 51.363182 47.440342
37.96273 51.422539 47.438732
37.930729 56.585041 47.490746
37.691959 56.366596 47.509113
38.111599 57.325226 47.402596
35.377758 53.444725 48.066387
36.669056 53.131569 47.752338
38.577103 52.356941 47.229393
38.973419 53.538029 47.332439
38.19445 55.670444 47.297432
38.186928 51.958561 47.214828
38.462955 58.931602 47.524818
39.074718 53.698578 47.283661
38.249653 54.080753 47.472195
37.989727 51.795666 47.228596
34.979095 53.028595 47.998043
38.174744 54.287468 47.457561
38.568531 57.431751 47.477097
39.336853 51.386875 47.236774
38.235321 56.37463 47.374859
37.068474 53.439278 47.605515
38.611233 58.83688 47.465355
38.473198 52.662476 47.292999
38.841465 53.432781 47.146782
34.573151 53.370476 48.053829
38.264126 53.843231 47.518253
36.690643 53.166042 47.498215
38.388649 53.985275 47.390541
38.976974 53.022636 47.323586
37.898243 56.847279 47.425377
38.291286 55.96624 47.505642
36.279583 53.180798 47.756756
38.879578 55.559238 47.34446
35.084656 53.193485 47.947552
38.479939 58.977299 47.572311
38.899151 53.072445 47.316917
38.393867 52.432262 47.104065
38.161095 52.656548 47.142303
36.177467 53.42366 47.786625
38.644756 53.013691 47.349945
38.172466 56.3661 47.409046
37.696316 53.412399 47.375614
38.183044 53.589985 47.391647
37.585484 53.066608 47.494205
38.185467 53.718285 47.340054
35.47897 53.140835 47.836391
34.997978 53.376888 47.948231
35.458942 53.363445 47.858688
38.328575 58.796917 47.508907
38.287525 56.866226 47.351902
34.909702 53.367649 47.946808
37.379364 53.069725 47.537086
37.993076 51.252098 47.431568
38.680149 52.037136 47.193794
38.487835 53.012302 47.35284
38.873631 52.912308 47.0401
35.074574 53.176285 48.04414
38.849987 57.953941 47.446289
38.762089 52.701382 47.095947
38.761368 58.181789 47.451725
37.783272 53.236988 47.260799
38.083248 56.189743 47.507065
39.089645 53.23481 47.213566
38.679214 52.223057 47.051579
37.966877 56.407402 47.295036
38.666836 53.746017 47.158154
38.26918 53.214256 47.240219
38.005215 51.689156 47.192818
37.189293 53.275299 47.563732
35.794399 53.346531 47.829243
38.085274 53.685505 47.350647
39.161472 51.234028 47.215931
38.48354 57.339039 47.475208
38.899612 51.200417 47.25843
35.574242 53.091034 47.888248
36.879169 53.187962 47.61348
38.48513 53.980766 47.362247
37.207443 53.661156 47.591408
38.749741 52.008366 47.034992
38.192253 53.966785 47.446644
36.179832 53.041862 47.722355
38.28297 53.980606 47.413254
38.767654 55.662361 47.376091
38.502148 53.518963 47.189255
35.605915 53.521355 48.04496
38.764526 52.006119 47.224098
37.976421 56.241081 47.423706
36.88789 53.158852 47.699226
35.381653 53.088402 47.943409
38.673264 58.785297 47.507751
38.571438 52.226257 47.273911
38.377438 53.20705 47.208355
35.357273 53.332314 47.943909
37.120918 53.371716 47.514774
38.100029 51.37849 47.311905
37.803089 52.100006 47.304295
38.964573 54.554405 47.392174
38.100121 55.667393 47.24641
36.370712 53.299946 47.693748
38.281635 54.108959 47.386814
36.889751 53.232197 47.474186
38.476814 54.027657 47.343121
38.576424 52.140102 47.254669
38.584236 54.016911 47.314045
38.478367 54.108879 47.36338
39.05843 51.852188 47.272469
35.774288 53.088329 47.848598
37.995975 51.414665 47.357014
35.375633 53.488014 47.999973
37.660851 53.045715 47.38942
36.477325 53.137344 47.607868
35.982159 53.545197 47.724464
38.393013 58.420029 47.579147
37.801701 56.814636 47.532734
39.159821 52.182865 47.235619
38.272087 53.587788 47.375053
37.899696 53.96521 47.26244
38.374153 55.384514 47.408096
38.772873 52.242535 47.103333
38.480797 55.375259 47.39275
38.030563 53.287777 47.337051
38.290909 51.39624 47.301044
38.478748 59.010609 47.55378
38.744122 52.380608 47.175213
38.557728 51.400791 47.247837
37.816444 52.831894 47.255245
38.572075 54.631474 47.359543
38.362118 58.166046 47.310417
37.477688 56.453754 47.519871
37.972595 56.326916 47.546658
38.5728 52.013996 47.267197
38.116531 58.272732 47.604214
38.828846 58.795551 47.482166
38.756268 58.774269 47.488548
38.293228 55.902412 47.438461
38.276096 52.108257 47.350498
38.471352 58.272133 47.30051
38.558929 58.289001 47.308575
38.379364 52.350388 47.267235
38.195942 54.518211 47.453087
38.248199 58.616859 47.391991
37.986488 57.259026 47.433086
38.276535 57.094212 47.285751
38.020725 51.769695 47.081585
38.393822 51.889236 47.325085
39.173225 52.123947 47.238071
38.795757 54.535191 47.408813
37.568394 56.522583 47.519421
36.74725 53.213818 47.507301
38.080505 51.560711 47.208038
37.977283 55.453594 47.295399
37.870739 56.522034 47.455902
38.608688 57.349667 47.30032
38.286964 55.479122 47.2127
37.777378 55.410976 47.342228
38.175323 58.534737 47.386871
38.659668 57.017902 47.448364
38.390728 51.404915 47.276966
38.13916 57.282276 47.353054
38.060032 55.445213 47.28299
38.181374 53.229885 47.168922
38.388119 59.00436 47.565418
37.723297 55.454464 47.370724
38.391949 51.28006 47.282963
38.753178 52.051907 47.153915
38.186947 55.451523 47.236786
38.080441 52.516361 47.205288
37.601231 53.214474 47.302242
38.29818 54.299606 47.443298
38.664951 51.866737 47.071777
38.178009 55.460289 47.465282
35.194504 53.064137 48.040512
37.902504 51.0382 47.227077
38.355221 55.59243 47.213367
35.272976 53.330582 47.959949
38.486427 55.463482 47.409828
38.191387 53.334072 47.26017
38.481606 58.782421 47.547817
38.873798 54.355492 47.354549
38.373772 52.823364 47.167149
35.376835 53.426434 47.890354
38.746723 51.531021 46.974537
38.386475 53.264683 47.338512
37.76075 51.591984 47.403275
34.688377 53.186104 48.118599
38.091412 51.105095 47.106678
38.476658 53.582947 47.344284
38.674416 53.578388 47.296101
38.983669 53.844379 47.252335
38.202538 55.897865 47.249054
38.876598 52.924831 47.322632
35.480011 53.489429 47.976765
38.171551 53.445049 47.434994
38.609337 52.352024 47.018127
35.519386 53.538181 47.807083
38.259254 51.748611 47.066605
35.780403 53.193188 47.788284
38.573723 52.213432 47.072277
39.184517 50.940445 47.20871
37.978374 51.140659 47.220806
38.563843 53.04018 47.092953
38.283543 57.852474 47.310673
38.661755 54.548782 47.323326
37.971352 54.393101 47.501896
37.677189 56.551083 47.436783
37.775089 56.457561 47.633224
38.575939 56.776287 47.46822
35.309631 53.514992 47.866398
38.392956 56.782848 47.509563
37.982525 55.21352 47.298687
38.280704 57.023422 47.499378
35.879505 53.059967 47.884186
37.575325 53.049809 47.392342
37.675652 55.531326 47.366375
35.442272 53.455162 48.048061
34.771992 53.473431 48.119606
38.766342 56.991436 47.431702
38.172047 52.828838 47.187504
38.383595 56.692455 47.501915
37.818161 56.198341 47.368008
38.268997 51.599995 47.082607
38.757774 56.778397 47.430759
35.88765 53.137726 47.746059
35.676994 53.408726 47.906044
37.785759 56.519524 47.478737
35.081776 53.520664 47.916344
38.479965 53.368385 47.340488
38.375599 52.306973 47.147694
38.271832 54.388557 47.197392
38.097221 51.707283 47.171482
38.77002 55.858406 47.36964
37.386097 53.04697 47.453003
38.489975 57.465408 47.287804
38.664085 52.189407 47.101814
38.660175 57.052032 47.414021
38.488991 55.335602 47.266998
38.837151 57.500786 47.419495
38.774143 52.752804 47.032951
38.660648 53.671612 47.131279
