# .PCD v0.7 - Point Cloud Data file format
VERSION 0.7
FIELDS x y z
SIZE 4 4 4
TYPE F F F
COUNT 1 1 1
WIDTH 724
HEIGHT 1
VIEWPOINT 0 0 0 1 0 0 0
POINTS 724
DATA ascii
18.750212 15.033792 37.108799
18.735331 14.54338 37.072449
18.83462 14.27641 37.109188
18.850269 14.96302 37.073826
18.866161 14.567615 37.075027
18.853552 14.422629 37.091751
18.552954 15.057336 37.11652
18.842869 14.962405 37.139889
18.558884 14.955668 37.116047
18.843685 15.091305 37.071903
18.462122 13.755025 37.210274
18.467024 14.110137 37.140495
18.241489 13.577042 37.089558
17.658672 14.520782 37.274273
18.559265 12.642488 37.179588
17.871563 13.00716 37.303776
18.352106 14.733413 37.172157
18.799891 13.091372 37.088501
18.559353 13.761075 37.183498
18.477997 13.3188 37.244991
18.556456 13.314713 37.233341
18.078983 14.55967 37.284
18.460215 13.666869 37.169403
18.06179 13.761717 37.260044
18.268227 13.638045 37.262466
18.471586 13.625765 37.233368
18.264709 13.038561 37.130314
18.461512 13.036304 37.170761
18.264221 13.741161 37.119862
17.968941 13.6276 37.286167
17.671267 13.670179 37.263981
17.974148 13.123473 37.271469
18.569153 13.692597 37.100945
18.061417 13.330575 37.277138
18.550781 12.948557 37.140923
18.366518 13.038964 37.176712
17.88369 13.722213 37.325035
18.30678 13.701831 37.284576
17.994406 12.818769 37.302296
17.787977 13.310325 37.319321
18.286444 15.175143 37.264729
17.756294 13.448513 37.28476
18.169706 13.020125 37.209904
18.064529 13.131362 37.254639
17.971529 13.032797 37.225945
17.96619 13.321253 37.287563
18.567471 13.218482 37.206989
18.074001 13.631375 37.278732
17.562376 12.605901 37.289314
18.072487 13.035875 37.228512
18.260906 13.041386 37.191425
17.769884 13.032421 37.246925
18.06044 13.227792 37.26947
18.345901 12.641807 37.215027
18.051908 13.474838 37.319962
18.063463 14.51562 37.233154
18.6716 13.222082 37.197269
17.763155 12.734103 37.255791
18.456516 14.787707 37.229206
18.35371 14.423935 37.161095
18.558722 12.781894 37.245304
18.156237 14.508841 37.223167
17.757782 13.345775 37.263378
18.7446 14.48387 37.194183
17.776688 13.632619 37.311695
18.044674 13.082644 37.286983
18.73946 14.127642 37.109402
17.968943 13.009559 37.290451
17.455166 13.11776 37.300228
18.159878 13.319657 37.267036
17.530422 13.347515 37.298473
18.168024 12.669168 37.265419
18.181812 12.778337 37.303772
17.871271 13.62729 37.29892
17.97789 14.511166 37.247082
18.662092 12.826403 37.180714
18.568037 13.631213 37.243729
18.871359 13.265748 37.077274
18.267246 14.028996 37.13451
18.560738 14.008327 37.10339
18.275156 12.89375 37.252708
17.779758 14.492352 37.265091
18.280865 14.414985 37.175953
18.065826 13.539958 37.269051
18.182518 14.32464 37.306248
18.651079 14.015999 37.089123
18.263397 13.533145 37.249916
18.17852 14.42156 37.203472
18.386217 14.014325 37.12722
18.051168 14.424787 37.219616
18.65987 13.036604 37.146145
18.367973 14.509376 37.182018
18.554361 13.7776 37.118912
18.060944 14.700903 37.248417
18.533272 14.579386 37.247055
18.07033 12.822701 37.218071
18.667957 13.023077 37.219486
18.064518 13.438086 37.2635
18.366705 14.603275 37.205315
18.46909 15.178919 37.118462
17.968719 13.441586 37.265156
18.435808 12.952679 37.296448
18.734213 14.612761 37.120514
17.876848 13.313534 37.29879
17.868954 14.603674 37.259735
18.483704 13.616323 37.08857
17.638779 13.132141 37.268387
17.869186 13.450862 37.288082
18.456984 12.790896 37.262371
17.702478 13.050756 37.241673
18.364275 13.447011 37.221928
18.661064 14.598253 37.168091
18.367256 12.711331 37.188313
17.865429 14.430688 37.238182
18.367422 12.943494 37.144581
18.550497 13.036608 37.151443
17.856253 13.031471 37.252647
18.74514 12.942575 37.103283
18.202972 14.851463 37.126568
18.550169 13.850537 37.215034
18.453251 14.422136 37.14748
18.763823 12.692819 37.190384
18.469397 12.683517 37.232697
18.264 13.403686 37.272778
18.475203 14.843696 37.115055
18.372368 13.793473 37.1492
17.572212 14.093692 37.267746
18.27545 13.574378 37.181801
17.930779 14.569966 37.296349
18.264233 14.200285 37.191906
18.264053 13.941392 37.256615
18.520769 12.693771 37.298332
18.376154 12.849006 37.137222
18.065577 14.384681 37.254688
18.437386 13.478219 37.271156
17.644569 15.0498 37.243557
18.747253 13.55406 37.120419
18.670811 13.469362 37.106548
17.581142 13.037815 37.270596
18.557673 13.981822 37.175522
18.364685 14.384446 37.226276
18.605406 13.622154 37.092064
17.770863 13.486333 37.218361
18.756184 14.50552 37.104439
18.259033 14.392987 37.225643
18.561827 14.332152 37.108715
18.440538 14.483799 37.229549
18.357365 13.754489 37.222286
18.355141 14.475373 37.2332
18.665703 14.594054 37.230865
18.742376 14.459417 37.114243
17.849421 14.711135 37.245182
18.452681 14.382322 37.211742
18.659266 15.191676 37.090378
18.261875 14.259705 37.133881
18.571602 15.187531 37.110542
17.883244 14.472244 37.285568
18.109043 13.732375 37.299065
18.065866 14.74173 37.222084
17.78809 14.387061 37.268539
17.889086 13.708093 37.198875
17.86865 14.374599 37.275734
17.70022 13.623206 37.304646
17.762493 14.082427 37.293411
18.456194 14.629783 37.263332
18.713562 13.305409 37.072731
17.6828 14.077828 37.243404
18.355919 14.871161 37.130939
18.264429 13.78606 37.158386
18.060102 14.038979 37.173771
18.443001 14.247457 37.110817
18.655209 13.744031 37.17952
17.771767 14.101396 37.232552
18.261337 14.476776 37.248318
18.756771 13.981812 37.144512
18.458691 14.072871 37.202888
17.97168 14.073939 37.265213
18.073036 14.335072 37.163158
18.249598 14.857172 37.135403
18.663647 13.319984 37.219444
18.567513 14.548425 37.103165
18.161386 14.253912 37.277588
18.034805 13.514946 37.19014
18.649399 13.972171 37.147411
17.678566 12.726897 37.257759
18.727718 14.019401 37.10231
17.86425 13.097228 37.322678
18.256609 12.637877 37.237564
18.183352 14.646183 37.182064
18.37055 13.718317 37.26717
18.545877 13.753865 37.260674
18.655037 14.483583 37.223301
17.972443 14.478939 37.274864
18.646814 14.504532 37.121536
18.554457 14.51247 37.147797
17.976665 13.664968 37.258034
18.371279 13.329011 37.255512
17.64184 14.37009 37.303085
18.161484 13.975846 37.232666
18.049595 14.478645 37.268635
18.175076 13.663851 37.234394
18.551201 13.522264 37.217773
18.169218 13.442339 37.247639
17.958574 14.742007 37.22868
18.25465 14.075468 37.238522
18.865011 13.497089 37.07531
17.769758 14.449114 37.278412
17.775143 12.608186 37.198734
18.039333 13.726956 37.191063
18.560268 12.87358 37.275154
17.869226 14.066719 37.275661
18.447763 12.887505 37.273876
17.765928 13.14563 37.26717
18.444025 13.706882 37.253284
18.574379 13.932015 37.236446
18.653002 13.606221 37.076206
18.461721 12.705563 37.164963
18.366688 13.970058 37.204578
18.171574 14.737754 37.194904
18.862583 13.805271 37.106457
18.868702 13.69647 37.057751
18.457489 14.733368 37.144012
17.865543 13.130386 37.271683
18.137383 13.72256 37.293343
17.869133 13.658243 37.267437
17.88311 13.970873 37.278141
18.553558 13.419418 37.260601
18.464025 12.94096 37.148296
18.267809 12.940133 37.167229
18.839478 13.97298 37.121792
18.899181 14.649219 37.049793
18.264296 14.701375 37.231476
18.557487 12.69057 37.220276
17.584375 14.996599 37.263672
18.068655 14.072722 37.253712
17.973307 14.707337 37.262238
18.245661 14.735951 37.183369
17.763369 13.567595 37.242672
18.372181 15.164515 37.107826
18.459833 12.813377 37.191208
18.657324 14.861402 37.221336
17.782688 12.914605 37.238605
18.174704 13.093601 37.283691
18.468025 13.982824 37.177116
17.579744 14.002253 37.252594
18.452591 13.535797 37.235237
18.616339 14.161398 37.062641
18.371983 12.786774 37.280159
18.755247 13.699335 37.071159
17.752684 13.975546 37.283283
18.060638 13.97562 37.250641
18.462673 14.510885 37.176937
18.638779 14.55332 37.100014
18.46216 14.637442 37.126293
17.857828 14.700158 37.268707
18.455736 14.708644 37.210354
18.817627 14.749023 37.075134
18.646267 14.749085 37.112465
18.273649 14.317792 37.146637
18.656437 12.779414 37.240837
18.071507 13.790098 37.193302
18.193565 14.199419 37.119438
17.85664 12.926486 37.230644
18.265797 13.141162 37.215904
18.065588 12.952076 37.202286
18.164062 14.70806 37.245548
17.663349 13.560266 37.241104
18.166855 12.92816 37.181202
18.466743 13.474427 37.136551
17.649355 14.733063 37.246445
18.619534 13.426874 37.240231
18.559992 13.678614 37.168865
17.762945 14.699782 37.284214
18.648453 12.943763 37.11187
18.164066 13.941216 37.273811
18.460592 13.999888 37.121853
17.75227 13.547758 37.298092
17.969101 13.975985 37.264347
17.579374 12.68293 37.279839
18.260513 14.563815 37.127506
18.478079 14.529807 37.102886
18.471155 13.401546 37.253269
18.160763 13.229321 37.258854
18.359741 14.701629 37.218258
18.63349 13.178671 37.250221
18.357134 14.551187 37.116333
18.361652 13.126622 37.203579
18.169476 13.542998 37.255638
17.625782 13.795112 37.249836
18.405018 13.958361 37.094212
18.363741 12.909684 37.220737
17.485588 13.44309 37.258121
17.959496 14.396698 37.261986
18.160728 13.478947 37.320484
18.361273 15.103776 37.109383
18.176756 13.574859 37.182255
17.683899 13.977552 37.283619
18.467461 12.64988 37.193069
18.366425 13.853963 37.235851
18.1647 14.073198 37.241039
18.748018 12.986174 37.204689
18.155649 14.381381 37.243069
18.852274 14.005326 37.05653
18.042704 14.621675 37.185356
17.958654 14.658479 37.212406
18.275257 14.654881 37.153591
18.873585 13.591568 37.051712
17.490433 12.726001 37.289261
17.659468 12.600039 37.274281
18.36694 14.615068 37.139927
18.769577 13.71962 37.193405
17.560253 13.283132 37.272057
17.85989 13.252231 37.22448
17.648113 14.408822 37.255459
18.751686 13.655571 37.13707
18.662714 13.6656 37.144054
18.34934 13.397572 37.262665
18.387016 14.320277 37.130924
18.194143 14.335496 37.152325
18.467434 12.998363 37.236092
18.653173 13.691596 37.089745
18.757841 14.637898 37.097027
17.969528 14.430905 37.22916
18.354887 13.34698 37.187305
18.561287 13.355981 37.161644
17.745985 13.248955 37.235313
17.870689 13.935712 37.304489
18.2609 12.671964 37.261318
18.279272 13.241339 37.172325
17.969717 13.546363 37.278511
17.691219 13.492463 37.243473
18.544943 14.629424 37.112934
18.367884 13.540487 37.242424
18.587265 15.084778 37.077103
18.58215 14.235744 37.079521
17.688087 14.662508 37.239288
18.660646 15.05544 37.108727
18.059416 13.667097 37.243721
18.662663 14.637373 37.101093
18.729042 15.180723 37.086796
18.470747 14.32548 37.124146
18.569262 13.38638 37.104733
18.541084 14.699653 37.206413
18.556948 12.821258 37.17054
17.693268 13.348784 37.261948
18.383785 13.487492 37.125809
18.038885 13.245955 37.208961
17.950031 13.471437 37.197704
18.597612 13.207213 37.273979
18.833338 13.432595 37.133286
18.253357 13.981877 37.220497
18.747305 14.353158 37.088467
18.646107 14.310751 37.100132
17.798553 14.216614 37.251038
18.67285 14.853855 37.072987
18.579905 14.862373 37.099369
17.875992 13.85682 37.282173
17.502239 13.490443 37.266117
18.767097 12.912539 37.162468
18.277452 13.482267 37.157158
18.267845 13.218784 37.246254
17.776115 14.168686 37.288288
18.457195 13.442284 37.203022
17.972517 14.160612 37.276138
18.457779 13.94928 37.246689
17.972776 13.087285 37.294773
18.368105 13.386813 37.126968
18.268141 12.71461 37.185688
18.635237 13.378663 37.094048
18.472328 13.378151 37.118244
18.183475 13.38213 37.151852
17.868773 13.544812 37.291912
17.652077 14.981732 37.240925
17.964388 13.248712 37.217579
18.454771 13.847579 37.226303
17.651989 15.231171 37.292217
18.16231 13.996557 37.149002
18.157162 14.559582 37.275078
18.358124 14.074602 37.220753
18.789412 13.474546 37.098358
18.887508 14.363358 37.069931
17.810913 14.443489 37.248936
18.631824 14.768703 37.072891
18.061819 13.398344 37.300102
18.043631 14.104993 37.211384
18.442488 12.845262 37.134766
18.559113 14.740771 37.132149
18.770863 14.74544 37.076946
18.236195 13.396597 37.150318
18.559563 14.425882 37.124153
18.078079 13.411692 37.151459
18.177124 14.110141 37.175194
18.069267 13.85546 37.265347
18.754126 12.596978 37.158943
17.857418 14.514614 37.253662
18.264622 13.758965 37.233356
17.456007 12.861701 37.305687
18.569334 14.100245 37.127796
18.368881 14.11132 37.149845
18.894964 14.123966 37.051384
18.293755 14.007635 37.272453
18.736647 13.859642 37.190903
18.243164 14.256641 37.26339
18.378839 13.694137 37.124741
18.277971 14.105057 37.16943
18.266039 12.828425 37.203533
18.262648 14.51458 37.207058
18.355471 13.944827 37.253487
18.577991 13.099132 37.253632
18.668684 13.075813 37.236813
18.364998 13.089766 37.261131
18.659187 13.111514 37.159248
18.159258 14.483294 37.257675
18.065294 15.016275 37.249062
17.961281 14.290763 37.256355
18.262272 13.437346 37.231537
18.162483 14.28536 37.227665
18.264229 13.853287 37.250626
18.17967 13.266017 37.181007
17.802727 13.933046 37.310661
18.264732 14.291234 37.217812
18.160439 13.130385 37.238289
18.680002 13.631721 37.210678
18.451595 13.353291 37.170609
17.862804 12.661234 37.27317
18.166229 13.854392 37.250004
18.442902 14.047096 37.265995
18.554018 14.293694 37.170876
18.366959 14.295979 37.204807
17.96909 13.858283 37.274689
18.622017 13.991841 37.255615
18.553511 13.448849 37.184742
18.874466 13.049928 37.109516
18.158072 13.353728 37.231281
18.36075 13.627342 37.245201
17.965239 12.705325 37.230556
18.89043 13.391646 37.066837
18.66853 13.447746 37.17754
18.365368 12.649715 37.145451
18.357042 12.676427 37.249794
18.660925 12.687055 37.199886
18.17786 12.637084 37.160069
18.265987 12.640438 37.15905
18.457273 12.659302 37.123642
18.88773 15.103789 37.09219
18.189766 13.476673 37.168388
18.858955 13.669192 37.124329
17.765736 13.206902 37.296478
18.738396 13.443865 37.172321
18.766348 15.163104 37.104916
18.16713 15.054469 37.214916
17.937243 12.79615 37.251797
17.681292 12.653763 37.318653
17.561991 14.039445 37.248234
17.861044 12.905487 37.285095
18.176186 13.006912 37.280846
18.06731 12.909986 37.264629
17.660503 12.812659 37.275372
18.77916 14.048822 37.147743
18.737608 13.785345 37.106106
17.759392 13.764198 37.278973
18.059488 13.574337 37.222721
18.061565 13.356754 37.242714
17.6087 13.790573 37.25293
17.971769 13.755538 37.273159
17.744167 13.182489 37.239727
18.065269 14.822005 37.234741
17.979187 13.890813 37.238995
17.873941 13.225547 37.288929
18.157856 12.913055 37.26424
17.748219 12.811749 37.252899
17.843813 13.16829 37.221703
18.825781 14.539225 37.09647
17.572958 14.338015 37.274136
17.596395 14.241756 37.276932
17.961555 14.211615 37.254204
17.774841 12.709355 37.291008
18.278795 13.007258 37.268074
18.107155 14.875698 37.29237
17.870598 14.20609 37.262817
17.875549 13.548108 37.23185
18.167906 15.108813 37.262371
17.763321 12.997063 37.292957
17.598602 13.74974 37.25951
17.677187 13.439482 37.287834
17.792391 13.0832 37.309807
18.268764 13.32922 37.264103
17.563683 13.1401 37.274837
18.275265 12.841256 37.144226
18.553873 14.597132 37.17651
17.594694 12.902241 37.274166
17.546501 12.778955 37.280552
17.96862 15.021996 37.256889
17.982754 13.950183 37.284527
17.838568 14.951283 37.219334
17.976654 13.579991 37.221603
18.156483 12.819034 37.201817
17.848495 12.874551 37.21777
17.670391 13.249822 37.244705
17.869017 14.16117 37.295498
18.339775 14.555589 37.258602
18.259661 15.098925 37.252113
18.061855 13.93857 37.278046
17.853233 13.797257 37.214191
18.186644 13.778796 37.169399
17.740288 13.771943 37.228409
17.765846 13.65932 37.262154
18.358543 13.17884 37.146
18.057878 12.683951 37.214653
18.057405 13.893816 37.237103
17.867945 13.746171 37.274242
17.87921 12.834788 37.231171
18.167578 15.018914 37.24688
17.762243 14.814881 37.274708
17.854647 12.725551 37.237186
18.272278 13.174187 37.164299
18.257463 13.359646 37.205273
18.457024 13.135357 37.196953
18.255518 15.013975 37.228287
18.260405 13.661863 37.21917
18.359346 13.262437 37.15641
18.369986 13.668566 37.196625
18.463753 13.568418 37.156723
18.543587 13.265849 37.142914
18.556717 13.133244 37.183689
18.458023 15.014753 37.211758
18.361977 12.811936 37.196903
18.570797 12.70186 37.144791
18.563448 12.914483 37.215626
18.840162 13.348373 37.121677
18.645821 13.14786 37.106121
18.740368 13.170013 37.083565
18.457596 13.155015 37.138374
18.457596 13.257568 37.146229
18.766117 13.25992 37.096703
18.655039 13.584067 37.12151
18.177485 13.715414 37.164398
18.561901 13.160566 37.123821
18.460068 13.696519 37.12141
18.655281 13.78844 37.102921
18.661589 13.897767 37.118145
18.257128 13.888384 37.187477
18.473822 13.933701 37.093975
18.866819 13.191465 37.071445
18.851707 13.572541 37.10054
18.374844 13.574448 37.167751
18.552145 13.881575 37.150467
18.778772 13.404985 37.087887
18.558737 13.576529 37.142284
18.749443 13.887731 37.138084
18.678333 13.066813 37.093864
18.662624 13.258099 37.124401
18.670267 13.350536 37.149857
18.853382 13.874652 37.040863
18.648766 13.895142 37.062149
18.64801 12.923671 37.189934
18.493896 13.073664 37.107868
18.266724 13.950497 37.122711
18.173815 13.13797 37.160881
18.629539 13.305121 37.080334
18.191917 13.917748 37.131908
18.752323 13.12993 37.153637
18.36742 13.883262 37.171532
18.362459 14.248953 37.118687
18.470776 12.919196 37.203197
18.461475 13.888407 37.15519
18.46175 14.202464 37.156422
18.65864 14.423708 37.118385
18.577024 13.074681 37.1045
18.545164 13.891832 37.085125
18.743834 13.918589 37.065815
18.159691 14.196843 37.217308
18.254681 13.103649 37.276699
18.162285 14.610512 37.231487
18.458105 14.292283 37.181351
18.261179 14.603041 37.218647
18.452034 14.826735 37.180645
18.254906 14.82298 37.209335
18.742126 13.546234 37.168373
17.852678 13.894679 37.250713
18.266714 14.919258 37.218758
18.361141 14.823097 37.188721
18.067047 14.926361 37.241402
18.165487 14.82163 37.221371
18.376204 14.949317 37.149567
18.65893 14.296539 37.172367
18.557703 13.002193 37.234676
18.753841 13.246707 37.192547
18.450823 14.609977 37.194412
18.547922 14.385455 37.197754
18.656013 14.367823 37.198841
18.468931 13.10134 37.258316
18.163797 14.167785 37.254017
18.361603 14.16421 37.237869
18.645582 14.172841 37.202698
18.167629 14.919402 37.234055
18.352303 14.921751 37.206551
18.353127 15.018339 37.220253
18.338705 15.132133 37.201611
18.827347 13.849154 37.137005
18.261848 15.134719 37.212555
18.373068 15.053875 37.16658
18.263702 14.953531 37.176659
18.259521 15.051122 37.194275
18.751257 13.02489 37.126915
18.264502 14.167793 37.248188
18.060904 14.168975 37.258396
18.08621 14.269476 37.287769
18.473244 14.927938 37.194996
18.659931 13.871596 37.212994
18.446722 14.168055 37.221714
18.170124 15.144324 37.223927
18.054041 14.19774 37.234222
18.182144 14.960717 37.173054
18.168394 13.626366 37.268242
18.640379 14.258859 37.22374
18.744761 14.300104 37.159821
18.560377 14.473385 37.233284
18.852661 13.193843 37.147957
18.828491 13.294628 37.174671
18.863209 12.903134 37.194103
18.754293 13.31841 37.196873
18.546747 14.158081 37.218208
18.536608 14.930423 37.192177
18.059498 14.608737 37.244572
18.063473 13.019036 37.284916
18.244322 14.786966 37.256512
18.551395 14.258882 37.239429
18.355915 14.807845 37.240349
18.460428 15.142088 37.177292
17.974194 15.140298 37.243698
18.378267 14.247031 37.250675
18.150772 14.794469 37.259857
18.058655 14.29426 37.247894
18.468077 14.295019 37.248455
18.063011 14.806261 37.270927
18.340891 13.161874 37.280323
18.237473 14.548484 37.264618
18.674664 15.14278 37.120766
17.921663 12.717589 37.334507
18.783449 14.82194 37.116848
18.649014 14.821168 37.120636
18.75481 14.972317 37.086266
18.652489 14.948914 37.103809
18.473633 14.947318 37.124023
18.571499 12.868793 37.124577
17.757412 13.863626 37.247105
18.559668 14.831584 37.132179
18.244646 14.885852 37.268814
17.892021 14.22912 37.295147
18.918228 12.942392 37.103886
18.661579 14.076493 37.185295
17.630226 12.954423 37.256454
17.682581 13.347979 37.343712
18.17749 12.853511 37.174637
17.944023 12.854963 37.322205
18.56875 14.072538 37.185574
18.655005 13.532717 37.203152
18.88118 12.937181 37.104843
18.161764 13.756186 37.246498
18.845678 13.510658 37.014465
17.643984 12.910309 37.312386
17.766376 12.913986 37.277245
18.181856 12.882899 37.306065
17.998726 13.794917 37.216805
17.954773 15.043458 37.233509
18.264341 12.872897 37.291344
17.681366 13.734824 37.273834
17.69252 13.862005 37.310116
17.817928 13.402998 37.317024
18.160484 13.404272 37.28524
17.860775 15.048605 37.244537
18.61516 14.23126 37.08173
17.975996 13.413564 37.307518
18.750057 13.340345 37.128605
18.56175 13.474977 37.120449
18.650743 14.207021 37.131886
18.829077 14.194014 37.105389
17.975424 13.359441 37.245117
17.775801 14.308258 37.271152
17.761999 15.162854 37.26717
17.877615 14.287386 37.265911
18.266619 12.803587 37.283005
18.36265 14.193377 37.176926
17.55677 13.210516 37.289753
17.650999 14.614547 37.274754
17.645248 14.818741 37.272064
17.661247 14.926897 37.281315
17.63899 14.307495 37.300446
17.600367 14.865685 37.250206
17.965343 14.823222 37.243889
17.891224 14.793669 37.300762
18.87986 15.241708 37.07996
17.770248 14.603205 37.276222
17.718124 15.043002 37.267021
17.970222 14.924384 37.250252
17.970259 14.598712 37.249226
17.951517 14.971539 37.219856
18.463869 15.060624 37.141697
18.55172 15.136432 37.131809
17.85343 13.355753 37.26125
17.977667 14.797215 37.269245
17.974495 12.918321 37.295109
18.070835 14.028061 37.300346
17.691822 13.271286 37.31374
18.372147 13.225734 37.239971
17.96067 13.224316 37.281189
17.630196 13.828898 37.265102
18.173695 13.891692 37.205906
17.750456 13.413827 37.34824
18.354244 13.000128 37.258579
18.874731 14.239487 37.050873
17.976824 14.113136 37.217991
18.451664 13.227359 37.226547
18.463449 13.793094 37.14164
18.66222 14.097351 37.10339
17.705093 12.878603 37.348526
17.663094 13.549141 37.298752
17.761402 13.844174 37.297703
18.062725 15.047437 37.222736
18.388548 13.078264 37.130196
18.761396 14.184726 37.096146
17.864744 13.444618 37.213535
18.566105 14.199366 37.14716
