# .PCD v0.7 - Point Cloud Data file format
VERSION 0.7
FIELDS x y z
SIZE 4 4 4
TYPE F F F
COUNT 1 1 1
WIDTH 1093
HEIGHT 1
VIEWPOINT 0 0 0 1 0 0 0
POINTS 1093
DATA ascii
24.178434 56.846775 -13.841277
24.031723 58.046623 -13.614016
23.960436 55.809246 -13.684292
23.873344 55.81749 -13.665151
24.085968 55.812923 -13.71016
24.215256 56.952045 -14.013246
24.007879 57.97036 -14.003515
23.876574 56.510342 -13.735013
24.10396 58.075432 -13.972839
23.99506 57.970509 -13.632742
24.021814 55.942459 -13.759919
23.968225 57.356609 -13.711401
24.478762 58.470627 -14.067972
23.791039 56.342133 -13.67715
23.865078 55.971275 -13.703008
23.964624 55.853546 -13.742527
23.953148 56.016983 -13.721689
24.079094 57.994564 -13.648934
24.254333 57.21817 -14.00841
23.924637 55.958958 -13.709654
24.078295 56.381252 -13.683154
23.963449 56.012714 -13.792999
24.120907 57.43874 -13.830653
23.959017 56.574348 -13.656778
24.33288 58.070858 -13.669514
24.99065 57.45705 -14.042865
25.381262 56.97913 -14.014118
23.923916 56.350578 -13.697365
23.899874 56.313969 -13.848893
24.134205 56.58643 -14.041369
24.168068 57.645889 -14.081718
24.465149 56.275288 -13.745744
24.018702 56.082733 -13.760433
25.057898 56.996799 -14.174785
24.437103 57.208858 -14.021191
25.11759 56.961243 -13.720625
24.087885 56.100033 -13.776841
24.669685 56.310055 -13.775004
24.001276 56.763554 -14.091724
24.292055 56.591713 -13.723378
24.163498 56.440269 -14.084997
24.649429 56.263332 -13.741848
24.86698 57.849545 -14.132154
25.491436 57.841228 -14.203455
24.756306 56.31086 -13.743607
24.167053 56.124577 -14.090761
24.871403 57.367058 -14.070297
24.660475 57.37376 -14.057112
24.475851 57.370068 -14.044928
24.836685 57.992188 -13.761325
24.561539 57.477757 -13.748464
24.458822 57.469177 -13.738376
24.754444 57.358746 -14.068701
24.365458 57.465248 -14.017201
24.108475 56.76453 -14.09096
24.082762 56.281849 -13.768657
24.447664 58.178104 -14.086843
23.997217 57.918079 -14.076437
24.375269 56.07547 -13.761164
24.373085 57.471573 -13.736406
24.870384 56.223202 -14.148503
24.459375 56.604263 -14.035705
24.591455 58.185017 -14.108181
23.980053 56.627602 -13.753231
24.499239 57.926479 -13.682229
24.173422 56.960079 -14.069225
24.085726 56.637054 -14.064622
24.275122 56.108089 -14.074838
24.03093 57.907757 -13.612213
24.058315 56.287933 -14.033826
24.022419 57.80381 -13.566173
24.291515 56.869823 -14.066575
24.181944 57.068653 -13.793328
25.347248 56.773346 -14.2092
24.369831 56.733967 -14.058619
24.152012 56.741024 -14.06261
24.217857 57.102352 -14.026344
24.467459 57.032238 -13.735399
24.304718 56.686512 -13.684055
24.180786 57.036797 -13.735518
24.649099 56.087742 -13.779279
24.003998 57.887421 -13.642277
24.149303 56.545471 -13.77951
24.175795 56.558979 -13.731687
24.564247 56.579311 -13.737329
23.974667 57.360535 -14.04332
24.479641 57.680267 -14.030112
24.753374 56.586689 -13.732217
24.497431 56.656792 -13.707091
24.185266 57.493771 -14.055387
24.156469 57.576599 -13.777373
24.568935 56.070698 -13.773549
24.751282 57.129921 -14.059834
24.573204 55.879169 -14.096756
24.179813 55.879402 -14.05847
24.166416 55.756187 -13.773302
23.990252 55.793568 -13.785007
24.140108 56.564133 -14.086227
24.265022 57.253654 -13.731212
24.091022 56.239197 -13.890507
24.28323 57.971157 -13.697124
24.278629 57.669823 -13.707527
24.665813 57.114277 -13.715646
24.070198 56.732433 -14.050687
24.654577 57.145733 -14.051216
24.575581 57.131233 -14.045053
24.38534 57.069981 -13.79308
24.925684 55.858189 -13.801263
24.781128 57.300419 -14.132228
24.704187 56.761955 -14.156001
24.854551 57.152828 -14.058399
24.667322 56.234653 -14.134067
24.865307 57.264668 -14.083502
24.367863 56.573364 -13.725051
24.174568 56.760513 -14.097004
24.930967 56.221169 -13.733557
24.542385 56.03476 -13.736254
24.932438 55.953762 -13.816854
24.373562 56.712242 -13.742327
24.877518 56.046555 -13.749248
24.086945 56.200588 -14.033124
25.363985 57.366089 -14.233056
24.771574 57.421974 -13.725945
24.264988 57.149261 -14.010863
24.471128 56.572754 -13.730983
24.753239 56.725628 -13.769693
24.236603 55.7831 -13.852063
24.6336 56.142136 -14.164001
23.99379 57.11591 -13.692674
24.3827 55.995113 -13.781591
24.47715 56.000614 -13.783306
24.478676 56.104309 -14.079977
24.669556 56.015751 -13.789423
24.572733 56.096817 -14.086197
24.773987 55.979759 -13.80975
24.643028 57.434376 -13.718927
24.662998 55.85247 -13.773189
24.950094 56.421322 -14.125799
24.383417 57.119984 -13.722165
24.764727 57.121067 -13.742632
24.472654 57.435329 -13.710015
24.648556 57.345287 -13.73842
24.271431 57.03141 -14.032639
24.346771 55.826439 -13.70287
24.602261 56.727196 -14.130842
24.06061 55.884247 -13.768953
24.991827 56.483459 -14.240851
24.072931 57.048218 -13.721786
24.760021 55.85091 -13.783172
24.291588 57.566101 -13.719819
24.382202 57.184116 -14.067298
24.774809 57.997803 -14.036609
24.925724 57.155308 -14.072117
24.926432 56.222919 -13.671149
24.982754 57.843304 -14.147874
24.600107 57.835812 -14.138728
24.087513 56.52737 -13.789701
24.82782 57.880718 -13.754602
24.373743 56.529922 -13.778009
23.96752 56.525543 -13.77553
24.285706 56.525024 -13.807966
24.765717 56.785057 -14.138034
24.853956 56.201439 -14.102486
24.151939 57.742035 -13.676414
24.215302 55.888504 -14.187453
24.230576 55.909401 -14.136927
24.253841 56.525169 -14.102757
24.283533 55.958221 -13.747133
24.282658 57.114239 -13.721624
24.78117 55.947262 -13.778475
24.672226 57.042343 -13.797237
24.175077 56.195766 -14.064296
25.195276 56.988422 -14.207331
24.372616 57.474007 -14.046315
24.373592 57.579777 -14.033523
24.480003 57.485298 -14.052731
25.032263 56.346416 -14.175361
25.455564 58.086937 -14.225543
24.764999 57.084442 -14.129617
24.091854 57.170013 -14.078115
23.844082 56.275494 -14.128051
23.939795 57.775757 -13.973745
24.490906 57.015419 -14.11213
24.671055 56.713028 -13.756446
24.067562 56.112057 -14.073256
24.564707 56.706928 -13.757501
24.474588 56.715851 -13.749103
24.14963 57.180183 -14.065373
23.982866 55.695278 -13.813733
24.047035 55.717171 -13.723969
24.291767 57.156929 -14.074126
24.267174 57.161858 -13.7455
24.657892 56.999165 -14.156661
24.677521 55.932476 -13.761622
24.473324 55.788593 -14.092938
24.383595 56.413338 -14.065132
24.981544 56.502453 -14.079724
24.694635 56.680553 -13.714402
24.770649 56.194893 -14.096003
24.102062 56.608936 -13.752011
24.468327 55.962532 -13.759459
24.661612 56.494392 -13.762112
23.816523 57.797859 -14.062016
24.032909 57.48291 -13.66842
24.999666 58.019398 -14.169263
24.381556 56.58205 -14.028823
24.366753 55.952801 -13.758477
24.276514 56.312126 -14.067832
24.678192 56.071075 -13.735783
24.448727 57.747665 -13.696323
24.281626 57.767757 -13.976958
24.941925 56.827354 -14.282557
23.868225 55.765324 -13.700889
24.558298 57.164959 -13.749695
24.371183 57.697346 -13.738296
23.969542 57.16637 -13.753004
24.169792 57.59631 -14.038905
24.176899 57.149563 -13.741479
24.666227 56.201756 -14.090653
24.405849 57.844681 -14.129315
24.270725 57.033581 -13.730574
24.141865 55.916489 -13.654397
24.178473 56.001526 -13.778087
24.377499 55.861935 -13.761483
24.19025 56.307777 -13.759558
23.878716 57.220619 -13.724477
24.160509 58.123783 -14.029728
25.071636 56.43272 -14.146546
24.208406 56.841625 -14.014571
24.378742 57.030437 -13.732885
24.277782 56.314838 -13.770706
23.988852 58.101204 -14.00246
24.457993 57.559345 -13.726195
24.485104 56.061466 -13.734174
24.585321 57.632614 -13.726235
25.33181 56.949883 -14.137642
24.602741 55.807156 -13.7321
24.476961 57.173546 -14.068518
24.433392 55.941738 -14.121046
24.564135 56.29615 -13.776727
24.572918 57.27282 -14.062398
25.580931 56.825821 -14.249005
24.960741 57.418987 -14.140182
23.957607 56.742172 -13.806523
24.670952 57.586807 -14.063286
24.565166 57.426136 -13.711061
24.479568 56.291771 -14.056497
25.158337 57.312832 -14.183415
24.37129 56.304779 -13.765176
24.161766 56.875107 -14.067385
24.466019 56.521332 -13.80119
24.567818 56.260017 -13.751637
23.946709 56.269886 -14.068998
24.190964 56.291401 -14.038661
25.523344 56.206299 -14.295127
24.18045 57.778675 -13.995492
24.667593 57.800335 -14.061104
24.36762 56.265663 -13.744849
24.288982 57.802563 -14.040152
24.474087 56.413563 -14.068019
24.017927 57.206947 -14.052411
24.87645 58.064098 -14.142092
24.470558 57.164143 -13.748449
24.481647 56.196877 -14.072836
24.274693 56.824585 -14.041052
24.961811 57.53389 -14.161514
24.56583 57.583523 -14.051333
24.658188 55.929779 -14.125901
24.167118 56.267075 -13.73121
24.359695 57.739338 -13.686965
24.27346 56.280102 -13.739751
24.767908 56.317375 -13.788119
24.462725 56.303101 -13.770709
24.38518 56.318756 -14.081519
25.429873 56.543377 -14.178175
24.55827 56.49609 -13.750543
24.380713 56.185444 -14.067853
24.379568 56.903717 -14.032197
24.972969 56.670765 -14.186143
24.088268 56.858257 -14.082386
24.278214 56.198845 -14.051086
24.175045 56.499371 -13.732095
24.322739 56.473186 -14.107785
24.668581 56.529018 -13.799723
25.3179 56.491737 -14.259439
24.076223 56.395134 -14.050986
24.559795 55.961269 -13.759543
25.515837 56.156242 -14.292079
24.391182 56.722664 -13.818801
24.477758 57.58392 -14.044544
25.095461 58.06945 -14.174929
24.76615 57.269432 -14.078653
24.367199 56.492542 -13.744392
24.183027 55.968258 -13.744566
24.265736 56.406544 -14.050355
24.02042 56.335651 -13.838784
24.284744 57.434898 -13.693751
24.88237 56.770222 -14.160745
24.839605 56.553928 -13.693679
24.284016 57.764118 -13.687919
24.165895 56.31601 -14.08948
24.282505 56.489712 -13.741956
24.174229 58.107666 -13.965142
24.320877 56.30838 -13.857354
24.098148 55.985859 -13.793054
24.473392 56.323624 -14.084971
24.083036 57.803715 -14.020393
24.672653 58.09639 -14.00087
24.372854 56.090569 -14.073797
24.082094 56.70002 -13.990587
23.97183 57.448711 -13.691886
24.277071 55.870872 -13.758903
24.107206 56.287792 -13.727446
24.107529 56.486607 -14.139502
24.085312 56.346962 -13.849981
24.572233 57.901722 -14.042212
24.193306 56.964634 -13.802086
24.108011 56.338554 -14.121178
24.480391 56.863903 -14.078151
24.463272 56.498348 -13.745682
24.075209 57.915527 -14.01352
24.668373 56.105305 -14.103908
24.269211 57.574703 -14.026687
24.013847 57.769531 -13.665366
24.476883 57.716782 -14.059841
24.391031 56.656189 -13.693082
24.372799 57.355526 -13.724237
24.16457 57.361179 -13.71508
24.416363 56.767025 -14.109103
23.864183 57.694233 -13.997342
24.376677 57.43037 -13.713822
24.3799 56.8755 -14.072273
24.364664 56.053978 -14.046699
24.985998 56.579678 -13.730895
24.757936 56.498978 -13.755516
23.913343 56.174725 -13.732201
24.454288 56.784393 -14.102028
24.859352 56.95808 -14.10395
24.573877 58.310093 -14.013309
25.1668 56.79586 -14.246799
24.777836 56.973141 -14.164314
23.981247 56.209881 -13.76234
24.880472 56.661442 -13.729877
25.241077 56.759571 -14.197283
23.896767 57.559254 -14.03496
24.773979 57.706509 -14.102341
24.260794 56.360699 -13.696898
24.655788 56.062531 -14.052758
23.994349 56.440147 -14.115563
24.769123 57.180679 -14.107782
24.669968 56.598263 -13.728006
25.365322 58.334995 -14.174999
24.368317 57.566288 -13.72218
25.477205 56.676685 -14.167042
24.663113 56.92543 -13.755139
24.870344 57.167648 -14.106136
24.662016 56.417568 -14.086352
24.568483 56.413654 -14.081429
24.471165 58.222557 -14.021214
25.051334 56.513447 -14.254916
24.685987 57.567455 -13.721566
24.162966 57.573528 -13.735348
25.591423 56.481407 -14.304118
24.670853 56.857075 -14.093906
24.853106 56.417816 -14.117734
24.660574 58.258755 -14.078719
24.173965 55.982178 -14.082937
24.763397 56.861572 -14.110302
24.939548 56.201973 -14.086103
24.476324 57.262699 -14.053337
23.872744 57.159069 -13.746589
23.915195 56.004589 -14.140486
24.092836 56.036591 -14.07953
24.26803 55.975998 -14.049646
24.72113 55.799702 -13.739254
25.072668 57.11454 -13.71828
24.92421 57.01955 -14.120887
24.470001 56.048054 -14.053739
24.75194 56.091255 -13.781389
24.476143 56.009735 -14.095269
23.934507 58.143814 -13.635327
24.381693 55.798965 -13.861416
25.372135 56.950523 -14.207895
24.669575 56.007469 -14.112973
24.758326 57.588814 -14.06845
24.179163 55.862183 -13.762051
24.373302 57.264545 -14.047915
24.761478 57.934483 -13.732945
24.475607 56.077202 -13.767355
24.832712 57.195808 -13.755847
24.179407 55.981277 -14.052596
24.061277 57.149223 -13.727549
24.368809 56.182285 -13.753076
24.950073 56.14072 -14.201265
24.807196 56.145786 -14.181393
24.5709 57.177143 -14.072416
24.090456 57.548557 -13.726004
24.763468 56.379829 -13.729736
24.172918 57.276562 -14.05057
24.581228 57.921783 -13.686216
24.465868 56.235641 -13.812263
24.266466 56.577614 -13.852294
24.369261 57.053917 -14.04591
24.191465 57.109699 -13.707464
24.560827 58.000652 -14.026974
24.476591 57.127483 -13.721339
24.075232 58.218159 -13.996343
24.480244 56.620289 -13.758753
24.467442 58.031193 -14.05038
24.561789 57.249981 -13.735338
24.571392 57.02087 -13.738605
24.575119 57.0807 -14.103324
24.59387 56.359741 -13.725357
24.379789 58.226433 -14.01589
24.477936 56.330307 -13.727379
24.763517 56.104652 -14.107478
24.775883 56.897923 -13.768708
25.178848 56.153267 -14.213703
24.866566 57.314434 -13.723886
24.670023 56.3578 -13.713776
24.274511 58.205418 -14.017499
24.76976 56.233604 -14.135634
25.1049 55.950031 -13.764564
25.029379 57.290722 -14.099009
24.665724 57.174316 -14.088566
24.89032 57.292236 -14.141736
24.565027 56.193111 -13.82525
24.379183 58.115208 -14.02216
24.970675 57.285789 -14.158247
25.098503 57.674976 -14.213092
24.766392 55.972328 -14.078506
24.376732 58.039288 -14.043427
24.280554 58.125317 -14.030021
24.470865 57.993084 -14.017367
24.759609 57.052937 -14.080788
24.000874 55.991394 -14.182961
24.355404 56.013103 -14.099299
24.642107 56.201401 -13.81708
24.666838 57.873455 -13.728827
24.388817 57.776665 -14.005969
24.268902 57.879471 -13.706124
25.553452 56.048237 -14.276253
24.977598 58.03965 -14.123421
24.894358 56.070866 -14.186818
25.075403 57.836678 -14.153206
25.25396 56.345257 -14.14737
24.771584 56.420528 -14.094242
24.467192 55.857975 -13.771436
24.035933 56.390255 -14.147797
24.571112 55.859547 -13.770692
24.285965 56.083164 -13.765412
24.366127 57.957401 -13.699367
24.770451 57.806438 -14.080344
24.366386 57.789028 -13.723001
24.36961 56.219429 -13.806886
24.122589 56.504963 -13.955567
24.810833 56.027336 -14.205529
24.276173 57.696236 -13.739531
25.187965 56.032074 -14.223296
24.851543 55.853065 -13.763843
24.66626 57.945671 -14.09637
24.0993 58.014397 -14.043225
24.765823 58.023144 -14.081706
24.186119 58.047249 -14.053811
24.774714 58.142719 -14.119705
24.063572 57.891319 -13.687713
24.963385 57.895332 -13.732262
25.515709 57.037346 -14.263022
24.38308 55.876686 -14.073734
24.024261 57.9534 -14.0371
24.66881 58.028549 -14.06407
24.661402 58.119194 -14.049082
25.533003 57.854275 -14.199929
23.858727 57.095684 -13.839526
25.766287 57.040516 -14.280697
24.662197 57.2691 -14.069947
24.473202 57.761532 -14.016127
24.168411 57.811466 -14.040125
24.149624 57.896343 -14.013647
23.855436 57.904358 -13.986936
25.507607 56.056538 -14.26914
24.283449 58.013393 -14.039042
24.057564 58.118423 -14.019496
23.834745 57.500443 -14.008265
24.071072 57.565544 -14.020597
24.386173 57.682331 -14.027613
24.37755 57.902264 -14.030128
24.376427 58.005775 -14.015232
25.280506 57.764961 -14.175439
23.884499 56.720482 -13.730198
24.179024 57.463104 -13.997197
23.973951 57.543655 -13.966053
23.970194 57.878029 -14.001305
24.175322 57.981117 -13.994541
24.28368 57.983425 -14.017282
24.575474 58.031052 -14.055156
24.007915 58.052284 -14.041442
24.555702 57.323078 -14.10407
24.272781 55.881374 -14.05961
24.187073 56.069847 -13.761758
24.574331 57.803234 -14.050035
24.282188 57.904221 -14.03039
23.968386 56.704918 -13.725326
23.977152 57.848682 -14.013363
24.474972 57.806911 -14.044308
24.252525 57.945263 -14.076402
24.477867 58.122921 -14.034451
23.981897 56.390068 -13.730992
24.969566 56.087429 -14.139351
24.951603 56.073975 -14.223788
24.777609 55.920448 -14.153057
24.85882 55.864841 -14.123613
25.186237 56.317234 -14.191281
24.280048 56.939671 -13.73737
24.764835 58.125736 -14.060181
24.770283 57.905666 -14.054509
24.179214 57.678387 -14.019037
24.576035 57.780968 -14.005357
24.298672 57.668221 -14.012342
24.032742 57.80172 -13.708618
24.663008 57.906624 -14.048054
24.081467 57.69603 -14.048337
24.044645 57.699852 -13.687343
25.604412 56.678127 -14.208117
24.27973 57.369167 -14.023595
24.278698 57.268726 -14.040072
24.5343 56.349983 -14.170747
24.299536 56.223507 -13.803943
23.953861 57.260967 -13.706948
24.883139 55.907154 -14.169349
24.391247 57.795841 -14.043262
24.382332 58.338737 -14.042306
24.567106 58.125854 -14.037118
24.558506 58.09235 -13.997149
24.092962 57.987999 -14.007596
24.973621 56.994865 -14.160738
24.662802 57.056908 -14.068861
24.67524 57.098732 -14.107927
24.947073 57.109783 -14.227449
24.411207 57.114109 -14.075579
24.082876 57.104179 -14.097219
25.016899 55.938145 -13.755485
24.188665 56.23452 -13.768312
24.858173 57.032139 -14.115862
24.663231 56.948608 -14.084371
24.865612 56.954823 -14.154098
24.971476 56.892681 -14.071362
25.276661 56.038124 -14.258783
24.572468 57.049355 -14.060007
24.964758 56.962051 -14.121161
24.757383 56.960869 -14.095298
24.718866 57.240578 -14.154281
24.89176 56.903889 -13.711747
24.85713 56.951874 -13.769739
25.065697 56.998905 -14.128021
24.656763 58.147053 -14.109981
24.273371 56.042599 -13.730494
25.278122 57.00211 -14.195859
24.794348 57.366013 -13.726733
25.066116 56.601448 -13.732303
23.857006 57.053818 -13.782929
25.2948 57.84494 -14.204822
24.768585 56.039799 -13.746176
24.66736 56.286572 -14.064682
24.938322 56.929688 -13.714747
25.227392 56.959045 -14.164587
24.698042 57.843548 -14.119341
24.279543 57.717342 -14.062934
24.555994 57.352764 -13.732741
24.568695 57.365543 -14.056154
24.993362 56.764568 -14.15774
25.190832 56.717461 -13.737696
24.864563 58.031235 -14.095406
25.627447 57.358948 -14.239114
25.152073 57.950138 -14.128042
24.846472 57.818775 -14.069574
25.389324 57.748669 -14.141529
25.017258 56.021564 -13.733964
25.273319 56.179165 -14.287384
24.968651 57.291294 -13.695617
25.161409 57.576469 -14.127022
25.414461 57.474369 -14.127537
25.144676 57.508438 -14.137361
25.352175 57.286804 -14.130406
25.060455 57.399597 -14.157466
24.862999 57.495449 -14.102333
24.273106 56.300274 -14.050523
25.14786 57.175018 -14.166619
25.368248 57.060295 -14.125896
25.058922 57.090839 -14.161221
25.078306 57.174767 -14.149728
25.262337 56.88475 -14.166851
25.434643 56.959942 -14.166578
25.083511 56.769367 -14.167461
25.079248 56.867153 -14.166479
25.189495 56.885323 -14.170919
25.174356 56.540695 -14.200491
24.882357 56.541336 -14.153239
24.873278 56.638771 -14.123913
24.890831 56.676922 -14.186188
25.403261 56.465874 -14.177706
24.481569 56.94912 -14.061051
24.868567 56.317673 -14.146579
25.460934 56.434872 -14.19396
25.278528 56.445263 -14.205641
25.269058 56.557713 -14.194179
25.44866 56.281773 -14.189033
25.199268 56.369953 -14.19249
24.966492 56.431713 -14.187802
25.575314 56.60891 -14.28412
25.314556 56.65115 -14.183646
25.568361 56.447502 -14.226401
24.975121 56.562138 -14.169357
25.061703 56.699368 -14.184364
25.681087 56.772476 -14.241192
25.591763 58.170528 -14.21141
25.600922 58.242939 -14.179321
25.557234 56.363392 -14.252748
25.076521 56.457314 -14.197442
24.997181 56.344704 -14.220804
24.085279 57.057655 -13.759
24.465904 57.347378 -13.727154
25.355766 57.542671 -14.215981
25.075216 57.540676 -14.180415
25.574757 57.300243 -14.236506
25.301126 57.305496 -14.197895
25.633841 57.407696 -14.208704
25.414185 55.937775 -14.265887
25.157993 56.707672 -14.121941
25.142487 56.764427 -14.201776
25.464642 56.861126 -14.203406
25.672373 56.681076 -14.2349
25.751778 56.924576 -14.264951
25.833435 56.884621 -14.197189
25.493225 56.757954 -14.213918
25.569948 56.837616 -14.213687
24.984219 57.277653 -14.091998
24.896341 56.538429 -13.734209
25.359222 57.083241 -14.209436
25.405689 57.166088 -14.194986
25.471386 57.242771 -14.21119
25.726429 57.256664 -14.227849
25.181305 57.829575 -14.197117
25.270147 57.075642 -14.197353
25.609903 57.110153 -14.210037
25.568542 56.867863 -14.234393
25.367695 56.209896 -14.204076
25.166702 56.232082 -14.200241
25.483177 56.26165 -14.226057
25.393791 56.376614 -14.247889
25.249691 57.926086 -14.173882
24.970913 57.935684 -14.129623
25.57061 57.989655 -14.229202
25.057571 56.138618 -14.196505
25.253616 56.153133 -14.238552
24.849251 56.100147 -14.129682
25.176249 55.920406 -14.212909
24.75565 56.162086 -13.761868
25.49263 56.339973 -14.238902
25.18268 57.756176 -14.198853
25.477324 55.933662 -14.300174
25.465429 56.914467 -14.241444
25.178717 56.897453 -14.215826
25.344501 56.882763 -14.208241
25.672306 56.990589 -14.233752
25.373665 56.0499 -14.24884
25.453022 57.386429 -14.202106
25.181597 57.423069 -14.168979
24.893299 57.396488 -14.134843
25.475985 57.531261 -14.21164
25.279186 57.627945 -14.17766
24.976503 55.925732 -14.177256
25.395153 56.133289 -14.237169
25.335485 57.611225 -14.205255
25.058697 57.618179 -14.158628
25.636883 57.644978 -14.249989
25.37085 57.652752 -14.231236
25.378405 57.747017 -14.22543
25.213919 57.075356 -14.235994
25.258295 57.128448 -14.234748
25.793753 57.118309 -14.280569
25.568951 57.222881 -14.248692
25.279663 57.212074 -14.213252
25.374304 57.443611 -14.219875
25.683783 57.519905 -14.245212
24.56744 56.952038 -14.067957
25.689598 56.725597 -14.2861
25.710106 56.781445 -14.275309
25.728661 56.833878 -14.269757
25.776512 56.98447 -14.288394
25.09124 56.233551 -14.188415
25.55599 56.236649 -14.248336
25.344154 56.281811 -14.24024
25.081722 56.355305 -14.218485
25.631447 56.338512 -14.265242
25.069223 58.254353 -14.132371
25.641821 58.285973 -14.234655
25.574446 57.430058 -14.241308
25.265226 57.429199 -14.208508
25.587839 57.520313 -14.248211
25.30245 57.532551 -14.185995
25.609545 57.667625 -14.240444
24.978653 56.237797 -14.16529
25.562771 56.261837 -14.297776
25.285852 56.273232 -14.254817
25.284412 56.350403 -14.234532
25.07604 56.521992 -14.173142
25.627213 56.541969 -14.249252
25.347982 56.568562 -14.24616
25.241322 55.909859 -14.216496
25.08799 55.904716 -14.182561
23.862648 57.117573 -13.694992
25.276608 57.407372 -14.181923
25.183275 57.5172 -14.182668
25.059752 57.735573 -14.176943
24.832537 56.171677 -14.176085
24.856569 57.07814 -14.144612
25.129227 57.218433 -14.186757
25.400772 57.315109 -14.205291
25.059902 56.096249 -14.175651
24.662313 56.17627 -13.771884
24.564106 56.175907 -13.760759
25.141788 57.460396 -14.19491
24.963659 57.365704 -14.088044
25.461445 57.446793 -14.209457
24.972319 57.634468 -14.141569
25.460293 57.605885 -14.205195
25.521198 57.712177 -14.201455
25.480824 55.949814 -14.248459
25.505533 56.27076 -14.252125
24.983709 56.310081 -14.136845
24.462408 56.180099 -13.756557
24.479567 57.048527 -14.056061
25.587124 58.051044 -14.236609
25.201355 58.092476 -14.198299
25.287693 58.209278 -14.176877
25.555452 58.292068 -14.222476
25.370932 58.299946 -14.214996
25.600647 58.351677 -14.249468
25.062523 57.998714 -14.19982
25.364918 58.040249 -14.21262
25.352234 58.161518 -14.184445
25.63131 58.196487 -14.218563
25.076885 57.450211 -14.188372
25.649548 57.763466 -14.267514
25.482597 57.892052 -14.235785
25.408684 57.981464 -14.23075
25.14732 58.148731 -14.156978
25.438652 58.189884 -14.24057
25.270594 56.261326 -14.229066
25.270479 56.573696 -14.2477
25.357117 56.667431 -14.23685
25.058697 56.880703 -14.19637
25.517147 56.967709 -14.24508
25.365829 57.229416 -14.238281
25.320004 57.356293 -14.226886
24.771988 55.881359 -14.103353
24.497902 57.068462 -14.102838
24.364031 57.151352 -14.037775
24.960865 57.072411 -14.137337
25.628479 58.184883 -14.242602
24.476604 58.342934 -14.051825
25.310213 56.917007 -14.219746
25.567812 56.989033 -14.25136
25.332918 57.115784 -14.232131
25.586641 57.162998 -14.268159
25.049334 57.205669 -14.17477
25.061508 57.304325 -14.173785
25.161106 57.633949 -14.199161
25.485416 57.98074 -14.210447
25.280468 58.065205 -14.179879
25.503483 58.156158 -14.222733
25.152815 58.229298 -14.155091
25.518131 58.283764 -14.224233
24.88328 56.865711 -14.126329
25.402622 57.408592 -14.193794
25.269354 58.258236 -14.146403
24.958368 57.191326 -14.140374
24.685144 57.330727 -14.115902
24.78483 57.613373 -14.124183
24.991396 57.721649 -14.114036
24.779989 57.943218 -14.107306
24.171492 57.044598 -14.049759
24.972595 56.860298 -14.149446
24.767252 57.491718 -14.096242
24.862707 57.54472 -14.140845
24.861591 57.62262 -14.134717
25.080889 57.725979 -14.155332
24.859678 57.945583 -14.119546
25.331923 57.911732 -14.173497
25.079287 57.939869 -14.147498
25.30241 57.706322 -14.191729
24.780006 57.394588 -14.114678
25.088112 57.800026 -14.135008
25.348097 58.000137 -14.163307
25.08301 58.034286 -14.125129
25.092182 56.272827 -14.228633
25.281755 57.179665 -14.178912
25.057343 57.494854 -14.147319
25.159075 57.682693 -14.15375
24.940241 55.815937 -14.21315
25.171772 55.991474 -14.204556
25.177618 56.462708 -14.2008
24.664856 56.512135 -14.075597
24.383951 56.28006 -14.060812
24.760468 56.464161 -14.159348
24.960052 56.634628 -14.133453
24.876596 57.71814 -14.103974
24.645554 57.167831 -13.757437
24.965403 56.005302 -14.180346
24.869692 56.014702 -14.14833
24.88883 56.437309 -14.163864
24.669043 56.551952 -14.115162
25.129694 56.59869 -14.144404
25.165857 57.085171 -14.157816
25.183222 57.267376 -14.143464
24.964453 57.502125 -14.125833
24.745722 57.558239 -14.129723
24.177591 57.067715 -14.095057
24.676538 57.719589 -14.08437
23.786516 57.089817 -13.689726
24.68058 57.396389 -14.094578
24.48629 57.93417 -14.074068
24.656012 57.78685 -14.017933
24.468746 56.396336 -13.758816
24.479788 56.518875 -14.060842
24.787334 57.842251 -14.124557
24.567932 57.941109 -14.086352
24.545462 58.254299 -14.064984
24.565958 56.836689 -13.771531
24.365385 56.947826 -14.058843
24.474142 57.785652 -13.737239
24.664082 57.621799 -14.108271
24.377756 57.366432 -14.038422
24.160887 57.361862 -14.019451
24.284445 57.346569 -13.722053
24.87269 55.973415 -14.10213
24.781635 56.002087 -14.130863
24.483131 58.261791 -14.056887
24.18984 57.415554 -13.702786
25.086096 55.993004 -14.184027
25.322214 56.038891 -14.211042
24.575932 57.718887 -14.065533
24.741648 57.774189 -14.145002
24.566381 57.627914 -14.104554
24.310699 58.061306 -14.003058
24.654945 56.455284 -14.13654
24.858593 56.716087 -14.092283
24.571861 56.551083 -14.108179
24.477785 56.636436 -14.074348
24.66412 56.634186 -14.087797
24.665186 56.735378 -14.079138
24.764668 56.73597 -14.089848
24.569059 57.41325 -14.079402
24.575161 57.491421 -14.060788
24.978672 57.588913 -14.080805
24.957602 57.677937 -14.065244
24.760464 56.647778 -14.108426
24.661615 57.486401 -14.069702
24.552654 57.842953 -13.978437
24.559357 56.6078 -13.765141
24.910921 55.832924 -14.191397
24.408802 58.123985 -13.984353
24.570061 56.438705 -14.15405
24.779871 56.550278 -14.120013
24.587538 55.986351 -13.798112
24.563196 56.401527 -13.764582
24.549454 55.786453 -14.103765
24.568256 56.321606 -14.092159
24.569725 56.635414 -14.078888
24.989815 56.721115 -14.11976
24.662125 55.783733 -14.116032
24.661852 56.322567 -14.098187
24.470894 56.551067 -14.096589
24.571552 56.727692 -14.06987
24.463737 57.405537 -14.070562
24.473236 57.903282 -14.037145
24.564823 56.236652 -14.107214
24.77363 56.330654 -14.110497
24.761957 56.523899 -14.081916
24.874512 57.590683 -14.060576
24.479149 56.74102 -14.066592
24.567741 57.67794 -14.04347
24.384941 56.449558 -13.998078
24.376299 56.5098 -14.055632
24.4207 56.462803 -13.812766
24.493042 56.456226 -14.121058
24.577848 56.016338 -14.10181
24.479055 56.248466 -14.115668
24.572132 56.863453 -14.081817
24.385386 57.967621 -14.071671
24.387859 58.187477 -14.071418
24.388561 58.306969 -14.008428
24.382763 55.775829 -14.082848
24.384815 55.972294 -14.067775
24.257994 56.601608 -14.070837
24.666658 56.60368 -14.052786
24.476179 57.136871 -14.047708
24.375051 56.639111 -14.067367
24.268005 57.470856 -14.009378
24.287594 57.483681 -14.040275
24.276623 56.168388 -13.753812
24.290642 56.387604 -13.750991
24.566774 56.512573 -14.070166
24.283298 56.620106 -13.751802
24.288946 56.732658 -14.037968
24.277115 56.716499 -13.736897
24.279648 56.803539 -13.727819
24.670311 57.678879 -14.041755
24.36095 56.251957 -14.091174
24.342052 56.561264 -14.087297
24.373196 57.730564 -14.046837
24.662849 55.98003 -14.079875
24.843456 56.518848 -14.086352
24.865551 56.805073 -14.076671
24.298283 56.513344 -14.042041
24.477736 55.970745 -14.074711
24.565561 56.590714 -14.058962
24.366447 56.839657 -14.038909
24.485512 57.452568 -14.026367
24.345818 58.273434 -14.036289
24.383387 56.037796 -13.731749
24.760101 56.835209 -14.07256
24.285103 56.593819 -14.023632
24.747562 57.675064 -14.049809
24.566462 57.451412 -14.03107
24.690096 57.224663 -14.02359
24.160814 56.63134 -14.053773
24.864113 56.277573 -14.091523
24.74688 56.30238 -14.061124
24.756533 56.59705 -14.054023
24.759521 57.440186 -14.044285
24.775539 57.768627 -14.024955
24.266209 56.901588 -13.704695
24.655956 57.449375 -14.028508
24.366859 56.62347 -13.754648
24.361839 56.362999 -13.707951
24.371819 57.659565 -13.715873
24.373537 56.813942 -13.731961
24.585781 57.20644 -13.71067
24.370825 57.197922 -13.696343
24.844719 57.432484 -14.038927
24.282206 57.186943 -13.67603
24.370867 57.250664 -13.733006
24.900459 57.729401 -14.046429
24.375237 56.392704 -13.751553
24.473688 56.881031 -13.724041
24.46003 57.651093 -14.08532
23.963428 57.060757 -13.689465
24.370636 56.934319 -13.742271
24.273849 57.46587 -13.729179
23.886572 56.851269 -13.699025
24.89971 56.536224 -14.226463
24.966827 56.964005 -14.275575
24.462772 56.85479 -13.767166
24.85948 57.987778 -13.72527
24.176186 56.164829 -14.162536
24.113195 56.220341 -14.136465
24.167038 57.873379 -13.69993
24.690298 56.597446 -14.192872
23.887197 56.594421 -13.764404
24.839407 56.841892 -14.221157
24.287851 56.857769 -13.762504
24.783627 57.030235 -13.746057
24.15671 57.390694 -13.764393
24.293066 57.383873 -13.758519
24.725531 56.565502 -14.221869
24.35939 57.22052 -13.967442
24.162756 56.827141 -13.767896
24.662279 57.026707 -13.7419
24.31197 57.650768 -14.074935
24.901365 57.060631 -13.708168
24.77426 57.243202 -13.729384
23.810331 56.85918 -13.779655
24.183033 56.177414 -13.749634
24.660934 57.769974 -13.737155
25.091354 56.709629 -13.730289
24.949394 58.089893 -13.692907
24.892992 56.648624 -13.769894
24.668291 57.232899 -13.738002
24.953552 57.026299 -13.766292
24.977577 56.82069 -13.729031
24.358675 56.643528 -13.852806
24.869867 56.390488 -13.778521
24.878023 56.825211 -13.755042
24.857738 57.116886 -13.729611
24.569118 56.931786 -13.755918
24.706541 56.802265 -13.749253
24.394197 56.846291 -13.754019
24.180996 57.78566 -13.73994
24.095354 57.262211 -14.034882
23.968056 57.502613 -14.048856
24.168314 57.470787 -13.739241
24.377689 57.391209 -13.756976
24.095591 57.301716 -13.785803
24.188189 56.930809 -13.74439
24.158867 56.70826 -13.734336
24.646486 56.614552 -13.768092
24.754219 57.711433 -13.721703
24.173443 57.691784 -13.734882
24.383194 57.161621 -13.749525
24.167803 57.242123 -13.741398
24.162312 57.697308 -14.07008
23.956278 56.419483 -13.837555
23.930662 56.248493 -14.109568
23.859421 56.454441 -13.801161
24.157463 56.544338 -13.855983
23.865021 56.835049 -13.781467
24.15653 57.296284 -13.790625
24.190716 56.624245 -13.759635
23.868689 56.520519 -13.784598
23.77005 57.682259 -14.075028
24.079109 57.237801 -13.74379
24.261583 56.436802 -13.84221
24.073372 56.834957 -13.765837
24.27622 56.672897 -13.845795
23.774364 56.383621 -13.740198
24.073118 56.826057 -13.721079
23.710535 57.638336 -14.112235
23.827656 56.402142 -13.775933
24.465555 56.932095 -13.748845
24.069374 56.405426 -13.813143
23.782448 56.44392 -13.809723
24.20241 56.414749 -13.821276
24.684378 56.8395 -13.777816
24.077169 56.908909 -13.740592
24.058144 56.201019 -13.790256
24.04364 55.854839 -14.137584
24.084984 56.577507 -14.023753
24.957518 57.144508 -13.714042
24.937551 57.057739 -14.227367
24.599323 55.916252 -13.828095
24.156437 56.2178 -14.104435
24.101301 56.537811 -14.098456
24.664352 56.399727 -13.761606
24.753073 56.618889 -13.774071
24.466743 56.810905 -13.742825
24.762697 56.406845 -13.757581
24.270267 55.989357 -13.781176
24.266966 55.904045 -13.820332
24.987268 56.255741 -14.253017
24.078554 56.715233 -13.717686
24.573961 56.805271 -13.741328
24.87504 56.713036 -13.750965
24.145832 57.173119 -13.652541
24.461641 57.251068 -13.73467
24.098728 56.458374 -13.732367
24.076441 56.394321 -13.7647
24.095928 56.184776 -13.740123
24.75227 56.905006 -13.723808
24.550125 56.892345 -13.720702
24.75128 56.815594 -13.713586
24.177317 56.376415 -13.744257
24.161808 57.94606 -14.061397
24.557293 57.109043 -13.732149
24.453531 57.658752 -13.714523
24.182802 56.820202 -13.731217
24.093952 57.409218 -14.055043
24.386602 56.892109 -13.716696
24.67823 56.869331 -13.739318
24.179844 58.170319 -14.064395
24.060713 56.594501 -13.711763
24.160624 57.403778 -14.066866
24.088722 55.810383 -14.112668
24.180384 57.651707 -13.717398
24.082474 57.343628 -14.042221
24.472643 57.217667 -13.702427
24.113781 57.588375 -14.088702
24.113365 55.871975 -14.10138
24.168079 57.982586 -13.683418
24.016031 56.816048 -13.71734
23.902451 57.013332 -13.672017
24.090157 57.278366 -14.102808
24.641348 56.63335 -14.189837
25.134537 56.588158 -14.234287
24.818716 56.708004 -14.212961
24.914846 56.919613 -14.217925
24.733511 56.891232 -14.189564
24.589293 56.626717 -14.167889
25.151121 56.633118 -14.206918
24.690557 56.361267 -14.207174
25.492889 56.828991 -14.342895
25.510651 56.920052 -14.331274
24.956818 56.909527 -14.278556
25.251495 57.033417 -14.309492
24.850872 56.3517 -14.190193
25.422222 56.703754 -14.218048
25.236816 55.862232 -14.237145
24.623777 57.208302 -13.6977
23.997345 56.495949 -13.636275
24.851072 57.240971 -13.699989
25.097143 57.033749 -13.727454
24.284431 56.237644 -13.906134
