# .PCD v0.7 - Point Cloud Data file format
VERSION 0.7
FIELDS x y z
SIZE 4 4 4
TYPE F F F
COUNT 1 1 1
WIDTH 1561
HEIGHT 1
VIEWPOINT 0 0 0 1 0 0 0
POINTS 1561
DATA ascii
26.849924 17.894947 -31.351616
27.365763 14.989137 -31.472109
27.170521 18.860502 -31.659443
26.878796 18.271957 -31.378004
26.511341 14.644413 -31.1387
27.266165 18.608091 -31.712482
27.152075 16.148863 -31.455782
27.279613 18.037964 -31.692211
26.882236 13.400026 -31.40667
28.039818 16.225174 -31.834557
27.452152 14.595196 -31.785688
27.462404 15.739384 -31.779556
27.580498 14.699565 -31.750053
27.271088 16.744873 -31.686279
28.037663 15.767497 -31.78195
27.375759 17.130276 -31.752047
27.344732 14.959829 -31.535856
27.441311 14.672201 -31.690077
27.260483 18.82299 -31.554701
27.388077 15.527078 -31.464983
27.021784 18.678604 -31.657114
27.676731 14.363335 -31.641224
27.647415 18.433647 -31.706596
27.477921 17.394815 -31.761662
27.18084 17.59198 -31.656618
27.170162 17.375082 -31.608376
27.066952 14.228732 -31.495388
26.97126 14.220684 -31.420357
26.915321 14.307853 -31.549816
26.979815 15.377575 -31.308353
27.079773 16.651361 -31.372669
27.666252 13.55177 -31.642504
26.584152 11.922534 -31.202003
27.768923 17.750126 -31.933342
26.864088 16.440363 -31.294027
27.566486 14.843332 -31.59428
27.607866 14.122526 -31.560146
28.075171 17.092705 -31.862961
26.872568 14.043969 -31.330248
27.364159 12.649462 -31.425219
27.056629 14.671133 -31.407948
27.161964 15.00658 -31.614555
27.791458 18.053131 -31.750671
27.255571 14.484694 -31.490362
26.632044 14.382763 -31.399378
27.381464 13.924741 -31.544071
27.581749 18.452215 -31.680456
26.981331 15.187942 -31.538366
26.789248 15.823383 -31.49527
27.164345 16.028845 -31.423954
27.184309 14.380223 -31.403852
26.944527 14.824848 -31.336716
26.804659 16.942921 -31.560448
27.530235 12.663063 -31.506477
26.89045 18.026245 -31.38978
27.586445 18.725903 -31.685482
26.906031 18.377842 -31.381548
27.064581 17.98201 -31.403244
27.638489 13.398119 -31.827505
27.455658 15.612913 -31.485279
27.8606 16.145969 -31.74621
27.9522 15.417832 -31.770872
28.022383 18.141537 -31.845493
27.16774 14.295654 -31.679537
27.380995 15.74418 -31.738775
27.083702 16.477491 -31.648499
26.86845 18.674498 -31.391064
27.274525 15.74229 -31.685555
27.265116 16.845207 -31.460056
26.650959 14.55409 -31.345066
27.580275 17.777729 -31.674759
27.177666 17.498768 -31.4424
27.661224 14.972988 -31.717495
26.717621 17.219961 -31.27471
27.362114 12.548513 -31.506834
27.461739 16.321325 -31.800594
26.852827 11.802797 -31.299286
27.374426 14.446062 -31.475361
27.2827 15.554756 -31.678261
26.51873 13.039734 -31.038069
27.459457 17.326143 -31.800476
27.559523 18.725346 -31.726049
27.534342 14.334002 -31.529039
27.3526 16.803688 -31.578365
27.372696 18.770596 -31.755682
27.588362 14.453019 -31.922285
26.99189 17.149 -31.394968
26.877665 16.937901 -31.555944
27.096712 18.553314 -31.60367
26.859133 17.350082 -31.3374
27.665358 17.752283 -31.897381
27.467371 12.980073 -31.763811
27.282036 13.252884 -31.6677
26.561859 14.851646 -31.101185
27.115524 15.210495 -31.661345
26.859558 15.134757 -31.324574
27.178261 14.747564 -31.445812
26.974802 15.550123 -31.50651
27.253529 13.919454 -31.499331
28.230614 18.104698 -31.922688
27.273113 14.829123 -31.448832
27.552032 13.551344 -31.597591
26.830597 14.520552 -31.448584
26.726221 16.221489 -31.150629
27.27161 12.948062 -31.634253
26.250349 14.773308 -31.141075
27.042252 14.192698 -31.569765
27.369947 14.826986 -31.493874
26.80949 12.565695 -31.27475
26.945297 15.525548 -31.380396
26.857655 15.54314 -31.43133
27.479548 16.849709 -31.558399
26.58544 13.610655 -31.313318
27.090794 18.872635 -31.608688
27.264444 18.736378 -31.566202
26.879734 13.039499 -31.481201
27.045521 16.950972 -31.642855
27.276102 18.758219 -31.699039
27.253765 14.384291 -31.668194
27.804792 18.106972 -31.743742
26.671854 14.835462 -31.185596
27.086624 14.36621 -31.604813
26.975317 15.962803 -31.366472
26.639124 17.534847 -31.352354
27.45676 14.738626 -31.563374
27.259304 18.125515 -31.469227
26.97883 16.465008 -31.628033
26.772306 15.529476 -31.396267
27.358162 15.758554 -31.533932
27.588543 14.754715 -31.628342
26.803032 17.113594 -31.411423
27.57737 16.490494 -31.6236
27.081667 17.084187 -31.546171
26.769266 13.760784 -31.319376
27.361542 16.224125 -31.552851
27.177902 11.850668 -31.339256
27.665346 18.569485 -31.735769
27.597406 17.900766 -31.75202
27.17874 12.398672 -31.326942
26.470846 13.210845 -31.223783
26.282335 16.405636 -31.119102
27.395832 11.972316 -31.608381
27.482979 13.780873 -31.705667
27.279787 14.997012 -31.430456
27.175209 17.95508 -31.649321
27.165819 15.007488 -31.376583
27.265919 14.018209 -31.479744
27.258583 15.674805 -31.498819
27.56304 13.97279 -31.558874
27.355434 16.788923 -31.765202
26.445038 12.981884 -31.087067
26.973452 17.71612 -31.395758
26.519293 16.72068 -31.370687
27.683678 16.293573 -31.67625
27.058025 13.473886 -31.390427
27.685284 18.537973 -31.941772
27.375158 18.747215 -31.628635
26.796892 16.057577 -31.307135
27.265678 15.298366 -31.470112
26.998203 14.516256 -31.435019
27.065975 15.401402 -31.350124
26.966778 14.590754 -31.370415
26.870739 18.203239 -31.551073
27.368284 15.186562 -31.729891
26.437113 13.885647 -31.194813
26.876135 17.001263 -31.461317
27.192307 16.525415 -31.673862
26.78005 14.521936 -31.401178
27.264732 17.326704 -31.707253
27.256252 16.287054 -31.411648
26.844543 12.235192 -31.218922
26.989714 17.249735 -31.615892
27.363798 17.29561 -31.738998
26.98465 17.410032 -31.393454
27.561695 13.371924 -31.82807
27.846025 17.570814 -31.754499
26.779675 14.777688 -31.151857
28.127975 16.90016 -31.880733
27.633806 17.484924 -31.736029
26.982162 16.57254 -31.345127
27.830975 17.864571 -31.758694
27.467714 17.489876 -31.794184
27.077126 14.915858 -31.352808
27.133038 16.555326 -31.467186
27.04385 17.944828 -31.578928
27.060862 17.233801 -31.664263
27.659073 15.522293 -31.559978
26.794146 12.520505 -31.25005
27.484585 14.377351 -31.787916
27.204504 14.398121 -31.627995
27.27413 17.302059 -31.682228
28.148136 15.832615 -31.858749
27.551146 18.496458 -31.718159
27.072006 16.597898 -31.364809
27.271648 14.176297 -31.668739
27.679287 18.028677 -31.70624
26.802795 14.214009 -31.4524
27.742682 15.382017 -31.680578
26.941828 14.877886 -31.282013
27.371128 15.106627 -31.492655
27.530272 12.92726 -31.494308
27.464674 14.995596 -31.512659
26.766188 13.55001 -31.468203
27.462761 17.764788 -31.786474
26.725885 15.85106 -31.123091
27.180307 14.921743 -31.396542
26.967781 18.005211 -31.419813
27.409889 14.601166 -31.472303
27.464874 18.485012 -31.801922
27.669945 15.083496 -31.641508
27.010216 13.904339 -31.32197
26.990717 17.217712 -31.536486
27.464165 15.930764 -31.781828
27.079714 13.609605 -31.537521
26.761139 12.782151 -31.427795
26.741037 15.421216 -31.531061
26.732807 14.494588 -31.405664
27.58939 16.12574 -31.628757
27.570679 12.04794 -31.531958
26.877762 17.83498 -31.434229
27.007551 18.512299 -31.397369
26.868786 14.746619 -31.296352
27.172461 17.422668 -31.480242
26.599819 14.525282 -31.199858
26.951349 17.641272 -31.474331
27.958975 18.660896 -31.807848
27.049974 14.992901 -31.327522
26.787237 14.652866 -31.237713
27.363361 18.660873 -31.633387
27.93679 14.357794 -31.778046
26.895597 16.221949 -31.370493
26.662878 14.99861 -31.340347
27.480614 13.223248 -31.704208
28.160797 16.745506 -31.964226
27.56337 17.435682 -31.647663
27.154375 13.47683 -31.427412
27.760368 15.301055 -31.698526
27.483814 18.105553 -31.744383
27.210817 18.668322 -31.541769
27.312756 16.637735 -31.806053
27.172333 16.123238 -31.399902
27.165951 18.156858 -31.469328
27.652142 17.491302 -31.892563
27.46953 16.805174 -31.619265
26.681082 17.639009 -31.270239
27.449205 14.228785 -31.651556
27.364904 15.564171 -31.513592
27.077961 12.595588 -31.533606
27.252712 15.409071 -31.502672
27.175579 15.868772 -31.471312
27.348661 14.566989 -31.741009
26.877045 13.864426 -31.316029
27.179802 14.827238 -31.415707
26.761232 14.304326 -31.313
26.805445 12.785515 -31.181316
27.249681 18.313982 -31.474985
27.268818 17.596273 -31.702877
26.875065 15.858919 -31.5168
28.062368 17.281343 -31.851215
26.986034 13.334562 -31.477182
27.078495 14.815841 -31.355934
27.592262 15.332814 -31.569679
27.197636 14.162881 -31.630936
27.845388 15.844151 -31.764784
26.888727 16.728075 -31.369213
27.378695 16.827539 -31.73802
27.475601 13.253206 -31.768145
27.662718 18.050804 -31.906435
27.7694 16.119238 -31.700272
27.466516 15.65503 -31.785761
27.625982 13.987452 -31.591135
26.871567 14.807168 -31.257685
27.250874 14.335965 -31.647671
27.478298 15.187524 -31.537786
27.652248 17.41375 -31.704716
26.984619 12.678505 -31.30287
27.469616 12.901434 -31.772846
27.462173 16.480785 -31.788048
27.220587 17.20505 -31.53562
27.029581 15.783603 -31.596899
27.375237 13.712635 -31.474266
27.566616 16.223473 -31.63228
27.465565 14.916842 -31.777699
27.250603 14.424191 -31.604372
27.972914 15.808712 -31.80332
27.086771 16.105764 -31.361322
26.971796 15.023038 -31.504705
26.845364 17.398136 -31.33107
27.281385 15.565331 -31.699251
26.810507 14.6219 -31.385628
27.369083 17.750107 -31.740854
26.602581 12.540647 -31.112328
27.010063 12.653154 -31.488184
27.177977 18.765224 -31.657038
26.700592 13.053546 -31.429413
27.468323 14.60743 -31.760828
27.099287 12.905087 -31.334957
27.010008 16.965902 -31.624876
27.165686 15.857647 -31.638405
27.053013 14.938752 -31.561317
28.000978 15.960727 -31.813902
27.096645 14.595143 -31.642384
27.463522 14.268259 -31.51145
26.780792 17.590038 -31.20462
27.464849 14.916435 -31.518959
27.157297 13.607378 -31.583199
27.36227 18.009148 -31.618572
27.272144 15.556585 -31.461153
27.26322 18.115974 -31.659266
27.174763 15.29405 -31.427052
27.279667 14.918075 -31.678944
26.712646 12.5354 -31.205307
26.739773 16.355608 -31.313046
26.905584 18.310902 -31.550161
27.340715 18.072006 -31.852146
27.368774 12.697082 -31.450686
27.260933 14.906814 -31.42778
26.99057 18.136873 -31.645927
27.081944 18.824747 -31.474276
27.076429 14.349816 -31.541666
28.065655 14.517494 -31.873686
27.456043 12.425927 -31.501934
28.010271 16.85574 -31.821621
26.780447 13.634308 -31.378338
27.631844 15.266281 -31.592344
27.267101 17.922846 -31.575043
28.029554 16.139723 -31.813154
26.652641 14.223045 -31.311842
27.563751 15.019681 -31.562935
26.875299 13.478316 -31.298132
27.898859 14.872799 -31.75355
28.102522 18.055264 -31.883535
27.153109 17.775681 -31.440382
27.101297 14.5572 -31.328455
28.163973 15.973598 -31.867413
26.856224 17.803665 -31.353895
27.066236 13.330832 -31.540154
27.003592 16.839609 -31.333954
27.358109 12.996579 -31.516886
27.373245 14.406795 -31.562033
27.190002 14.569521 -31.420275
27.560913 18.661316 -31.848238
27.261444 14.761762 -31.479218
26.958839 15.171325 -31.289297
27.070847 16.712276 -31.653212
26.674067 14.431832 -31.282131
27.141453 12.953592 -31.547382
27.267027 15.493475 -31.49382
26.969646 17.857838 -31.612011
26.95583 14.3457 -31.483925
27.45903 16.370134 -31.728693
27.165508 12.533471 -31.419291
27.375326 14.914804 -31.484947
27.8846 15.459777 -31.738514
27.174429 16.963272 -31.461672
27.176712 12.179353 -31.432932
27.154749 16.034983 -31.649084
26.758427 18.398462 -31.251774
28.274942 16.701632 -31.981306
27.449974 17.882288 -31.570189
27.270958 16.532686 -31.534794
26.45256 16.371532 -31.200945
26.713573 16.392138 -31.46583
26.972248 11.98812 -31.322744
26.966839 16.546368 -31.654247
26.8999 16.360107 -31.325302
27.465643 14.445709 -31.514265
26.768404 11.815533 -31.23559
27.074459 17.163712 -31.440264
26.590742 16.788401 -31.197165
27.172617 17.330482 -31.659803
27.449392 14.05347 -31.49753
26.763615 14.248979 -31.325844
26.768713 18.203476 -31.528311
26.860285 14.548561 -31.27396
27.259983 16.246918 -31.536306
27.168846 18.457832 -31.522211
27.17547 18.930622 -31.532187
27.149548 16.275526 -31.347702
27.167595 18.028008 -31.622444
27.252382 13.375455 -31.513577
27.151802 13.347987 -31.594818
28.168753 14.37292 -31.919682
27.470779 14.103803 -31.5233
27.17605 15.461133 -31.616314
26.840687 15.474021 -31.523603
27.794798 16.852091 -31.71998
26.485947 16.263298 -31.060883
26.996914 14.404873 -31.584333
26.511585 12.548141 -31.051529
26.792295 14.28812 -31.474178
27.899792 18.371742 -31.788927
26.968815 16.641672 -31.487492
27.471693 15.595202 -31.792852
26.90147 16.532278 -31.36804
26.860737 13.281278 -31.295347
27.699183 18.138842 -31.685606
27.560913 14.578397 -31.839388
27.260189 12.550735 -31.455948
27.266808 15.589304 -31.519588
26.537422 14.497271 -31.273325
26.55253 14.754467 -31.10467
26.454668 12.130509 -31.021753
26.984533 13.193387 -31.358091
27.474789 14.419446 -31.734781
27.658154 14.831477 -31.635441
26.996117 13.388002 -31.546957
26.367739 13.599201 -31.176723
27.878111 16.371634 -31.755697
27.302824 12.016947 -31.728882
27.45582 12.693026 -31.496162
27.454844 15.900129 -31.732859
27.778551 17.879856 -31.736275
27.156126 18.325914 -31.436764
28.151815 15.701753 -31.916954
27.570356 17.047089 -31.636875
26.767525 13.3766 -31.47698
27.928488 17.542604 -31.78581
27.463779 15.1099 -31.788366
27.26403 15.737956 -31.413818
26.925774 14.192141 -31.497963
26.925596 13.599681 -31.468607
27.373409 14.531765 -31.473104
27.650103 13.823756 -31.630808
27.066288 14.411109 -31.41049
27.465971 15.380216 -31.529593
26.567598 17.445221 -31.300114
26.95594 13.348865 -31.279472
26.454767 14.243752 -31.20215
27.080547 13.792439 -31.546734
27.473597 16.306467 -31.572397
27.174849 13.995202 -31.383057
27.167503 14.521611 -31.370729
27.363773 14.26262 -31.463303
27.996748 18.538403 -31.862358
27.385798 16.643785 -31.698719
27.006815 16.117321 -31.331522
27.383644 17.594297 -31.762209
26.748541 17.228291 -31.381033
26.805691 14.390821 -31.46586
27.448021 12.546769 -31.52573
27.317097 13.523264 -31.594433
26.835045 12.54851 -31.277969
27.078527 16.086702 -31.548178
27.519238 16.98634 -31.856277
27.496923 15.500803 -31.72636
26.573236 13.007257 -31.328085
27.358862 16.386337 -31.497477
27.165686 16.579197 -31.419098
26.879175 14.94388 -31.319481
27.469101 15.716305 -31.676325
27.411402 16.232973 -31.61488
27.070044 13.01687 -31.386684
27.076834 12.502623 -31.309683
27.64946 16.128445 -31.655661
27.145414 16.238546 -31.670309
26.787033 15.107977 -31.30233
26.661978 16.227592 -31.113007
27.278437 12.233741 -31.400553
27.179699 18.142244 -31.659286
27.072433 13.364683 -31.626722
27.079651 12.584535 -31.304779
27.260719 17.863012 -31.476593
26.892269 12.937924 -31.306828
26.756184 15.552197 -31.469431
27.256739 15.064836 -31.519785
26.943819 18.840206 -31.43009
26.963003 14.961402 -31.54147
26.862192 15.012177 -31.438164
27.133413 12.071686 -31.636198
27.826111 17.702801 -31.848122
27.25633 17.098003 -31.655676
27.158207 12.246277 -31.34827
27.056175 14.778899 -31.437599
26.694435 14.185013 -31.456612
28.083061 17.963203 -31.867628
27.880917 18.38739 -31.825399
26.965961 13.043027 -31.408094
27.579319 15.375302 -31.578138
27.626322 15.432598 -31.663572
27.228888 13.582468 -31.504517
27.678371 16.19705 -31.657684
27.371296 13.801115 -31.720091
26.836351 17.320427 -31.441206
27.559956 17.481007 -31.839361
27.449572 13.596668 -31.642738
27.178961 14.295811 -31.424383
27.466124 17.288504 -31.785412
26.795418 13.84653 -31.278341
27.756031 18.160858 -31.739796
27.372107 13.329844 -31.710142
27.110481 16.746132 -31.359356
27.558371 14.916376 -31.829222
26.60202 13.337107 -31.13356
26.748079 17.724257 -31.30097
26.97374 17.299158 -31.602213
26.683487 16.428402 -31.22193
27.063 17.766842 -31.573818
27.369469 18.029852 -31.745056
27.260666 12.33972 -31.428457
27.566847 18.054548 -31.642895
27.169979 13.938705 -31.452839
27.56962 18.015278 -31.839792
27.562565 16.282562 -31.82597
27.474369 14.447834 -31.775686
27.16268 17.29351 -31.422363
27.262144 16.960527 -31.508368
27.173727 18.110882 -31.582539
27.374876 15.844181 -31.497425
26.510927 16.071943 -31.200098
27.057882 18.032606 -31.574034
27.078308 11.906211 -31.398077
27.470137 16.592112 -31.802498
28.055504 15.769838 -31.846817
26.84301 15.899396 -31.188908
27.523174 15.436516 -31.655493
26.977282 15.408444 -31.371799
27.565437 14.367557 -31.832821
27.048586 18.900028 -31.437603
27.659838 15.95442 -31.671516
27.263273 17.28079 -31.541874
27.067108 13.64834 -31.399071
26.86268 13.095552 -31.258104
27.468149 18.033625 -31.79447
26.903044 14.390109 -31.54842
27.135479 13.021746 -31.536831
27.173367 17.757439 -31.640022
27.796026 18.076725 -31.898886
27.380867 13.40366 -31.69529
26.581083 12.718554 -31.09774
27.056402 13.167741 -31.561184
26.762514 16.852468 -31.229965
26.87249 13.379025 -31.313194
27.069241 13.84827 -31.417973
26.698444 14.579338 -31.274734
27.5793 14.438191 -31.585043
27.072845 15.96391 -31.415977
27.362139 18.491026 -31.758379
26.686832 15.256979 -31.332006
27.16835 14.671309 -31.457706
28.150249 18.329 -31.906439
27.074068 14.428674 -31.534027
26.661421 14.46984 -31.416351
27.818312 18.310421 -31.792068
27.076887 16.963055 -31.418909
27.650669 14.04786 -31.602962
26.986925 12.757374 -31.273777
27.282822 17.020977 -31.693659
27.561832 17.020544 -31.834681
26.986923 16.481453 -31.534269
27.47204 16.120424 -31.556606
26.955208 16.94272 -31.36817
27.273561 15.657615 -31.691929
27.174454 17.812675 -31.523458
27.374657 15.467299 -31.737017
26.880505 14.48541 -31.307718
26.813828 12.507025 -31.180145
27.471773 12.165223 -31.51837
27.767635 14.899621 -31.685064
27.554371 16.803747 -31.855038
27.168427 12.509679 -31.354523
27.078039 14.324596 -31.419455
27.377104 12.512681 -31.443747
26.98118 12.520959 -31.254051
27.165039 12.798757 -31.354162
27.178102 14.94048 -31.449781
27.471394 12.402328 -31.745789
26.441372 14.296411 -31.160492
27.553312 14.521115 -31.544031
27.268759 12.513484 -31.404161
27.343477 13.646257 -31.535223
26.784645 13.475942 -31.48336
27.644743 13.889345 -31.623966
26.715023 14.095074 -31.25946
27.356716 18.229631 -31.747288
26.767887 13.47407 -31.241467
28.056995 14.98216 -31.824253
27.460867 15.395702 -31.449629
27.286469 13.325304 -31.655998
26.769642 15.443011 -31.351967
27.268999 17.240742 -31.755379
26.918449 16.112005 -31.295046
27.367607 15.374295 -31.489136
27.307133 14.11234 -31.702873
26.314386 13.558993 -31.162354
27.296022 16.940407 -31.78244
27.477072 12.345284 -31.530107
27.464788 13.625978 -31.518751
27.643225 17.757191 -31.713795
27.268673 12.518722 -31.333168
27.462772 11.880754 -31.510164
26.593386 13.548882 -31.29425
27.507719 12.710041 -31.478828
27.64724 18.32579 -31.898808
27.387045 18.251711 -31.781235
26.807467 15.056688 -31.323759
27.642628 14.615818 -31.677389
27.9963 16.500084 -31.821695
27.558931 13.17318 -31.817503
27.98683 15.179163 -31.785866
27.179337 17.287819 -31.631514
27.840637 17.682173 -31.74803
27.365305 12.243784 -31.441492
26.869358 14.892644 -31.423073
27.45579 14.871518 -31.740213
27.459345 13.74716 -31.543543
27.463737 12.233751 -31.496447
27.371077 17.436548 -31.56797
26.960741 17.364876 -31.491896
27.276371 16.599876 -31.526394
27.590786 17.857454 -31.637728
26.94865 18.399572 -31.443911
26.885426 14.614591 -31.299017
27.27734 13.370831 -31.704306
27.451435 15.217072 -31.583467
27.184278 17.396975 -31.651882
27.175327 13.415413 -31.583363
27.721561 13.606552 -31.646774
27.376839 15.383901 -31.737396
27.266806 17.402668 -31.691734
27.274857 17.1334 -31.704252
27.456631 15.106929 -31.53344
26.978741 16.137947 -31.36903
28.083786 14.134775 -31.844198
27.367691 15.307157 -31.510534
27.070942 15.757208 -31.398275
27.264877 18.631346 -31.556303
27.940903 17.956903 -31.792351
27.480989 12.243422 -31.762711
27.663094 13.703811 -31.654385
27.375183 17.374928 -31.695469
27.4653 12.50146 -31.496426
27.159782 14.471173 -31.612034
26.800953 17.385559 -31.371092
27.362793 18.651205 -31.601383
26.877104 15.226577 -31.305878
27.169563 17.155022 -31.480806
27.395485 13.570913 -31.461628
27.275988 13.036588 -31.549599
26.637451 11.891063 -31.396719
27.543219 14.411313 -31.786243
26.736715 16.705385 -31.180759
26.889959 14.198762 -31.324528
27.171684 13.366973 -31.39068
27.271187 16.728611 -31.444738
27.082453 16.435583 -31.52882
27.073839 14.010904 -31.399845
27.466713 16.640039 -31.745838
26.945787 17.745302 -31.608166
26.969006 15.296119 -31.337318
26.801805 14.793377 -31.493587
26.898357 15.311983 -31.548714
27.18438 12.58042 -31.350719
26.944906 18.407433 -31.38756
27.17112 16.889378 -31.478197
27.460993 13.980195 -31.512009
27.378925 16.118904 -31.745319
26.962885 18.830065 -31.413866
27.940319 18.087448 -31.847609
27.179037 17.212265 -31.643417
26.640171 16.021353 -31.126968
27.321138 16.997066 -31.562168
26.678286 15.534558 -31.182013
26.959599 14.987631 -31.435619
26.487431 16.150257 -31.156141
27.569946 15.875864 -31.663462
28.078909 17.201126 -31.854675
27.377239 14.883842 -31.708633
27.56122 12.629617 -31.823252
27.150829 13.165958 -31.611216
26.973803 18.077358 -31.416979
27.269028 16.790863 -31.530956
27.478458 16.519321 -31.825556
27.170393 18.438234 -31.469906
27.858526 18.444963 -31.793015
27.470655 17.832069 -31.769533
28.074734 15.064487 -31.853561
27.773029 16.683828 -31.744072
26.828625 16.524136 -31.490444
27.161339 16.287571 -31.608727
27.15081 17.664341 -31.564997
27.946072 15.115405 -31.780615
27.154985 16.379358 -31.633461
28.017876 15.596031 -31.816774
26.943052 15.813607 -31.334381
26.903252 14.298302 -31.30348
26.71073 13.844267 -31.221188
27.463533 15.841645 -31.539665
27.460983 16.05044 -31.800468
27.878689 14.740289 -31.776722
27.397472 14.046417 -31.763451
27.509024 17.475704 -31.678535
26.89085 17.608723 -31.36091
27.474995 15.999614 -31.515549
27.581539 13.365932 -31.658325
26.99189 16.055832 -31.591902
27.459698 14.327809 -31.50083
27.682732 14.603272 -31.704966
26.870773 12.954691 -31.39403
27.754171 15.227567 -31.684456
27.603973 18.268097 -31.903706
27.284286 16.632416 -31.656181
27.561876 17.398027 -31.847313
27.696037 17.961739 -31.717506
26.79188 18.160658 -31.322865
27.443924 17.544243 -31.634281
27.666588 16.953865 -31.689665
27.474165 13.167586 -31.77157
27.656551 17.038317 -31.667931
26.740767 16.803431 -31.319765
27.184731 14.311886 -31.478056
27.356331 16.882963 -31.568253
27.100691 18.629791 -31.477022
27.550936 16.030916 -31.604208
26.378443 14.924579 -31.160946
27.982624 17.519718 -31.821825
27.468163 16.891727 -31.610476
27.08621 17.708208 -31.4342
27.190636 18.330353 -31.675268
27.258179 16.891367 -31.518465
28.011709 17.740393 -31.823832
27.526241 16.151432 -31.629433
27.523439 14.051424 -31.532511
27.594444 14.782455 -31.702351
27.516142 17.143026 -31.700472
27.565578 12.330423 -31.529898
26.680624 17.181883 -31.306774
27.549391 13.626151 -31.576
27.466179 15.190676 -31.77738
27.893177 15.102028 -31.747219
27.277576 18.335896 -31.714533
28.061844 15.206718 -31.809175
27.804914 17.646498 -31.743559
26.996229 15.08148 -31.331095
27.756639 13.987819 -31.705622
26.980623 13.262878 -31.449196
27.447201 18.764114 -31.778803
27.459387 17.683159 -31.5592
27.35434 14.015736 -31.50523
27.18236 13.623417 -31.387606
27.277979 13.17869 -31.671062
27.149055 16.664267 -31.394964
27.269455 12.864279 -31.644772
26.870768 14.985424 -31.421692
26.978172 18.203913 -31.439205
27.063696 12.302043 -31.30184
26.969995 13.931874 -31.358234
27.092058 17.673265 -31.50045
27.478291 16.203222 -31.541067
26.77417 13.718179 -31.431273
27.090672 13.730566 -31.555807
27.177391 12.890121 -31.389978
27.947189 15.649618 -31.788191
27.268801 12.708308 -31.406769
27.893471 14.830602 -31.747927
28.02458 18.318357 -31.851152
27.15415 12.263957 -31.423037
26.969357 14.113622 -31.364031
26.735256 12.63131 -31.433859
27.098726 15.387789 -31.585424
27.375326 18.336058 -31.763052
27.287209 12.624609 -31.435131
27.276337 16.030525 -31.717882
27.093483 15.452478 -31.567589
27.470425 16.432547 -31.599171
27.077099 17.930731 -31.492973
27.262075 12.894124 -31.418306
26.983349 14.011385 -31.34646
26.825235 16.17816 -31.197222
27.925562 14.514197 -31.810301
27.456806 18.327499 -31.807774
26.25948 13.458089 -31.101927
27.28182 18.838564 -31.66077
27.278593 12.59499 -31.398682
26.642668 12.244204 -31.090387
27.281551 17.043156 -31.47558
26.786863 17.185524 -31.210106
27.353804 16.025562 -31.5163
26.816254 14.719831 -31.290901
26.748508 15.479053 -31.42433
27.08313 12.236843 -31.310167
27.657736 17.293947 -31.733845
27.468515 13.81776 -31.537638
27.092932 13.839102 -31.373688
27.459232 12.326529 -31.484695
27.176979 15.604493 -31.468742
27.25614 13.424777 -31.605774
27.174187 18.603676 -31.656794
27.553711 16.659859 -31.833176
27.174633 16.00547 -31.523279
27.098631 17.309259 -31.64395
26.784195 17.448444 -31.343849
27.532213 16.520742 -31.852711
27.18882 16.929005 -31.416069
27.559326 17.287792 -31.83507
27.275002 14.947098 -31.498947
27.176208 16.317785 -31.47715
26.96903 18.114523 -31.47555
26.936691 12.563846 -31.339609
26.874931 12.034783 -31.394884
27.525738 13.69433 -31.644653
27.239365 13.166344 -31.482584
26.968067 18.624416 -31.415981
27.276239 13.855277 -31.515656
28.012407 17.305708 -31.837797
27.685972 12.6387 -31.886396
26.873173 13.791985 -31.34717
27.759388 17.318836 -31.729656
27.781054 18.234772 -31.748241
27.080648 15.134247 -31.415888
28.049343 14.475985 -31.868599
26.771311 13.365219 -31.280159
26.878809 15.393596 -31.321259
27.366478 16.42688 -31.571033
27.261263 16.14473 -31.509731
27.676546 14.735516 -31.659016
27.351082 12.641328 -31.717344
27.368704 17.852385 -31.528603
27.367914 15.601839 -31.564518
27.371256 14.063554 -31.462172
26.994362 14.098622 -31.223665
27.761986 17.966507 -31.735315
27.802107 17.436163 -31.733494
26.778574 16.155766 -31.292337
27.284794 16.450314 -31.335546
27.084282 17.605961 -31.61751
27.690626 17.881577 -31.751736
26.97517 13.734748 -31.354467
27.555845 17.257086 -31.870296
27.064371 17.4174 -31.596781
27.161089 17.93207 -31.526815
27.087967 17.692926 -31.678341
27.282806 11.93896 -31.631369
27.35297 11.993272 -31.510315
27.162632 16.10326 -31.594074
27.990025 16.203945 -31.795675
26.884108 14.013401 -31.305546
27.067698 18.606421 -31.615705
27.535782 17.438665 -31.713367
26.967329 15.754202 -31.349697
27.062695 16.128807 -31.599285
27.367483 18.141081 -31.753839
27.371323 13.826532 -31.484455
27.072136 14.751355 -31.399317
26.764639 17.351671 -31.3078
27.066504 15.64991 -31.347496
27.568937 17.613302 -31.672693
27.453865 17.686031 -31.790812
27.350576 17.662027 -31.515055
26.850271 18.856049 -31.568613
26.826359 18.599951 -31.490108
26.783571 17.624575 -31.313126
27.477671 16.613926 -31.618465
26.991159 14.855145 -31.376442
27.892712 18.492598 -31.800568
27.646328 17.527136 -31.680265
27.376852 13.086118 -31.50227
27.467802 16.979361 -31.605927
27.047857 17.162018 -31.644199
27.376995 16.070328 -31.573151
27.067728 11.987216 -31.382933
27.37878 16.937002 -31.499226
27.456112 17.16165 -31.602079
27.180046 15.368797 -31.40033
26.651867 13.476872 -31.176249
28.20019 15.713138 -31.918137
26.708544 15.663811 -31.142752
26.921686 17.72044 -31.475554
27.384266 17.571812 -31.737206
26.849062 12.464005 -31.285791
27.380035 14.316465 -31.459961
27.56583 17.77033 -31.844271
27.354059 15.135848 -31.56159
27.346512 13.091633 -31.571054
26.971886 14.277904 -31.576799
27.359653 15.024525 -31.50489
27.00387 12.875932 -31.33946
27.36569 16.131126 -31.56797
27.256992 15.905183 -31.631649
27.173546 17.681019 -31.65172
26.594982 16.352758 -31.241753
27.174509 17.61904 -31.500164
27.464607 13.08822 -31.5254
26.650961 16.570372 -31.388876
26.865408 15.859577 -31.262377
27.782301 17.616356 -31.762791
27.269529 12.382542 -31.528574
27.008801 17.120014 -31.579378
27.149439 18.376808 -31.399048
27.562309 13.820529 -31.598639
27.051674 18.063873 -31.61731
27.271551 17.071667 -31.536768
27.268812 18.357723 -31.561676
26.97891 14.745805 -31.361038
26.95579 17.800415 -31.588936
27.159901 16.987738 -31.499933
27.272198 15.924211 -31.687603
28.073296 17.637604 -31.892538
27.552586 18.503567 -31.844347
27.173113 18.246481 -31.444529
26.672703 15.363379 -31.342731
27.112007 16.955004 -31.374018
27.031422 13.532632 -31.688314
27.154196 17.06679 -31.480083
26.964539 17.001394 -31.501677
27.373943 12.625873 -31.482412
26.767086 15.311882 -31.277185
26.775845 15.406832 -31.250975
27.557384 16.298285 -31.617098
27.563246 15.660558 -31.570503
27.876043 14.645474 -31.739639
27.252647 15.136535 -31.490082
27.553766 15.570139 -31.60997
26.962049 15.131608 -31.359697
27.665901 16.522505 -31.693726
26.647171 14.988646 -31.268789
27.284628 18.066833 -31.715393
27.032663 14.027047 -31.661139
26.9834 18.424191 -31.548309
27.980934 16.390863 -31.805149
27.656006 17.109699 -31.670622
27.376043 17.818945 -31.737364
26.637651 14.762955 -31.162857
27.88168 16.507811 -31.799404
27.053051 16.054478 -31.635151
27.156101 16.698572 -31.538086
27.558651 17.510401 -31.651249
27.373352 17.058884 -31.758654
27.266911 17.160543 -31.520266
27.660368 18.639982 -31.737673
26.754438 14.05408 -31.445747
27.480415 16.236107 -31.649824
26.987617 18.087461 -31.618444
26.676893 13.668681 -31.210716
28.264771 16.660152 -31.955618
27.2609 17.617157 -31.542191
27.978664 17.3557 -31.898094
27.556463 17.236258 -31.643814
27.589521 17.966999 -31.660553
26.883196 16.864988 -31.53441
27.461349 17.242874 -31.594454
27.067066 13.573824 -31.419287
27.196205 15.103376 -31.407558
27.768209 17.233753 -31.735914
27.267632 17.236677 -31.483343
27.549265 14.262376 -31.551704
28.028891 17.213186 -31.86075
26.615971 17.546896 -31.327749
27.929426 16.394701 -31.819681
26.754543 14.789021 -31.374187
27.076836 17.814297 -31.470453
26.884033 14.582756 -31.539404
27.75305 16.476322 -31.718384
27.092768 17.305191 -31.392807
27.664646 17.643621 -31.674929
26.859013 18.625238 -31.361015
27.791098 16.031292 -31.714882
27.172089 14.851541 -31.653694
27.7862 14.227555 -31.72234
26.537394 14.791155 -31.191561
27.670986 16.701727 -31.691193
27.274614 12.791431 -31.658644
26.966347 13.431031 -31.549988
27.922565 18.137428 -31.840574
26.662849 16.479298 -31.350443
27.87948 15.758802 -31.771805
28.103729 18.214249 -31.898537
27.258427 18.187937 -31.57283
27.376146 18.119881 -31.667044
27.20561 15.427031 -31.599874
27.172298 16.822376 -31.610378
27.386475 16.273666 -31.476318
27.464451 12.785071 -31.485964
27.043415 15.251965 -31.486509
27.30529 13.996883 -31.622601
26.890089 17.065891 -31.366995
27.369003 16.284777 -31.732515
27.081326 13.149647 -31.526159
27.468678 15.816077 -31.775459
27.670074 15.018159 -31.647806
27.554123 15.10248 -31.584913
27.080183 13.358002 -31.366476
27.08065 15.01871 -31.399757
26.895775 17.968691 -31.356754
27.367493 13.560556 -31.497534
26.612717 14.196806 -31.343765
26.614498 12.371492 -31.207764
27.367451 15.823129 -31.722246
27.658186 18.346563 -31.722057
27.169399 18.301233 -31.615597
26.732225 18.248528 -31.516317
26.709513 12.961513 -31.250408
26.710932 12.01285 -31.215719
26.974134 14.724239 -31.523766
27.109806 14.719108 -31.573679
26.876724 13.94409 -31.317266
27.213907 14.283883 -31.395206
26.994781 16.122435 -31.573029
26.7586 15.11082 -31.463612
26.948662 15.908322 -31.605064
27.08382 13.076539 -31.555696
26.885445 15.512949 -31.355267
27.395041 12.252135 -31.531116
26.812416 15.198634 -31.486057
26.872953 15.201635 -31.513222
27.265871 13.307474 -31.584377
26.667646 16.208344 -31.304796
27.559855 16.843801 -31.81653
27.559021 12.243943 -31.806814
26.704174 12.642151 -31.164881
27.163662 15.168995 -31.576542
27.159786 16.41254 -31.445683
27.36603 14.116632 -31.564173
27.573013 15.822569 -31.60103
27.004421 12.299027 -31.269907
27.654093 13.1516 -31.816053
26.944023 12.068767 -31.316778
27.070877 17.000774 -31.447954
27.463955 13.361114 -31.528469
27.559023 16.93977 -31.846279
27.176022 14.168539 -31.390776
27.743523 17.683657 -31.953671
27.588995 14.845913 -31.851599
27.16906 15.835406 -31.410496
27.167887 16.056643 -31.472832
27.266138 17.536678 -31.738054
27.563461 18.046881 -31.86318
27.165369 18.735868 -31.515753
27.172186 18.0672 -31.672922
27.157658 15.656095 -31.395649
26.886242 13.574231 -31.326803
26.77092 16.062399 -31.404835
27.07202 16.416475 -31.424601
27.179604 12.206859 -31.512756
27.299683 11.898297 -31.679199
27.438223 13.280429 -31.68627
27.274424 15.019837 -31.467995
27.731335 18.068037 -32.005474
26.789324 18.072149 -31.455145
27.102852 17.78899 -31.426311
26.743717 12.743585 -31.308002
26.982502 11.80493 -31.322725
27.026878 12.366909 -31.375404
26.764112 11.925007 -31.3447
27.272537 12.7061 -31.666788
27.050798 12.445756 -31.366928
26.986828 16.39315 -31.316824
27.172619 12.463103 -31.444874
27.282463 18.033064 -31.497311
27.091238 18.756866 -31.591787
26.770485 16.379684 -31.246967
27.849764 17.131077 -31.748278
26.879396 15.960705 -31.547993
27.46483 13.338265 -31.759747
27.850639 17.590809 -31.822767
27.157589 16.111059 -31.640966
26.89994 12.028617 -31.457048
27.169109 12.030411 -31.519835
27.6761 17.815769 -31.761286
27.279377 17.446012 -31.578892
27.173573 14.095733 -31.406271
27.154015 16.178959 -31.579269
27.137148 12.890846 -31.56748
26.975172 13.291115 -31.347742
27.192093 14.060553 -31.369265
28.009533 16.024923 -31.799131
27.070065 14.119647 -31.411028
27.039062 15.967988 -31.629908
27.274508 13.080488 -31.437515
27.231152 12.930532 -31.488884
27.685881 18.086725 -31.731209
27.005173 13.135339 -31.465452
27.457573 13.292586 -31.551058
26.864292 15.925263 -31.516954
27.322285 12.516348 -31.626432
27.376984 12.054531 -31.703568
27.26795 13.631994 -31.423309
27.148104 12.076868 -31.569565
27.273327 15.095851 -31.437077
27.15826 11.98309 -31.416613
27.341034 17.126575 -31.503281
26.96039 12.732977 -31.334114
26.987661 15.627366 -31.321041
27.588972 18.310837 -31.656683
27.264652 18.69928 -31.7425
27.267155 14.239886 -31.591347
27.38097 14.483627 -31.543354
27.483513 17.551584 -31.78915
27.063829 16.22378 -31.405441
26.864435 12.417045 -31.414576
27.067753 12.406228 -31.526611
27.850355 18.04439 -31.762613
26.96707 16.008873 -31.522095
27.46895 12.701385 -31.765001
27.080383 16.359926 -31.54693
26.985859 13.648164 -31.551365
27.371702 15.083396 -31.719564
27.683947 16.843451 -31.676208
27.264439 18.502668 -31.693651
27.254051 12.294426 -31.545345
27.03714 15.582331 -31.643406
27.39246 13.568863 -31.633665
26.673647 14.245592 -31.365843
27.575974 17.80056 -31.675995
27.295685 15.238252 -31.620258
27.480249 13.476401 -31.598253
27.715975 13.653761 -31.738653
27.157303 15.921126 -31.620007
27.959858 17.982136 -31.819561
26.798664 14.925107 -31.387266
27.177656 15.189131 -31.393553
27.601639 17.001431 -31.738441
26.867939 16.358192 -31.439224
27.595346 18.273539 -31.728893
27.180401 17.896196 -31.485205
27.354734 12.66534 -31.657709
27.535641 11.8472 -31.710678
27.485138 13.42004 -31.738201
27.565521 16.683384 -31.644699
26.974554 12.376267 -31.34758
27.258732 15.860628 -31.517962
27.160934 12.380437 -31.451883
27.069824 15.060276 -31.428024
26.766058 13.761744 -31.231684
27.186953 13.367101 -31.63394
27.25831 13.774363 -31.575172
27.469448 15.639326 -31.524595
27.388174 13.283669 -31.51523
27.549522 17.04435 -31.859037
26.851675 12.376725 -31.280771
26.78167 15.759989 -31.507671
27.082701 12.254972 -31.384531
27.067917 17.539953 -31.454851
26.680399 13.482009 -31.417236
26.922768 18.478407 -31.585163
26.840361 12.839825 -31.497324
27.807186 16.380819 -31.743597
27.079475 16.608521 -31.431597
26.958502 14.043315 -31.365772
27.072447 11.944894 -31.510056
27.186602 12.171888 -31.578899
26.975811 16.829992 -31.500174
26.885599 17.50832 -31.482487
26.829527 15.992971 -31.320213
27.062397 14.587285 -31.424303
27.159622 12.817735 -31.41448
27.149982 14.073358 -31.588472
27.077986 13.092218 -31.343061
27.469442 17.050877 -31.811932
27.583961 14.386744 -31.613359
27.853634 17.224054 -31.760382
27.339197 11.906342 -31.53891
27.266796 12.161933 -31.415697
27.260006 14.584663 -31.515142
27.174252 12.48636 -31.536951
27.266607 17.536531 -31.550825
27.226633 13.152369 -31.511169
27.643742 14.218134 -31.670872
27.457676 13.160279 -31.508265
27.765446 17.12269 -31.716221
27.171724 13.080682 -31.396544
27.085011 13.156806 -31.338543
27.562399 12.862304 -31.800238
27.556286 13.355123 -31.580709
27.366844 13.152477 -31.460052
27.197374 14.342183 -31.614367
27.4438 12.118498 -31.579473
27.548204 18.288965 -31.826233
27.543207 16.9035 -31.72967
26.891134 13.657564 -31.323227
27.742275 17.24679 -31.847376
27.560558 11.875028 -31.638094
27.793203 18.709711 -31.916342
27.99456 15.715081 -31.806311
27.272961 17.313196 -31.482855
27.69453 12.8766 -31.868
27.463196 12.657282 -31.727205
27.576128 16.194342 -31.611565
27.264198 18.798288 -31.716545
27.654812 18.680431 -31.908756
27.566193 17.753553 -31.71067
27.885239 18.729172 -31.949862
27.274176 15.272266 -31.42865
27.601778 13.818551 -31.70788
27.557518 13.218274 -31.747147
27.4729 13.61229 -31.753712
27.445454 18.249163 -31.648552
27.271341 13.905225 -31.426077
27.690138 14.23805 -31.640451
27.261652 16.060598 -31.529423
27.549652 13.406121 -31.795406
27.075579 12.9128 -31.571852
27.147345 13.141279 -31.575636
27.073517 13.930889 -31.408283
27.113293 17.588823 -31.753613
27.060322 13.883279 -31.37365
26.857864 13.153288 -31.51713
27.750286 17.133739 -31.733988
27.180248 13.888453 -31.384537
26.951794 12.773619 -31.486776
27.56715 15.72061 -31.569574
26.797464 12.518418 -31.413811
27.544527 15.268672 -31.55537
27.081329 15.077617 -31.548273
27.270037 15.143175 -31.657301
27.262909 18.689953 -31.704582
26.886683 14.746109 -31.477583
26.866983 15.106777 -31.435482
26.741247 17.065453 -31.205944
27.079147 18.533258 -31.639076
26.710493 13.178738 -31.375521
26.748898 18.521063 -31.513262
26.63088 15.540274 -31.193428
27.005297 17.806067 -31.339954
27.005606 17.063643 -31.350267
27.387012 17.986084 -31.560728
27.854897 17.949492 -31.768652
27.562521 12.172342 -31.812126
27.390787 15.157666 -31.70915
27.265427 12.175838 -31.664862
27.261742 14.619967 -31.648935
27.072603 16.027058 -31.547619
27.071953 17.049149 -31.38471
26.718941 17.089964 -31.430204
26.718031 15.800949 -31.332523
27.584244 14.89557 -31.805439
26.551151 16.637299 -31.297293
26.473986 16.728937 -31.283705
26.341084 13.549362 -31.205751
27.06852 13.277769 -31.385416
26.860416 13.493676 -31.403042
27.304451 15.014918 -31.786634
27.064287 16.829769 -31.54735
26.963209 17.530361 -31.404552
26.954397 18.133446 -31.573944
26.504086 12.512947 -31.294672
26.367491 13.56808 -31.102894
27.274235 16.781307 -31.718826
27.269146 13.441724 -31.665585
27.265896 15.362426 -31.647358
27.36758 13.616831 -31.706589
26.862041 15.568349 -31.5182
26.557779 12.836637 -31.11108
27.352528 12.652099 -31.552238
26.488785 15.048493 -31.233946
26.323845 13.399217 -31.214058
26.874596 12.663097 -31.305529
26.963062 16.604984 -31.578547
26.313869 15.106451 -31.16379
26.624863 13.515843 -31.216787
26.371754 14.142838 -31.092449
26.397364 16.436007 -31.242958
26.895187 16.319834 -31.5676
26.505636 13.329309 -31.318142
26.543842 15.954306 -31.208525
26.569506 13.72971 -31.291561
26.54283 12.196634 -31.298843
27.386572 17.931753 -31.5256
26.68586 17.744995 -31.288294
27.53771 17.150972 -31.583866
27.960316 15.31346 -31.788618
26.348434 13.494076 -31.070251
26.480112 12.959599 -31.325726
27.459759 16.377792 -31.541628
27.567869 15.19404 -31.589849
27.559383 17.347342 -31.675472
26.529192 14.281402 -31.289789
26.837322 11.9417 -31.464489
26.641434 12.197607 -31.378653
26.980015 15.489449 -31.358515
26.502262 14.046626 -31.287722
26.558414 13.422613 -31.272356
27.049858 17.139215 -31.587694
27.065166 15.096419 -31.360132
27.377182 17.49456 -31.752478
26.543896 16.698765 -31.283882
27.372776 17.734926 -31.621866
27.178886 17.487375 -31.64805
26.977642 17.721268 -31.426945
26.662872 14.172377 -31.315075
27.276817 15.658058 -31.434376
27.157997 13.754074 -31.435486
26.676779 15.793951 -31.166342
26.987644 17.62664 -31.406239
26.660042 12.746482 -31.320309
26.671091 18.262268 -31.403156
26.70973 12.833205 -31.426289
27.370333 13.980244 -31.473927
27.435701 16.532036 -31.628582
26.699356 12.075953 -31.360897
26.570984 15.067423 -31.268135
27.071655 15.49299 -31.395924
26.678932 12.702031 -31.347223
27.082172 12.793936 -31.406021
27.467213 16.150839 -31.63048
27.169939 16.610023 -31.483561
27.560406 18.531439 -31.866777
27.145573 17.638908 -31.700075
27.289663 11.966356 -31.665993
27.452375 18.526733 -31.815655
26.698639 11.91179 -31.265434
28.014021 16.960365 -31.832178
27.272015 16.395748 -31.692781
26.940744 15.050579 -31.55257
27.272865 14.25934 -31.668819
27.177092 17.019699 -31.637325
27.560913 12.053123 -31.801472
27.373234 12.404293 -31.421192
27.265005 14.541593 -31.666122
27.370953 13.429802 -31.465015
27.074905 15.830177 -31.554062
27.168358 14.773993 -31.505337
26.705385 12.755035 -31.211008
26.666513 16.133257 -31.235889
26.974985 14.433245 -31.471279
26.776838 13.836081 -31.449821
26.862272 15.146462 -31.423725
26.790236 17.477348 -31.430929
27.079025 12.50871 -31.541597
26.974894 14.092463 -31.31811
27.145674 12.397895 -31.616648
27.082735 18.384382 -31.498573
27.27713 12.444494 -31.676229
27.248781 14.513834 -31.566057
27.169144 17.980963 -31.449331
27.182997 13.90541 -31.629427
27.047676 17.663389 -31.585718
27.053501 13.026083 -31.477333
27.922445 14.742607 -31.763176
27.002899 11.967675 -31.530481
26.984928 14.175419 -31.478642
27.012844 12.829865 -31.577383
27.145124 13.064526 -31.577793
27.172153 15.21392 -31.551786
27.167774 12.606655 -31.5791
27.181461 14.809164 -31.605614
27.167103 15.356909 -31.590406
26.977741 13.713548 -31.521652
27.076714 15.27267 -31.538364
27.322037 15.009804 -31.60984
27.362591 18.293381 -31.744318
27.051941 16.184935 -31.518948
27.368429 15.874142 -31.577667
26.784185 13.070522 -31.207924
27.377779 15.341699 -31.71913
27.279104 13.168216 -31.421186
27.431658 16.425747 -31.695116
27.466543 18.225967 -31.801758
26.772963 15.658864 -31.16567
27.371326 12.330196 -31.70635
27.365166 14.149921 -31.691071
27.373991 17.671 -31.748177
26.770985 12.378815 -31.460335
27.373224 12.592088 -31.706896
26.901569 14.406812 -31.272135
27.905386 14.450022 -31.745152
27.666079 17.153221 -31.684988
27.365089 17.145695 -31.55727
27.421398 12.470323 -31.701004
27.432449 14.366342 -31.652914
27.564739 18.60778 -31.855314
26.77475 16.559189 -31.484941
27.273539 12.241483 -31.655415
27.286718 14.065714 -31.660133
26.810347 16.119516 -31.238804
27.377518 16.440718 -31.697618
27.724377 15.100921 -31.674135
28.070065 16.0049 -31.824486
27.553247 15.933482 -31.583218
27.468033 12.790873 -31.763968
27.981232 15.264653 -31.777508
27.477337 11.93876 -31.731277
27.472944 16.831856 -31.760695
27.362816 13.132849 -31.693743
27.373911 14.815145 -31.717794
27.370075 16.550739 -31.730072
27.443804 18.306038 -31.767447
27.566395 15.960147 -31.628275
27.377472 16.017258 -31.738255
27.36969 12.165548 -31.714981
27.650883 18.14658 -31.884975
27.158766 14.529903 -31.604179
27.772081 15.694325 -31.701378
27.265989 12.410152 -31.635551
26.755722 12.92346 -31.242739
27.472198 16.900261 -31.742075
28.081896 18.502365 -31.890017
27.88558 14.734367 -31.739729
27.674984 14.731119 -31.632692
27.369888 14.724285 -31.476465
27.34721 13.025938 -31.602339
27.458368 18.691936 -31.797739
27.363037 13.358227 -31.479424
27.651524 14.187972 -31.625515
27.369064 14.353127 -31.707548
27.455036 16.014893 -31.774372
27.375702 12.13546 -31.69767
26.378813 13.082897 -30.969799
27.764574 16.760334 -31.720879
27.472599 13.543352 -31.541739
27.479446 15.216753 -31.695351
27.956409 16.712101 -31.777794
27.584301 13.436969 -31.587717
27.877556 16.977839 -31.784138
27.373039 16.853354 -31.509623
27.897619 16.870502 -31.780918
27.271624 13.452292 -31.495926
27.8391 13.451359 -31.729471
27.347845 13.471588 -31.506144
27.350821 15.228229 -31.625912
27.665453 17.228308 -31.68553
27.443539 17.107439 -31.554396
27.973995 17.130219 -31.811691
27.37372 13.62585 -31.486713
26.972038 15.493563 -31.535185
27.376617 13.715364 -31.726574
27.372765 17.588095 -31.532398
27.474478 17.508474 -31.591743
27.267391 14.092841 -31.436913
27.786268 14.093335 -31.701464
27.257215 12.270728 -31.44981
27.493706 17.667212 -31.757023
27.294592 14.14328 -31.647652
26.976521 13.100533 -31.33239
27.461517 18.742041 -31.656483
27.955582 18.691805 -31.836399
26.877213 15.675794 -31.247454
27.286819 11.856609 -31.651754
27.286129 13.604845 -31.664446
27.98024 17.039747 -31.810007
27.471443 17.05044 -31.588959
27.664297 13.625973 -31.63526
27.775766 18.096643 -31.948004
27.666767 15.561924 -31.655178
27.937918 15.498091 -31.789545
27.73719 13.702766 -31.668585
26.971277 13.004395 -31.344574
27.775608 17.067337 -31.723074
28.070305 17.041281 -31.860811
27.475245 13.439579 -31.522327
27.67622 13.448471 -31.6194
27.461256 13.511575 -31.694485
27.472933 15.358989 -31.769201
27.970205 15.458142 -31.794077
27.457083 13.52704 -31.506466
27.433617 14.425477 -31.570278
27.458244 14.368727 -31.513916
27.471634 14.292249 -31.547047
27.945086 14.247565 -31.766432
27.359808 12.350883 -31.476513
27.369648 12.517459 -31.709888
27.453485 16.054991 -31.628138
27.869799 14.200525 -31.74608
27.374338 14.173539 -31.479897
27.652342 14.117262 -31.63279
27.367743 14.090576 -31.483093
27.568836 17.858116 -31.850283
27.675819 18.249846 -31.717003
27.664419 16.40736 -31.664209
28.144798 16.40444 -31.86998
28.043119 14.82528 -31.805094
28.063383 14.727066 -31.813686
27.583937 14.719686 -31.58819
27.476053 12.044867 -31.491819
27.56535 13.073078 -31.813702
27.485498 12.328218 -31.763884
27.569969 14.808686 -31.81963
27.709007 18.322132 -31.887768
27.765057 16.178942 -31.693823
27.815138 16.007071 -31.708504
27.472942 14.180475 -31.517088
27.974951 14.156941 -31.778448
27.381304 11.972521 -31.708616
27.46888 14.076948 -31.767826
27.17486 13.011599 -31.424116
27.595865 11.924562 -31.52849
27.972116 17.874416 -31.828604
27.490915 15.878416 -31.627316
27.663244 15.661107 -31.63394
27.860344 15.63142 -31.737354
28.029533 15.320354 -31.783941
27.45722 13.246527 -31.500898
27.158281 17.702883 -31.452187
27.533936 15.956239 -31.755157
27.551222 18.224363 -31.842489
28.046398 17.869461 -31.860962
27.850933 14.384902 -31.740219
27.372551 14.362603 -31.486193
27.275978 12.073097 -31.44261
27.566936 17.165754 -31.651157
27.88203 16.932415 -31.759287
27.77198 16.910164 -31.708462
27.978058 14.997804 -31.777626
28.019075 14.897584 -31.789454
28.032564 14.82156 -31.792759
28.057528 14.665698 -31.78828
27.477262 12.729626 -31.565472
27.463594 12.875886 -31.753832
27.551689 16.748093 -31.82972
27.620647 16.342693 -31.546566
28.021751 16.342777 -31.831369
27.377476 17.704058 -31.570078
27.975414 16.250612 -31.789661
27.458227 14.14395 -31.739975
27.46599 13.907888 -31.773468
28.086916 18.702785 -31.904701
27.860682 18.634703 -31.798708
28.105715 18.573692 -31.916702
27.587082 18.533905 -31.662491
27.151068 15.736657 -31.614187
27.382381 17.80031 -31.593174
28.001699 17.242025 -31.820801
27.469448 14.632838 -31.526659
27.254173 12.020721 -31.448996
27.266697 11.974331 -31.396721
27.273224 11.880354 -31.41654
27.610941 18.78175 -31.662411
27.274584 13.713054 -31.418455
27.362803 13.244224 -31.447769
27.786562 17.702097 -31.89325
28.095612 17.531252 -31.866974
27.668224 15.299978 -31.669434
27.279858 12.8009 -31.453939
27.33971 12.459505 -31.505772
27.356674 12.421197 -31.455837
28.066 16.934416 -31.867046
27.562353 16.953228 -31.629421
28.071615 16.875483 -31.859978
27.912252 14.780074 -31.741652
27.65229 14.652714 -31.623709
27.771616 14.642758 -31.70063
27.727926 14.569304 -31.679396
27.455929 14.550006 -31.531601
27.360619 12.080879 -31.490297
27.363314 12.797206 -31.711639
27.088348 16.296774 -31.647612
27.737545 16.637602 -31.703236
27.853146 16.540037 -31.756842
27.244205 11.907076 -31.472391
27.369226 16.337074 -31.57058
27.259739 12.058649 -31.643211
27.380848 14.730597 -31.727022
26.994152 13.169399 -31.303688
27.936096 16.642395 -31.776636
27.480806 16.691301 -31.603779
27.28562 14.632138 -31.43523
27.557928 14.642593 -31.56608
27.567505 14.178388 -31.57391
27.576689 14.091398 -31.602697
27.177176 11.885084 -31.383114
27.183203 11.804377 -31.415483
27.172243 12.187153 -31.615885
27.267334 14.883017 -31.642422
27.760447 17.505533 -31.734606
27.744249 17.427994 -31.733313
27.90221 14.544679 -31.775295
27.270981 12.429711 -31.413633
27.457695 12.277672 -31.542715
27.280846 12.667592 -31.627844
27.190319 16.342339 -31.657333
27.532686 14.145385 -31.786762
