# .PCD v0.7 - Point Cloud Data file format
VERSION 0.7
FIELDS x y z
SIZE 4 4 4
TYPE F F F
COUNT 1 1 1
WIDTH 565
HEIGHT 1
VIEWPOINT 0 0 0 1 0 0 0
POINTS 565
DATA ascii
-6.3104258 33.803986 12.350929
-5.9473748 33.24802 12.239292
-6.4386716 34.549957 12.107408
-7.47223 34.146137 12.191975
-7.2182894 34.39603 12.216794
-6.9582696 34.371712 12.140608
-7.1456089 33.685654 12.231959
-6.9564366 34.204803 12.217909
-7.1591225 33.834579 12.234932
-7.2509546 33.855911 12.159739
-7.3647938 34.356491 12.167827
-7.3623528 34.036461 12.213743
-6.2631121 34.457287 11.971519
-7.4031515 33.784931 12.284307
-7.1610174 34.232601 12.145737
-6.8531694 34.185093 12.228524
-5.992321 34.351254 12.122038
-6.0685511 34.365765 12.104319
-6.8212538 33.918205 12.274078
-6.460773 33.068729 12.171253
-6.532836 34.516224 12.094458
-6.4709868 34.526443 12.078016
-5.9228086 33.850185 12.203217
-6.6995459 32.994534 12.235276
-5.6286039 33.709751 12.210603
-6.4483571 33.965511 12.250469
-7.0721164 34.369057 12.141543
-6.3266039 33.064819 12.279601
-6.4608536 33.173332 12.224923
-6.1901002 33.136692 12.136992
-5.7023153 34.384155 12.122264
-6.5927572 34.021969 12.027449
-6.1106777 33.019123 12.249326
-5.9823017 33.119282 12.233038
-6.0789905 33.068081 12.204267
-6.7672505 34.183514 12.084753
-6.6555033 34.177357 12.068458
-6.6239858 34.477104 12.154617
-6.4612617 34.209499 12.209895
-6.162529 34.28112 12.155083
-6.5565109 34.090652 12.119827
-6.7618818 33.923672 12.194443
-6.4650478 34.50449 12.137706
-6.7510004 33.849804 12.120631
-6.0719504 33.280636 12.192569
-6.3723459 34.518456 12.136628
-6.7567177 34.239311 12.123822
-6.8665538 34.412239 12.119434
-5.9699721 33.088032 12.203309
-6.3152819 33.370178 12.168583
-6.1659679 33.059036 12.215709
-6.3451333 33.345387 12.220828
-5.9843588 33.263977 12.181812
-6.2770786 33.423801 12.162116
-5.8809204 34.233768 12.121062
-6.6910295 34.119778 11.988598
-5.2754493 34.157146 12.021434
-5.3619843 34.443127 11.969186
-5.7999215 33.545498 12.141578
-5.5711899 34.170307 12.028028
-6.358366 33.951557 12.082366
-6.269515 34.113102 11.986546
-5.4196086 34.001644 12.13854
-5.5421567 33.194542 12.158034
-6.1858935 34.518269 12.074881
-5.7535162 34.393494 12.027106
-5.5971799 33.718128 12.063817
-5.5857763 34.015232 12.138084
-5.4543705 33.71418 12.072165
-5.426188 34.451885 11.989564
-5.7639065 34.169361 12.037197
-5.9785185 33.914242 12.186779
-5.8806939 33.225433 12.201399
-5.8923998 33.105392 12.232135
-7.0560246 34.130741 12.171272
-6.0601773 33.90836 12.020512
-6.2453814 33.011459 12.232964
-6.3680792 34.047661 12.033921
-6.3824754 34.191422 12.211467
-6.0814505 33.339725 12.202302
-7.3620682 33.832195 12.242716
-6.5561128 34.046986 12.216829
-6.2639132 33.893982 12.195593
-5.960022 34.227894 12.102854
-7.0726943 33.830868 12.239996
-6.6612587 33.836151 12.233674
-6.1586313 33.03867 12.256614
-5.6642561 34.398827 12.039384
-5.9823942 33.743187 12.106392
-5.9656162 33.863945 12.114378
-6.0664554 33.739918 12.10249
-6.0600424 33.864574 12.118339
-5.5907445 33.677235 12.052875
-5.7490902 33.749313 12.140345
-7.4366207 33.85495 12.253908
-6.2577286 34.089249 12.091727
-5.0546703 34.374184 11.993438
-6.1469936 33.326717 12.213344
-5.8627014 33.968025 12.080936
-5.9695559 34.400471 12.019631
-6.4606338 34.226814 12.125366
-6.7518873 34.306149 12.107943
-5.7761669 33.979744 12.086437
-6.0706034 33.770504 12.15384
-5.1568937 34.502537 11.99165
-6.9043913 33.951439 12.090593
-6.6614399 33.863728 12.122654
-5.7782602 33.875183 12.017165
-6.4617014 33.929947 12.079828
-5.8539615 33.726887 12.082882
-6.0851164 33.264313 12.23555
-6.4633389 34.055843 12.016228
-6.2451544 33.332653 12.217704
-6.0843229 33.063839 12.278926
-6.4597263 34.292797 12.165304
-6.06355 34.304737 12.063595
-6.6917267 33.093102 12.303029
-6.1662683 34.085953 12.077839
-5.6962719 34.185349 11.9038
-6.357007 33.008038 12.231386
-5.8591995 33.818623 12.056744
-6.163383 34.168865 12.041556
-6.1628809 33.738853 12.102516
-6.1506252 33.688705 12.193813
-6.2587633 34.306423 12.092494
-6.659564 34.093719 12.110876
-5.768074 34.094021 12.115748
-6.1425552 33.534058 12.178823
-5.8596816 34.43251 12.076932
-6.5569568 34.223049 12.126027
-6.361094 34.307777 12.090366
-5.252686 34.456879 11.99607
-6.5533271 32.990177 12.237288
-5.911057 34.067665 12.179089
-6.1842942 33.647835 12.25671
-5.9987555 34.030991 12.196577
-6.7146168 32.980083 12.27831
-7.028995 34.026985 12.057325
-5.3892741 33.88068 12.107532
-6.6578045 33.936993 12.082062
-6.0625458 34.135338 12.149148
-6.7893133 33.943382 12.069608
-6.3637443 33.892803 12.196117
-6.4591346 33.85878 12.130635
-6.5606971 33.940769 12.081593
-6.2533302 33.947479 12.073367
-6.2633214 33.802574 12.165841
-6.2150593 34.509243 12.123722
-5.6717515 34.470444 11.966741
-6.0536175 33.694096 12.189188
-7.447319 34.050102 12.203708
-6.1696634 33.948078 12.073009
-6.1605129 32.944469 12.369189
-5.4289083 33.950577 12.065957
-6.5695324 34.285099 12.180107
-6.2622204 33.767139 12.279075
-6.1495461 33.28236 12.179042
-6.4674664 34.135239 12.15978
-5.9560041 33.78561 12.146801
-5.7631688 33.749367 12.081681
-6.8607578 33.838081 12.234068
-6.1755147 33.848202 12.230067
-6.0671024 34.087284 12.097016
-5.9664369 34.091614 12.088062
-5.8896465 34.103851 12.101761
-6.6502957 34.388016 12.040841
-5.545383 34.097523 12.078553
-5.9672809 33.954857 12.080976
-5.9539943 33.699261 12.182078
-6.4546785 34.001514 12.156153
-7.2665615 34.015209 12.181413
-6.3709097 34.519157 12.081029
-6.3653674 34.028755 12.228613
-6.2485337 34.636318 12.078227
-6.1663866 33.008217 12.232352
-5.4522052 34.399277 11.994977
-5.7706256 33.808002 12.050608
-5.7658286 34.225128 12.098433
-6.6521091 33.913059 12.199039
-5.6399212 34.100445 12.087202
-5.6733584 33.798054 12.038287
-6.1530447 33.197647 12.213593
-6.0412722 34.489052 12.044604
-5.9739461 33.790539 12.043716
-6.2476764 34.511703 12.054166
-6.2370882 33.232239 12.247929
-6.2361145 33.733963 12.215504
-6.6541324 34.501678 12.062469
-6.2435827 33.111485 12.245857
-5.3857279 33.994484 12.05726
-5.8805943 33.938717 12.164787
-7.1386228 33.943176 12.081179
-6.5664601 33.991238 12.157757
-6.5616503 33.861858 12.122112
-6.064168 34.306488 12.160619
-6.3859301 33.208836 12.263604
-6.0655942 33.104034 12.237425
-6.3671017 34.093281 12.10954
-5.7617526 34.321297 12.061816
-6.961813 34.302868 12.087897
-6.2326355 33.034981 12.275239
-6.1701241 33.860847 12.128304
-5.6761613 33.721424 12.076914
-6.0722675 34.168491 12.033859
-6.262805 33.860619 12.136433
-5.873167 34.38974 12.024882
-6.5112305 34.121864 11.988338
-6.1727376 34.225418 12.11947
-6.3702521 34.001457 12.153655
-6.2717648 34.005154 12.138784
-6.9836693 34.05463 12.235266
-6.0702777 33.922619 12.189596
-5.184082 34.401573 12.020009
-6.4657497 33.89912 12.195789
-5.1326194 34.474926 12.059734
-6.1735258 34.434555 12.100123
-5.9869261 33.637329 12.140993
-5.3592629 34.206814 11.947513
-6.990324 33.948208 12.081452
-5.1189051 34.231934 12.023128
-6.2647076 33.993896 12.284172
-5.5718575 34.263317 11.996651
-5.4927053 34.212009 11.996829
-4.9567947 34.233303 11.983079
-5.5812111 34.393459 12.021316
-5.9441562 33.559956 12.16491
-5.8780022 33.335293 12.196911
-5.5620899 34.3601 11.964437
-5.1411862 34.22337 12.050877
-6.0036659 33.451759 12.215208
-5.5024385 34.035175 12.005713
-5.7587276 34.339836 11.963929
-6.0747328 34.041767 12.031621
-5.5737743 34.041004 12.006835
-7.1613312 34.059124 12.231027
-6.1632042 33.791435 12.15975
-5.8658028 34.032547 12.065253
-5.9723406 34.047878 12.028366
-5.7631521 34.041225 12.037586
-6.258307 34.053127 12.045441
-6.6718154 34.047817 12.058242
-5.873209 33.850262 12.107581
-5.8536763 33.876511 12.019015
-5.6616001 33.865448 12.121333
-5.5465684 34.190788 11.939819
-5.5537109 33.849216 12.085915
-6.4391336 34.264561 12.018587
-5.4692712 33.897797 12.111886
-5.379622 33.584251 12.107391
-5.0702109 34.201946 12.03508
-5.5701342 33.79332 12.059489
-5.9604449 34.180962 12.052736
-5.5574722 33.922665 12.065202
-5.188067 34.314037 11.959828
-5.862072 34.159767 12.052477
-5.3755579 33.313946 12.140623
-5.4816837 34.166584 12.029183
-5.7572498 34.115501 11.968111
-6.3613386 34.169662 12.05519
-6.3801327 34.275364 12.186502
-5.6859598 34.17802 11.968219
-5.527935 34.130886 11.999515
-5.4659433 34.445827 12.059822
-5.8595428 34.126457 11.999299
-6.2739525 34.230598 12.118012
-5.70225 33.652836 12.11158
-5.5902109 34.232021 12.123055
-5.6646352 34.236126 12.098842
-6.0578218 34.225758 12.117146
-5.2402191 34.358318 11.995745
-5.8758426 34.325336 12.066962
-6.3609591 34.364697 12.117825
-5.4062748 34.327477 12.009238
-5.6636167 34.325722 12.08419
-5.577867 34.301468 12.068111
-6.2415586 33.21109 12.231977
-5.7491322 34.149166 12.161078
-5.6734724 33.439819 12.067998
-5.6481709 34.339031 11.975052
-5.9867063 34.126278 12.15916
-6.137208 33.254692 12.231635
-5.8917866 34.322884 11.998727
-5.9600577 34.48745 12.038033
-6.8610244 33.919567 12.188348
-6.326499 34.538387 12.109667
-6.9658656 33.827496 12.229994
-4.9999928 34.38525 11.98164
-5.5398583 33.405842 12.112568
-6.2714496 34.360924 12.118634
-4.9968724 34.143486 12.072529
-5.2188511 34.163235 12.108636
-7.0756054 34.058643 12.224904
-6.0503292 34.119045 12.001487
-5.9869671 34.448692 12.069659
-6.0537372 34.388195 12.021817
-6.0779786 34.43972 12.08868
-6.0619569 34.25547 12.02468
-6.2719417 34.440437 12.099016
-6.1550965 34.39106 12.0371
-6.3777456 34.147312 12.173779
-6.2593246 34.24649 12.039742
-6.4526882 34.088257 12.112417
-6.2682362 34.399734 12.042823
-6.3648605 33.859241 12.13201
-6.8678994 34.000927 12.153078
-7.4531407 33.77734 12.269241
-6.1711788 33.912594 12.194495
-6.447022 34.171585 12.067301
-6.0763302 33.215378 12.202129
-6.1672354 34.038116 12.049664
-5.5583301 33.291409 12.160132
-6.0689859 33.959236 12.080592
-6.3579473 34.10701 11.992091
-6.1524377 34.722954 12.04254
-5.3676772 34.374043 12.022852
-6.7596574 34.42001 12.110241
-6.6608105 34.433624 12.105587
-6.8699284 34.061607 12.207346
-6.663197 34.05006 12.207605
-5.7608266 33.196846 12.190387
-5.5493374 33.566631 12.079688
-5.9683585 33.210327 12.205994
-5.6472745 33.203842 12.167566
-5.7812991 33.34977 12.163472
-5.8787007 33.287674 12.169526
-5.7617216 33.286892 12.164938
-6.1402955 33.409607 12.181682
-5.7947092 33.635319 12.151748
-5.7863722 33.868076 12.119667
-5.9641948 33.502476 12.158437
-5.6382136 33.505276 12.156468
-5.8461933 33.532196 12.130025
-5.6744213 33.932388 12.185805
-6.3624196 33.950474 12.306164
-5.6706719 34.039558 12.012917
-5.7331114 34.257465 12.012205
-5.7826118 34.324654 12.142084
-5.4930205 34.293049 12.062109
-6.0783224 34.056244 12.188629
-6.355835 33.290703 12.17786
-6.6549053 34.142742 12.162574
-6.5401325 34.495243 12.143119
-5.8910465 33.651176 12.147896
-5.3168893 33.405102 12.11458
-6.2960072 34.044971 12.188584
-5.4653592 33.599098 12.079128
-5.7062211 33.886753 12.023121
-6.1590071 33.669006 12.152807
-5.9396772 33.897499 12.01131
-6.2432837 33.664165 12.133964
-7.51898 34.492306 12.181387
-6.4725165 32.993542 12.250188
-6.9632587 34.001762 12.1598
-7.148407 34.1366 12.163721
-7.1462355 34.002193 12.182419
-7.0451851 34.330723 12.106133
-6.8804884 34.364559 12.127804
-6.9574037 34.424095 12.122438
-7.2063532 34.40876 12.206299
-7.2702551 34.146915 12.179035
-6.8630662 34.227501 12.127716
-7.2663422 33.789852 12.26259
-7.5375743 33.904827 12.193748
-7.5303721 34.016598 12.216843
-7.0556078 34.01368 12.164481
-7.0638771 33.987961 12.231894
-6.9679623 34.092258 12.121344
-7.1115236 34.318626 12.191
-6.8613167 34.306549 12.178868
-7.3590679 33.910748 12.215218
-7.0789752 34.211189 12.140659
-7.271451 33.925552 12.200722
-7.3486404 34.142803 12.181039
-7.0446005 34.435688 12.138083
-7.1024837 34.364506 12.065137
-7.2652302 34.391148 12.039752
-5.8919353 33.695835 12.177077
-6.9331746 34.034576 12.048016
-7.4768324 34.460468 12.024504
-6.3782635 33.167801 12.230175
-6.8221741 34.161758 12.104128
-6.754693 34.092873 12.110529
-6.9484611 34.195522 12.073839
-7.4382362 34.308372 12.075171
-7.4386053 34.377594 12.032253
-7.2457542 34.113087 12.135107
-6.8796482 34.089626 12.110322
-6.4991803 33.01498 12.263186
-7.4159756 34.233101 12.059139
-7.4953508 34.25177 12.048635
-6.0647397 33.650108 12.142932
-7.6518068 34.403286 12.105974
-7.21699 34.213428 12.054291
-7.5605698 34.023598 12.154177
-7.0559874 34.096649 12.137956
-7.5508652 34.212051 12.092519
-7.5521259 34.072941 12.161974
-7.6192017 34.224869 12.154661
-7.6018848 33.850056 12.191988
-7.3611312 34.045349 12.168407
-7.5729618 34.131905 12.153418
-7.2260561 34.012131 12.226019
-7.2328358 33.962879 12.256792
-7.0482888 34.15765 12.102466
-6.9470925 34.276573 12.178985
-7.6950474 34.074444 12.124816
-6.3552113 33.130466 12.176073
-7.1702833 34.284195 12.177048
-7.1984091 34.488422 12.162338
-7.5525188 33.970356 12.262176
-6.3658814 34.444195 12.099547
-7.4926581 33.919598 12.240392
-6.16468 34.365265 12.123093
-5.1189709 34.078579 12.11418
-6.0762782 33.599445 12.102457
-6.4700375 34.39727 12.047694
-7.0247049 33.931644 12.099769
-5.9803333 33.414928 12.179728
-6.7370005 32.945316 12.296318
-6.2648516 33.254459 12.154661
-5.492907 33.394825 12.118288
-6.5589375 34.135017 12.163884
-6.7487583 34.140251 12.16387
-5.9674091 34.358521 11.960682
-6.1537442 33.103489 12.237774
-6.6579442 33.973423 12.237001
-7.5532598 34.211533 12.225265
-5.2107177 34.332439 12.117478
-5.3384585 34.440063 12.09532
-4.9721618 34.326313 11.970962
-6.5582399 34.437012 12.103182
-6.459434 34.442543 12.098743
-5.8024168 33.506741 12.185403
-5.2932992 34.27113 12.047238
-6.3127537 34.027122 12.377117
-7.4736872 34.068352 12.109543
-6.7819767 33.837273 12.224265
-5.0972524 34.32143 12.089719
-6.0606017 33.556839 12.171889
-7.3611102 34.446373 12.10297
-5.1171098 34.063473 12.048699
-5.2414827 34.265793 12.007886
-7.4470406 34.410473 12.105737
-5.3754649 33.741741 12.12571
-7.1558805 34.431351 12.149181
-5.2702551 33.986248 12.044911
-5.2108097 33.925961 12.042145
-5.619874 33.803688 12.177485
-7.448905 34.236061 12.141166
-6.4866729 33.357185 12.190017
-6.8448524 34.460247 12.179
-5.6488938 34.162189 12.033126
-5.4015427 34.299187 11.97272
-5.8411202 33.343731 12.133479
-6.9615555 34.145035 12.17179
-6.86376 34.141602 12.173018
-5.8820953 34.146446 12.142995
-6.1542087 33.510921 12.146338
-6.149117 34.146065 12.154607
-5.4309945 33.430561 12.140434
-6.2602954 34.148895 12.155302
-6.4497433 33.83448 12.228744
-6.0730224 33.859097 12.22066
-7.2519774 34.214283 12.143946
-6.3641729 33.84161 12.219691
-6.0655265 33.505981 12.143306
-5.5644469 34.169693 12.163329
-5.9697971 34.283478 12.008588
-7.2702727 34.311943 12.081427
-7.2639999 34.35778 12.157313
-5.9606495 34.310078 12.071749
-7.1680927 34.314163 12.104708
-6.5662775 34.365379 12.126151
-5.6487098 34.269505 11.986465
-5.5059533 34.031399 12.080037
-5.6984186 33.362751 12.162652
-7.4567022 34.303677 12.204774
-7.4277215 34.363136 12.127558
-7.7372503 33.956413 12.253222
-6.6629939 34.310909 12.078051
-5.853828 34.255726 12.011658
-6.6120787 34.223351 12.253223
-6.2612801 34.177799 12.056794
-7.5410299 33.814125 12.190228
-5.570117 33.49873 12.113312
-6.2729201 33.840519 12.227893
-7.3563795 34.234749 12.148537
-6.9623885 34.231331 12.134714
-6.3076792 33.923225 12.342963
-5.4889979 33.203617 12.168518
-5.7454081 33.999966 12.152577
-6.048893 33.383175 12.129541
-5.6811709 33.935551 12.078453
-6.5421991 33.841022 12.215649
-6.6607814 34.223427 12.128627
-7.346488 34.437035 12.253622
-6.3616886 34.230835 12.117558
-7.3855247 34.533859 12.250909
-6.9594316 33.912022 12.197787
-6.7945809 34.067696 12.187099
-5.8734312 33.79351 12.157654
-5.437109 34.360352 12.114399
-6.3246775 33.065125 12.224278
-5.3910031 34.319954 12.134201
-7.0526724 34.184643 12.230751
-5.9749956 33.9939 12.154661
-7.0566587 33.917042 12.20278
-5.8745241 34.007286 12.131423
-5.393043 33.522354 12.119833
-6.5348959 33.074963 12.261424
-6.1030555 34.501961 12.139257
-5.8099689 34.202591 11.96165
-6.057766 33.817444 12.055401
-6.4563112 34.049816 12.212293
-6.138711 34.04911 12.203593
-6.560029 33.907131 12.193028
-6.0684981 33.482285 12.231246
-6.1599822 33.48843 12.201337
-7.1576128 33.916584 12.214045
-6.3572464 34.397171 12.033603
-7.6624451 34.369541 12.067588
-7.6560478 34.31686 12.182594
-7.5498281 34.266323 12.218997
-7.4033689 34.385979 12.062016
-6.1623664 34.311634 12.083835
-7.5417051 34.369434 12.16401
-7.7303352 34.448639 12.214599
-6.6593971 34.005661 12.154254
-7.7594633 34.355911 12.187079
-7.0374627 34.495319 12.192049
-7.2888546 34.416077 12.139956
-7.3206043 33.994198 12.237396
-7.4706068 33.910767 12.117106
-7.4549079 34.015511 12.146462
-7.8146501 34.003139 12.305511
-7.6950517 34.357311 12.171969
-7.3613815 34.327877 12.075535
-7.8466854 34.2715 12.182805
-7.619441 34.041962 12.167398
-7.7014251 33.917927 12.251028
-7.4676981 34.445316 12.168567
-6.6541176 34.267712 12.172
-5.8514328 33.418526 12.161059
-7.8489418 33.924412 12.211174
-7.381856 34.276417 12.186484
-6.0728526 33.425701 12.180923
-5.7720428 33.44025 12.142367
-5.0081148 34.242851 12.091374
-6.6131101 33.070892 12.297192
-5.9519138 33.318855 12.200232
-6.8553085 34.301361 12.085129
-6.5700054 34.31538 12.084585
-6.7586198 34.368259 12.131858
-6.4659867 34.358883 12.123896
-6.6690645 34.359459 12.128403
-6.1652055 34.257919 12.025018
-6.4604187 34.313137 12.096308
-6.0589519 34.012402 12.145497
-6.7495332 34.005981 12.146983
-5.8888321 33.558212 12.164429
-6.5573864 34.19146 12.058648
-7.1592422 34.355667 12.152583
-5.7889104 34.011715 12.2733
-6.15306 34.009876 12.151385
-6.3556833 34.252384 12.014359
