# .PCD v0.7 - Point Cloud Data file format
VERSION 0.7
FIELDS x y z
SIZE 4 4 4
TYPE F F F
COUNT 1 1 1
WIDTH 1613
HEIGHT 1
VIEWPOINT 0 0 0 1 0 0 0
POINTS 1613
DATA ascii
58.651924 68.903633 38.093899
57.783588 69.122894 38.248234
59.945312 68.646255 38.546623
60.650192 68.591614 38.541744
59.641098 68.65918 38.51947
57.855717 69.133827 38.277584
60.536671 68.45388 38.654316
59.953423 69.008034 38.255993
59.660309 68.538078 38.535442
55.744923 68.957436 37.713051
56.154942 69.136559 38.144077
56.847076 69.003525 37.92371
58.06358 69.019173 38.040756
59.04332 68.436859 38.63596
57.753242 68.94384 38.059509
59.444214 69.389862 38.850098
58.960499 69.015251 38.121868
56.456245 69.204414 38.106705
57.747009 69.197533 38.256107
59.151676 68.780342 38.288597
58.549725 68.9039 38.086006
56.554428 68.856369 37.963455
58.514641 68.980423 38.036987
55.842808 68.679169 37.992729
56.448318 68.827423 37.886108
56.256138 68.869431 37.933544
57.856236 68.841476 38.045479
57.652588 69.023476 38.00103
57.526985 69.129143 37.839714
55.735306 68.930107 37.665928
55.878757 68.971779 37.733875
59.45155 69.492668 38.681797
57.547852 68.843979 38.00901
57.250813 69.034195 37.952766
57.355061 68.838371 37.994049
55.539005 69.056549 37.963638
60.044182 68.749977 38.326874
58.363056 69.026299 38.06979
61.036507 68.660042 38.48568
55.459827 68.897263 37.729668
56.853943 68.863289 37.98983
58.549992 68.653511 38.414928
57.949512 69.136559 38.214031
59.061428 68.996933 38.086056
59.738823 68.656487 38.525452
56.0485 68.687004 38.028214
58.71669 68.963531 38.357018
57.45602 69.247604 38.174614
59.054344 69.133514 38.320438
58.349644 68.900696 38.069633
58.266865 68.491112 38.619469
56.358303 68.702477 38.044827
57.854034 69.188477 38.26585
55.539688 68.696762 37.944126
55.561718 68.611366 38.029686
55.268127 68.728958 37.821239
55.354153 68.737686 37.828243
58.360516 68.544022 38.56559
55.461979 68.727463 37.840797
59.298756 68.665222 38.228195
56.050762 68.854584 37.886124
57.950432 68.487144 38.576836
56.048832 68.75428 37.966278
55.874702 68.881561 37.866676
55.95509 68.611656 38.073727
55.083427 68.538307 38.04874
58.902058 69.005264 38.352875
57.147087 69.042328 37.941578
56.756634 68.944542 37.947124
54.978474 68.537323 38.020123
54.64563 68.375526 38.097015
56.457874 68.625587 38.137909
56.150848 68.833786 37.862175
58.830994 69.244934 38.318752
57.947983 68.8405 38.053108
57.057457 68.64753 38.263409
58.213718 69.18811 38.149761
56.343075 68.953003 37.893097
57.451702 69.190689 38.224461
57.443161 68.71479 38.24276
56.85173 68.944771 37.960327
58.237598 68.61026 38.510818
56.552879 68.631035 38.142365
55.68906 69.303108 38.153751
56.253609 68.943405 37.894176
56.253025 68.623184 38.103497
55.751091 68.808533 37.813652
58.7687 68.47168 38.651802
55.74564 68.60495 38.041073
58.153164 68.85791 38.12302
57.747833 68.839752 38.028893
58.149658 69.195526 38.299816
57.258327 69.311394 38.334595
61.162174 69.348259 38.582569
56.356503 68.83316 37.882408
56.64978 68.867271 37.96513
55.753036 68.679008 37.976402
59.256855 68.655579 38.419632
56.54771 68.698662 38.075169
56.553394 68.828781 37.908962
55.652943 68.817993 37.791962
57.953926 68.51445 38.471504
56.065266 68.504135 38.243599
55.951839 68.684204 38.009796
58.048851 68.655777 38.358524
57.751152 68.656921 38.330547
57.15593 68.863098 38.026783
58.257904 68.724289 38.329784
59.780235 68.680061 38.353611
60.234783 68.649864 38.416626
55.758698 68.545097 38.164669
56.664127 69.136665 38.155338
56.15242 68.616211 38.099068
56.354675 69.203712 38.091927
55.860363 69.218895 38.051395
60.34742 68.633438 38.519081
56.089596 69.130379 38.071739
57.049644 68.624382 38.196884
61.049961 69.022629 38.365021
55.464737 69.055656 37.976597
57.74807 69.077126 38.185863
55.860992 69.147514 37.993675
57.851883 68.857399 38.097885
61.083797 69.048233 38.448715
60.541271 69.013199 38.386478
58.640011 68.596619 38.550282
56.545708 68.564133 38.257397
55.635208 69.145927 37.921177
60.144955 68.630219 38.414745
56.4674 69.145363 38.13763
57.360321 68.638832 38.228962
60.149891 69.209595 38.343464
55.489891 69.147781 37.931484
57.55064 69.190666 38.232655
58.851967 68.729805 38.382336
55.326641 69.098717 37.89624
55.932636 69.138786 37.973915
56.742249 68.99115 37.891811
60.826653 68.64566 38.649601
56.521946 69.129494 38.154919
55.828468 68.558968 38.180298
56.346775 69.131065 38.132584
58.454433 69.196991 38.329525
58.750118 68.861473 38.185989
59.352398 69.445305 38.59407
61.077896 69.005592 38.387932
58.665619 69.034996 38.105507
58.926826 68.607193 38.58429
58.852989 68.588425 38.575584
60.043304 68.518227 38.683815
55.124588 68.442253 38.10564
58.130882 69.42868 38.468403
59.551693 69.653297 38.941055
59.568649 69.432549 38.614616
57.254677 68.860283 38.029121
58.559799 68.535873 38.592258
57.955303 69.196663 38.275173
58.831848 68.531769 38.613617
58.492039 68.402603 38.478771
55.363609 68.668831 37.943859
58.924953 68.661995 38.263058
58.541245 68.903343 38.236576
55.771713 69.282761 38.02565
58.049603 69.193871 38.289322
59.654408 69.660789 38.948528
59.472107 69.482727 38.620621
57.724861 69.09111 37.86945
60.246758 69.017685 38.265041
59.150951 68.728409 38.411449
58.648518 68.713455 38.31144
60.540924 68.737976 38.550549
59.068993 68.594864 38.607094
58.543888 68.710991 38.301247
57.538479 69.136452 38.253883
56.454418 68.693855 38.065647
55.719978 68.867958 37.839027
56.83276 69.122032 37.820015
55.474976 68.682358 37.958
55.962765 68.758537 37.948795
57.952404 68.773041 38.105255
55.22958 68.673759 37.975468
57.463535 68.975731 37.931793
55.563072 68.808403 37.782829
56.450119 69.312653 38.267487
59.690819 69.329758 38.744434
55.750607 68.497795 38.218151
55.766838 68.742729 37.934067
60.728695 68.964417 38.324257
57.250587 68.653053 38.274502
60.038956 68.65033 38.56424
60.73571 68.928185 38.210785
55.172337 68.41188 38.216007
61.471848 68.516884 38.778419
58.451733 69.074127 38.261021
56.35656 69.060143 38.050167
58.853539 68.658768 38.448666
60.272911 68.509033 38.690151
56.760643 68.995583 37.838493
56.059612 68.972855 37.759953
54.886646 68.772141 37.657673
59.856632 68.605347 38.687412
58.252895 69.014999 38.1763
54.966492 68.470673 38.054775
61.465378 69.021774 38.37331
55.550838 68.866737 37.684082
59.938889 68.843224 38.254623
58.950146 68.652832 38.453911
59.759979 69.679306 38.889599
59.011089 69.352768 38.58078
60.446049 68.7145 38.551613
58.428539 68.453636 38.569252
55.280743 68.608749 37.985405
56.950897 69.013657 38.045654
54.917942 68.75518 37.701344
60.347553 69.018723 38.374775
58.100857 69.068542 37.928272
55.719986 69.130539 37.720253
56.149815 69.199532 38.07951
58.055298 69.128769 38.221813
55.90173 68.926041 37.99345
59.53582 69.024559 38.191826
55.723816 69.145111 37.82478
59.846508 69.022202 38.266335
58.351738 68.641914 38.334797
57.988251 69.083687 37.909431
58.056194 68.856094 38.112785
58.358315 68.987755 38.018402
60.628281 68.719505 38.582134
57.035065 68.773811 38.077084
56.94809 68.76783 38.061974
56.264198 69.199379 38.077663
54.780106 68.553177 38.005684
55.442661 68.765175 37.907185
59.447819 69.327873 38.566528
58.484341 69.195786 38.127747
59.35796 68.740219 38.255768
58.023495 68.979179 37.97752
54.61377 68.51947 37.976669
57.451599 68.840118 37.999939
55.420631 68.887291 37.813545
55.150768 68.736252 37.799431
55.549164 68.895378 37.867893
55.751343 68.75071 37.875183
55.6236 68.902359 37.866932
60.494717 68.698242 38.16399
59.555145 69.62928 38.89484
59.349274 69.013634 38.294247
59.861797 69.681023 38.89819
57.45435 68.707527 38.186939
58.672028 68.541893 38.601505
60.19714 68.680321 38.652824
56.061348 68.616829 38.10442
58.571529 68.458771 38.577583
59.555367 68.532829 38.691628
55.587349 68.523926 38.16412
58.545025 69.204529 38.218906
57.058064 69.076736 38.036926
59.280159 69.069633 38.042847
60.256367 68.555298 38.578896
56.248508 69.082573 37.954975
60.361061 68.550507 38.602577
58.110355 68.568054 38.206856
56.855625 69.335762 38.20533
58.784283 69.272461 38.336319
56.760849 68.631615 38.17358
58.952583 68.784882 38.270962
56.954086 68.835518 37.951092
56.650177 69.188843 38.134483
60.450176 69.019989 38.296062
55.439926 68.610298 38.007416
55.948502 68.814362 37.838787
56.65514 68.831421 37.918171
57.751957 68.997597 37.952736
57.150803 68.840492 37.971771
56.617615 68.815567 38.10025
56.767929 69.136055 38.161812
59.171207 68.529457 38.645348
56.85778 69.133873 38.176136
55.909836 69.131554 38.059181
58.450428 68.719696 38.343666
55.354877 68.799599 37.770313
57.645561 69.253006 38.199585
58.507088 68.78466 38.427174
56.943687 68.967369 37.861618
58.941109 68.723625 38.393246
59.886135 69.484055 38.650352
57.947891 69.356842 38.386803
57.556149 68.656799 38.315758
57.150547 68.70266 38.143353
58.366539 68.441269 38.37413
58.750324 68.578316 38.505085
56.05772 69.090858 38.009491
59.952579 69.085938 38.42334
61.336311 68.60466 38.746662
55.083862 68.850616 37.700031
58.922466 69.238518 38.271652
56.048443 68.894524 37.801483
56.952675 68.704819 38.118568
59.252762 68.583916 38.556435
59.986858 69.734428 38.854332
56.449337 68.758926 37.954765
58.940056 69.167213 38.467361
58.948959 69.270226 38.336338
55.227989 68.539665 38.05529
55.113083 69.16745 37.858879
55.349224 68.547882 38.075256
56.647758 68.771164 38.022099
57.448765 68.649025 38.296329
60.148911 68.785316 38.397934
56.455002 68.956398 37.9132
56.948933 68.942703 37.964169
56.656811 68.699013 38.092724
56.752823 68.702621 38.102947
57.846878 68.733116 38.280651
61.13007 69.206833 38.481586
59.002522 68.675186 38.565109
59.740921 68.839676 38.235477
59.633121 69.322884 38.590359
59.168503 68.59581 38.609371
60.235409 68.73571 38.528564
59.757442 68.542023 38.721054
55.594452 68.774376 38.060551
57.4506 68.9422 38.0256
58.951244 68.717636 38.34404
56.0341 68.92556 37.963467
56.152279 68.90226 37.822475
58.70517 68.426262 38.40181
56.019623 69.015228 37.843822
56.278923 69.255447 38.154835
57.350357 68.860146 38.044365
56.165257 69.047997 38.031563
59.140488 68.903297 38.143265
57.545368 69.043457 37.989857
57.519005 68.465561 38.336647
59.668579 69.28627 38.41571
56.555939 68.956337 37.927559
60.078434 69.267067 38.476547
56.15472 68.685837 38.028061
56.652775 69.142441 38.068592
58.378662 69.447266 38.41436
56.460403 69.137962 38.03788
55.660583 68.681221 37.984619
61.29686 69.250633 38.494301
59.853024 68.778389 38.366508
60.244301 68.90934 38.236919
58.957993 68.909027 38.12315
58.469177 68.541779 38.580254
58.151421 68.939491 38.098068
56.844616 69.267853 38.107998
58.847767 69.218842 38.265598
58.653557 69.31707 38.403259
56.152405 68.627625 38.154839
60.507668 69.449272 38.629288
59.872833 69.262428 38.471134
59.557384 68.672684 38.609764
60.62664 68.94886 38.223511
59.644852 68.710854 38.410442
55.687153 68.569702 38.146591
55.262199 68.818863 37.645775
58.55648 69.149223 38.447643
59.113773 68.431015 38.675621
59.455593 68.588432 38.574989
57.854397 68.611954 38.464478
58.749119 68.902931 38.105091
57.848679 69.358246 38.377552
57.043056 68.899422 37.921425
57.844231 69.019432 38.135361
60.044056 68.831245 38.258282
59.761539 69.274429 38.44603
55.578457 68.897484 37.753845
61.347481 68.712433 38.683674
59.262478 69.54921 38.807247
58.45623 68.900253 38.075489
57.57925 68.956947 37.924225
59.346004 68.516998 38.632332
61.022438 68.58226 38.71476
61.065308 68.710526 38.536911
58.656616 69.077553 38.282413
59.452866 69.129524 38.353378
55.447132 68.785789 37.725719
59.561871 68.464859 38.704884
57.051193 68.699768 38.135849
58.260624 69.135368 38.32869
56.261494 68.639992 38.156738
60.719585 68.782188 38.40007
60.338776 68.6381 38.61417
59.761219 69.224754 38.3097
57.355743 68.706749 38.17247
58.741516 69.022232 38.13274
59.734184 68.596397 38.66423
60.245258 69.327461 38.549213
59.644978 69.745529 38.821796
58.561089 68.603867 38.542339
59.912552 68.934395 38.359413
59.742367 68.515213 38.648148
55.845165 68.771492 37.944138
59.355129 68.782707 38.307144
58.051132 68.939468 38.088055
60.325962 69.402039 38.541351
58.558285 69.123734 38.277439
59.537399 69.021896 38.02602
57.05442 68.836319 37.961399
59.845314 68.570099 38.61911
57.150379 68.654282 38.268211
60.252907 68.86496 38.337666
60.766922 68.850426 38.410713
58.748028 68.784714 38.253201
55.928585 68.95649 37.844589
59.752102 68.710075 38.428387
55.73595 69.222992 38.0256
60.624771 69.21653 38.399181
54.673759 68.654869 37.816879
60.926228 68.72908 38.425541
58.152969 68.735382 38.321064
58.302021 68.624519 38.247116
60.234501 68.659065 38.7323
59.466461 68.597244 38.628765
55.456905 68.820404 37.775192
58.834606 68.482407 38.650604
60.276516 69.507332 38.685745
57.043697 68.667618 38.078415
58.458637 69.438499 38.39389
60.838287 69.391266 38.598946
56.248817 69.089211 38.044239
60.34594 68.899094 38.241657
56.850773 68.896965 37.900253
60.250988 68.572937 38.648399
59.947433 68.58152 38.614952
58.867535 68.671524 38.269566
55.617329 69.057869 37.982353
60.670887 69.339073 38.598091
58.455345 68.651199 38.405689
55.282391 68.917465 37.730698
56.845299 69.321571 38.294067
55.556122 69.152855 37.947433
59.264576 68.460403 38.673378
59.653702 69.030762 38.220997
59.847412 68.712883 38.434158
60.684486 68.537148 38.724007
59.644691 68.780373 38.350288
59.647217 68.952888 38.249462
54.640495 68.71463 37.782524
59.445698 68.938187 38.225784
58.949791 68.863007 38.203285
59.353966 68.914146 38.158447
57.949039 68.939827 38.074104
54.806225 68.430519 38.113377
55.580666 68.440552 38.207108
57.053791 69.314796 38.308609
59.250175 68.783806 38.296425
56.575966 69.081596 38.074501
59.357639 68.839882 38.195251
59.760067 69.321594 38.503765
57.850433 68.806061 38.243626
55.726833 69.011543 37.901707
54.942249 68.650581 37.868431
61.408943 68.737251 38.496357
59.224602 68.601517 38.617065
59.150845 68.941376 38.204781
58.93951 68.543205 38.630707
55.369335 69.2743 38.079689
59.642857 68.824135 38.386589
59.852917 68.955986 38.26844
57.736038 68.465218 38.385231
56.351006 69.267448 38.179703
57.760162 69.02858 38.00341
58.545715 68.582344 38.483364
59.160221 69.261353 38.343334
55.651817 68.541046 38.093681
54.703938 68.728989 37.822334
61.246273 68.694267 38.585678
59.250237 68.712044 38.37442
57.855282 69.027084 38.011005
56.855858 69.077759 38.116798
55.673172 68.501045 38.186455
59.150837 68.713562 38.357372
60.86132 68.968987 38.353436
59.249763 68.861664 38.236603
61.368896 68.97596 38.36274
54.844555 68.679588 37.911659
57.253456 68.540184 38.455193
58.247452 68.771667 38.136936
57.553257 68.510651 38.425995
59.051025 68.905746 38.136883
57.958092 68.736275 38.289825
56.949856 68.631279 38.190819
58.020741 68.777664 38.251083
59.945045 69.331856 38.528198
58.152382 68.780716 38.192787
59.350098 69.322334 38.546661
60.244892 69.703827 38.969238
57.151894 68.546234 38.446594
59.344215 68.65831 38.494022
60.143665 69.33448 38.543674
56.051285 69.006866 37.935204
59.45734 68.662926 38.501759
56.65736 68.654495 38.221291
55.971096 68.659912 38.125134
57.64967 68.865059 38.068867
59.247303 68.656754 38.482277
57.354988 68.945137 38.017288
56.688889 68.689934 38.288059
57.650154 68.708099 38.198441
57.855637 69.080063 38.116966
59.445217 68.821091 38.415611
59.754864 68.781792 38.359295
55.750553 68.463188 38.193798
58.244179 68.526245 38.560165
57.840782 68.528671 38.524757
56.95491 68.579269 38.302422
56.666855 68.718796 38.156132
55.275814 68.835403 37.74065
56.454666 69.082085 38.065784
57.849293 68.65329 38.335861
56.76432 69.265717 38.224972
60.928635 69.142685 38.468517
56.928738 69.229034 38.324131
61.13493 68.571564 38.769028
58.756023 69.081795 38.293209
59.559502 68.908508 38.180367
57.347321 68.653641 38.283722
59.844852 68.8927 38.213623
55.284477 69.178886 37.888176
55.464733 68.961548 37.714661
58.751961 68.657814 38.428772
60.054893 68.565163 38.618401
56.061619 68.958397 37.870876
57.549866 69.318298 38.296661
59.946167 69.680374 38.906681
55.241852 68.629044 37.809357
59.77224 68.988083 38.143993
58.449604 68.906288 38.249992
59.950451 68.900169 38.213207
59.852184 68.726364 38.481361
58.869579 68.52401 38.455448
58.243752 68.361847 38.453907
59.091854 68.48838 38.740074
58.048946 68.716232 38.247711
60.341637 68.480621 38.701813
55.452637 69.160133 38.072094
57.920902 68.98011 38.270023
59.152622 68.79808 38.377743
59.150333 69.193161 38.402683
60.448029 68.652046 38.528236
59.550934 68.515213 38.650841
55.821033 68.483566 38.16993
58.245163 68.8564 38.130577
55.86668 69.07132 37.807568
60.152435 68.952095 38.294697
60.625198 68.492645 38.684219
60.61491 68.638977 38.662403
59.05164 68.780899 38.280602
57.652267 69.19194 38.246025
58.349655 68.941422 38.112305
55.784531 68.693863 38.126339
58.653145 69.017151 38.21822
56.051838 68.826599 37.844425
58.047607 68.729492 38.306461
57.754177 68.720688 38.274906
58.942581 68.656754 38.389725
59.468761 69.511002 38.597027
59.147366 68.861259 38.224594
57.753937 68.469093 38.290352
59.843105 69.267365 38.518154
56.951775 68.865196 38.002365
57.552792 68.943764 38.031162
57.151875 68.938042 37.989216
60.563427 68.628807 38.554577
58.036369 69.431 38.462399
56.148689 69.131531 38.002003
57.950409 68.779129 38.169716
54.781609 68.773445 37.748875
59.956535 68.780342 38.378231
59.148178 68.769592 38.234299
57.654022 68.632385 38.437363
55.966518 68.501755 38.229389
60.336819 68.494507 38.637119
57.345276 68.981895 37.919369
61.046516 69.085182 38.421947
55.754768 68.886925 37.762222
60.33828 68.854713 38.339931
57.55901 68.590332 38.566044
60.271194 69.734711 38.891953
59.357353 69.076881 38.355
59.193951 68.697762 38.294254
58.94875 69.018799 38.255199
56.655083 68.943283 37.932484
55.342533 68.957634 37.67067
60.059551 68.854622 38.327301
55.867435 68.891365 37.773617
58.053707 68.514458 38.485245
55.04892 68.818428 37.726749
61.352631 68.919853 38.310707
55.269608 68.4664 38.11161
58.651104 69.126671 38.284103
58.354191 69.320938 38.434795
59.149784 69.321297 38.444859
56.75771 69.005478 38.022236
60.641174 69.034195 38.320778
57.533096 68.523666 38.497768
60.116779 69.055908 38.123081
57.748005 68.781647 38.149105
60.005375 69.598434 38.772293
56.088955 68.777306 38.061245
60.277061 68.770737 38.34803
57.653984 68.656212 38.321892
60.548515 68.889282 38.269348
61.445736 69.102562 38.419323
59.744377 69.710587 38.938694
59.941692 69.016556 38.345287
61.266273 69.095093 38.433495
58.453625 69.318855 38.446644
58.555542 69.019745 38.082954
58.496006 69.212402 38.520313
57.945412 68.899452 38.024002
59.555962 69.133392 38.36219
60.64225 68.860161 38.408611
57.752693 68.513115 38.452133
59.548637 68.714714 38.401276
58.453781 68.940193 38.126415
57.850842 68.776367 38.164211
60.146454 68.650284 38.585388
59.159439 69.125107 38.337566
55.433765 68.514572 38.151665
61.747437 68.59993 38.742546
58.050346 68.78157 38.17815
58.855518 69.126457 38.300304
55.152523 68.660851 37.925636
57.42746 68.595428 38.451828
57.952389 68.657501 38.354359
56.461349 68.762932 38.002476
59.050976 69.083275 38.329983
58.649376 68.656036 38.421501
58.547581 68.758919 38.177734
60.732742 68.618256 38.744438
59.366383 69.554291 38.830078
60.453972 68.682495 38.517307
58.926739 68.460228 38.496868
58.945328 69.127831 38.32037
61.045174 68.757721 38.502415
59.946194 68.954094 38.275429
58.749195 68.939842 38.160736
59.145199 69.08168 38.334728
57.852936 68.897469 38.019375
55.66349 69.000786 37.916
60.451256 68.907646 38.25531
60.248528 68.619942 38.494904
60.044292 68.780701 38.385811
60.055824 69.150261 38.399673
58.946442 69.080727 38.312679
58.893612 68.555237 38.307739
58.651428 68.584824 38.490246
60.452152 68.783165 38.446167
59.149818 68.647346 38.404797
59.93214 68.678085 38.687305
57.447296 68.89904 37.9716
58.753582 69.269447 38.427204
58.252762 68.936287 38.105721
59.947231 69.151047 38.39629
60.12899 69.065201 38.427231
60.248943 69.077316 38.434685
60.14201 68.84906 38.337925
60.349644 68.780762 38.40395
57.644558 68.824684 38.223164
58.865929 69.077164 38.306698
60.527664 68.871086 38.375843
60.346134 69.147583 38.422852
55.564777 68.667877 37.891609
55.647308 69.03508 37.8148
56.581875 68.76606 38.197701
56.566898 69.020111 37.996937
60.580414 68.615662 38.699654
60.567394 69.00293 38.302143
58.057526 68.898872 38.036186
59.489361 69.531975 38.943981
61.668392 68.634193 38.689766
55.550926 68.392342 38.166431
57.955078 68.633118 38.306396
59.838943 69.695183 38.940506
58.740467 68.546257 38.433311
55.083599 68.669655 37.844013
61.322807 68.777138 38.45042
57.25811 69.193581 38.204639
59.948559 68.864342 38.308548
60.288303 69.519714 38.499054
57.553341 68.808754 38.217609
61.560616 68.571503 38.77235
58.352383 68.513 38.520622
55.243996 68.734123 37.888268
61.534843 68.680962 38.610764
59.34959 68.540169 38.487663
60.929554 69.005615 38.420486
60.065228 69.080856 38.433735
58.356251 68.656708 38.385754
58.149834 69.019714 38.169514
59.649265 69.628654 38.912704
58.751614 69.123123 38.289494
60.815857 68.701309 38.502361
58.455097 68.71714 38.285599
55.652046 68.660538 37.928841
56.166103 68.67659 37.970402
58.251728 68.78447 38.20055
59.045933 68.937805 38.191189
58.133953 68.54126 38.550407
60.359619 69.685616 38.919662
58.761814 68.653679 38.379551
58.960548 69.068321 38.197777
60.946968 69.338356 38.5984
56.952908 68.734909 38.188564
59.541794 69.200752 38.427124
57.953388 69.076653 38.124107
58.451069 68.785454 38.219734
56.272629 68.703331 38.121124
60.05196 68.96228 38.285305
57.641479 68.633423 38.265575
60.318462 69.678436 38.978195
58.65313 68.642853 38.368694
60.676655 69.616089 38.895737
56.034157 68.594696 38.02301
56.54491 68.894699 37.864796
58.836388 68.362022 38.650146
60.360146 69.333435 38.559803
56.143326 68.941437 37.757164
57.439049 69.131943 38.250076
60.348133 69.266327 38.505684
57.052902 68.864792 38.003563
61.22694 68.867165 38.420296
57.252285 68.736397 38.228294
58.849667 69.32386 38.430283
59.055901 68.717453 38.350529
58.050858 68.583229 38.427067
57.946644 68.708717 38.236725
58.849045 68.6474 38.386906
57.753368 68.857056 38.087189
57.749962 68.58107 38.393703
55.360161 68.475212 38.177177
61.858028 68.594025 38.801151
57.44883 68.865784 38.059376
58.246529 69.319153 38.364941
58.545708 68.726128 38.35659
60.103352 69.155396 38.574455
59.386665 68.832092 38.365433
59.352123 69.200035 38.419849
59.750328 68.947105 38.26123
60.656845 68.713654 38.497055
56.861855 68.833542 37.947308
59.454655 68.781914 38.330975
57.651344 68.775917 38.13665
56.956741 68.651222 38.239914
55.34856 69.331322 38.006168
56.65929 69.321983 38.262444
55.318104 69.002792 37.721535
60.648067 68.903282 38.272091
58.746265 69.323608 38.420959
54.762226 68.644508 37.843586
61.270447 68.729782 38.454628
57.141823 68.574944 38.331348
56.951569 68.899124 37.911079
59.958057 68.516266 38.666592
57.650414 68.576469 38.385387
59.659275 69.705574 38.9277
61.317894 69.131927 38.55669
58.133934 69.015205 38.037426
56.197121 68.628708 38.034004
58.155228 68.581573 38.437698
60.453453 68.836456 38.359386
57.054955 68.949738 37.987988
55.352959 68.667191 37.894634
58.548157 69.083206 38.274422
58.337242 68.50325 38.612629
59.547836 68.777565 38.337963
58.558605 68.781349 38.2323
57.849674 68.584106 38.405037
59.251915 69.122025 38.336441
57.902733 69.285782 38.516804
57.152397 68.895897 37.943436
58.181511 69.425468 38.3251
60.055431 68.804832 38.47438
57.553673 68.735275 38.257893
57.153698 68.77282 38.089336
57.258797 68.580833 38.334545
58.150761 68.841202 38.071884
60.846939 68.778259 38.479683
56.853325 68.57856 38.294754
59.355576 68.712143 38.38409
57.548126 68.578369 38.373886
57.352909 68.508034 38.409138
59.062016 68.744911 38.418015
60.091164 69.697067 38.958359
54.939175 68.711143 37.860546
61.268501 68.96035 38.378357
58.254864 68.517799 38.50687
59.238525 69.081741 38.250736
58.451561 68.858681 38.157471
58.369888 69.135406 38.074448
58.205391 68.582893 38.249447
59.454876 68.707695 38.397106
58.646072 68.587273 38.299908
59.745705 68.722198 38.471863
60.249802 68.972359 38.311161
58.139027 68.437332 38.554741
60.858154 68.83226 38.314995
58.349068 68.580002 38.459114
59.858295 68.518814 38.661678
57.258423 68.503807 38.404884
60.170135 68.581169 38.638237
57.652756 68.942581 38.045818
60.946724 68.839226 38.362
57.758324 68.904396 38.001461
58.129059 68.468246 38.602203
57.057262 68.753586 38.202389
56.852943 68.702286 38.114704
58.650475 68.78447 38.242844
61.403557 68.638344 38.723339
55.320915 68.405106 38.066345
60.942299 69.094269 38.417488
55.839661 68.669449 37.952354
59.756859 68.57222 38.60619
61.255051 68.766304 38.491688
56.746216 69.073471 38.099819
59.555233 68.635101 38.468155
58.735981 68.487175 38.313824
58.259533 68.802917 38.277199
58.155186 68.990677 38.289719
57.662601 68.734146 38.262203
58.656769 69.07856 38.194767
58.363075 68.727364 38.335518
58.276596 68.987259 38.019932
58.145657 68.895126 38.044228
57.168255 68.732872 38.212105
56.349827 69.018578 37.973156
58.75927 68.967819 38.065971
60.457504 68.580254 38.655762
59.459061 69.273483 38.498283
57.738922 68.611649 38.454231
60.25988 68.777718 38.413624
59.346069 69.068565 38.285011
57.744312 68.762398 38.089058
59.280975 69.123077 38.158844
60.645615 68.78968 38.420982
59.241917 69.084854 38.349091
56.450447 69.020363 37.992622
56.556347 69.062981 37.979961
58.349571 68.602882 38.513538
58.253937 68.90596 38.053032
60.754196 69.091072 38.397442
57.75106 68.634659 38.281628
58.747421 68.727356 38.380451
55.642513 69.336029 38.061756
59.247547 68.735016 38.433678
59.450462 68.720375 38.447289
58.957893 69.319016 38.440712
57.054825 68.57225 38.320896
55.403145 69.33371 38.171768
59.755878 68.86087 38.284481
59.650169 68.860161 38.28223
59.853973 68.861862 38.301792
56.981548 68.597115 38.133549
56.661774 69.070114 38.104408
60.14613 69.260712 38.463436
56.257721 68.901054 37.832973
56.351257 69.1334 38.019844
57.640011 68.804497 37.882698
60.746952 68.552002 38.691719
59.542728 68.989891 38.124992
59.652626 68.98452 38.15007
57.256626 69.078705 37.894054
59.151409 68.587471 38.549503
57.848259 68.508652 38.460007
58.063454 68.541245 38.530895
59.150562 68.519073 38.606888
59.542168 68.582718 38.589169
60.253654 69.095528 38.369144
60.450653 68.828056 38.287285
57.053978 68.630836 38.400913
59.052521 68.643219 38.410149
58.851402 68.589859 38.511818
59.340282 68.536812 38.676048
59.550938 69.011093 38.31147
55.415203 68.324913 38.163662
61.718693 68.618698 38.726177
57.054451 69.003662 37.952332
59.476208 68.70005 38.564007
59.650879 68.581009 38.595608
59.737495 69.008835 38.197521
56.761517 69.195862 38.154255
55.757866 68.541977 38.121025
59.357372 68.869522 38.239235
59.737682 69.570526 38.674816
57.956833 68.583397 38.419159
57.960052 68.814201 38.245094
59.07737 69.291763 38.36985
59.179836 69.073921 38.254032
56.246769 69.134567 38.007931
58.849781 68.941048 38.17062
58.35532 69.352516 38.424965
58.547989 69.015167 38.206352
58.166363 69.317474 38.418686
55.047054 68.751671 37.860371
61.346615 68.693665 38.579124
59.154984 69.025108 38.150543
58.256268 68.576782 38.449966
59.045864 68.589798 38.527294
59.74839 68.635818 38.455936
55.654888 68.385231 38.184471
58.750664 69.015984 38.22897
58.453472 68.582993 38.472836
55.473972 69.256332 38.062237
58.852154 68.777977 38.265373
60.158619 69.463211 38.65181
59.671791 69.439171 38.624138
55.144413 68.777763 37.840481
61.622841 68.674118 38.599903
60.562099 68.831581 38.313438
61.576626 68.786987 38.476791
55.260956 68.644928 37.8657
59.283485 68.541954 38.453716
58.154099 68.713905 38.257069
58.249329 68.714386 38.268936
58.442379 68.625862 38.53381
55.658012 68.737297 37.867538
56.636284 69.017067 37.93124
57.05143 69.187302 38.181175
59.051617 68.553871 38.471199
59.954659 68.730484 38.496792
59.948563 69.098427 38.335808
58.975105 68.542664 38.444645
59.649948 69.31852 38.499706
57.272255 68.95536 37.888397
58.553448 69.064796 38.183559
59.347599 69.324402 38.469563
57.358345 69.330017 38.280331
59.051785 68.515862 38.603081
59.920681 68.962654 38.171795
58.368717 69.200951 38.456455
58.258671 69.07795 38.148396
59.547287 69.319359 38.569046
56.648682 69.087646 37.988369
57.447609 69.265137 38.294361
55.855412 68.746918 37.896965
58.750698 69.068604 38.217155
56.296242 69.059151 38.148987
58.054638 69.267273 38.241848
59.148144 69.265495 38.466858
56.55463 68.775902 38.010994
56.749397 68.7761 38.04171
56.857349 68.778839 38.050262
55.553734 69.192696 38.018612
59.35157 69.133324 38.349304
60.978714 69.399284 38.60638
58.462067 69.068741 38.198269
57.266682 69.137512 38.235516
61.277397 68.643646 38.655533
54.725212 68.513451 37.95295
57.252789 69.268745 38.271107
56.361084 68.894272 37.846828
59.536747 69.320686 38.501236
61.710411 68.528229 38.848164
57.557148 68.781487 38.126945
57.449005 68.781219 38.114109
59.248653 68.518349 38.62233
56.16518 68.55439 38.161011
58.045761 68.635696 38.313969
57.046356 69.124237 38.212227
55.453114 68.655045 37.903877
60.456089 68.505989 38.707283
57.955959 68.528023 38.523689
60.939411 69.02494 38.356251
57.871532 68.471375 38.397808
58.156811 68.652351 38.372845
56.746586 69.317673 38.281376
60.055962 69.220642 38.468712
59.646748 68.519173 38.65329
60.106186 69.59127 38.955311
58.952415 68.935448 38.180187
55.942696 68.739197 37.904251
56.156532 68.855042 37.91011
58.463264 68.820816 38.289787
56.15102 68.748032 37.92997
55.856472 68.824043 37.819294
57.955791 68.862595 38.107594
58.252399 69.197311 38.308411
59.649181 68.774742 38.28693
55.152763 68.639587 37.845592
56.050652 68.555069 38.149136
55.435558 69.065048 37.845398
54.777615 68.891441 37.652504
58.652954 68.862602 38.180035
58.45113 69.271721 38.399532
54.870342 68.861107 37.678051
57.158752 69.193634 38.195904
57.866402 68.762489 38.3592
59.146267 68.838715 38.181385
55.07674 68.730522 37.785656
54.954651 68.750259 37.769569
59.251072 68.897102 38.154911
54.843025 68.747688 37.779846
58.640663 68.490517 38.333485
61.182343 69.459938 38.608536
55.574314 68.649498 37.81065
59.038586 68.759003 38.23378
56.041451 69.086128 37.929939
60.115215 68.806778 38.479584
59.845604 68.65992 38.337326
54.548172 68.648788 37.822308
58.942814 68.402306 38.588879
60.778576 68.681046 38.53371
57.553219 68.865509 38.063702
59.844223 68.527115 38.57724
59.269371 68.917191 38.319054
59.548584 68.730614 38.458286
55.666821 69.197899 38.015202
60.143143 68.725197 38.510002
54.858578 68.612953 37.883904
59.57476 69.255836 38.418644
57.378139 69.010544 37.988174
60.043762 68.727104 38.503101
58.25182 68.66098 38.384167
56.958168 69.136765 38.197556
60.741867 69.044853 38.407032
60.050968 68.580872 38.546783
56.165516 68.764709 37.973141
56.14838 69.075989 37.931393
59.733639 68.760185 38.297894
55.677155 68.759483 37.76421
56.752689 68.90271 37.887169
55.750378 68.674118 37.931332
55.640244 68.902885 37.747086
60.240215 68.701088 38.471603
59.232674 68.976425 38.08287
55.545746 68.44519 38.147804
56.637871 69.26461 38.204941
58.256634 69.272972 38.379135
58.451897 69.017075 38.199471
55.441505 68.45433 38.127361
55.061535 68.441284 38.090111
59.259521 69.062508 38.148808
56.322327 69.164246 37.954842
60.154594 68.831718 38.275337
59.935303 69.555069 38.995735
59.916534 69.448532 38.477482
59.451561 68.518768 38.640182
60.139149 68.516212 38.676079
60.426189 68.544052 38.600609
55.643509 68.886856 37.696003
57.734627 68.990021 38.208523
57.660564 68.540924 38.495651
57.74633 68.709564 38.213139
59.253696 69.319878 38.469963
58.551025 68.94339 38.140766
55.152874 68.809608 37.764576
60.360577 69.016594 38.290859
59.370895 69.05423 38.168804
58.552406 69.317719 38.399082
59.84119 68.755096 38.301399
56.244091 68.743515 37.924843
61.391918 68.705826 38.706734
55.851482 69.157799 38.08688
59.33223 69.128479 38.547916
58.152287 68.814178 38.261307
58.636353 68.800957 38.31076
56.951874 69.193581 38.179428
60.635677 68.526451 38.649883
59.250526 68.398972 38.592632
58.549572 69.193848 38.341118
56.760029 69.135818 38.077084
59.017082 69.022369 38.131783
56.946922 68.848969 38.141148
59.346668 68.585739 38.574062
56.393654 68.738571 38.158657
59.993896 68.63385 38.391838
60.168602 68.527863 38.580631
55.358814 68.46479 38.113029
55.968044 68.458916 38.203384
55.964809 68.545166 38.136765
59.045425 69.187355 38.3894
59.856087 69.139862 38.387306
58.851379 68.71106 38.332211
59.376038 68.69101 38.560291
57.945774 69.145737 38.306084
56.864605 68.651253 38.363678
60.447903 68.956444 38.321552
57.053188 69.018524 38.057796
56.147202 69.014725 37.941425
58.059212 69.129387 38.308338
58.644108 68.733841 38.36208
59.64151 68.840706 38.225742
57.650627 68.509583 38.441017
58.048286 68.599777 38.495857
57.047638 68.83252 38.125866
58.948444 68.843979 38.1651
58.450161 68.764328 38.158966
56.456745 69.250763 38.076813
56.840504 68.800507 38.144653
55.565514 69.043884 37.829632
58.649963 68.936066 38.146889
57.452038 68.504921 38.417046
56.566307 69.27877 38.09663
56.780956 68.620308 38.38401
58.321972 68.834213 38.270149
58.147785 68.62011 38.500824
59.856777 68.632195 38.461803
59.368958 68.736717 38.43856
56.76519 68.911819 38.061584
59.646461 68.724876 38.457764
56.561642 68.64827 38.200272
59.83971 69.316101 38.508419
59.537212 68.796562 38.40062
60.352394 68.977234 38.172966
57.364532 68.833084 38.164124
61.350052 69.095383 38.471676
58.857887 69.019325 38.245293
60.221951 68.973694 38.151409
57.955856 68.625046 38.47617
56.250069 68.693718 38.033958
57.449188 69.018555 38.095577
56.25399 68.762779 37.98241
58.706234 68.804382 38.024769
56.357582 68.767616 37.991467
60.043812 69.559067 38.71648
57.339024 69.133102 38.230633
57.441994 68.916786 38.112938
57.254826 68.558914 38.280746
58.854103 68.868355 38.193619
55.964104 69.029289 37.914761
58.860001 68.554039 38.727982
56.361282 68.843498 37.936714
58.046272 69.021461 38.15992
57.546719 68.708054 38.193386
57.347069 68.780586 38.099358
57.848801 69.318245 38.385769
57.352665 69.018288 38.086292
60.04763 68.706604 38.455379
57.249683 68.781174 38.097721
55.870457 68.487938 38.237278
56.348122 68.63662 38.179474
56.144176 68.55204 38.221531
56.354488 68.573715 38.231773
57.454674 68.576988 38.368122
57.149658 69.204803 38.074936
55.445969 69.208778 38.01207
60.355629 68.696854 38.479801
57.447945 69.327591 38.288521
56.263218 68.948006 37.779675
56.340885 68.971283 37.798622
56.499359 69.005203 37.74868
56.527733 68.979012 37.806286
56.556122 69.291145 38.247501
56.26054 68.583549 38.339329
58.039738 68.95813 38.274689
58.148781 68.546928 38.375866
58.815334 69.137115 38.148254
55.257458 68.774445 37.708832
61.142727 69.112785 38.364124
57.988407 68.4674 38.399006
60.269794 69.273621 38.497417
58.554901 68.860596 38.164726
60.556381 69.274681 38.514431
56.743858 68.832359 37.932632
56.549896 69.131203 38.042843
59.835552 69.39949 38.458996
56.654625 69.018509 38.006248
58.351151 68.861832 38.141594
58.353771 68.713783 38.279861
59.254074 69.192856 38.406338
56.852074 69.130493 38.090744
59.113667 69.526512 38.629711
57.155869 68.601357 38.405231
59.944916 68.837845 38.526569
57.552895 69.019913 38.105347
56.549156 68.592422 38.062588
60.552475 68.970467 38.329617
57.671864 69.122505 38.25333
59.853004 69.519531 38.647243
56.610264 68.572472 38.057247
59.564243 69.51767 38.62352
56.851353 68.632469 38.184547
56.07198 68.56678 38.194324
57.639282 68.558807 38.32972
58.69577 69.285667 38.347248
56.244484 68.560432 38.221169
55.043373 68.597656 37.974377
61.502991 68.581764 38.721333
60.156998 68.697411 38.470612
60.822895 68.560989 38.645348
54.589741 68.623657 37.938511
55.859722 68.613609 38.050743
54.925579 68.610291 37.927837
55.649792 68.613121 38.028839
55.362667 68.603699 38.013371
60.297939 68.481644 38.586845
55.386063 69.275665 37.969761
55.490417 69.352089 37.972889
59.819118 69.364052 38.384583
56.86113 69.200394 38.157303
55.666042 68.467644 38.163605
54.568623 68.546165 37.927052
54.678799 68.423454 38.089115
59.050934 68.861969 38.211327
61.083752 68.558334 38.667164
61.132381 69.104034 38.424313
58.15173 68.514427 38.495777
58.6525 69.18898 38.349392
57.147598 68.687286 38.084179
58.951012 68.588631 38.518642
58.8447 69.074791 38.211563
57.353653 68.575638 38.34798
57.35791 69.07795 38.146481
57.054398 69.134048 38.11161
59.760647 69.134811 38.380199
54.593437 68.90535 37.691456
60.836967 68.660591 38.437115
57.730774 68.527733 38.501068
58.508606 69.44413 38.412189
55.973064 69.203583 38.059704
57.352917 69.122513 38.152313
60.814579 68.708488 38.347679
59.042564 69.441238 38.470188
59.44379 69.322838 38.48465
59.247051 68.764557 38.240627
60.055176 68.624687 38.472641
58.645004 68.684532 38.507004
57.252033 68.836075 37.986065
60.962833 68.655319 38.659348
57.45612 69.125259 38.157833
61.145977 69.198524 38.597279
58.617531 69.458153 38.414219
60.49305 68.623291 38.75613
59.654621 69.070778 38.301201
58.376133 69.281677 38.279934
58.634605 68.557716 38.431423
61.234444 68.678947 38.43578
58.41177 69.21936 38.191734
59.05077 69.32692 38.44725
59.058746 69.076805 38.217712
60.848579 68.916481 38.299873
54.86903 68.512932 38.005836
59.739021 68.906517 38.194134
57.512218 69.229576 38.123558
58.441498 69.29216 38.302135
55.585533 69.238091 37.92012
55.149036 68.534157 38.051708
58.447948 68.641548 38.350903
56.361038 68.624138 38.119789
58.553341 69.355309 38.447083
59.357964 68.645477 38.435505
59.251286 68.939819 38.209389
56.768787 68.573044 38.286381
59.864403 69.068733 38.326477
57.553215 68.899284 37.982021
54.991703 68.837029 37.688274
61.445839 68.909767 38.329403
56.653305 68.632553 38.153328
59.253696 69.259834 38.471981
55.07877 68.721573 37.931042
61.159073 68.962753 38.392181
58.849426 69.319847 38.49139
61.439468 68.973396 38.387386
55.679962 69.167809 37.803249
55.857971 69.009911 37.927719
58.061726 68.439949 38.5331
55.554111 68.77771 37.743515
57.019619 68.898857 38.210827
55.882767 68.778076 37.788776
59.760159 69.206924 38.450989
57.95293 68.446053 38.508129
58.831192 68.961853 38.061764
59.643402 69.202339 38.440849
58.351807 69.270721 38.385548
60.545773 68.521408 38.638542
56.851463 69.06221 38.009369
58.358978 68.931252 38.219795
60.354774 69.588211 38.870815
56.55423 69.266617 38.183453
60.334419 69.672729 38.56781
58.149315 68.637825 38.322041
58.539711 68.465752 38.459888
57.25032 68.707817 38.163406
60.156273 69.686554 38.916199
59.056843 69.27005 38.458637
57.650776 69.270462 38.316269
56.754608 69.07975 37.992981
59.77721 69.396439 38.389671
58.755501 68.613129 38.554268
58.153896 69.353493 38.406593
59.444881 68.866028 38.256252
59.551384 68.85907 38.264389
59.351128 69.633484 38.882931
56.551376 68.747955 37.969616
58.357533 69.018776 38.188931
58.053482 69.318619 38.402931
57.853764 68.628815 38.300133
59.441669 68.536743 38.671516
59.562004 69.077599 38.382717
56.748859 68.542709 38.23597
56.171989 69.020966 37.846855
55.745655 69.143898 37.962162
58.955696 68.93158 38.293716
58.948322 69.457474 38.555206
59.353928 68.93425 38.214783
59.047142 69.407188 38.556835
60.083702 69.460152 38.47905
57.152664 69.136856 38.21339
58.229057 68.918648 38.227795
59.34375 69.254364 38.388908
57.853477 69.322601 38.335949
57.055805 69.072105 38.121357
59.437798 69.287224 38.29771
59.849796 69.214127 38.322308
56.502041 69.176491 38.200047
57.752338 69.3209 38.379986
56.651119 68.892799 37.875587
58.727985 69.215988 38.228062
55.361977 68.985527 37.804863
59.246944 68.53643 38.661911
56.446285 68.563942 38.242504
55.472927 68.977226 37.839478
56.955883 69.259109 38.240002
60.356773 69.069603 38.364071
59.139122 68.552124 38.450615
58.553173 69.268082 38.4034
58.950905 69.269806 38.447903
58.854393 69.265556 38.436024
55.730896 68.975891 37.853451
58.259575 69.317238 38.421513
58.859615 68.837288 38.150143
58.950684 68.518944 38.586948
58.250496 68.83876 38.08279
59.755661 68.472092 38.597305
56.946247 69.129623 38.099827
58.149666 69.133858 38.305912
59.352299 69.270721 38.486336
58.449524 68.487015 38.447258
60.482948 69.416756 38.550201
58.956463 68.754921 38.214016
57.45808 68.75428 38.062969
57.34745 69.266991 38.285824
57.265602 68.690086 38.092812
55.843945 68.546936 38.128227
58.64912 68.517265 38.552662
56.947723 68.759193 38.008617
56.963959 68.566422 38.248703
58.35463 69.077766 38.251225
56.855961 69.255669 38.227985
57.753159 69.0205 38.126785
57.747913 69.354866 38.366173
57.348312 69.194016 38.216702
57.43996 68.5401 38.471512
58.055054 69.138618 38.085999
57.925613 68.916611 38.18079
56.450233 69.239594 38.188389
55.456406 68.539978 38.082836
56.84996 68.553673 38.243313
57.545979 69.357384 38.346512
58.148201 69.272194 38.368565
55.942146 68.662491 37.964848
58.751282 68.715492 38.316574
55.839954 68.964699 37.860985
57.255844 69.023064 38.074726
55.548599 68.533562 38.089085
55.51329 68.725586 37.906445
57.852787 69.127937 38.204758
58.150974 69.071671 38.149231
59.642101 69.271698 38.506245
58.150711 69.323303 38.36097
57.347073 69.252274 38.170685
60.344952 68.830635 38.295494
57.455112 69.359085 38.333355
57.451855 69.079094 38.161133
55.650528 68.742828 37.91291
55.538933 69.333084 38.047493
57.561543 69.078751 38.078857
58.059307 69.328033 38.351025
55.360832 68.377708 38.104153
58.449833 69.355881 38.440262
58.653526 69.274506 38.418938
57.353226 68.537659 38.472855
58.746864 68.539482 38.602554
57.249046 69.127701 38.138546
58.65152 69.353729 38.46064
56.337456 68.543404 38.177834
56.351814 68.747025 37.947994
59.05265 69.018311 38.264576
57.651852 69.359955 38.359585
59.052715 69.358261 38.50021
56.64917 68.759163 37.970497
57.545155 69.079712 38.170406
57.552803 69.267563 38.304718
56.736416 68.75222 37.979832
58.054157 68.839935 38.062744
56.456203 68.556908 38.19709
56.165535 68.955719 37.877449
57.258209 68.763008 38.039257
57.151817 69.130859 38.122211
55.766273 68.610985 37.985558
57.149757 68.639481 38.208431
58.452034 69.126945 38.267025
55.947552 68.895821 37.802795
56.046345 68.76265 37.911434
55.933609 69.069489 37.907444
57.440739 69.080856 38.068581
57.056782 69.265411 38.14407
57.160915 69.259956 38.266476
58.435459 69.188026 38.436901
57.757507 69.121841 38.182636
54.967735 68.567017 37.941952
59.538616 69.261894 38.495243
55.33778 68.524368 37.997818
56.654408 68.677513 38.026695
58.057331 68.456635 38.592403
55.965137 68.602409 38.00782
57.341835 68.757729 38.050877
55.157505 68.589348 37.925167
57.141304 68.758553 38.024971
59.397591 69.512268 38.935375
57.952885 69.021851 38.149063
57.953583 69.273315 38.347092
58.666847 69.134666 38.356697
57.8494 69.274689 38.228321
58.173626 69.288872 38.262753
55.54245 69.079971 37.838474
58.861908 68.804695 38.337666
58.251339 69.123512 38.241539
55.957523 69.012283 37.837456
58.049759 69.271576 38.358345
55.24939 68.561821 37.922798
56.564381 68.558456 38.202225
56.855198 69.017937 38.03598
57.75563 69.321075 38.31567
59.150356 69.324242 38.527691
58.546631 68.644562 38.360134
60.339935 69.639626 38.672646
57.855335 68.492905 38.556389
58.537025 68.555275 38.256916
58.602909 68.418999 38.518303
58.749638 68.519257 38.56461
56.03614 69.157669 38.010132
57.738155 68.552338 38.233887
59.655865 68.533218 38.72002
58.85305 68.517387 38.578049
56.04501 69.205872 38.05452
58.652428 69.316765 38.464863
57.054176 69.265587 38.252338
58.438984 68.495033 38.630913
57.15152 69.077736 38.135094
57.849579 69.081383 38.203358
57.653351 68.837219 38.024319
56.457794 68.679764 38.003284
57.649017 69.079803 38.178932
58.948074 69.188889 38.380482
56.252922 68.550392 38.167458
55.330711 69.002129 37.87273
60.240219 69.671745 38.917515
58.244804 69.079758 38.246307
57.046974 68.750557 38.01984
55.675793 69.251831 38.093723
55.568829 68.742004 37.836235
56.85722 68.759682 37.995865
57.351639 68.892487 37.958218
56.236851 69.01355 37.939617
57.860817 68.458511 38.514194
55.477173 68.579048 37.959629
58.832047 69.1381 38.396141
56.243996 68.669388 37.989437
57.564632 68.549606 38.320812
55.12748 68.772842 37.691948
55.190548 68.608635 37.966656
57.651825 69.016014 38.114674
57.247108 68.641685 38.218754
55.569019 69.255859 38.058525
58.747753 68.56707 38.312798
58.176785 68.495438 38.310062
57.027866 68.934937 38.118362
58.555676 68.468185 38.65934
58.54747 68.514122 38.542587
57.852093 68.565071 38.331787
57.561798 69.283958 38.198467
57.25256 68.899742 37.952095
56.046967 68.67334 37.9585
56.645607 68.555405 38.217628
58.454762 68.513336 38.527916
57.545006 68.606361 38.42963
59.826363 68.4618 38.561234
58.417095 68.426842 38.358471
57.767601 68.806084 38.21529
59.055683 68.877014 38.298622
56.614952 68.612053 38.343376
57.864113 68.917374 38.161106
59.544323 68.841255 38.21788
58.882969 68.474007 38.401161
57.445965 69.012016 37.992714
57.558083 69.126678 38.169853
57.945885 69.31633 38.394413
55.846207 69.095161 37.921185
59.025478 68.53598 38.630928
55.429512 68.868187 37.663654
57.650692 69.323105 38.367729
55.44944 68.349327 38.114212
57.950893 69.082733 38.212791
55.468067 69.319862 38.040833
55.619156 68.592262 37.980873
56.848408 68.930557 38.074108
55.847069 69.079239 38.04697
59.447308 69.009865 38.306107
58.152565 69.132317 38.229477
55.282497 68.938354 37.622051
57.763756 69.280785 38.219273
57.545048 69.32016 38.358124
57.252712 69.082466 38.142754
55.156845 68.514114 37.999363
56.349449 68.673203 38.003304
56.456676 68.63903 38.199432
60.170387 69.011909 38.349457
58.043747 69.088943 38.125263
55.36182 68.584641 37.953655
55.906796 69.068916 38.004025
59.446434 69.630692 38.896286
58.074825 69.209435 38.186161
57.941948 68.565788 38.354729
59.461117 68.652542 38.443096
59.415825 69.163116 38.202351
58.352421 68.845337 38.091515
55.918365 69.254784 38.165771
59.070332 68.610916 38.309246
57.170212 68.89975 38.098701
59.04393 68.656807 38.463928
61.530148 69.094925 38.427731
55.769699 69.246574 38.092224
58.454582 68.843941 38.103729
58.751648 68.837868 38.141815
59.246643 68.845703 38.191811
57.445801 68.578354 38.29422
60.053383 69.071709 38.339817
58.24688 68.577034 38.387089
57.257576 68.839706 38.157303
58.532562 69.284164 38.300953
58.554787 68.842278 38.118607
57.157887 68.562492 38.271805
57.553249 68.906166 38.166302
57.349178 68.61058 38.430672
57.351612 69.320267 38.343067
57.04623 68.551285 38.270756
59.827644 68.932121 38.393669
59.852425 69.018738 38.343124
59.554665 68.758835 38.271091
56.427021 69.047852 38.160557
59.442986 68.842171 38.216209
58.7785 68.953552 38.247715
59.15741 69.015869 38.272362
58.159554 68.909706 38.201759
59.055569 68.845703 38.173134
60.511826 68.785286 38.421608
58.343819 68.568832 38.38818
59.543808 69.21209 38.337379
59.357391 69.357834 38.533386
57.725674 68.562988 38.333168
59.951542 68.710686 38.44503
58.046459 68.551399 38.358898
58.65258 68.847076 38.128307
58.354034 69.088608 38.152458
57.131958 68.80336 38.147388
59.643448 69.019913 38.318775
55.764919 68.786598 37.767998
60.788822 68.455093 38.658848
59.656616 69.67717 38.885525
58.101597 69.172714 38.140686
58.347118 69.126884 38.251751
57.643284 69.323578 38.298347
55.946575 68.754967 37.809994
58.43996 69.321236 38.392956
55.646477 69.086075 37.883068
59.2495 69.362648 38.520672
55.863983 68.624863 37.984772
59.360542 68.929092 38.315792
58.252258 69.35408 38.41539
59.754448 69.270515 38.509945
59.339619 68.616158 38.61076
59.452034 69.201683 38.425213
59.654316 69.365402 38.555412
58.74659 69.354294 38.46455
59.55183 69.362083 38.544228
57.972488 68.990196 38.028095
57.465096 68.811073 38.191921
58.376171 68.457802 38.567207
60.15657 69.150673 38.402969
59.947529 69.214996 38.459583
58.148586 69.082092 38.239346
59.156048 69.356392 38.5144
59.756714 69.012962 38.327312
57.947048 69.327507 38.343746
58.53989 69.128464 38.37233
57.750988 69.27179 38.323456
59.451187 69.084496 38.373093
59.948524 69.276489 38.516464
59.950169 68.632713 38.47044
55.657448 68.698486 37.808449
56.941975 68.930161 38.095276
59.653427 69.080688 38.390423
56.932457 69.008911 37.942295
60.182201 69.55439 39.001633
58.248783 69.002243 38.05151
56.922745 68.645119 38.379238
60.245037 68.573502 38.437794
59.45422 68.562561 38.519348
60.057228 69.015236 38.365757
58.854469 69.354271 38.479591
59.650558 68.640999 38.463596
59.76577 69.370697 38.557701
59.43647 69.269638 38.378746
58.074333 68.682831 38.45594
59.163101 68.950912 38.298409
58.551975 69.119576 38.022015
57.618988 69.107323 37.983528
