# .PCD v0.7 - Point Cloud Data file format
VERSION 0.7
FIELDS x y z
SIZE 4 4 4
TYPE F F F
COUNT 1 1 1
WIDTH 918
HEIGHT 1
VIEWPOINT 0 0 0 1 0 0 0
POINTS 918
DATA ascii
53.445438 -32.512955 6.2807798
52.777695 -32.505718 6.3390574
56.143925 -32.403183 6.1840434
55.051846 -32.377644 6.0163312
55.030293 -32.488159 6.0096831
53.000271 -32.414455 6.2117524
53.990639 -32.562054 6.1088104
55.955856 -32.495163 6.0009627
52.446724 -32.422703 6.3467693
52.93552 -32.259754 6.3191133
52.502274 -32.438889 6.3744583
55.821251 -32.511955 6.0095191
52.437397 -32.266033 6.3664231
53.050014 -32.493874 6.3184004
56.04879 -32.525936 5.9193306
54.433186 -32.868458 5.9966912
56.534389 -32.38422 6.0265894
57.588726 -32.443218 6.0372076
57.608551 -32.5219 6.0278597
57.436661 -32.452583 6.0347118
57.458206 -32.535961 6.0084767
56.757271 -32.634769 6.0058141
55.55508 -32.444668 6.1800981
56.09396 -32.494762 6.1462626
55.4072 -32.968475 6.1806221
57.653156 -32.216255 6.0239229
57.476128 -32.309071 6.0002375
57.526176 -32.454449 6.0136647
57.788403 -31.833332 6.0316653
57.132092 -32.294449 6.0197625
57.687832 -31.791208 6.017549
56.424213 -32.007225 5.9748459
53.122887 -32.573471 6.2902699
56.883121 -30.798983 6.118372
53.120564 -32.248505 6.3105121
56.861599 -31.124886 6.135735
57.149239 -30.880552 6.1166372
57.029964 -30.821175 6.1191044
57.235836 -31.173067 6.0982451
57.499115 -31.33354 6.0663919
57.13348 -30.968313 6.1050901
57.338371 -31.466507 6.0730171
57.029095 -30.936028 6.1107125
55.288799 -32.81826 6.149775
57.063381 -32.384369 5.9989786
53.663109 -32.715107 6.1674719
55.73262 -32.842846 6.0861468
53.455284 -32.415222 6.1882315
55.145832 -32.841129 6.114974
55.393017 -32.878429 6.1135888
53.146008 -32.36562 6.2315164
53.730019 -32.699295 6.1726499
54.428482 -32.788593 6.0778165
54.741173 -32.743824 6.0950441
54.601524 -32.840942 6.123765
52.799595 -32.409733 6.5072985
52.91386 -32.307217 6.3988194
52.842525 -32.175152 6.3815131
52.803711 -32.319054 6.4049392
52.889812 -32.420017 6.4296756
53.572613 -32.419308 6.3426795
52.860634 -32.429882 6.394711
57.041653 -32.307953 6.0060639
56.619797 -31.726795 6.0977759
56.723068 -31.434156 6.1079006
55.63438 -32.830326 6.0588493
56.533127 -31.506029 6.0935349
56.446507 -31.543308 6.0720415
56.516808 -31.559891 6.0549688
56.866577 -31.20133 6.0937772
56.847351 -30.900549 6.1191878
56.513428 -32.309261 6.0235286
56.614212 -31.004148 6.063446
56.809391 -32.30323 6.0300632
57.047176 -31.21888 6.0713153
56.22065 -32.707874 6.0087595
56.645332 -31.549643 6.0485058
57.107033 -31.448204 6.0519023
57.122063 -31.247301 6.0547342
56.733906 -30.998785 6.063869
56.664715 -31.524542 6.0944571
56.830547 -30.841171 6.1063514
56.303429 -32.443134 6.1599326
56.734547 -31.551624 6.0445075
57.044132 -31.556133 6.0293999
56.901421 -30.944227 6.0780406
56.462807 -31.061575 6.096117
56.623127 -32.454414 6.1457863
56.541359 -30.97496 6.1062899
56.430412 -31.377028 6.0778418
56.815243 -31.241268 6.0656371
56.722301 -30.857327 6.1053524
56.932102 -31.245668 6.0594506
56.421539 -31.674629 6.0719295
56.848568 -31.540804 6.045444
56.542114 -31.283779 6.0901384
56.739857 -30.971836 6.1044173
56.71484 -30.938643 6.08709
56.814499 -30.973091 6.1060266
56.626419 -31.466995 6.0679164
56.817558 -30.928951 6.0835509
56.438698 -32.013485 6.0554261
56.442204 -31.482891 6.0874066
56.921169 -31.433502 6.0980673
57.11718 -31.069151 6.1074743
56.922958 -31.062956 6.0905833
56.370911 -32.0191 6.0432415
56.373997 -31.47669 6.0834355
56.62558 -31.369467 6.0734253
56.619682 -31.240404 6.0714455
56.940701 -32.311523 6.0291724
56.635597 -31.157091 6.0855403
56.631046 -32.052685 6.069521
56.732079 -31.278496 6.0843863
56.82576 -31.169571 6.0826888
56.537888 -31.051161 6.0965862
56.537586 -30.933266 6.0941286
56.917366 -30.959126 6.103848
57.415257 -31.407351 6.068099
56.543648 -31.233364 6.0868015
56.742126 -31.744856 6.0864
56.819538 -31.057039 6.0951552
57.305241 -31.295444 6.0842834
56.633694 -32.320408 6.0395007
56.72245 -31.149101 6.0821509
56.913979 -31.156237 6.0873156
57.115971 -31.14146 6.0841198
56.929916 -31.468737 6.0609188
57.221226 -31.377575 6.0663671
56.710236 -31.20101 6.112226
57.021999 -31.685871 6.0600185
57.218342 -31.696056 6.0370913
57.033974 -31.456537 6.0592623
57.025928 -31.377094 6.0788188
56.726208 -32.006565 6.0461922
56.641315 -31.682228 6.062851
57.127575 -31.687435 6.0501556
56.919445 -31.374403 6.0765786
56.636803 -31.273943 6.0902734
57.012264 -31.208055 6.0966759
57.006596 -31.162636 6.0829344
57.024342 -31.072676 6.0927753
56.729687 -31.694643 6.0604477
56.925983 -31.498827 6.082202
56.727921 -31.472084 6.0636506
57.227402 -31.7188 6.0884857
57.734844 -31.710217 6.0894032
57.133591 -31.724588 6.0808425
57.126015 -31.601194 6.065588
57.138699 -31.424677 6.0986543
56.829956 -31.276611 6.0823064
57.381889 -31.330729 6.1105704
57.329117 -31.9252 6.0857019
57.554211 -31.845224 6.088748
57.287453 -31.711496 6.0853086
57.020119 -31.596056 6.0716453
57.532696 -31.495684 6.0923061
57.021309 -31.424568 6.0990915
57.526928 -31.415932 6.0972033
57.016243 -31.269024 6.0859265
56.878742 -31.720579 6.0851774
56.828121 -31.69581 6.0584106
57.394783 -31.40234 6.0979457
57.11935 -31.378622 6.069787
56.830929 -31.370228 6.0753579
57.017048 -31.737793 6.0746641
56.92786 -31.690105 6.058404
56.731728 -31.499058 6.0922933
57.215874 -31.397669 6.1071215
56.72401 -31.36915 6.0771661
57.234184 -31.289259 6.0846906
56.925552 -31.271948 6.0863457
56.951397 -31.195269 6.1029339
56.737129 -32.04224 6.0745273
57.182159 -31.945311 6.0820355
57.424782 -31.807795 6.0726156
56.920486 -31.73546 6.0855031
57.41898 -31.722794 6.0919132
57.443924 -31.592934 6.1114631
57.028118 -31.941238 6.098084
57.597622 -31.931904 6.1113153
57.664314 -32.369965 6.0868893
56.820362 -32.452328 6.1210513
55.348961 -33.004211 6.1753073
55.622601 -32.780365 6.1664762
56.158035 -32.675468 6.1522336
54.994583 -32.476643 6.1991091
57.243729 -32.328152 6.1293325
56.925705 -32.144703 6.1405587
57.48439 -32.081196 6.1372991
57.474136 -32.023865 6.137516
57.465157 -31.963018 6.0982423
56.899055 -31.950418 6.1308265
57.509945 -32.412739 6.1148205
56.934628 -32.464741 6.1060519
53.429844 -32.62215 6.1796293
57.651699 -32.320007 6.0574541
57.727341 -32.343063 6.0635428
57.42276 -32.178917 6.0826783
57.667774 -32.044006 6.0781655
54.85461 -32.754902 6.0715976
57.780823 -32.373413 6.1443658
55.534523 -32.706852 6.0556808
57.305931 -32.240097 6.0411248
56.613819 -32.737663 6.0602579
53.946701 -32.526043 6.1269774
56.318039 -32.310955 6.049932
55.757477 -32.724796 6.0376592
57.061554 -32.708561 6.084537
57.126537 -32.177959 6.0980883
56.041328 -32.273018 6.1174455
57.206505 -32.561104 6.064281
57.186848 -32.495327 6.039907
57.855061 -32.279854 6.0733018
54.263927 -32.260963 6.0855675
57.424728 -32.256622 6.0781918
53.839066 -32.498165 6.1355901
57.096653 -32.71397 6.0810909
57.736702 -32.332294 6.0929461
54.126919 -32.482769 6.1280842
57.646595 -32.085781 6.0995588
57.226967 -32.18914 6.0993767
56.912651 -32.43911 6.065825
57.544304 -32.157829 6.0973163
56.628483 -30.97823 6.1084881
56.843636 -32.268314 6.0821838
57.016823 -32.173473 6.1003752
57.320728 -32.571075 6.0379362
57.297749 -32.473034 6.0283389
54.31535 -32.473476 6.1217241
56.838024 -32.045326 6.0635767
56.729816 -32.537418 6.0485544
57.732037 -32.16959 6.080492
54.561245 -32.491642 6.0821376
55.314915 -32.469872 6.048192
57.531982 -32.044926 6.0576968
57.140373 -31.997578 6.0355191
57.620316 -32.184105 6.0910921
57.2076 -32.642395 6.0582442
56.727238 -31.053497 6.0889645
57.62011 -32.2537 6.0777807
56.138691 -32.407833 6.0354104
56.120575 -32.32132 6.0575304
57.04528 -32.566582 6.0565462
57.024815 -32.255436 6.072516
57.430061 -32.058685 6.0727324
57.51553 -32.27594 6.0718508
56.819138 -32.532391 6.0303469
57.327583 -32.164326 6.0836678
57.32737 -32.359215 6.0677481
56.626251 -32.574986 6.0768619
55.836628 -32.59219 6.1030736
57.128407 -32.648083 6.0475278
57.712299 -32.058147 6.0473242
57.74696 -32.257812 6.0653377
57.018841 -32.439888 6.0553851
56.426998 -32.533436 6.0662694
57.335075 -32.053032 6.0681977
57.386288 -32.248558 6.0294304
56.508747 -32.751202 6.0632029
57.234627 -32.357742 6.0660033
56.820312 -32.004162 6.0430112
56.938557 -32.670757 6.0607824
55.92691 -32.74506 6.0652733
56.330803 -32.580109 6.0819287
53.455387 -32.272659 6.2905917
53.824142 -32.577213 6.2321205
55.239517 -32.696545 6.0745416
56.083656 -32.686619 6.0059299
54.239906 -32.474636 6.2568913
55.294235 -32.711121 6.0716357
53.261425 -32.470741 6.3073206
54.311642 -32.514378 6.2340322
53.879192 -32.508842 6.251543
55.436256 -32.742188 6.1921077
53.739716 -32.501045 6.2924294
54.711086 -32.602062 6.2245274
55.171333 -32.739723 6.2196217
54.463631 -32.726936 6.2323055
56.533073 -31.686031 6.0673423
55.027565 -32.286282 6.1806221
55.413948 -32.750435 6.1790991
54.135113 -32.411991 6.1558871
54.422184 -32.717709 6.1156931
56.229523 -32.742592 6.0581264
54.892975 -32.283745 6.2288527
55.036129 -32.721489 6.0783739
54.548222 -32.727165 6.1085262
54.343243 -32.726223 6.1200895
55.614807 -32.701431 6.0589199
55.421364 -32.709557 6.0447135
54.930004 -32.733864 6.1228542
56.82542 -32.679901 6.0612793
56.620155 -32.672943 6.0621076
56.829845 -32.568005 6.0713396
56.327381 -32.748295 6.0624299
55.029469 -32.585804 6.1633844
55.52668 -32.346367 6.1246858
56.227085 -32.353699 6.0948825
54.627659 -32.357426 6.1783376
56.536854 -32.441498 6.081553
56.530716 -32.571808 6.0795441
56.12817 -32.744816 6.0554557
54.129749 -32.671879 6.1900163
56.316898 -32.273167 6.1026235
56.843903 -32.431648 6.0694523
53.735878 -32.625702 6.185544
53.432373 -32.323536 6.2159348
56.635082 -32.528496 6.0481915
56.72773 -32.673698 6.0545502
54.13179 -32.741703 6.1726117
55.53112 -32.580547 6.1310315
56.230122 -32.671791 6.0706658
56.025772 -32.327034 6.0670643
56.338219 -32.661667 6.0719357
55.526669 -32.542976 6.0948272
55.70623 -32.589684 6.1143689
55.930935 -32.34581 6.103117
56.229565 -32.540936 6.0624371
54.850693 -32.585258 6.1759825
55.610878 -32.585197 6.1276526
55.819332 -32.648758 6.0494542
53.533627 -32.745918 6.236443
55.625813 -32.345898 6.1142087
56.729237 -32.225388 6.0527291
57.58271 -32.482468 6.0338364
56.925438 -32.20966 6.0520611
57.309902 -31.184149 6.0944524
55.838879 -32.353359 6.1020508
52.426937 -32.386238 6.4545255
56.125053 -32.345341 6.1034193
55.736755 -32.348621 6.1110387
54.823009 -32.627396 6.1228418
54.962147 -32.55949 6.0037813
54.92963 -32.628319 6.1155071
55.933266 -32.629547 6.0443611
54.729614 -32.640495 6.1240215
55.019741 -32.628693 6.1067176
55.229656 -32.637135 6.0946097
54.578648 -32.573143 6.0673261
56.327404 -32.14386 6.0782299
56.027004 -32.357758 6.0969081
54.533047 -32.157097 6.2797689
55.333591 -32.901638 6.1619344
54.625717 -32.173515 6.270051
55.026493 -32.17873 6.2617335
56.628643 -32.100193 5.9958453
57.523594 -32.231316 6.0342407
57.119205 -32.257187 6.0781698
56.632431 -31.587826 6.0682569
55.130505 -32.63139 6.100688
55.630806 -32.739128 6.0829039
54.427551 -32.361832 6.1894975
53.732269 -32.443256 6.217803
53.142738 -32.441093 6.2775941
53.243046 -32.432396 6.2579083
56.441669 -31.760967 6.0668631
56.719215 -32.16399 6.1437321
56.521969 -32.220669 6.0607648
55.814312 -32.705212 6.0402808
53.190029 -32.599804 6.1691327
53.828987 -32.634315 6.1818676
54.314041 -32.180523 6.276999
56.540279 -32.541691 6.0549765
53.632698 -32.743397 6.2256613
55.534592 -32.742149 6.0929933
56.836571 -32.227055 6.0599232
53.635029 -32.314674 6.2095003
54.4282 -32.667957 6.1731424
54.52256 -32.679413 6.1662478
53.635342 -32.635414 6.1914678
53.346054 -32.3139 6.231216
53.625622 -32.665333 6.2391286
53.237812 -32.324158 6.2357149
53.533325 -32.678215 6.2448874
53.160225 -32.65226 6.2076926
54.321659 -32.318909 6.1752419
54.223915 -32.311977 6.1736655
54.63414 -32.637947 6.1308393
54.333004 -32.633118 6.1440945
53.341736 -32.652645 6.2025046
55.432301 -32.362759 6.1295853
53.933212 -32.214272 6.2062149
56.923244 -31.588375 6.0668397
55.133366 -32.177605 6.2316713
55.438255 -32.310802 6.102788
53.351715 -32.174133 6.3539839
56.629063 -32.134727 6.0701261
56.934509 -32.116631 6.0587435
56.134754 -32.174 6.1778655
55.550003 -32.83004 6.0675859
53.525181 -32.583099 6.2584028
53.928886 -32.163868 6.3135595
56.029778 -32.59251 6.0913239
54.026443 -32.629799 6.1716537
54.139217 -32.63483 6.1599851
56.428967 -32.216961 6.0653081
53.25354 -32.130054 6.3581405
56.024326 -32.44698 6.0872111
55.928593 -32.442513 6.091907
55.728947 -32.440968 6.0970106
56.551228 -32.136261 6.241632
57.004044 -32.526142 6.0231857
55.426804 -32.63343 6.0824132
55.25927 -32.830708 6.1280842
57.813637 -32.166828 6.0724778
53.74353 -32.402367 6.1765332
56.518871 -32.674164 6.0692487
56.425087 -32.675079 6.0687342
54.733791 -32.674248 6.1517763
57.745342 -32.134979 6.0606861
57.042458 -32.657566 6.0499706
56.431286 -32.447041 6.0777903
57.024372 -32.216076 6.0585933
57.222736 -32.225468 6.0331964
57.226742 -31.589933 6.0658875
54.329243 -32.360283 6.1987453
57.226692 -32.2556 6.0773358
56.629986 -32.440506 6.0770364
52.833027 -32.279884 6.3228192
54.629871 -32.737022 6.1447339
52.598419 -32.435215 6.4207611
53.817657 -32.193626 6.3041291
54.139061 -32.184582 6.3341799
56.827667 -32.093609 5.9937029
52.724827 -32.177017 6.4075103
56.255119 -32.582645 6.0826879
56.732491 -31.235109 6.0640073
56.927143 -32.001106 6.0451727
53.530476 -32.52356 6.2285824
53.168777 -32.154797 6.352746
55.33902 -32.35146 6.1335893
53.643188 -32.538494 6.2184372
53.833412 -32.54528 6.200038
56.824326 -31.818954 6.0606422
54.735043 -32.313515 6.1500955
56.826992 -31.468552 6.0646229
55.932129 -32.40728 6.0362968
56.934032 -32.4123 6.146431
57.143459 -32.447285 6.0488563
56.245529 -32.422329 6.0143142
56.528172 -32.135303 6.071835
56.837151 -32.365479 6.0721993
56.540207 -32.356579 6.0768723
56.430092 -32.741314 6.0648351
54.331451 -32.678295 6.1771059
54.954769 -32.395397 6.1006484
57.337784 -31.931711 6.0389795
52.440079 -32.36195 6.3228674
55.42939 -32.673561 6.109643
56.330154 -32.350021 6.0870142
57.131081 -32.445129 6.0833249
56.915112 -31.768673 6.0361013
57.145679 -31.650379 6.1058984
56.695087 -32.701412 6.1615133
54.323071 -32.544605 6.1645207
55.335354 -32.849388 6.1066031
56.248745 -31.761259 6.072938
53.134293 -32.094421 6.4126005
56.23016 -32.444225 6.0796185
57.12788 -31.283495 6.0808454
54.130424 -32.2169 6.1969204
57.215374 -31.633558 6.1077018
55.329689 -32.63055 6.0863786
55.327118 -32.308689 6.1144695
53.815865 -32.574352 6.0788269
53.171906 -32.435333 6.2143183
56.730404 -31.904045 6.0540562
54.229645 -32.673157 6.184196
56.926838 -32.56575 6.0710268
56.835777 -32.12439 6.0552645
56.730824 -31.78014 6.0496807
56.924778 -32.368328 6.0679412
56.245716 -32.264019 6.1136727
53.334656 -32.583588 6.2864709
56.636158 -32.26207 6.099524
54.032475 -32.213097 6.1993995
54.533287 -32.635349 6.1398969
56.257675 -32.411991 6.2009039
54.609596 -32.706871 6.0971184
57.033588 -32.004272 6.0418868
56.429665 -32.141895 6.0749145
54.720505 -32.268536 6.2469158
54.133751 -32.820705 6.1508789
57.540997 -31.603039 6.0825434
56.726032 -32.120678 6.0598707
54.020466 -32.715111 6.1420879
54.337605 -32.736965 6.1635637
52.829624 -32.583141 6.3153863
54.431015 -32.743099 6.1579909
56.339294 -31.385645 6.1099348
54.029831 -32.743908 6.1898885
56.828442 -31.596052 6.0663633
56.525772 -32.269093 6.0959096
54.232319 -32.743973 6.1666517
54.53109 -32.217655 6.1724057
56.432114 -32.570343 6.0857792
56.525181 -31.59271 6.0763626
56.618328 -32.352852 6.0837235
55.913719 -32.193855 6.19908
56.957565 -32.737965 6.0219698
56.548855 -32.733315 6.1071229
52.640491 -32.649254 6.2427511
54.540398 -32.582695 6.1898069
54.029411 -32.667084 6.1993084
53.031918 -32.57362 6.2959785
57.293221 -32.47702 6.0792098
56.134041 -32.636288 6.0423818
53.63414 -32.218616 6.2289829
57.428314 -32.342655 6.0612702
56.5331 -31.366413 6.0825272
56.433624 -32.456879 6.1371284
57.129154 -31.815014 6.0649891
56.641712 -31.785299 6.0499783
54.711746 -32.403019 6.1207242
56.214218 -32.62075 6.0135336
54.408012 -32.181561 6.2722278
56.90926 -32.56403 6.0216098
57.126144 -31.760054 6.0367723
56.611176 -32.625454 6.0184526
56.9221 -32.686531 6.1221995
56.723206 -32.434013 6.0640173
56.334301 -32.44701 6.0725079
56.732143 -32.260464 6.0999732
57.405807 -31.596125 6.0832009
55.933113 -32.419193 6.2241101
55.626335 -32.627411 6.0715799
54.626499 -32.678696 6.1565685
55.933258 -32.680031 6.0884743
56.327892 -32.147141 6.1936674
55.205647 -32.610336 6.0022173
57.31715 -31.601767 6.0692253
54.324482 -32.214931 6.1839013
56.726242 -32.569294 6.0689969
54.431133 -32.213989 6.1765323
54.628101 -32.213928 6.1681442
54.640987 -32.228802 6.2401714
56.317326 -32.535748 6.0587549
53.723785 -32.351597 6.2399158
53.833458 -32.397697 6.1719551
53.005379 -32.627628 6.2077112
57.429077 -32.406109 6.113605
55.457863 -32.831165 6.0790448
53.338459 -32.382324 6.2276382
55.836403 -32.401073 6.0498648
55.825691 -32.227886 6.1866603
53.426498 -32.141422 6.3562355
55.128986 -32.673038 6.1232052
54.013844 -32.247063 6.2580032
55.21471 -32.225677 6.2129688
55.415936 -32.244408 6.1703978
57.022667 -31.810923 6.0643764
55.338253 -32.254234 6.1885161
53.491966 -32.491142 6.1405015
56.934975 -31.811134 6.0643425
53.32988 -32.446945 6.2524724
56.13459 -32.562637 6.1175079
56.543186 -31.786102 6.053925
56.919426 -32.037941 6.0668583
55.714306 -32.266533 6.1530948
53.264309 -32.088474 6.426888
53.029022 -32.537708 6.2692828
54.228802 -32.216278 6.190269
57.144936 -31.963572 6.0778179
53.635128 -32.348 6.2486329
55.510319 -32.250755 6.1869102
56.523453 -32.115997 5.9962449
57.530121 -32.357609 6.0470576
57.336937 -32.252911 6.0727649
56.248455 -32.016617 6.0410233
53.934864 -32.539104 6.192162
56.545254 -31.898975 6.0586452
55.029583 -32.675663 6.1299686
53.525288 -32.406254 6.1922569
56.741219 -31.85981 6.0291519
53.544617 -32.622818 6.2028856
55.750954 -32.42458 6.0477724
56.000843 -32.496601 6.2358875
53.430496 -32.351383 6.279583
52.379448 -32.506622 6.2964702
54.927414 -32.678257 6.136344
56.446762 -31.895645 6.0630484
56.089344 -32.228569 6.1311827
56.026577 -32.414783 6.0346136
53.033916 -32.667744 6.2903328
57.022999 -31.779051 6.0341425
54.826839 -32.242577 6.2278833
54.423294 -32.274517 6.2390742
52.850285 -32.637913 6.2097607
54.760887 -32.786724 6.0652456
56.04599 -32.323017 6.2028069
52.937241 -32.577484 6.3129787
56.535088 -31.998722 6.0567298
57.207413 -32.053951 6.0724692
57.135254 -32.037651 6.0575356
55.680717 -32.588024 5.9876237
57.363396 -32.4049 6.112494
56.52993 -31.822439 6.0806742
57.137913 -31.196224 6.101542
56.732567 -31.816294 6.0633159
56.030689 -32.64492 6.037755
55.724686 -32.642021 6.0619483
56.086002 -32.274872 6.2902975
52.866474 -32.554535 6.2713041
54.531521 -32.442291 6.1701035
55.225826 -32.361706 6.1403122
56.640442 -31.816326 6.0666351
57.023521 -32.476475 6.0975132
55.529938 -32.631626 6.0785885
57.674427 -32.506992 5.9703436
56.425449 -31.590328 6.0867772
57.432014 -31.503695 6.0874348
56.432854 -31.504005 6.1126919
57.211449 -31.495239 6.0824661
57.210983 -32.493103 6.0914946
55.148033 -32.708748 6.0779476
55.933372 -32.316742 6.0687675
55.934029 -32.580589 6.1057634
56.450905 -31.148403 6.0955968
57.11689 -31.507343 6.0858355
55.928871 -32.543461 6.0831347
56.438454 -31.80831 6.0867519
57.021576 -31.50852 6.0861778
54.32325 -32.577587 6.2152829
53.730709 -32.215031 6.2190747
56.544666 -31.1493 6.0914073
56.629143 -30.929628 6.0928645
53.936832 -32.358799 6.2258306
55.528564 -32.437805 6.1060944
54.241016 -32.57056 6.2235546
53.834862 -32.313343 6.2035365
53.829597 -32.6726 6.2127733
54.428169 -32.582462 6.2120614
55.727654 -32.545208 6.0852575
54.735317 -32.440956 6.1564593
53.433586 -32.444622 6.2534237
54.022751 -32.580173 6.2359085
54.126682 -32.538979 6.1802478
54.625641 -32.539436 6.1497011
55.731419 -32.320824 6.0872726
53.041653 -32.353966 6.2918553
55.429749 -32.732311 6.0964823
53.730789 -32.671581 6.2308054
55.032551 -32.735882 6.1202221
55.231739 -32.671352 6.1173897
53.717968 -32.585423 6.2433581
54.144119 -32.591473 6.2159634
54.231052 -32.4431 6.187531
53.631268 -32.444748 6.2321858
54.935158 -32.447201 6.148211
55.03154 -32.541492 6.1220708
53.738792 -32.538273 6.2045717
54.440426 -32.272942 6.0738592
53.231113 -32.409374 6.1915522
54.5471 -32.241684 6.2588372
53.042007 -32.451324 6.2913518
54.543499 -32.413395 6.1247687
54.324184 -32.407505 6.1403766
53.930683 -32.628349 6.1755877
54.728531 -32.543468 6.1437435
55.829887 -32.316803 6.0809889
55.831467 -32.439571 6.0837989
55.45607 -32.498741 6.1840115
53.941689 -32.261524 6.2790294
54.130093 -32.262482 6.2518177
55.031166 -32.367615 6.1524496
53.933121 -32.44746 6.2045088
54.125317 -32.351067 6.2146826
54.130455 -32.441025 6.1909051
54.922028 -32.316135 6.136549
52.470406 -32.392326 6.265625
55.127369 -32.324387 6.125
55.333889 -32.546257 6.104979
55.228214 -32.320549 6.116509
53.832802 -32.441193 6.2135196
53.729744 -32.268936 6.2714181
54.014881 -32.133984 6.3114285
55.226097 -32.405594 6.0916452
55.618801 -32.402451 6.0686297
53.301659 -32.484272 6.3083105
53.268272 -32.547157 6.1103106
52.6073 -32.263332 6.3539538
55.13031 -32.218674 6.2011003
53.378014 -32.092121 6.4174495
56.226387 -32.146595 6.0844545
57.031525 -32.042927 6.0662003
56.53968 -32.056591 6.0931015
56.928707 -32.39262 6.0034337
56.268162 -32.076942 6.1376348
56.141132 -32.01223 6.0741191
56.314964 -32.40958 6.0279403
56.438976 -32.304977 6.0274258
56.332943 -32.222218 6.0708413
56.263981 -31.792805 6.1272893
53.126614 -32.360172 6.2925143
57.01527 -31.907892 6.0496583
56.263466 -32.700321 6.1622062
53.512047 -32.244144 6.2919025
56.595078 -32.383614 6.0146375
56.733036 -31.588449 6.0690775
56.830151 -31.909796 6.0493717
57.134666 -31.903816 6.0502262
56.631401 -31.899284 6.0526905
56.24049 -32.15839 6.1962128
55.494217 -32.207394 6.343215
53.707649 -32.17886 6.3283792
57.028355 -32.13187 6.0590901
54.728878 -32.18689 6.2617726
54.759663 -32.170666 6.3855457
57.633667 -32.150639 6.0376945
53.621124 -32.245567 6.2822752
55.016743 -32.216045 6.3399463
56.923538 -31.908043 6.0527396
52.952347 -32.54752 6.2614899
56.004539 -32.363247 6.2364793
56.595322 -32.202354 6.1449695
55.689754 -32.526196 6.1874385
56.822056 -31.775949 6.0461235
55.132656 -32.372036 6.2334218
55.236969 -32.447704 6.1227107
57.361263 -32.3097 5.9445357
57.120296 -32.546928 6.009819
56.127377 -32.447479 6.0842271
57.130287 -32.358349 6.0651464
55.338326 -32.522797 6.2224374
56.848377 -32.154259 6.1335015
55.661255 -32.452728 6.2392812
56.631599 -31.867973 6.0289283
54.534088 -32.397095 6.3131242
56.412834 -32.278702 6.1045165
56.72702 -32.313156 6.0248694
56.71122 -32.094734 6.002738
56.035954 -32.672432 6.0783262
55.131218 -32.539661 6.1185741
56.717834 -32.443871 6.1284781
55.209827 -32.579941 6.1640968
57.207554 -32.398197 6.1280842
53.813156 -32.253788 6.283143
54.975094 -32.373589 6.2874513
54.938965 -32.351795 6.1689811
55.911144 -32.280064 6.1508136
56.94313 -32.253223 6.0867257
55.962357 -32.632915 6.1990099
54.530254 -32.54678 6.1594348
55.434929 -32.44482 6.112711
55.624195 -32.538544 6.0899167
53.436733 -32.5854 6.262773
55.33345 -32.439419 6.1175127
54.69833 -32.494495 6.2410369
55.212433 -32.483345 6.2506056
55.318863 -32.580959 6.1579585
54.553989 -32.478733 6.2564054
56.425461 -32.14061 6.1627231
55.459084 -32.378235 6.2274837
54.925476 -32.474842 6.2407131
55.936264 -32.516548 6.1594801
55.128067 -32.364536 6.1434264
56.128761 -32.6731 6.0803757
57.122635 -32.129345 6.0590243
57.233456 -31.904015 6.0472169
56.433556 -31.247532 6.0821123
55.215435 -32.767975 6.1700659
54.344734 -32.238071 6.2414126
57.036346 -32.611492 5.9863691
54.033123 -32.355152 6.2191272
55.724552 -32.740124 6.0796175
54.91095 -32.57539 6.1753993
57.103741 -32.573704 6.0509915
57.115311 -32.231247 6.0486741
55.128799 -32.567974 6.1568213
55.726845 -32.678577 6.0944686
55.434299 -32.591541 6.1346693
53.430016 -32.55431 6.233191
54.434994 -32.314476 6.1714439
53.334545 -32.672047 6.2687802
54.33556 -32.436939 6.1807971
54.424767 -32.448376 6.1736765
56.434196 -32.357101 6.0847692
56.214203 -32.493572 6.1352587
53.946609 -32.56712 6.2402701
57.027832 -32.349407 6.0648904
55.027195 -32.318077 6.1317034
56.633129 -32.220329 6.0661654
56.22929 -32.311451 6.0502229
57.233231 -32.139347 6.0685186
57.520237 -32.145878 6.0510893
55.628204 -32.679729 6.0926523
53.614147 -32.582806 6.266633
57.671623 -31.950756 6.0312033
52.731243 -32.567524 6.3573589
57.222275 -31.822151 6.0613356
57.293659 -31.818205 6.0765653
55.527573 -32.675232 6.103704
54.234142 -32.350887 6.2142377
54.231312 -32.535446 6.174315
55.324181 -32.675167 6.1155705
54.626568 -32.440697 6.1631274
55.63372 -32.317398 6.0918417
53.539318 -32.321659 6.2112703
53.441055 -32.670673 6.2570009
54.131233 -32.313492 6.1826382
55.423286 -32.398209 6.0833774
54.03381 -32.31665 6.1878037
55.141445 -32.399044 6.0906496
54.030571 -32.544136 6.189086
53.330921 -32.543404 6.2249608
55.432522 -32.5383 6.1024451
53.129303 -32.679169 6.282537
55.132004 -32.73436 6.1154957
52.832821 -32.353191 6.3066621
53.921547 -32.402035 6.1630111
54.803223 -32.404942 6.1157608
54.623978 -32.31358 6.1549506
52.602608 -32.452301 6.3093443
53.728951 -32.322735 6.2013831
54.624146 -32.403969 6.1230383
55.127163 -32.443981 6.1269913
53.131989 -32.540676 6.2441683
52.72287 -32.367985 6.256968
52.741829 -32.534191 6.2676387
53.23251 -32.675659 6.2799397
54.827534 -32.341476 6.1687069
54.830452 -32.439476 6.144362
56.027088 -32.748798 6.0655189
54.827305 -32.321396 6.1430969
54.83176 -32.673641 6.146019
55.326244 -32.73317 6.1052456
55.321682 -32.391006 6.085381
53.239517 -32.344212 6.2802429
53.249611 -32.581463 6.2740612
52.721069 -32.456776 6.2877865
52.629704 -32.347801 6.3325715
54.731155 -32.35833 6.1721468
52.901451 -32.331738 6.2429876
54.028324 -32.445019 6.1996107
53.83054 -32.351753 6.2268748
53.528557 -32.351891 6.2606578
52.523453 -32.355431 6.336359
54.527973 -32.3573 6.1860409
52.826263 -32.460697 6.3047457
54.611897 -32.585449 6.180275
54.53344 -32.314232 6.1594377
53.529541 -32.44281 6.2450614
52.530651 -32.453659 6.327394
54.528027 -32.740635 6.1490035
52.742298 -32.348221 6.334084
55.827374 -32.539673 6.0756507
55.830933 -32.742805 6.0705247
55.632999 -32.437939 6.098969
54.82906 -32.545601 6.1378908
55.830402 -32.670601 6.0885186
56.329552 -32.613098 6.0280142
56.12421 -32.541534 6.0640912
54.226822 -32.400711 6.1523299
54.231636 -32.630993 6.1569176
54.442135 -32.397202 6.1430688
52.904133 -32.437065 6.2882781
55.025833 -32.445259 6.1384978
52.410332 -32.297218 6.2931457
53.33186 -32.346516 6.284452
52.647152 -32.462063 6.2364469
55.225014 -32.732964 6.111105
52.838268 -32.338543 6.253325
52.608173 -32.568031 6.3252802
54.427616 -32.549858 6.1640744
55.225513 -32.545208 6.1117334
52.521614 -32.264954 6.3549438
52.374939 -32.46719 6.3173332
54.00922 -32.401615 6.1652274
52.404171 -32.138519 6.4436855
52.718151 -32.35294 6.3966236
53.333324 -32.261734 6.3125806
54.239262 -32.246559 6.2510772
55.530849 -32.403606 6.0648117
54.932148 -32.542831 6.1270413
55.036308 -32.403008 6.0992045
53.228573 -32.546562 6.2464113
54.428093 -32.631653 6.1458769
52.937363 -32.679619 6.2969747
53.935684 -32.316463 6.1944523
53.658722 -32.609684 6.3587551
56.041504 -32.545944 6.0677481
54.392933 -32.554249 6.0713868
54.231197 -32.723946 6.1223245
52.323849 -32.313057 6.313107
55.528061 -32.318623 6.0982714
53.779121 -32.484272 6.1474223
54.44109 -32.494827 6.2351165
54.718773 -32.481674 6.0461283
52.688427 -32.651634 6.2369633
55.174278 -32.478184 6.2016912
52.654896 -32.543831 6.3003936
53.629715 -32.413025 6.1870885
55.31229 -32.797871 6.2593212
52.932068 -32.349331 6.3163056
52.734779 -32.258266 6.3758984
56.4034 -32.37767 6.0230207
53.213463 -32.266823 6.335166
54.96101 -32.702236 6.0908179
55.904037 -32.693737 6.0362616
56.898857 -30.870914 6.1849117
56.402946 -32.098076 6.1514115
56.367645 -32.060055 6.1141825
56.930923 -32.071476 6.1616549
56.168346 -32.103916 6.1985102
56.466423 -32.098244 6.1778035
56.827541 -31.512609 6.0794539
56.630127 -31.053959 6.0924716
56.630856 -30.896805 6.1485443
56.445068 -31.286009 6.1072183
56.261997 -31.332159 6.1473269
56.455959 -30.84416 6.1628084
56.737347 -32.35817 6.0751061
56.543701 -32.451904 6.1420016
56.540913 -31.466604 6.0734363
56.349548 -31.22283 6.1140547
56.362606 -32.400043 6.1641903
53.055603 -32.280403 6.3088918
