# .PCD v0.7 - Point Cloud Data file format
VERSION 0.7
FIELDS x y z
SIZE 4 4 4
TYPE F F F
COUNT 1 1 1
WIDTH 1535
HEIGHT 1
VIEWPOINT 0 0 0 1 0 0 0
POINTS 1535
DATA ascii
-0.68917418 62.292377 10.36281
-0.49755502 62.289883 10.369249
-0.38370275 63.368988 10.394325
-0.88342762 63.031689 10.644236
-4.4794745 55.617188 10.373679
-3.4732051 55.771603 10.475453
-0.77898812 56.894562 10.517002
-0.50185442 56.810001 10.523094
-4.5775824 56.051243 10.223243
-0.78584814 55.786804 10.634274
-0.29396892 62.60643 10.37614
-0.88174653 55.783142 10.62973
-1.6862401 55.806778 10.485489
-0.4601078 62.838142 10.378988
-0.78375435 62.174171 10.621006
-3.7793858 55.960457 10.217388
-4.4996805 56.078194 10.143323
-0.69617987 62.851841 10.372961
-0.38359547 63.694328 10.40789
-0.77203393 63.045776 10.65514
-3.9962139 56.022739 10.327114
-4.4706869 56.047737 10.091578
-0.8738966 63.644474 10.43749
-3.0584707 55.755749 10.565012
-4.4999895 55.772526 10.204028
-4.3839579 55.938759 10.067061
-0.38120651 62.827721 10.371425
-1.2518408 58.451962 10.214214
-0.98705626 60.244907 10.551314
-0.98934269 58.929989 10.418648
-1.3849262 55.78233 10.590542
-3.6899128 55.979759 10.198895
-1.1347311 59.335094 10.524731
-0.38114858 63.453979 10.41274
-0.58587766 59.366524 10.588307
-0.67581606 60.126602 10.587345
-0.29047394 63.464672 10.403148
-0.38436961 59.27943 10.575616
-0.48743749 59.254253 10.596227
-0.286026 63.250683 10.401449
-1.0741017 59.27248 10.517098
-1.450408 59.20628 10.497166
-0.81444383 62.631321 10.55747
-4.0853138 55.860737 10.443707
-0.47494245 63.691303 10.409113
-0.78422523 63.537148 10.682942
-1.9506599 55.69714 10.309377
-1.4847734 55.802933 10.493539
-3.1800044 55.654808 10.506135
-3.7015996 55.745399 10.514668
-3.8708346 55.997257 10.341909
-0.78848958 60.529125 10.624947
-1.5847211 55.78614 10.577462
-0.98217154 59.169895 10.519731
-3.5811386 55.737938 10.51599
-3.0782001 55.695793 10.47837
-4.2786741 55.954323 10.256117
-3.2812302 55.691975 10.461813
-3.1797566 55.695995 10.477652
-4.3803864 55.997715 10.196446
-3.4803269 55.690819 10.451069
-3.093262 55.754856 10.375738
-3.9658208 55.897114 10.350813
-2.5964253 55.741165 10.578299
-4.1106119 55.889168 10.382471
-0.88905716 56.699532 10.225652
-0.10877514 63.714359 10.408833
-0.27971196 63.687206 10.40814
-4.1788292 55.747276 10.492861
-1.4542712 57.84779 10.429204
-4.5787296 56.101273 10.120094
-3.2847347 55.744728 10.361957
-1.0758402 57.784943 10.464305
-0.6799798 55.850037 10.660342
-4.0821815 55.706776 10.411741
-0.78123116 57.780609 10.501966
-0.21391368 62.43996 10.781433
-0.88250041 61.945667 10.616858
-0.69273806 57.886776 10.517349
-0.78296256 61.955528 10.632143
-0.61100721 61.796635 10.581506
-2.0816658 55.799736 10.466466
-0.66915059 61.681175 10.494277
-0.68026447 56.312035 10.45681
-0.9753499 56.718403 10.212327
-0.81124425 60.363747 10.285651
-0.8891511 60.476074 10.330925
-1.2971156 58.972523 10.283999
-0.56547213 61.659252 10.438123
-1.8830842 55.806694 10.472986
-1.2583351 59.490871 10.510287
-0.58188057 60.556561 10.354386
-0.78533745 60.460766 10.332211
-0.88163543 61.86491 10.595599
-1.1815093 61.413338 10.573069
-0.49220872 61.508602 10.650178
-0.50253677 61.458408 10.33947
-0.091362715 55.878139 10.699008
-0.52218294 61.338356 10.417851
-1.0785403 61.356525 10.454941
-0.39506459 56.491455 10.2334
-0.46212745 56.148376 10.233601
-0.38587689 61.502659 10.661368
-0.68919587 57.239376 10.499429
-1.1698065 61.376095 10.430665
-0.37816334 56.276604 10.24279
-0.68170905 56.808754 10.496723
-0.39628482 56.778397 10.265971
-0.985461 55.850124 10.426495
-1.0796776 58.014511 10.469296
-0.97515678 58.009987 10.477965
-0.87559748 55.849514 10.64266
-0.29963565 62.839142 10.379549
-0.39312196 56.539124 10.266931
-1.2705281 57.3381 10.18834
-1.1767353 55.472057 10.598147
-3.2787855 55.462036 10.469083
-1.3792192 55.557278 10.607169
-1.0923781 55.465851 10.618947
-0.87560558 56.919701 10.237406
-1.1856836 55.558647 10.622492
-1.0851128 55.55024 10.628127
-4.3874211 55.475468 10.418899
-0.11312127 61.145573 10.323166
-0.50360703 56.238514 10.269732
-0.98632765 63.352898 10.654349
-3.7792239 55.465061 10.446564
-3.1832871 55.464478 10.479678
-0.76702189 56.908043 10.242517
-0.59738803 57.283588 10.22096
-3.0818372 55.462234 10.486939
-1.3596141 61.625721 10.559065
-0.63225174 56.44323 10.556494
-0.67027354 62.346897 10.737755
-3.3807666 55.462372 10.46814
-0.74112225 57.523994 10.554485
-3.6822906 55.470909 10.450195
-5.1594343 55.892216 10.343383
-0.48693514 60.550694 10.360222
-1.5846002 61.464714 10.346146
-0.66024399 58.386135 10.598092
-0.14122081 56.216492 10.596521
-1.383037 57.406132 10.378111
-0.48410511 62.869747 10.431888
-1.3828702 60.564171 10.524484
-1.1854795 55.592899 10.556941
-1.3987113 61.373722 10.419678
-0.41581798 58.945076 10.626016
-0.60881424 57.945946 10.618997
-0.94846654 60.054733 10.322311
-1.3761513 61.275887 10.318516
-1.2638588 57.223564 10.385354
-0.98322392 55.558659 10.634247
-1.1689502 58.095299 10.472582
-1.0621085 60.437271 10.564122
-1.8861703 55.757767 10.623111
-0.62037086 62.325283 10.601767
-0.57604694 63.488144 10.642078
-0.27896428 63.144207 10.390186
-0.18569374 63.462013 10.400616
-0.28902555 63.556332 10.407868
-0.18776894 63.603565 10.41488
-0.80255485 59.429035 10.582451
-1.3164233 59.192863 10.165168
-1.381626 61.00164 10.313164
-1.3771576 57.651485 10.186296
-1.5313362 59.434597 10.416634
-0.57904267 59.440552 10.59576
-1.332217 61.893726 10.250976
-1.3019367 57.687325 10.196569
-1.3929881 60.557972 10.261626
-1.2444215 59.584522 10.253125
-1.3108152 60.008595 10.287983
-1.2510581 60.635921 10.335926
-1.2847408 62.449673 10.418719
-1.5273894 61.70142 10.319357
-1.3944135 58.026512 10.210873
-1.4681945 58.562187 10.433974
-1.17314 58.640644 10.490044
-0.65850878 59.454247 10.616576
-0.4851656 63.336933 10.688747
-1.3949568 57.590786 10.175553
-1.3736496 62.47752 10.367348
-0.28847408 57.206455 10.589318
-0.14869547 57.056854 10.596043
-1.0750184 58.319542 10.48321
-1.3173051 58.474396 10.422028
-1.2900947 61.180771 10.333269
-1.185846 58.429058 10.476754
-1.2643403 61.107174 10.32276
-4.5771856 55.511539 10.48292
-4.8909388 55.519691 10.473378
-1.4665649 60.554989 10.284108
-1.6119939 63.341114 10.425381
-0.38801599 56.276375 10.523046
-5.0768833 55.73431 10.446179
-0.084306717 56.267853 10.586166
-1.3782241 60.160469 10.507973
-5.1652365 55.529305 10.458382
-5.1782355 55.664757 10.428935
-1.3584366 58.338856 10.444237
-1.2872913 58.544518 10.470797
-1.4540725 59.525501 10.493769
-1.7104759 59.581913 10.481995
-1.189685 59.589111 10.525884
-4.9886694 55.303894 10.485436
-4.1901865 55.50465 10.508084
-4.9776497 55.598469 10.490634
-1.2656616 59.40237 10.493812
-4.8911448 55.284557 10.48366
-1.2710189 58.317883 10.461627
-1.4599724 58.404282 10.446697
-1.4146383 58.565857 10.445993
-0.39527917 56.044525 10.545413
-4.9791927 55.516766 10.467606
-1.4914396 58.965446 10.47023
-4.4784713 55.512974 10.482461
-1.5433313 58.598354 10.469284
-1.0747321 58.63686 10.491604
-1.5256921 58.684418 10.466948
-1.082788 58.772282 10.488892
-0.98441529 58.766697 10.487519
-0.98157358 56.617249 10.441792
-5.2686501 55.541698 10.462227
-1.3611157 59.822525 10.261089
-1.2528653 63.222698 10.633697
-4.9741549 55.985115 10.242394
-5.0900097 55.520245 10.468145
-1.3781965 60.44257 10.550879
-1.1768669 60.305794 10.335567
-4.7620897 55.984718 10.253695
-1.3748775 57.245262 10.201667
-1.4248164 57.872478 10.445571
-1.3776896 58.097675 10.439107
-4.9730806 56.036892 10.267696
-1.450976 57.807297 10.228662
-5.1669078 55.310246 10.476223
-4.9585814 55.924011 10.307268
-1.6018565 58.520229 10.440926
-1.1992278 60.689774 10.528133
-1.0752327 60.75816 10.582129
-1.3655553 60.778118 10.522916
-5.0727124 55.429127 10.438203
-1.5048159 61.105049 10.516766
-4.6839361 55.903648 10.31705
-1.4428991 57.124046 10.173588
-1.4846538 59.374374 10.514207
-1.0982571 61.282345 10.587724
-4.8859463 56.034061 10.256368
-1.4618497 59.03315 10.482453
-1.2811449 60.875694 10.547455
-1.5154293 60.985054 10.483446
-1.5560269 60.862164 10.460747
-4.878756 55.973782 10.24927
-1.1808027 61.321907 10.562396
-1.4592481 61.360996 10.54103
-1.4604959 61.409966 10.312786
-1.4470108 59.097675 10.250046
-4.46492 55.889553 10.354502
-1.0742249 58.190338 10.489962
-1.0651317 58.415489 10.487924
-1.2612295 58.421852 10.482965
-1.3882844 58.479782 10.484458
-1.0774574 58.728748 10.505052
-1.1734399 60.469536 10.533686
-1.1784414 60.572144 10.539967
-4.8842363 55.778526 10.410845
-4.4803324 55.800369 10.334418
-1.5116887 63.407284 10.390867
-1.3929343 61.772415 10.494431
-0.22542095 62.510204 10.386744
-0.97884941 57.570694 10.477331
-1.171417 57.698399 10.446145
-1.37284 57.749924 10.465721
-1.0876431 57.892014 10.481466
-1.2652444 61.828102 10.590923
-1.1674149 58.312977 10.477892
-1.3459816 58.412086 10.472013
-1.2793913 58.657223 10.471603
-1.3452737 58.34523 10.229241
-1.1871777 60.996101 10.340619
-1.0803776 57.339176 10.467264
-1.0713966 57.456764 10.458411
-0.98141861 57.468822 10.466773
-0.99840856 57.650982 10.49161
-1.3677891 61.114342 10.557983
-4.9732914 56.071232 10.183502
-4.5703464 56.001236 10.211045
-1.2963196 59.074139 10.278663
-1.2757396 57.262753 10.430317
-0.97143865 57.38097 10.45644
-1.1679034 57.370575 10.435825
-1.3892349 57.499058 10.410038
-1.3864431 57.576447 10.435878
-1.1724011 57.602173 10.430713
-1.277046 61.088398 10.5586
-4.676537 55.976562 10.25386
-1.4266016 58.780781 10.468337
-1.2650958 60.679955 10.545825
-1.2787755 60.798412 10.539677
-4.5802279 55.97319 10.253749
-1.3965087 58.607693 10.40374
-1.4354607 60.799934 10.525045
-1.3700234 60.855801 10.543994
-1.1708627 60.887794 10.560708
-1.3850986 60.960907 10.556245
-4.788404 56.024265 10.26432
-1.1760131 58.724018 10.494573
-1.3792027 58.961525 10.495277
-1.4569789 60.871925 10.540805
-1.4608983 60.941181 10.555696
-6.2543383 55.662891 10.398941
-1.3693812 57.958996 10.456053
-1.1806179 59.800465 10.522277
-4.3987293 55.890522 10.358765
-1.2710798 60.469902 10.513731
-1.2750401 60.581886 10.531655
-4.6574097 56.002197 10.200986
-1.3097668 63.272919 10.428557
-1.276453 58.213646 10.239426
-1.349697 58.264595 10.28321
-1.079725 57.378105 10.451612
-1.2459247 57.393982 10.468761
-1.2605319 57.458405 10.440113
-0.98536992 57.781773 10.480451
-0.97841215 57.872829 10.489912
-1.0803885 61.952763 10.59321
-1.2800548 61.957539 10.574728
-1.2870301 62.047852 10.587589
-4.7915282 56.004372 10.185237
-1.2641611 57.590286 10.458432
-1.0703826 57.581726 10.467214
-1.2523001 57.653282 10.471613
-1.2086906 57.943039 10.490815
-1.072068 59.890816 10.550554
-0.87285757 62.136154 10.644421
-1.3857113 62.272911 10.590773
-1.4063478 62.063702 10.351897
-1.3362132 59.486713 10.282089
-1.2738274 61.655354 10.558764
-1.2640921 61.746662 10.570765
-1.2928345 61.622612 10.349337
-1.2038381 57.249939 10.226463
-0.78098822 61.070152 10.62499
-1.1549135 58.855183 10.533995
-1.2573305 60.792007 10.595969
-1.278001 60.971191 10.565344
-0.97542334 60.989799 10.585257
-1.19798 61.073528 10.594675
-0.97397065 57.03421 10.466102
-1.0772347 57.428665 10.495321
-4.1680527 55.881519 10.262171
-1.262743 60.735657 10.350987
-0.59327555 57.653248 10.531612
-0.67988396 59.057289 10.558302
-0.59100056 59.272118 10.569659
-1.0923784 57.102203 10.461642
-1.0773203 57.254303 10.45435
-1.1877145 61.106461 10.344493
-1.3645399 61.806149 10.591011
-1.2436242 59.588768 10.523066
-1.3739938 61.72533 10.558968
-1.2628987 57.403286 10.442249
-1.3870907 61.492561 10.348002
-1.3787106 61.186829 10.565061
-1.3507268 58.399139 10.281147
-1.0766952 58.096745 10.474075
-1.4094048 63.751701 10.462631
-1.061399 57.957359 10.49607
-0.98468995 58.108814 10.489035
-1.3724246 63.03627 10.448055
-1.2915823 57.787933 10.221489
-1.35615 61.435764 10.562216
-1.1999274 61.276386 10.574884
-1.3785167 61.334393 10.536157
-1.3515162 59.106033 10.477525
-1.4514085 61.204796 10.327325
-1.0714569 62.372124 10.618217
-1.2538174 57.897575 10.469004
-1.1677051 57.978531 10.256419
-1.1792934 63.791557 10.620169
-1.0835283 61.10524 10.567991
-1.1828592 60.777283 10.552347
-0.67919326 60.803772 10.603306
-0.97678041 56.932243 10.451176
-1.2214571 63.756699 10.490192
-1.1958356 60.715366 10.369341
-1.2856121 62.14138 10.611132
-0.68807554 59.986923 10.610703
-1.1587408 59.883759 10.550255
-1.2929893 61.831276 10.39605
-1.2116754 57.527939 10.25131
-1.0886443 61.73444 10.590153
-1.0718896 61.523109 10.590961
-1.3442911 61.389149 10.339488
-1.191623 61.101986 10.564228
-0.96606159 59.042183 10.526946
-1.0510714 57.666725 10.486753
-1.0926793 56.937267 10.435434
-1.1718743 57.117016 10.461502
-1.1746304 56.932995 10.431131
-3.9800885 55.868881 10.266365
-0.77240634 63.46196 10.403959
-1.0690706 61.605984 10.611511
-0.88055778 56.855381 10.452323
-1.1852806 60.661503 10.543606
-1.0901041 63.022224 10.627831
-1.1782377 62.671349 10.621522
-0.58866239 60.762329 10.623937
-0.66996789 60.521408 10.622381
-1.0912416 57.038185 10.446133
-1.1735494 61.96051 10.585715
-1.2798716 61.511852 10.576576
-0.87387133 59.326191 10.492079
-1.0862784 57.694077 10.459693
-0.98300886 56.525707 10.428493
-1.0760515 56.606644 10.431656
-1.0925231 56.840271 10.435419
-1.2769593 56.206329 10.171035
-1.3588216 62.412617 10.580737
-1.1684812 56.399643 10.421137
-1.0625281 56.494053 10.440519
-0.99161863 56.837868 10.435231
-1.2862452 61.271198 10.573035
-1.2719451 63.534573 10.649947
-1.1789644 57.028667 10.443018
-1.273715 60.447578 10.286107
-1.2660649 63.647118 10.630111
-0.97623801 57.566338 10.247799
-1.4581511 63.33268 10.61163
-1.1877949 63.447712 10.638636
-1.3685496 63.45673 10.625967
-1.2688792 61.315823 10.556747
-1.3976033 60.709076 10.502975
-1.3397689 61.018677 10.548458
-1.3104737 57.258904 10.19054
-1.4722416 61.543747 10.53834
-1.176361 61.640396 10.575536
-1.1780586 61.734531 10.578121
-1.3528323 61.855293 10.559176
-1.2921237 60.171001 10.507974
-1.3605484 58.179661 10.462861
-1.2736261 58.103615 10.45621
-1.0701704 57.061356 10.42312
-1.1859006 57.151573 10.435913
-4.0756559 55.80201 10.351543
-1.3782266 58.057373 10.224597
-1.0906198 62.130848 10.617827
-1.2697952 62.184929 10.587459
-0.9803288 57.078854 10.420839
-1.3171649 61.928768 10.341619
-1.3779563 62.817448 10.590269
-1.1660531 62.903893 10.618318
-1.0797095 62.913994 10.629483
-1.3697984 62.706032 10.5918
-1.3684283 60.46833 10.522819
-1.1673048 57.341282 10.451221
-1.1775196 56.633038 10.420498
-1.0921233 56.5285 10.414321
-1.3875278 60.355579 10.267029
-0.38590312 63.138905 10.393004
-1.3794174 62.918602 10.605055
-1.1816919 60.737644 10.560821
-1.3652462 58.870308 10.476496
-0.92837954 57.595337 10.442514
-1.1489913 56.780102 10.44892
-0.94831824 57.542881 10.37407
-1.0760193 56.303528 10.424612
-0.97545886 56.40062 10.438008
-1.396785 62.775772 10.372645
-1.392203 60.477875 10.269506
-1.2776542 62.905342 10.612679
-1.0786324 62.684044 10.630022
-1.2712762 60.437908 10.552284
-1.089565 60.4692 10.540083
-1.266891 62.273102 10.606254
-1.1772875 61.807476 10.596066
-1.3070631 58.285824 10.240941
-0.65073824 63.616215 10.494996
-1.1857326 58.186497 10.479638
-1.2002625 56.535648 10.406775
-1.2893471 62.625175 10.563687
-4.6848183 56.152821 10.075872
-4.6714182 56.038895 9.9893923
-1.1807001 56.30735 10.418374
-1.1645663 56.492813 10.432907
-0.97714591 57.598274 10.437118
-0.99239779 58.136517 10.4489
-0.87912273 59.53754 10.501163
-1.0881395 61.008835 10.553846
-1.4590378 62.584335 10.595408
-1.1839609 62.710495 10.602051
-1.3732102 63.033363 10.599615
-1.4734257 62.497913 10.349586
-1.0662444 56.802837 10.450904
-1.1662471 61.021496 10.553205
-1.0851984 61.327038 10.574009
-1.0820515 61.421913 10.582374
-1.4096181 62.974869 10.418821
-1.3762604 59.032951 10.244555
-0.88693786 56.306927 10.432704
-1.1676544 61.511906 10.580971
-1.1026978 61.560135 10.559874
-1.2771053 61.859703 10.568657
-1.0821214 63.809658 10.643325
-1.4052017 63.560272 10.394896
-1.3997314 61.245266 10.316497
-0.88526106 56.200962 10.409584
-1.1578361 57.067696 10.41469
-1.3764237 58.10886 10.397013
-0.87295461 58.767838 10.497855
-1.0780985 60.935825 10.538915
-1.2709394 61.01162 10.543538
-1.1952714 61.2271 10.543153
-1.3644335 61.52813 10.547538
-1.2732992 62.942951 10.594559
-1.1890395 62.049175 10.587304
-1.1682084 62.170376 10.588479
-1.1820637 62.280251 10.597825
-0.89957666 60.698273 10.553844
-1.381727 61.958126 10.323342
-1.8891474 55.86528 10.562122
-1.3561273 57.804543 10.206952
-0.80348277 58.921036 10.228949
-1.0764816 60.970448 10.573098
-0.8846035 57.383324 10.449004
-0.90355706 56.535553 10.424787
-1.2935302 57.061146 10.301774
-0.97723651 57.091465 10.298847
-1.2926604 57.027554 10.200138
-1.0755937 62.174343 10.59128
-0.97766352 60.689487 10.546486
-1.0717342 57.613827 10.43218
-1.2642984 56.528484 10.388095
-4.6805582 56.022789 10.264712
-1.2805862 62.712925 10.597929
-1.28026 58.152622 10.421096
-4.6824312 56.046665 10.214451
-1.3291039 62.609165 10.389734
-1.0901344 59.040501 10.518618
-1.2724246 62.360813 10.61016
-1.2407008 57.978996 10.247696
-0.95244145 57.120781 10.487511
-0.67662096 55.959278 10.472003
-0.87949753 56.038101 10.46996
-0.97580433 56.564976 10.473589
-0.88429141 56.887066 10.491278
-0.98040819 55.953457 10.434756
-4.5676155 55.973946 9.9292002
-1.2107048 62.872452 10.410624
-1.1575389 57.424866 10.219883
-1.1873006 56.375427 10.212624
-1.3713049 63.671211 10.634515
-0.97942019 63.713863 10.61525
-1.3649639 63.901772 10.627233
-1.3689514 62.181698 10.580216
-1.1888953 61.778988 10.558205
-1.1776571 61.8661 10.569844
-0.9416275 62.106316 10.577052
-1.0932264 60.706161 10.534591
-1.353436 57.916615 10.44895
-1.4557925 63.472256 10.354843
-1.4828219 61.629311 10.315364
-1.2770331 63.245544 10.601927
-1.3851498 63.518642 10.627164
-1.4589491 61.435772 10.537431
-1.277343 61.423267 10.565858
-1.190575 61.560268 10.563438
-0.98287654 61.859856 10.575197
-1.2719256 61.262524 10.537979
-1.1686883 60.403542 10.513363
-1.2622094 58.013058 10.438321
-1.2570705 57.594711 10.426337
-0.90870094 58.167534 10.453587
-1.1949466 56.456089 10.387152
-1.0598767 57.628109 10.280504
-1.0765905 63.438221 10.642526
-1.0855863 61.865162 10.581399
-1.0668809 62.391777 10.592285
-1.081285 62.092609 10.578247
-1.2667239 60.709812 10.527617
-2.2803211 55.794144 10.702055
-4.1006579 55.910034 10.179274
-1.350167 61.862328 10.303383
-1.4727341 63.439793 10.640094
-1.0886922 63.565083 10.63831
-1.2700245 63.351833 10.623069
-1.2734166 63.439392 10.633355
-1.0462992 63.50985 10.621002
-1.1745908 62.081974 10.570817
-1.2860844 61.545799 10.545459
-1.0723212 58.15382 10.439354
-1.2008404 57.300282 10.421148
-0.88821816 57.296295 10.415451
-1.0014162 56.217453 10.404303
-1.491502 63.239201 10.366206
-1.4813389 61.532917 10.291952
-1.3577385 57.227051 10.398631
-0.97901559 56.447842 10.385158
-1.0937662 63.766003 10.659692
-1.1738228 63.567951 10.63473
-1.3788831 63.349148 10.604948
-0.98330498 63.451286 10.661945
-1.3616214 58.485329 10.461166
-0.91258621 56.421875 10.397519
-4.4634905 55.96312 10.044908
-1.3755664 61.952034 10.576338
-0.87935877 57.497478 10.404202
-3.9788589 55.900749 10.180342
-1.2670943 57.016979 10.189759
-0.67603493 57.065346 10.445807
-1.2132185 57.14447 10.209553
-0.8892312 57.119099 10.220999
-0.7621038 56.235744 10.418647
-1.2944887 62.007999 10.34237
-1.1218076 63.563499 10.471634
-1.4972659 55.892696 10.510365
-1.1675097 57.006805 10.188032
-0.6818893 62.370998 10.65613
-0.68014264 59.588257 10.575784
-0.87689376 56.579475 10.476879
-1.1742911 62.043751 10.369612
-1.9822145 55.854881 10.555874
-1.0984697 57.170879 10.21805
-1.1405134 58.609711 10.351425
-0.72177482 62.970871 10.632905
-0.68208861 63.0298 10.664699
-0.99417353 62.718502 10.617402
-1.1880969 55.899166 10.566405
-0.57674098 58.420444 10.54486
-4.7728057 56.100651 10.292658
-4.4700851 55.861874 10.440269
-4.1842461 55.850437 10.452377
-2.6747317 55.866158 10.515766
-2.3688221 55.85923 10.53746
-2.1545219 55.875862 10.571425
-1.3474233 57.387611 10.295579
-1.3432729 57.344734 10.2403
-1.3206563 59.083534 10.354761
-1.2368451 58.772938 10.483871
-1.350086 60.734409 10.556697
-1.1642358 55.947453 10.454296
-1.3241702 58.439217 10.347575
-0.97477055 62.421146 10.604528
-1.3597808 62.485008 10.587098
-0.48228788 62.693241 10.400335
-1.8770193 55.8894 10.521482
-1.33588 59.271503 10.529546
-1.412113 58.87785 10.361646
-1.1723077 62.958008 10.598232
-4.9490652 55.843063 10.437737
-4.9256759 56.115799 10.301447
-1.3829501 62.72501 10.350307
-2.8666391 55.863365 10.521132
-1.7843667 55.8955 10.509949
-1.5665109 55.889454 10.533571
-4.8728085 55.610394 10.509212
-1.0663259 59.235596 10.480103
-1.3627735 59.866016 10.494595
-1.4322621 59.975883 10.373207
-1.2752004 62.100414 10.565417
-1.481292 62.826912 10.557472
-4.9687576 55.770939 10.404438
-0.99658728 59.226048 10.428782
-1.2511835 62.448948 10.628265
-1.2818348 63.829578 10.668042
-1.0629263 63.853176 10.684772
-4.8778667 56.079521 10.205825
-1.2970513 57.596088 10.188718
-0.68771553 62.45713 10.672154
-0.97078133 63.577393 10.64831
-0.95772481 63.7957 10.639777
-4.790719 55.797062 10.301808
-1.2948802 58.945679 10.230859
-0.85488462 63.774872 10.637935
-4.6913962 55.799397 10.307344
-1.3545971 63.201023 10.369493
-1.4115112 62.256863 10.359454
-1.0661218 61.778419 10.552996
-0.87176871 62.086555 10.594496
-1.3488355 59.972565 10.230273
-1.019815 62.958366 10.589375
-1.3951058 61.642666 10.335649
-1.3634747 59.318527 10.23501
-1.3846562 62.452057 10.623795
-1.2729354 62.660618 10.623263
-1.1775792 63.522697 10.653119
-1.3708928 63.857903 10.683003
-1.3698285 59.553291 10.460246
-1.0183158 61.249569 10.556659
-1.3880085 63.55125 10.62302
-1.3712236 62.35437 10.590005
-1.2477288 58.542812 10.181668
-1.151274 63.349873 10.675948
-1.1366255 63.836708 10.69857
-4.5504231 55.975349 10.043075
-1.4319448 61.523632 10.563262
-1.4490267 62.713638 10.569367
-1.5716091 63.46109 10.399262
-1.3183897 61.461308 10.518023
-1.5014341 62.557968 10.534806
-1.467805 62.657066 10.562016
-1.3049009 62.817028 10.552999
-1.1660459 62.875832 10.566843
-1.3796115 62.949032 10.572467
-1.1709287 63.658623 10.576381
-1.3881612 63.700108 10.55536
-4.8881521 56.025036 10.087192
-0.40960312 56.077896 10.480022
-1.4798908 62.636066 10.342857
-1.4278424 62.25901 10.311642
-4.6857691 55.758274 10.287296
-4.9839478 55.728592 10.262141
-1.4420984 62.486908 10.594604
-1.4217588 61.211494 10.525517
-1.0761046 62.432365 10.634011
-1.3906682 63.782204 10.681869
-4.5801945 55.730511 10.277516
-0.67935753 62.699535 10.40173
-4.8606253 55.722187 10.285157
-1.5141687 61.678947 10.481733
-0.87316704 57.541851 10.274297
-1.4610245 62.585182 10.36844
-1.4100034 63.416958 10.399156
-1.3870081 62.061771 10.321401
-4.876791 55.800182 10.288228
-0.97159767 62.14402 10.63744
-1.2907611 62.880615 10.394773
-1.2261591 59.063713 10.288866
-1.2732599 63.878872 10.642852
-1.3667862 59.192024 10.25691
-0.18889642 63.867397 10.414336
-1.3386695 62.879181 10.39549
-4.9696255 55.771847 10.161315
-1.2768811 63.774803 10.614655
-1.3971181 63.668777 10.40761
-1.2952098 62.482323 10.38656
-0.9767313 57.733265 10.519568
-0.67526555 60.750237 10.616837
-0.68298864 63.439217 10.685584
-1.1373744 61.497265 10.423688
-1.2033669 61.177292 10.361209
-0.76438665 62.966705 10.448045
-1.176669 58.269352 10.241547
-1.1838269 60.983395 10.385649
-1.05668 56.040958 10.456632
-0.68343496 58.6367 10.540983
-0.88555074 59.666618 10.574959
-0.83306146 61.351101 10.63475
-1.0782654 59.165428 10.30886
-1.0843899 57.431648 10.239932
-0.77770305 56.075245 10.457242
-0.59583282 56.383392 10.478738
-0.5008781 56.924355 10.495854
-0.58400631 58.742496 10.552381
-0.67505622 62.146687 10.657417
-0.86092448 62.211266 10.663682
-0.58879423 62.465607 10.681518
-0.66740513 63.527214 10.695997
-1.106617 62.118736 10.384892
-0.62975836 57.086548 10.454729
-1.1852988 59.523586 10.42048
-1.1970357 59.361637 10.26385
-0.96268654 57.310944 10.436752
-0.16775179 59.636349 10.707634
-1.1722015 62.124546 10.636868
-1.1920143 61.828339 10.363658
-1.1955609 60.277153 10.308721
-0.86562276 63.552624 10.430857
-1.1880676 59.453106 10.278708
-0.62422085 57.601101 10.446129
-1.0561807 56.573872 10.458686
-1.2649447 62.677502 10.439019
-1.2517101 57.903736 10.212398
-4.3333812 55.928482 10.190568
-1.2634718 62.97646 10.412313
-0.67419481 60.979412 10.616661
-1.173498 57.610355 10.221173
-0.63665032 63.745667 10.610822
-1.1645681 59.96685 10.568571
-1.1643651 57.371571 10.216434
-0.7778368 56.034653 10.485612
-0.59161353 59.142929 10.595577
-0.79842091 63.606754 10.709431
-0.58746672 60.87661 10.619435
-0.99782586 61.376816 10.637466
-1.0787318 60.730553 10.391398
-0.59176898 61.388069 10.663009
-0.57350779 62.9701 10.447867
-1.3140296 61.755219 10.323044
-1.2886109 60.266777 10.245082
-4.7745552 55.723255 10.268542
-0.89438939 63.713341 10.623292
-1.4773874 62.68148 10.358864
-1.3504498 61.473701 10.517182
-1.3593609 62.607342 10.567702
-1.1270001 62.631428 10.590679
-1.3161585 62.709919 10.382514
-4.9504161 55.846256 10.220932
-4.3808126 55.874016 10.230371
-1.4894174 63.407936 10.57227
-5.1116333 55.393394 10.509249
-4.6798353 55.580799 10.515098
-5.0889511 55.702644 10.368046
-1.3116404 63.704048 10.595856
-1.4869332 63.549675 10.364331
-4.5988293 55.602703 10.516809
-5.0933743 55.741665 10.271593
-0.67772818 59.276165 10.562853
-0.89337635 63.503456 10.640556
-4.6846271 55.406448 10.538642
-5.0114093 55.816116 10.322468
-4.5979738 55.84634 10.235703
-4.4981537 55.847691 10.22081
-5.0833831 55.917034 10.240979
0.0087656975 56.446331 10.596985
-3.9845009 55.596012 10.406236
-3.2830162 55.879936 10.436468
-4.7514434 55.395451 10.551569
-4.7486877 55.60664 10.506143
-0.93188071 62.747578 10.422499
-1.2947149 57.470764 10.207898
-4.8500633 55.674622 10.234114
-0.87892461 63.760212 10.682745
-0.7887826 63.577835 10.66375
-0.68943143 63.759048 10.697704
-1.411551 55.861382 10.548944
-4.058589 55.658772 10.274922
-4.5447278 55.665058 10.205601
-4.526051 55.666061 10.299803
-0.38118792 63.43174 10.44716
-1.083348 55.883427 10.538798
-0.098561287 55.781586 10.682097
-1.8657635 63.522114 10.538143
-0.18440247 55.649372 10.719773
-0.49370456 57.47377 10.508953
-0.77966475 57.42178 10.510429
-0.58383751 57.877861 10.529521
-0.47927451 57.779404 10.52376
-0.19767714 57.722553 10.608051
-0.49706173 57.971001 10.566751
-0.29121971 58.041851 10.557489
-0.40458822 57.661858 10.569714
-0.58922482 57.778271 10.516741
-0.29436135 57.970753 10.601588
-0.48231244 57.887718 10.549168
-0.58725405 57.746239 10.572494
-0.76606417 58.042744 10.378757
-0.38851428 56.400677 10.493125
-1.315763 55.890854 10.53087
-0.38942146 58.50703 10.587524
-0.39013982 56.495564 10.521319
-0.088022232 56.365715 10.590929
-0.1932354 58.529259 10.630395
-0.23960042 58.723473 10.61675
-0.44575548 58.697292 10.627127
-0.48039603 58.816868 10.597054
-0.48832512 58.737534 10.573014
-0.29250097 57.67004 10.601642
-0.59206867 57.975201 10.55129
-0.38442731 57.960575 10.600931
-0.36609435 57.847698 10.609221
-0.59269094 58.070145 10.396728
-0.39890885 55.795017 10.682533
-0.10938716 57.562843 10.585918
-0.096893311 57.523666 10.614683
-0.37466812 57.421883 10.591651
-0.38103008 57.73531 10.595484
-0.50217724 55.867065 10.473426
-0.28486943 55.750126 10.722446
-0.58775187 58.07449 10.588849
-0.49536419 56.484779 10.498677
-0.78345156 55.654209 10.668973
0.016242504 56.381447 10.605327
-0.10329151 58.536446 10.653945
-0.30924845 58.489239 10.620261
-0.31751204 58.436562 10.620771
-0.26062989 58.396793 10.634249
-0.096192122 58.281101 10.649899
-0.58896875 58.702255 10.415561
-0.68663955 60.913124 10.47638
-0.091228724 55.642384 10.728209
-0.18530464 55.741211 10.730995
-0.18831563 58.358845 10.633988
0.033914804 56.128471 10.601581
-0.043275356 57.966274 10.621807
-0.6639998 60.282814 10.427446
-0.058508396 56.013847 10.578412
-0.085807562 57.7719 10.630092
-0.58637977 56.131187 10.324807
-0.6933229 58.136837 10.412501
-0.64840293 57.53302 10.580342
-0.063976526 57.306122 10.612751
-0.16683555 57.522144 10.607952
-0.11561012 57.455956 10.599362
-0.68719006 59.544537 10.418234
-0.39231348 56.9851 10.582007
-0.48643661 57.116581 10.554688
-0.45228791 57.082466 10.594305
-0.18056417 56.295811 10.5563
-0.22951436 57.829597 10.646968
-1.1934171 63.747887 10.651567
-0.83208752 59.766071 10.450206
-0.39435315 55.883591 10.479136
-0.47589087 58.416302 10.5628
-0.50797772 56.462002 10.338908
-0.1919992 58.436172 10.605533
-0.083184958 56.680691 10.597901
-0.39214373 58.383041 10.627319
-0.2853303 55.535995 10.736204
-0.70942783 60.61092 10.461833
-0.27737236 56.065365 10.563467
-0.065903902 55.98476 10.611146
-0.47733164 59.799782 10.604359
-0.37561321 59.77829 10.653227
-0.43303037 59.72654 10.65801
-0.37612152 59.66658 10.659015
-0.47820163 59.684448 10.625787
-0.5476203 57.287392 10.588302
-0.57233238 58.930313 10.615139
-0.10710359 58.997414 10.688289
-0.084363461 58.942451 10.682063
-0.29410338 60.718479 10.719831
-0.35125327 60.720394 10.726199
-0.37530279 60.556973 10.691917
-0.23713446 60.495987 10.72182
-0.7777319 63.320366 10.435499
-0.5928874 57.503418 10.389254
-0.58014727 59.138271 10.414738
-0.59116697 62.728745 10.628552
-0.15904951 57.604332 10.625976
0.047445297 56.049469 10.660375
-0.58408594 59.209297 10.631704
-0.47827697 59.1441 10.634198
-0.049542189 59.220406 10.700717
-0.033548355 59.106525 10.708547
-0.58191395 60.844566 10.65654
-0.28293395 60.66544 10.721507
-0.13120461 60.875473 10.741821
-0.4770155 56.148029 10.379824
-0.5780077 61.001537 10.53181
-0.67840171 62.735088 10.635715
-0.088494062 56.242767 10.612742
-0.68628907 55.739574 10.688328
-0.21369815 59.547516 10.675817
-0.47501493 61.163582 10.698359
-0.22754526 61.150295 10.721437
-0.27607512 61.374603 10.724501
-0.70221567 61.14888 10.70541
-0.61596847 56.37981 10.352969
-0.75435591 61.490742 10.484885
-0.40475774 56.727257 10.574921
-0.70511174 60.104958 10.538314
-0.30169702 58.279053 10.620301
-0.36853409 59.88126 10.632253
-0.24070549 60.027481 10.693911
-0.28793645 61.895779 10.743178
-0.50454497 61.833584 10.664524
-0.48455167 61.692905 10.71844
-0.66391301 61.528816 10.722616
-1.2676477 63.750607 10.636668
-1.1731867 62.80619 10.617559
-0.19386101 61.376202 10.747093
-0.67450023 61.376198 10.662875
-0.17780066 59.675312 10.688939
-0.45194554 61.47382 10.727744
-0.60124612 56.532642 10.415675
-0.69649911 58.053024 10.576312
-0.203825 58.018318 10.598048
-0.53222036 61.462986 10.695078
-0.48325777 61.372814 10.684114
-0.23598886 61.223156 10.753804
-0.78394556 61.701523 10.477846
-0.58948493 61.828587 10.653343
-0.26063633 60.190086 10.693335
-0.21947551 59.943462 10.674448
-0.59336257 62.22205 10.690413
-0.55952954 62.343201 10.739579
-0.46547437 62.287033 10.744832
-0.4938333 62.148945 10.680992
-0.49504948 62.0881 10.746467
-0.50455594 60.512657 10.635172
-0.25575757 60.424126 10.702407
-3.5954051 55.523869 10.406384
-0.39897561 62.235001 10.728156
-0.39549398 62.173565 10.770448
-0.38206601 62.115131 10.767712
-0.39405966 62.019463 10.737473
-0.58578849 60.288013 10.642757
-0.16124082 60.28738 10.727411
-0.05394125 58.358017 10.640268
-0.29351139 56.740276 10.598745
-0.38471532 55.551151 10.689999
-0.28694296 57.543598 10.62083
-0.64267802 62.424282 10.551044
-0.39116716 61.383648 10.714225
-0.5568676 61.131542 10.721754
-0.59162927 61.065121 10.64577
-0.085859299 61.129333 10.762451
-0.29055071 59.380722 10.664927
-0.54236341 59.300091 10.654078
-0.49951935 59.237442 10.649264
-0.07095623 59.314758 10.715055
-0.38448858 57.604164 10.608835
-0.24815965 57.428181 10.605801
0.0075550079 57.425484 10.659837
-0.58219457 57.702999 10.492829
-0.55655789 59.50547 10.481088
-0.37875462 61.160603 10.692548
-0.38956571 61.08057 10.67339
-0.59235334 60.979443 10.625664
-0.15208888 61.052868 10.734517
-0.3720057 60.927456 10.725621
-0.14231372 59.158459 10.682536
-0.27427268 59.12484 10.654351
-0.40577078 59.0438 10.600318
-0.33402514 57.320419 10.593039
-1.0899694 62.804115 10.616892
-0.68162465 61.518887 10.481955
-0.39591146 61.769779 10.743096
-0.13721395 61.653946 10.771774
-0.11945271 61.590904 10.758173
-0.39299607 61.487732 10.732848
-0.28409934 61.472565 10.748385
-0.10366297 59.554684 10.704889
-0.29383087 57.832806 10.621055
-0.51819539 57.629799 10.60077
-0.042731524 57.657791 10.625504
-0.39264226 55.930664 10.523115
-0.023383379 55.877636 10.63133
-0.567173 61.768654 10.716151
-0.59042215 61.691162 10.685333
-0.30270362 61.675037 10.756263
-0.59430838 59.902546 10.59831
-0.099092245 59.872341 10.717461
-0.28842545 59.768204 10.687973
-0.46725178 58.079048 10.602898
-0.37770247 61.705429 10.726583
-0.055481434 58.212749 10.650585
-0.05981493 56.771111 10.619227
-0.16357827 55.514545 10.738278
-0.60071111 55.445217 10.68023
-4.1892495 56.087997 10.140544
-1.506635 63.333672 10.663437
-0.31441975 62.341724 10.762828
-0.46729541 62.243492 10.715439
-0.55757999 62.016777 10.713454
-0.46658039 61.985432 10.725206
-0.50253963 60.302696 10.666353
-0.27959585 62.959003 10.78756
-0.47916794 62.867195 10.751762
-0.48320127 62.764786 10.713323
-0.49459767 62.695221 10.697384
-0.47875643 62.623146 10.743379
-0.70204616 62.550053 10.718004
-0.27703857 62.756744 10.739049
-0.26653433 60.744682 10.704492
-0.21567106 60.596306 10.72642
-0.42096448 58.663826 10.621179
-0.19163585 62.335484 10.780787
-0.67625499 60.381615 10.659781
-0.21540904 60.389946 10.722679
-0.7156148 61.770584 10.711921
-0.67823553 59.668247 10.59695
-1.9917468 55.767326 10.426039
-0.37081051 58.831543 10.631331
-0.076712847 58.821949 10.641495
-0.57608652 57.413338 10.462196
-0.7615087 61.94746 10.457439
-0.28364348 60.951519 10.740629
-0.30122161 60.853912 10.732824
-0.48350763 60.756454 10.638571
-0.46015716 60.707584 10.712024
-0.41114593 60.401348 10.701914
-0.36744475 60.328144 10.710819
-0.26905608 60.277409 10.700097
-0.5740366 59.563889 10.670259
-0.092359304 57.941856 10.649775
-0.016839981 57.744026 10.628271
-0.27826262 56.141567 10.572856
-0.55216479 56.396587 10.335798
-0.29706526 57.042809 10.58268
-0.59065795 59.841072 10.486514
-0.49488831 59.379028 10.592952
-0.31329823 59.308365 10.665116
-0.37808585 59.241314 10.669915
-0.16784143 57.627586 10.594814
-0.45104647 59.528294 10.672442
-0.3838675 59.382244 10.620256
-0.095691442 57.639999 10.643403
-0.60136461 59.756794 10.448529
-0.36979628 59.322674 10.682914
-0.14995193 57.982746 10.664054
-4.3588018 56.154816 9.7226658
-0.56483483 61.578423 10.561531
-0.26108837 59.218143 10.687881
-0.40074444 59.137352 10.620222
-0.28354931 59.031223 10.685569
-0.31070995 57.615398 10.630467
-0.57971096 56.319832 10.457917
-0.6596036 58.920696 10.609598
-0.17044282 58.93277 10.698226
-0.18749809 57.349945 10.620212
-0.15542817 55.852047 10.556793
-0.69213057 56.017365 10.434381
-0.72493911 59.263386 10.629007
-0.34273696 58.986206 10.644937
-0.68006992 58.753761 10.628282
-0.22010899 58.780754 10.66279
-0.20839024 58.739643 10.660268
-0.68535471 58.353302 10.407773
-0.73894358 58.698601 10.603903
-0.29173899 58.776615 10.640586
-0.27416086 58.714302 10.637231
-0.85403728 63.321163 10.426622
-0.68607044 57.635391 10.595147
-0.48696542 57.805916 10.593992
-0.75468802 56.350777 10.289804
-0.16271734 56.769089 10.60832
-3.6069412 56.013149 10.230524
-0.37503767 57.914684 10.620379
-0.7766242 57.748413 10.540028
-0.68339634 63.55373 10.432155
-0.77171016 56.969845 10.560644
-4.8645525 55.887833 10.128633
-4.4957337 56.119492 10.032853
-0.81414413 58.157528 10.397486
-0.87502551 62.804634 10.64137
-0.29133701 62.483044 10.392283
-4.6115141 56.12719 9.9915714
-0.5891881 62.344135 10.415871
-0.18012118 63.381874 10.394176
-0.97748208 63.39006 10.434436
-0.82747412 61.206673 10.465386
-0.77629662 63.429604 10.443787
-0.97386599 57.272133 10.252043
-0.98253584 57.345558 10.26128
-0.84941125 58.399471 10.379165
-0.97842145 58.185581 10.310456
-1.2778165 57.536892 10.242658
-0.073179483 62.452671 10.364076
-0.49396873 55.449303 10.691175
-0.52796316 57.240421 10.338344
-1.6711549 55.8325 10.3952
-0.89508581 59.234818 10.447109
-0.90172935 56.168438 10.24007
-0.87986517 59.160851 10.380395
-1.5413525 59.694252 10.462244
-0.58725977 62.479248 10.407196
-0.85778117 57.162457 10.310763
-0.6852026 62.9655 10.451624
-0.67552304 55.472412 10.629226
-0.6763742 62.244717 10.474076
-0.64504385 63.493713 10.555992
-2.8691003 55.909462 10.450927
-3.9625201 56.086845 10.157024
-3.4111753 55.949421 10.241484
-1.0662172 61.734108 10.427815
-1.1950679 63.979568 10.646261
-1.0465665 62.012493 10.3658
-1.1238172 62.816597 10.505404
-2.2982287 55.840286 10.550297
-1.2122808 62.81855 10.457287
-2.5861955 55.875683 10.477275
-1.1015487 57.179203 10.30641
-4.9013238 56.126225 10.000547
-1.2387912 62.375668 10.390607
-1.2190187 61.998802 10.321732
-1.1812871 61.977081 10.348427
-1.1572802 60.079063 10.379756
-4.9345713 56.111732 10.024382
-1.1350129 63.634216 10.447729
-1.0434442 63.810593 10.477676
-4.5627546 55.859951 10.437023
-3.0562458 55.863934 10.455355
-4.8248515 56.146896 9.9805794
-4.2549276 55.891663 10.392216
-3.180052 55.904873 10.432651
-1.361205 61.223026 10.377427
-2.0523231 55.851276 10.545008
-1.2748377 55.375229 10.564947
-1.2312216 58.063377 10.25908
-0.6636281 57.447922 10.259631
-1.9828002 55.878052 10.499286
-0.68521619 57.567703 10.282891
-0.48103261 57.551579 10.279242
-0.770854 62.490963 10.400517
-1.2563804 63.782169 10.438372
-0.57602453 55.965714 10.48736
-1.2095307 63.337578 10.480935
-0.68847036 55.785633 10.453248
-0.9794414 57.004078 10.250755
-1.3589255 63.501286 10.502161
-1.2491429 61.710327 10.457946
-1.1198046 62.750645 10.415639
-1.2260966 62.503582 10.429698
-1.0777488 63.885216 10.647831
-1.1033509 62.556736 10.482544
-2.5253577 55.090721 10.620112
-2.4898353 55.296303 10.632726
-1.3776908 61.810242 10.429555
-1.3570243 62.871075 10.49784
-1.1815187 59.396297 10.503829
-0.16013598 59.222679 10.684274
-1.0740747 59.401485 10.513628
-0.38684058 63.33881 10.412554
-1.6958117 55.89262 10.514121
-1.5300262 55.872128 10.681315
-6.2196712 55.788891 10.365526
-1.3535312 62.357227 10.384331
-0.95956039 62.728306 10.408674
-0.39447808 63.879688 10.436985
-2.4926701 55.891666 10.46639
-0.18603301 55.995991 10.621663
-0.91760993 55.948799 10.635506
-0.174757 55.941635 10.697747
-2.1764295 55.890041 10.50071
-0.49298692 55.364197 10.66955
-0.98845768 55.962997 10.589858
-0.24801445 55.987148 10.678796
-0.18190241 55.783031 10.682698
-0.40502238 58.902424 10.47045
-0.97696924 55.985043 10.407351
-0.5930171 61.106354 10.619334
-0.28764439 62.72226 10.380108
-4.9640675 55.99147 10.176208
-0.17244291 55.288708 10.720671
0.023622036 55.790352 10.694659
-0.27983022 55.322166 10.700329
-5.7612386 55.734886 10.437612
-0.26679397 61.033615 10.68765
-0.60076857 63.44891 10.78062
-1.2840173 62.801281 10.600448
-0.47335458 61.096355 10.620529
-0.42099905 56.174892 10.485332
-6.2758231 55.524601 10.358601
0.0054478645 55.655121 10.735927
0.017901897 55.583443 10.789432
-1.2006942 63.632946 10.47611
-0.16538405 55.436047 10.717463
-0.99612761 63.600704 10.696724
-0.28947759 55.425552 10.708447
-0.18247771 55.581642 10.723171
-6.1677942 55.444767 10.390695
-0.087838173 55.291195 10.715607
-0.19577813 55.273975 10.725142
-2.9006343 55.501419 10.424485
-0.64900446 63.121685 10.599278
-0.97678185 63.880424 10.659495
-1.1951497 64.025551 10.60989
-0.39759827 58.657356 10.552819
-0.81218576 63.063278 10.496374
-0.2872436 55.456276 10.658115
-4.1035089 56.100777 10.160674
-0.67284894 63.206997 10.445318
0.015504837 57.539761 10.573927
-0.39421177 55.432495 10.687841
-0.36862826 55.310886 10.685893
-0.89287949 63.180153 10.781222
-1.1763828 63.261898 10.61333
-0.39585614 62.354645 10.687887
-0.59139657 63.328072 10.433183
-0.92568636 63.045078 10.474036
-0.77851772 62.705597 10.4074
-0.77660275 62.795124 10.41687
-0.479002 58.638485 10.550129
-0.3001461 63.322147 10.403213
-1.3053792 63.335716 10.405213
-0.49730039 58.764534 10.515027
-0.67534423 63.658058 10.689024
-0.96137857 57.447517 10.236239
-0.89023376 57.4758 10.252701
-1.0066841 63.359509 10.430497
-0.58397007 58.82629 10.567554
-0.7703681 63.658718 10.678414
-0.62501621 56.134243 10.180197
-1.1925511 63.865875 10.642959
-1.5165598 63.043423 10.519485
-1.405704 63.310783 10.399281
-0.48654675 62.482258 10.403635
-0.67335844 62.468231 10.406256
-0.58322477 63.770004 10.429768
0.11338711 56.931179 10.631596
-0.56394315 63.159969 10.398494
-0.61796427 63.062126 10.508599
-0.59257269 55.488091 10.64643
-3.9027743 56.079235 10.208993
-0.35485721 55.489674 10.68961
-0.68022346 63.330032 10.432326
-3.3849127 55.898636 10.432267
-0.73343801 62.296677 10.352263
-0.165802 60.980545 10.656796
-0.48699093 56.398472 10.475224
-0.52257061 56.525925 10.417171
-0.21780109 60.113384 10.680851
-0.87065244 59.016766 10.316958
-0.94365263 56.223431 10.1976
-3.8208661 56.124794 10.184418
0.14871049 57.35265 10.627322
0.12749052 57.509224 10.566876
-0.56371856 59.79575 10.648982
-0.41380119 56.112751 10.34873
-0.67512131 63.427162 10.442049
-0.77799964 63.121906 10.719283
-0.37897253 62.480305 10.394586
-0.77308702 62.582386 10.406892
-0.4024694 57.683262 10.505324
-1.7918601 59.77821 10.462007
-1.1834599 63.347824 10.620823
-3.9801135 56.161163 10.195827
-1.004209 62.571827 10.407931
-0.5780189 62.605286 10.381422
-0.62105107 60.042206 10.678061
-0.5898602 59.79557 10.338031
-1.1874344 59.810482 10.314754
-0.69302583 62.689259 10.536392
-0.99461484 63.653976 10.666625
-0.76213574 60.064949 10.503447
-1.1659888 62.643925 10.583089
-0.86174774 63.254551 10.634884
-1.48067 60.108398 10.398914
-0.38647461 57.548058 10.274824
-0.77537966 59.797066 10.337352
-4.4832029 55.997574 10.212099
-0.29401112 63.874859 10.423852
-1.3340962 60.101593 10.418435
-1.4294977 62.594852 10.438273
-0.4802599 62.508461 10.351956
-0.056572199 62.226574 10.352743
-0.67676139 58.846134 10.299229
-0.87263823 62.986973 10.663806
-0.87237144 59.805077 10.332744
-0.26043653 59.658386 10.656267
-0.48708296 58.529297 10.291896
-1.2543013 63.640232 10.684364
-0.65461946 63.612934 10.71955
-1.0805016 58.441174 10.237562
-0.47111893 59.881577 10.359911
-0.99040461 60.158459 10.536226
-1.2908801 58.841106 10.242482
-0.15897512 62.246048 10.347286
-1.1694583 60.344948 10.535603
-1.0679982 59.339554 10.542311
-3.6680923 55.631329 10.312426
-1.8015556 63.42738 10.562974
-0.99481487 59.358986 10.544147
-1.1866895 55.506386 10.511769
-0.78386497 63.786251 10.429586
-0.79286814 63.810055 10.6536
-0.66263056 59.771564 10.641932
-0.35426092 60.628887 10.719789
-0.292454 62.923904 10.388531
-0.67686224 58.779671 10.51343
-1.412446 62.969589 10.360307
-0.64528728 60.594387 10.699592
-1.2863753 58.513512 10.235732
-0.50507855 59.051254 10.585268
-1.2926979 59.872196 10.532961
-0.98004055 63.231297 10.653604
-1.2634035 56.156273 10.418195
-0.45911932 58.122765 10.475564
-5.4796534 55.349155 10.401317
-5.4667997 55.54855 10.407588
-1.3958901 57.270164 10.167925
-0.77894497 58.832478 10.298272
-1.1663203 58.1619 10.196901
-5.1838245 55.691231 10.324831
-0.87960315 63.297226 10.473059
-1.0635059 63.051468 10.494734
-0.56724405 62.850277 10.380185
-0.68211603 60.337933 10.592092
-0.98252869 59.86816 10.332589
-0.65539789 59.88755 10.350579
-1.3784155 57.352585 10.170415
-0.80651045 60.039577 10.681985
-0.61821413 63.270977 10.509505
-1.849303 59.878727 10.379199
-0.87766194 62.348431 10.41709
-1.0551872 59.443764 10.372128
-0.34438515 60.096066 10.716415
-0.99511003 57.970524 10.314795
-0.48466563 59.536213 10.309162
-1.3645689 59.824749 10.277571
-0.7654345 59.875748 10.358491
-1.3002927 59.774235 10.313859
-0.026807785 59.159859 10.721747
-0.67844605 63.777241 10.428014
-0.58417249 59.052036 10.568254
-1.2762769 63.17823 10.396361
-1.3453419 63.185432 10.57722
-0.08136034 59.790039 10.7132
-0.67387557 59.797577 10.337455
-0.39265585 59.178581 10.58121
-1.1902933 58.762218 10.476575
-1.0981998 62.925617 10.593131
-0.39852381 58.594578 10.62673
-0.80254817 58.786995 10.288423
-0.40095139 59.56358 10.67684
-0.17996812 59.756454 10.70047
-0.5934422 59.868702 10.353977
-0.60589147 63.822914 10.619185
-0.77539182 58.582504 10.393837
-0.77929258 63.120235 10.664722
-0.85756421 58.579353 10.549003
-0.47944236 58.663898 10.262882
-0.4797647 63.538837 10.71638
-0.85760617 58.572815 10.359772
-0.67946601 62.793442 10.417562
-1.3670323 59.166275 10.483695
-0.58160138 57.899509 10.258655
-0.8790226 60.246468 10.564517
-2.8803544 55.969517 10.412115
-0.37196136 60.352264 10.612711
-0.9595747 58.750813 10.270217
-1.631435 57.902294 10.362415
-1.1593642 63.535896 10.439635
-5.3661189 55.690468 10.359837
-0.58800554 63.201641 10.446
-5.2943296 55.320545 10.402098
-1.242228 63.808712 10.484657
-0.27984071 63.024582 10.396752
-0.48294544 62.92107 10.399382
-5.4617739 55.438511 10.4182
-5.1201048 55.473339 10.402384
-0.37144756 62.924778 10.396846
-5.4902058 55.265945 10.392572
-5.387867 55.657421 10.42784
-5.4945703 55.479362 10.388137
-5.7869244 55.273937 10.404648
-5.7833357 55.33271 10.391382
-5.7529707 55.460808 10.403998
-5.6834564 55.653534 10.39047
-5.9422712 55.587929 10.433886
-5.9327631 55.161388 10.416947
-5.8872986 55.42017 10.436935
-5.8724737 55.541637 10.436473
-0.34349942 62.76725 10.347921
-5.683712 55.343868 10.401676
-5.6627946 55.425652 10.433683
-5.6555614 55.524826 10.416869
-5.9038482 55.318245 10.442671
-5.903379 55.21529 10.436975
-5.8089142 55.602245 10.472051
-5.6031208 55.210155 10.429064
-5.4603386 55.519886 10.441889
-5.8869338 55.643291 10.418955
-5.844245 55.730957 10.439953
-5.4750781 55.211269 10.423148
-5.383996 55.55629 10.394475
-0.12923527 63.309933 10.389657
-4.8763514 55.98275 10.184304
-1.4824895 57.587097 10.386017
-1.3838525 59.404713 10.493861
-1.1503242 59.257687 10.440565
-5.2475286 55.44252 10.388822
-5.1754355 55.786499 10.397836
-0.30237913 59.446663 10.681871
-4.7552977 56.083492 10.140659
-5.5291753 55.814934 10.345846
-5.0900221 55.89101 10.412458
-1.5674697 59.365547 10.448876
-5.4850016 55.657665 10.42369
-5.2860661 55.78363 10.408892
-5.3831472 55.335484 10.405471
-0.31039238 62.590271 10.424863
-1.387646 61.713905 10.498911
-1.5438883 59.344997 10.445337
-1.2797456 63.508888 10.439826
-1.2198116 63.220226 10.394744
-1.3809077 59.503487 10.500216
-1.6773973 59.474586 10.43113
-4.9344606 55.991016 10.428922
-5.1921129 55.868996 10.447474
-3.3097992 55.972794 10.466219
-2.2771192 55.879482 10.484172
-1.4806423 62.948105 10.572219
-2.7751052 55.903736 10.466208
-5.7663622 55.680386 10.413229
-5.5805264 55.350651 10.414726
-5.5693607 55.430485 10.421625
-5.572072 55.525143 10.431636
-5.3794045 55.267189 10.402064
-1.7918977 58.053474 10.381574
-5.3870683 55.429928 10.420455
-1.2876668 59.046581 10.502145
-1.1776295 59.503178 10.505144
-1.0773313 59.488106 10.524372
-0.67161512 63.46257 10.400148
-5.0982666 55.849541 10.349469
-3.5686145 55.881142 10.430298
-5.3872843 55.815765 10.376692
-0.67980981 58.760303 10.280703
-1.3472207 58.733078 10.244409
-5.6595254 55.327183 10.454756
-5.7019701 55.248135 10.426887
-5.5629683 55.772781 10.403034
-5.2873654 55.292797 10.452715
-1.248814 59.555309 10.494763
-0.310184 59.512356 10.286657
-1.6349708 63.484703 10.452197
-1.5758069 59.253902 10.40162
-0.76659298 63.552925 10.434747
-5.6055579 55.290512 10.430897
-5.537931 55.650711 10.431812
-1.8983288 59.775253 10.429683
-1.3749567 62.668301 10.386821
-1.7169878 61.347775 10.475685
-1.8314323 55.514488 10.481989
-1.1669415 63.532707 10.414964
-5.3635721 55.48835 10.436471
-2.3580294 55.865765 10.28686
-0.72365403 63.066566 10.482015
-0.76718116 57.548626 10.274796
-0.57257318 57.960781 10.315265
-4.8804102 55.883678 10.419505
-1.2912813 62.797974 10.402722
-0.37447906 59.531307 10.290664
-0.51894808 62.989544 10.459561
-1.1615077 56.998638 10.39881
-0.58128309 58.672634 10.267236
-4.8359065 55.615284 10.286827
-0.57677197 59.463551 10.26288
-0.8781445 63.560005 10.657054
-1.0877182 63.339527 10.635119
-0.83071327 56.013977 10.565363
-1.3818166 59.589722 10.260035
-0.71677446 55.994274 10.60763
-0.78540134 63.336227 10.661564
-0.76775098 59.535385 10.277081
-1.86453 59.304955 10.428684
-0.0024819374 55.39883 10.729041
0.022736788 55.301357 10.762668
0.023543358 58.280811 10.606769
-0.74297857 63.121109 10.558048
0.22155237 55.68504 10.769712
