# .PCD v0.7 - Point Cloud Data file format
VERSION 0.7
FIELDS x y z
SIZE 4 4 4
TYPE F F F
COUNT 1 1 1
WIDTH 567
HEIGHT 1
VIEWPOINT 0 0 0 1 0 0 0
POINTS 567
DATA ascii
-4.8205175 45.176018 -0.95520908
-4.8173423 45.128227 -0.98736995
-4.8564839 45.171055 -1.1071494
-6.2375669 45.530327 -1.304106
-6.128531 45.567608 -1.2721598
-4.8497777 45.645813 -1.0702096
-6.1129408 45.931778 -1.2321446
-5.9802055 45.973579 -1.2899607
-5.9999599 46.142403 -1.0477515
-5.9901085 46.08585 -1.1336755
-5.3976274 46.236336 -1.2067668
-5.6406369 46.195129 -1.2516012
-6.2301569 46.05183 -1.1835526
-6.2218752 46.140625 -1.1092927
-5.4565768 46.382668 -1.1959927
-5.4455886 46.474247 -1.2276617
-5.2642226 46.492512 -1.2047913
-4.8982754 46.176235 -1.0721937
-5.5544395 46.329247 -1.2545962
-5.9870834 46.028011 -1.2082533
-6.1623845 46.181015 -1.1066239
-5.6083455 46.025349 -1.1053597
-5.0491891 46.216225 -1.1548394
-5.460361 46.40234 -1.2254164
-5.0475526 46.263988 -1.036227
-5.7115898 45.908241 -1.2110087
-4.9062691 46.289078 -0.97646493
-5.2176156 46.174053 -1.0045795
-4.8184862 45.388382 -0.74489957
-5.5651493 44.233257 -1.3184121
-6.0115528 44.694916 -1.2395377
-5.6308036 46.175938 -1.1614621
-6.0984468 45.678341 -1.2783985
-5.077075 45.511288 -1.0043733
-4.9130988 46.254436 -0.89157224
-5.6511569 45.965019 -1.2151418
-5.3980675 46.30048 -1.1475745
-5.2636781 46.30582 -1.1043496
-6.1918736 45.481091 -1.2206374
-5.613759 46.274364 -1.1558168
-5.0644617 46.222866 -0.99546713
-5.4312158 45.966305 -1.2146406
-4.8135462 46.344894 -0.95045507
-5.3929849 45.417068 -1.0782175
-4.8009987 45.093147 -0.85334742
-5.2246957 45.228107 -1.1868196
-5.1878009 46.245102 -1.0315336
-4.9084773 44.49387 -1.101912
-5.4190292 45.601753 -1.1598128
-5.2222753 46.035034 -1.2318058
-5.5926404 44.531414 -1.2599366
-4.8550091 46.259556 -0.94278443
-5.2046895 45.9193 -1.2329292
-5.3054614 45.120426 -1.23103
-4.7919698 45.182758 -0.82655835
-5.9860716 46.211674 -0.93652773
-5.3830643 45.033241 -1.3591224
-4.7198281 45.18977 -0.81508237
-5.1065555 45.31464 -1.1421878
-5.3177967 45.410191 -1.2698854
-6.0328159 45.284512 -1.2183371
-5.203825 45.494514 -1.0654256
-5.6283746 45.774757 -1.0964137
-5.2197933 45.994972 -1.0766983
-6.1139879 45.786816 -1.2509923
-5.4938664 46.02953 -1.1989592
-5.6893201 45.458706 -1.165347
-4.9658189 45.005802 -1.1108207
-6.3440442 44.37574 -1.4438637
-6.2307119 44.821976 -1.3772482
-4.8515244 45.68671 -1.0121521
-6.0730209 44.686138 -1.282761
-5.0103774 45.613995 -1.1347252
-5.3205605 44.658276 -1.2153251
-5.6022515 44.957073 -1.2008046
-5.454885 44.956253 -1.1640371
-5.1023626 45.75507 -1.1997383
-5.3170118 46.00631 -1.157284
-5.2878933 46.300678 -1.1714845
-5.2222967 46.390984 -1.150597
-5.6235676 45.482533 -1.1796236
-5.3238072 45.55217 -1.2128227
-5.7028012 46.002129 -1.170059
-5.6036091 44.488628 -1.3457199
-4.9063711 45.476196 -0.84972411
-5.1031642 44.910172 -1.1121213
-5.4926376 44.173016 -1.2777781
-4.9987855 45.794178 -1.1322261
-5.900054 45.485489 -1.2356104
-5.2558918 46.363735 -1.0515645
-5.3773274 46.230904 -1.1762817
-5.3348856 46.463905 -1.1274171
-6.0708914 44.458122 -1.4842976
-5.7522869 46.417866 -0.82381779
-5.1829166 45.531437 -1.2032944
-5.3295012 45.520947 -1.1133474
-5.8820381 44.500313 -1.3717823
-5.0046282 44.874485 -1.1879137
-5.3811517 45.487812 -1.1051346
-4.8273783 45.600674 -0.82415527
-6.1582489 44.475109 -1.3415738
-4.9074574 44.879406 -1.0339271
-4.7649751 46.19696 -0.89495307
-5.7581387 46.225159 -0.95235932
-5.7001715 46.153759 -1.0152332
-4.8347235 45.490971 -0.80195779
-5.8941236 45.540195 -1.1219795
-5.8069487 46.132961 -1.0497311
-4.7284279 45.263321 -0.73740077
-4.8349452 44.749344 -1.0572642
-4.7455277 44.698627 -0.95129925
-4.7649932 45.103008 -0.81504297
-5.2850475 44.36618 -1.2679354
-4.8856936 46.172825 -0.8050015
-5.1474156 45.911224 -1.1517438
-6.1042747 45.86174 -1.2080109
-6.191721 44.72715 -1.2759519
-5.2881389 45.835861 -1.1857364
-5.0787292 44.930115 -1.2475741
-5.0016236 46.138824 -0.96844107
-5.8132992 45.478642 -1.1308197
-5.7492886 46.20591 -0.99031937
-5.3052387 46.059425 -1.1265758
-6.2208281 44.631729 -1.2939085
-5.0333705 45.381363 -1.1835227
-5.7331257 46.448059 -0.86210233
-6.2219296 46.037201 -1.1070839
-5.1223989 46.020439 -1.1638862
-5.0900064 45.577736 -0.89083183
-5.7292252 44.725979 -1.2232119
-4.9825854 46.189724 -1.0253239
-5.7866402 44.47472 -1.421784
-5.9945703 44.809082 -1.3410964
-5.3893356 44.870087 -1.290931
-5.2009745 45.324017 -1.2399271
-5.0841026 45.563217 -1.054208
-5.4267268 44.963531 -1.2764934
-5.1421881 46.167343 -1.0091028
-5.175313 45.053791 -1.2153295
-6.0936637 45.489872 -1.227484
-4.9018559 45.683865 -1.0452715
-4.9536839 45.594357 -1.0604084
-5.481339 45.969273 -1.1186409
-5.496418 46.463993 -1.0500075
-5.9255176 45.660015 -1.0988774
-4.9560971 45.157364 -0.86740643
-5.1924138 45.770546 -1.1364685
-5.9843221 46.070892 -1.0819253
-6.3570547 44.263405 -1.4549145
-5.1821733 44.716732 -1.1699064
-4.7943044 45.199059 -0.77873558
-4.8472137 46.44521 -1.0030557
-5.7155266 45.832726 -1.1567739
-4.8401895 45.884457 -0.84922135
-5.8610191 44.556576 -1.2447113
-5.1011333 45.410637 -1.2013596
-5.3697166 44.771027 -1.2521003
-5.3197479 44.516434 -1.1239965
-5.3190498 44.447342 -1.157172
-5.1972561 44.949787 -1.3188354
-5.012311 44.838795 -0.99988157
-4.9127884 44.811962 -0.972525
-6.2752447 44.506512 -1.2995074
-4.9940443 44.767754 -1.1225996
-5.3123422 46.544701 -1.1495748
-5.6979332 44.456387 -1.4178606
-5.8989744 44.448647 -1.3302536
-5.5821424 44.918739 -1.2868025
-5.887537 45.242832 -1.1286968
-4.9081678 44.767048 -1.0697732
-5.6277924 44.780857 -1.2684543
-5.8988461 46.21674 -0.90636986
-5.2854638 45.057652 -1.2270007
-5.320744 44.921101 -1.1688704
-4.7428479 45.431725 -0.9274928
-5.8244987 44.753826 -1.3101343
-5.1733046 45.293526 -1.0415872
-5.4914708 44.911747 -1.3980049
-5.0291333 45.611572 -1.0418425
-5.3099775 45.790817 -1.1053164
-5.2516971 45.075542 -1.273517
-5.9268379 44.692654 -1.3723983
-5.6011906 45.39389 -1.1793355
-5.6083326 44.994717 -1.2417896
-5.1153722 44.766571 -1.2087216
-5.0402226 46.284313 -1.0863525
-5.5112848 44.756336 -1.230572
-5.617682 46.460499 -0.77337015
-5.0309625 44.652843 -1.270061
-5.31427 45.448723 -1.0593393
-5.3152137 45.048351 -1.3061568
-4.7138891 46.070656 -0.83723694
-5.3702011 45.074799 -1.279624
-5.357513 45.228203 -1.2749553
-5.3251624 46.385715 -1.1035211
-5.4018574 46.593113 -1.1492401
-5.0044904 45.212463 -1.1306885
-6.1089497 46.347656 -1.0675581
-5.3297548 44.725727 -1.1906786
-4.8524642 45.270706 -0.96704012
-5.62711 46.382019 -0.7790302
-5.8167939 45.504688 -1.2332197
-6.1097369 44.465122 -1.3914691
-4.9131494 44.762581 -1.1827796
-5.893384 44.646046 -1.2309434
-5.3028002 46.158398 -1.1250427
-5.2514248 46.113991 -1.2050419
-5.3525882 46.079613 -1.0754445
-5.897634 46.16777 -1.0730441
-5.2924805 44.957104 -1.2321268
-5.3505025 45.699787 -1.1650115
-5.1271539 44.82056 -1.1250263
-5.1485019 45.142956 -1.2390164
-4.8417301 45.474621 -0.94421142
-5.4968376 46.214024 -1.1742716
-5.3780289 45.853416 -1.106342
-4.9971824 44.835892 -1.0531034
-5.0144486 45.499321 -0.99346739
-6.0849037 45.489899 -1.2676561
-5.7260737 44.733471 -1.3226672
-5.7380314 44.83107 -1.2799937
-4.7345204 45.913071 -0.84913754
-5.0065298 45.12851 -1.1291165
-5.1042361 45.233898 -1.1488103
-5.1036696 44.349438 -1.2109728
-6.2676096 44.395405 -1.3977587
-5.2456665 45.394485 -1.2031794
-5.83214 44.836079 -1.2917914
-5.8773842 46.383308 -0.88393313
-5.5279346 45.418259 -1.1958693
-5.2055526 45.684238 -1.09361
-6.188169 45.862503 -1.2515885
-5.4274573 46.116196 -1.2072966
-5.0973597 44.837276 -1.2923669
-5.2337508 44.885647 -1.3261473
-5.8818507 46.199165 -1.0103613
-5.8988595 45.764824 -1.2064202
-4.7918515 45.973324 -0.81825858
-5.1336174 44.750111 -1.3104213
-5.5109882 44.990723 -1.2876738
-4.8722482 45.196823 -0.99138439
-5.9203606 44.792999 -1.3122022
-4.908288 44.546383 -1.126165
-5.1066637 44.512524 -1.2121598
-6.0435777 45.205463 -1.1460586
-5.6282558 44.196667 -1.3605684
-5.0336905 44.917126 -1.1620444
-4.9998813 44.484921 -1.2676121
-5.0953627 44.594501 -1.2627048
-4.9258976 44.64484 -1.0578622
-4.9098082 44.791954 -0.87430406
-5.8779573 46.288567 -1.0269161
-5.7042894 46.260391 -1.1007231
-5.1274829 45.720409 -1.1018032
-5.2269716 45.90839 -1.1482612
-5.9879665 46.03611 -1.3133526
-5.3141456 45.713062 -1.2001733
-5.9396315 45.735912 -1.1161259
-5.1088367 44.870274 -1.1940019
-4.928628 45.50425 -0.98536777
-5.4898005 44.851089 -1.2819711
-4.816287 44.847527 -0.98932403
-4.7604856 44.810925 -0.93444157
-5.9435353 45.909054 -1.1225872
-6.0928802 46.386032 -0.96727413
-5.0860467 44.953457 -1.1852071
-4.9891992 45.02676 -0.95094109
-5.7588263 46.356071 -0.81243545
-5.0155826 44.486462 -1.1985601
-5.2608252 45.354568 -1.217721
-5.9917474 44.380619 -1.3112741
-4.9659219 44.655067 -1.1586869
-4.9320474 44.660538 -1.1369605
-5.1976562 44.505615 -1.350004
-5.1453776 45.246632 -1.2070388
-5.6618748 44.347111 -1.2938986
-5.7894564 45.641167 -1.1030279
-5.1991415 44.55365 -1.2188644
-5.8989763 44.624134 -1.2993164
-6.0840654 44.602367 -1.3242966
-5.7697625 44.660496 -1.2718973
-5.1107659 45.321098 -1.0231665
-5.1496835 45.032574 -1.2883683
-5.1865883 44.371147 -1.3311983
-5.6076488 44.647652 -1.2293175
-5.0061388 44.536579 -1.1201104
-5.6615591 44.546055 -1.4607567
-5.3939848 44.662369 -1.1370445
-4.910399 45.016815 -1.0131298
-4.816597 44.601295 -0.98325771
-5.4926229 45.056759 -1.2460572
-4.99719 44.572403 -1.2208163
-4.8926821 46.08239 -0.92637944
-5.6058769 44.728237 -1.2178949
-4.7163329 44.821289 -1.0187483
-4.8738232 46.173244 -0.87994415
-5.0932608 45.03159 -1.191298
-5.3055849 44.828976 -1.1796414
-5.5998049 44.857422 -1.2760696
-5.2998753 45.233372 -1.161103
-5.4921985 45.216583 -1.2791313
-4.8769631 45.098846 -0.96714532
-5.4937673 45.18441 -1.3067561
-5.4081426 45.422478 -1.2006238
-5.7665992 44.375198 -1.3179321
-4.8179054 46.104095 -0.87527531
-5.4222388 45.327335 -1.1952261
-5.6119418 45.354977 -1.2589025
-5.2308893 46.20105 -1.1247269
-5.112771 45.118073 -1.0888366
-5.2964954 45.131153 -1.1411476
-5.2127466 45.312893 -1.1760992
-5.7576122 44.429722 -1.2031374
-5.5891442 45.138454 -1.2061583
-5.9933043 45.566513 -1.1475422
-5.6097889 45.608494 -1.2104077
-4.7898073 45.305214 -0.8282057
-5.3162441 45.761604 -1.0434761
-5.8871174 45.642265 -1.2111115
-5.7589211 45.65659 -1.1586828
-6.0277987 45.715965 -1.1224399
-6.1018052 45.724182 -1.1369123
-5.6245522 45.675304 -1.1145436
-5.7732224 45.620663 -1.2132968
-5.6256833 45.779419 -1.1721361
-4.9913912 45.708031 -1.0051192
-6.140326 45.665077 -1.1572821
-4.9469695 45.985313 -0.96484846
-4.9082708 45.685284 -1.0080681
-5.9639964 45.629017 -1.12751
-4.8979602 46.02422 -0.84294796
-6.0567818 45.853645 -1.1084778
-4.8909702 45.959343 -0.85998493
-6.2335262 44.766346 -1.313248
-5.5812993 45.572044 -1.0878583
-4.6441536 45.446259 -0.87743551
-5.7601771 46.333527 -0.82619017
-5.7784004 46.113071 -1.1892177
-5.5183201 44.487057 -1.1949921
-4.7030044 44.981247 -0.90824252
-6.196341 45.76004 -1.1545575
-6.1182055 44.352062 -1.3883191
-5.5036631 45.300728 -1.1611786
-5.1452513 44.660225 -1.1789194
-5.4032645 45.472141 -1.1890935
-4.8888326 44.971119 -0.90496337
-5.2234402 44.565636 -1.3257477
-5.4099178 44.542976 -1.2930871
-5.3071022 44.531944 -1.327911
-5.8036804 44.633484 -1.1785963
-5.2022405 44.691338 -1.2906712
-5.7222142 44.659111 -1.2660707
-4.9387832 44.652897 -1.2117376
-4.796186 44.64687 -1.0749696
-5.3311286 44.541653 -1.2274841
-5.7836599 44.824543 -1.2965733
-5.2196217 45.014297 -1.1144363
-5.2792234 44.977573 -1.3092325
-5.4009004 45.168041 -1.2500094
-5.4155922 45.236038 -1.2390385
-5.5864511 44.922691 -1.3268056
-5.785676 45.38319 -1.22922
-5.3140531 45.328484 -1.1516238
-5.0882668 45.399853 -1.1158216
-4.9223995 45.320404 -0.94110006
-5.7855949 45.513485 -1.2921309
-5.2596107 45.388908 -1.1692286
-4.9410014 45.369965 -1.0852387
-6.2095757 44.707649 -1.3765239
-5.524725 45.644581 -1.11736
-5.0766354 45.527573 -1.0842417
-5.7025113 45.591602 -1.1829798
-5.0191278 45.519798 -1.0832747
-4.7309642 45.547768 -0.84822464
-5.4379444 45.712921 -1.178099
-5.9043422 45.725407 -1.2510052
-5.9990625 45.707405 -1.281819
-5.5712628 44.352367 -1.4248924
-5.7491055 45.814095 -1.2029192
-6.0943761 46.050793 -1.0480239
-6.1206212 45.842789 -1.1690077
-5.3041282 45.929813 -1.1924511
-6.038888 45.949711 -1.1097357
-6.1992035 45.817982 -1.1673896
-5.9238811 46.009449 -1.0769345
-5.8049421 45.916191 -1.2239627
-4.8037238 46.079121 -0.82142717
-5.0249944 46.065353 -0.94636911
-5.3968248 46.111347 -1.0924011
-5.951438 45.856476 -1.2586039
-5.3838868 46.029522 -1.2396209
-5.2852383 45.979427 -1.2597033
-5.2100205 44.979492 -1.2573098
-5.6734595 46.089855 -1.1787798
-5.3039551 46.091309 -1.2225226
-6.0217652 46.253002 -1.0811149
-5.8481846 46.00489 -1.0755693
-5.8001704 46.321949 -0.94236809
-5.2949457 46.275097 -1.0316495
-5.0782161 46.258072 -0.98116964
-5.1963716 46.187378 -1.1761122
-5.9767232 46.274075 -1.0541228
-5.8971305 46.070499 -1.102089
-5.9161282 46.045975 -1.2537805
-5.2754121 46.193913 -1.1961029
-5.0649238 46.198566 -1.1133913
-5.1069393 46.352974 -0.94265878
-5.1399112 46.287918 -1.1297125
-5.9034925 46.234241 -1.1060973
-5.2317085 46.411324 -0.99939257
-5.0905013 46.362976 -1.0149715
-5.4284754 46.379852 -1.1302991
-5.0028954 46.374073 -0.99607408
-5.4585128 46.388115 -1.1365705
-6.0979319 44.571163 -1.3766824
-5.4437132 46.455887 -1.100553
-4.9110479 46.34766 -0.95683163
-4.9874811 46.455463 -0.97131979
-6.2765961 44.232491 -1.4722786
-5.394218 44.498775 -1.3712509
-4.9051781 46.457726 -0.96451241
-5.4890218 44.674206 -1.3678309
-5.3982801 44.804646 -1.2229676
-6.2230082 45.572399 -1.2188559
-5.4622717 46.153896 -1.2332839
-4.9378262 44.567139 -1.2178743
-5.3897743 44.341881 -1.2334878
-4.9983635 45.279232 -1.0220252
-5.3890162 45.770065 -1.1958041
-5.3049574 44.622875 -1.3085296
-5.8740425 44.408661 -1.2552612
-5.0209665 45.307545 -1.1067532
-5.4868073 44.069588 -1.3034726
-6.1871295 45.925575 -1.1346056
-5.2889729 46.453468 -1.0376418
-5.3225498 45.392048 -1.0980766
-5.2649531 45.303848 -1.0828701
-5.5089188 44.982044 -1.2802216
-5.6706662 45.399559 -1.2148346
-5.1596031 44.766441 -1.3153765
-4.8301663 45.360477 -0.83424467
-5.4606538 45.371056 -1.1065257
-5.4303408 45.316345 -1.1321563
-5.2643051 45.215328 -1.054521
-5.2315073 45.626297 -1.0473909
-4.7912669 45.60387 -0.85448414
-5.8962665 45.531521 -1.323066
-6.0084763 46.144741 -1.250737
-5.8471389 44.617233 -1.3471835
-4.9522181 44.812626 -1.1389028
-5.1232853 44.651466 -1.3231118
-4.9027967 45.783394 -1.0387523
-4.9852109 45.096848 -1.0161031
-5.7002163 44.912586 -1.259775
-5.1823134 45.228878 -1.0979159
-6.1739197 44.218693 -1.4454266
-5.8252788 46.020367 -1.2121003
-6.0349793 44.605083 -1.2893307
-5.8983078 46.16412 -1.1927214
-5.5298309 45.720081 -1.1795641
-4.9756184 45.228184 -1.0223708
-5.7281613 44.442364 -1.2880017
-5.4944634 45.785942 -1.21624
-6.0160456 44.629223 -1.3922833
-5.7937002 44.682598 -1.2452514
-5.7975645 45.721607 -1.2448117
-5.6549444 44.460278 -1.2573789
-5.7373676 46.033215 -1.2561901
-6.2577262 44.646729 -1.3005198
-5.7097473 45.728737 -1.215071
-5.9972701 45.80249 -1.2575898
-4.8868728 45.66188 -1.0874826
-6.0212092 45.776077 -1.2389383
-6.0051937 45.584042 -1.2449193
-5.6071892 45.693741 -1.1960605
-5.3845496 45.855503 -1.1810611
-5.8426714 45.832569 -1.2448006
-4.9278893 45.908855 -1.0412574
-5.1616707 46.248825 -1.1550676
-6.0130682 44.728687 -1.3299866
-5.0630641 45.196564 -1.0774796
-6.1808362 45.577366 -1.3101115
-5.5923448 44.660725 -1.2705959
-5.8733206 46.586952 -0.89001745
-5.7805119 45.549652 -1.0946189
-5.0349255 45.397148 -1.0099354
-5.4944358 45.13097 -1.1749253
-5.698071 45.498047 -1.2579532
-5.4647379 45.24049 -1.1903615
-5.2169256 45.184937 -1.0091639
-5.8768482 44.658405 -1.3485545
-5.2127485 46.095387 -1.1107277
-5.8566647 46.479038 -0.86454529
-6.0999403 45.856956 -1.3161253
-6.1318107 44.655266 -1.2868993
-5.2915754 45.622753 -1.1217678
-5.5420814 44.944099 -1.226198
-6.0147734 45.893093 -1.2659518
-5.5857439 45.912479 -1.1825461
-5.6701574 44.648746 -1.3216624
-6.0447516 46.446388 -0.92253554
-5.4277797 44.62038 -1.2666218
-5.402926 45.220081 -1.1191757
-5.872798 45.576454 -1.2104192
-4.8129616 44.457523 -1.1083901
-5.4451461 45.471676 -1.2742095
-6.1149769 45.573776 -1.1796172
-4.7925687 45.01635 -0.88983816
-5.8861885 46.288956 -0.87322432
-5.8543181 44.534199 -1.3768594
-5.6704998 44.545479 -1.3341304
-5.4821744 44.557827 -1.3338807
-6.0495615 44.549923 -1.4403182
-5.9475789 44.350166 -1.4844544
-5.6043153 44.379147 -1.3781294
-5.1796656 45.788067 -1.2225279
-6.0829811 46.186459 -0.97588438
-6.0026488 46.325184 -0.9192524
-5.1320915 45.818752 -1.2142849
-5.1299739 45.160225 -1.1545286
-4.798996 44.893311 -0.82059598
-5.5245943 45.623501 -1.1660731
-4.7932663 44.783245 -0.89566648
-5.213007 45.166653 -1.2167968
-5.1991248 46.478401 -1.1217829
-5.9883466 46.127323 -1.1337384
-5.5808635 45.506725 -1.2218692
-5.201767 46.525227 -0.9871788
-5.8130426 44.343395 -1.4486028
-5.2417831 45.138142 -1.1091533
-5.1898594 45.604 -1.1841946
-5.458909 44.869621 -1.3234302
-5.7377586 46.476089 -0.79277176
-5.5358171 44.729248 -1.3299903
-5.259027 44.860935 -1.2413549
-5.158987 44.896515 -1.2534339
-4.9349108 46.338028 -0.87585747
-5.1987643 44.782013 -1.2667422
-5.010994 44.723904 -1.2587709
-5.506938 45.486378 -1.2274841
-5.7650986 44.331223 -1.5138386
-5.7660956 44.479465 -1.2764051
-4.9551511 44.986088 -1.1015186
-5.8830729 44.450256 -1.4644258
-4.7872972 44.915077 -0.93344826
-5.3019533 44.680351 -1.3685206
-5.7902036 44.933838 -1.2742974
-6.1127529 46.136963 -1.1630403
-5.9162779 44.913197 -1.3183069
-5.4149709 45.560642 -1.0788741
-5.3378172 46.396263 -1.2583719
-5.4679995 45.935379 -1.2065316
-4.8708863 45.575871 -0.89876592
-5.5228858 46.092323 -1.2111789
-5.2365828 45.96069 -1.1230495
-5.1053677 46.092392 -1.0691981
-5.9441967 45.427921 -1.2208009
-5.7687216 44.578682 -1.2981448
-4.996408 46.009884 -1.0799408
-5.9020429 46.113853 -1.0236647
-5.3089824 45.010887 -1.166165
-5.4013109 44.432274 -1.2600965
-4.9053369 45.244892 -1.0647875
-5.2279253 45.601978 -1.0918672
-4.9734159 45.094593 -0.96424025
-5.8842592 44.528233 -1.4089493
-4.9043536 46.546654 -0.93907934
