# .PCD v0.7 - Point Cloud Data file format
VERSION 0.7
FIELDS x y z
SIZE 4 4 4
TYPE F F F
COUNT 1 1 1
WIDTH 670
HEIGHT 1
VIEWPOINT 0 0 0 1 0 0 0
POINTS 670
DATA ascii
39.31374 -25.132162 -16.991468
41.928562 -25.448668 -17.230963
41.808777 -25.432211 -17.213129
42.332893 -25.744612 -17.446014
40.899376 -25.590565 -17.279106
40.918423 -25.310719 -17.16087
40.774914 -25.497498 -17.302681
39.218338 -25.234755 -17.244143
38.946869 -25.210949 -17.197992
38.75354 -25.367682 -17.218739
39.318489 -25.710756 -17.23844
39.732571 -25.238911 -17.347429
38.679924 -25.792412 -17.227865
41.76741 -25.724821 -17.465204
38.96262 -25.440228 -17.113314
41.717564 -25.728271 -17.495438
38.891148 -25.712362 -17.127369
39.165535 -25.326624 -17.022213
40.00185 -25.674845 -17.259222
40.30463 -25.722668 -17.364183
38.903778 -25.782248 -17.25843
39.537163 -25.510059 -17.224081
39.660988 -25.222214 -17.115496
38.416092 -25.259901 -16.988523
38.382057 -25.400608 -16.995926
39.074692 -25.227432 -17.048317
39.465305 -25.21026 -17.083437
38.39492 -25.470493 -17.048662
38.983627 -25.213852 -17.047657
38.891506 -25.640921 -17.260046
43.384048 -25.279642 -17.664049
41.001415 -25.36294 -17.522701
41.779324 -25.256218 -17.52318
42.061104 -25.291355 -17.555414
40.396942 -25.318369 -17.46459
41.404705 -25.314186 -17.528931
39.424835 -25.219036 -17.295654
41.049419 -25.508619 -17.373081
42.276012 -25.366543 -17.363533
42.587154 -25.124699 -17.295938
39.126884 -25.666439 -17.206196
40.119289 -25.288782 -17.045521
41.13699 -25.391499 -17.153412
41.465237 -25.488026 -17.22533
39.769802 -25.523996 -17.123119
41.453518 -25.582281 -17.272369
41.442715 -25.604073 -17.330967
40.098721 -25.62632 -17.221922
41.610596 -25.141735 -17.181795
41.24408 -25.376497 -17.251287
42.600971 -25.456474 -17.418156
42.231018 -25.610514 -17.422421
39.812435 -25.291468 -17.190592
40.785885 -25.184582 -17.172388
38.363976 -25.571243 -17.097925
37.957901 -25.612995 -17.284559
39.579506 -25.230795 -17.315392
40.730247 -25.361948 -17.514946
42.813953 -25.08457 -17.368368
41.089813 -25.223021 -17.331789
38.377323 -25.461218 -17.144539
39.898895 -25.471575 -17.403568
40.020374 -25.794453 -17.231806
41.083069 -25.398645 -17.224598
40.01947 -25.57156 -17.160656
40.494919 -25.28657 -17.24645
42.161613 -25.683533 -17.468548
42.789371 -25.388523 -17.609682
42.30584 -25.209476 -17.565908
40.37928 -25.565376 -17.353039
40.58432 -25.3251 -17.469906
41.786537 -25.380993 -17.496069
40.492542 -25.432426 -17.355814
43.283806 -25.307692 -17.572176
40.791058 -25.383213 -17.416887
40.590908 -25.588493 -17.369009
42.688969 -25.379772 -17.584021
41.498341 -25.691851 -17.436163
40.543209 -25.69689 -17.345209
40.738346 -25.419914 -17.232018
40.744694 -25.654137 -17.319721
41.179344 -25.695652 -17.372074
41.098656 -25.283058 -17.289101
42.109825 -25.448545 -17.364323
40.166904 -25.491772 -17.253798
41.617298 -25.708319 -17.462158
41.396599 -25.627871 -17.358812
40.413929 -25.631638 -17.277592
40.909428 -25.211802 -17.193014
40.899632 -25.646112 -17.321106
40.081852 -25.477959 -17.212637
42.014812 -25.695648 -17.453493
40.070137 -25.741451 -17.325548
41.426403 -25.311821 -17.237083
41.686295 -25.778517 -17.408445
41.694241 -25.309446 -17.428162
40.202057 -25.445099 -17.437737
39.596375 -25.573627 -17.286236
40.649231 -25.652517 -17.340612
39.780331 -25.361511 -17.228958
41.101875 -25.640707 -17.336924
39.800583 -25.57637 -17.297468
41.660988 -25.492544 -17.404362
42.449589 -25.556332 -17.363993
41.012161 -25.281435 -17.278717
39.883842 -25.574562 -17.311092
41.052856 -25.287605 -17.166454
40.133301 -25.764431 -17.237047
40.993492 -25.3797 -17.428247
40.594666 -25.292442 -17.133047
40.424774 -25.251045 -17.162384
42.994152 -25.303741 -17.553179
40.949306 -25.634436 -17.320004
39.799122 -25.507183 -17.333832
41.801418 -25.196676 -17.269226
41.850468 -25.452572 -17.305222
40.880219 -25.520353 -17.340235
40.488747 -25.376177 -17.375557
39.996094 -25.297033 -17.196606
39.999958 -25.574875 -17.312382
42.339417 -25.599834 -17.368805
42.304401 -25.226881 -17.318741
39.596424 -25.209068 -17.085613
42.597355 -25.28656 -17.424032
41.382755 -25.573318 -17.454174
40.497612 -25.584692 -17.36693
40.987873 -25.568804 -17.41127
41.692314 -25.577412 -17.478577
40.095783 -25.574606 -17.343271
40.70787 -25.525311 -17.311178
41.028091 -25.497326 -17.349838
41.292 -25.431421 -17.426279
40.786949 -25.574427 -17.390968
42.786484 -25.442026 -17.546516
40.192684 -25.571161 -17.335686
39.389664 -25.57119 -17.265785
39.993679 -25.348278 -17.254253
41.090012 -25.355925 -17.354332
40.292812 -25.355635 -17.28253
42.20705 -25.495201 -17.4566
41.386726 -25.492548 -17.380846
40.189362 -25.432255 -17.326944
39.597534 -25.360041 -17.208591
39.097404 -25.449909 -17.218609
39.389763 -25.227459 -17.165634
42.595863 -25.436562 -17.530474
39.600048 -25.299095 -17.16363
39.635895 -25.498188 -17.111574
42.492191 -25.28973 -17.416937
38.879364 -25.837278 -17.350151
38.667942 -25.827318 -17.27755
42.419079 -25.505461 -17.471832
42.110153 -25.229792 -17.317028
43.166275 -25.363447 -17.619097
42.10791 -25.490635 -17.426426
40.486523 -25.354139 -17.30448
40.056629 -25.393311 -17.171316
40.259499 -25.407257 -17.197435
42.632275 -25.559561 -17.42487
40.704361 -25.28874 -17.265512
41.097187 -25.191048 -17.231516
39.990162 -25.19437 -17.113226
42.186531 -25.200462 -17.333035
40.586605 -25.218756 -17.178329
40.703903 -25.204004 -17.190559
39.583729 -25.249943 -17.005642
39.264103 -25.182739 -17.047215
39.381023 -25.207649 -17.037491
42.690002 -25.30921 -17.51755
40.069706 -25.344822 -17.094549
38.87439 -25.298925 -16.948885
39.79007 -25.217577 -17.210773
40.601097 -25.510273 -17.316351
40.511971 -25.504299 -17.290415
39.385284 -25.171638 -17.013203
42.090733 -25.703436 -17.445707
40.090221 -25.365807 -17.26071
39.494164 -25.43936 -17.248491
39.19754 -25.364706 -17.161844
38.895287 -25.312298 -17.187176
39.989552 -25.430939 -17.306133
40.288235 -25.375338 -17.360392
39.176601 -25.597567 -17.312733
39.997036 -25.635317 -17.374842
39.98983 -25.518492 -17.35817
40.789261 -25.314823 -17.351748
38.77306 -25.217453 -17.122404
40.091866 -25.435371 -17.313608
39.695747 -25.31152 -17.256824
40.185104 -25.729349 -17.303026
39.790684 -25.299356 -17.273882
39.695873 -25.437853 -17.270081
38.812824 -25.529455 -17.249266
39.189106 -25.570763 -17.240744
39.29089 -25.229895 -17.159475
39.081654 -25.562012 -17.223684
39.687004 -25.360563 -17.221714
40.890209 -25.357401 -17.344028
39.686436 -25.572935 -17.292841
39.692322 -25.13496 -17.14777
42.587879 -25.30756 -17.511602
41.595921 -25.311049 -17.421444
38.699287 -25.199629 -17.120344
39.985199 -25.300995 -17.283779
39.988476 -25.214437 -17.23238
41.795265 -25.4468 -17.566236
38.699646 -25.537647 -17.244959
42.090691 -25.305428 -17.465078
42.289337 -25.309343 -17.489363
40.188759 -25.520744 -17.37631
38.906693 -25.443727 -17.190578
39.003857 -25.439653 -17.205978
39.792328 -25.428169 -17.282166
40.693233 -25.428274 -17.371824
40.294128 -25.636549 -17.404062
40.291409 -25.314205 -17.315866
39.790993 -25.601973 -17.396267
38.555325 -25.391304 -17.2075
39.694809 -25.52499 -17.324297
38.629581 -25.414858 -17.172632
39.688965 -25.598799 -17.377075
38.404152 -25.402374 -17.214783
39.702579 -25.376396 -17.323185
40.992439 -25.309397 -17.366953
39.185925 -25.442696 -17.220608
39.387932 -25.535179 -17.293272
40.587872 -25.37709 -17.382511
39.894047 -25.433537 -17.297951
41.289066 -25.312021 -17.394579
42.189365 -25.379044 -17.526907
39.595333 -25.221418 -17.188478
41.888535 -25.381927 -17.502707
42.693218 -25.355988 -17.488058
40.092686 -25.520021 -17.364595
38.86517 -25.379333 -17.226105
38.9921 -25.235294 -17.125408
42.358582 -25.422596 -17.375105
42.802319 -25.494158 -17.497967
40.287674 -25.571037 -17.355162
38.994759 -25.500435 -17.167879
38.981354 -25.365606 -17.144682
38.994621 -25.628401 -17.259153
40.297104 -25.433323 -17.336567
39.096973 -25.347219 -17.15048
39.598396 -25.441216 -17.260647
40.881783 -25.380686 -17.409178
42.500267 -25.374174 -17.667385
39.901012 -25.321321 -17.407228
39.891953 -25.516396 -17.347988
40.496712 -25.517693 -17.40089
39.490734 -25.384649 -17.308788
42.991405 -25.207138 -17.397173
39.488831 -25.225889 -17.181112
40.397148 -25.505392 -17.281
39.090729 -25.308744 -17.193228
38.598339 -25.514311 -17.230728
40.700081 -25.565693 -17.383715
40.69014 -25.518089 -17.416031
39.395451 -25.434448 -17.250704
40.695332 -25.312172 -17.341814
41.888569 -25.520731 -17.519268
41.288521 -25.374184 -17.449598
39.212605 -25.371046 -17.235292
39.129036 -25.409323 -17.259806
42.495808 -25.313044 -17.502758
40.293167 -25.516512 -17.383955
40.191879 -25.304888 -17.299297
40.592583 -25.518095 -17.409693
39.112751 -25.624918 -17.267347
38.8083 -25.587191 -17.193743
38.894295 -25.140005 -17.052864
40.889854 -25.428391 -17.38954
41.685925 -25.389896 -17.493736
39.891994 -25.358868 -17.238899
39.899902 -25.300348 -17.277863
41.089989 -25.382565 -17.434206
39.596645 -25.304787 -17.252632
40.987732 -25.429277 -17.397909
40.188793 -25.287489 -17.208801
38.830917 -25.375507 -17.191614
42.781288 -25.252586 -17.580282
41.672745 -25.247782 -17.491888
42.586185 -25.350946 -17.324594
40.586876 -25.26442 -17.230562
39.296146 -25.592178 -17.331497
38.992107 -25.141123 -17.06233
39.595406 -25.607517 -17.371288
40.697895 -25.35129 -17.323151
39.074665 -25.353182 -17.007368
40.493126 -25.310682 -17.324865
39.497589 -25.145479 -17.130924
39.761608 -25.691452 -17.237068
39.388897 -25.148281 -17.124382
39.086456 -25.151278 -17.086052
42.890789 -25.435116 -17.553526
39.619068 -25.355835 -17.094294
42.096939 -25.386745 -17.528509
41.390244 -25.428169 -17.435564
41.559937 -25.333677 -17.55588
39.89032 -25.637423 -17.369621
42.358974 -25.69766 -17.466654
39.49585 -25.637787 -17.323248
39.308979 -25.364037 -17.170681
42.263382 -25.342649 -17.28591
42.289951 -25.521467 -17.558054
41.090691 -25.307079 -17.375986
41.193096 -25.311943 -17.388765
40.691898 -25.221516 -17.294249
40.392742 -25.359049 -17.288237
42.488983 -25.478518 -17.462393
41.89016 -25.143044 -17.356133
41.191727 -25.357172 -17.371614
42.183861 -25.519651 -17.546835
41.408108 -25.437376 -17.299969
40.794971 -25.35747 -17.331619
40.089279 -25.303904 -17.289787
41.588036 -25.522127 -17.495174
41.37421 -25.690731 -17.401703
41.187691 -25.576591 -17.42906
42.695435 -25.286024 -17.424601
42.388885 -25.222685 -17.441801
38.896011 -25.508329 -17.279121
42.087448 -25.520693 -17.540655
41.991444 -25.35183 -17.430443
41.092079 -25.569662 -17.426252
40.881413 -25.56078 -17.401611
42.592403 -25.223866 -17.457558
39.312088 -25.310133 -17.218975
42.386326 -25.434866 -17.51145
40.980888 -25.357462 -17.347292
41.601234 -25.49872 -17.38806
40.298569 -25.453838 -17.42205
38.255341 -25.516083 -17.185568
39.888084 -25.215218 -17.220621
41.223167 -25.211184 -17.254448
39.091713 -25.218861 -17.134323
39.007328 -25.509848 -17.255707
38.239204 -25.432262 -16.983395
41.967808 -25.21468 -17.294529
41.391014 -25.383537 -17.460323
42.595322 -25.353041 -17.482126
41.190319 -25.431183 -17.41329
41.988243 -25.309774 -17.454365
40.589073 -25.428652 -17.363394
40.590042 -25.220869 -17.288061
41.990875 -25.526787 -17.52985
41.188419 -25.385471 -17.444193
43.08971 -25.231497 -17.495703
42.691971 -25.525318 -17.594599
40.091038 -25.28874 -17.200932
39.200291 -25.283157 -17.120621
42.781651 -25.276937 -17.432701
39.094051 -25.521397 -17.26771
40.888542 -25.520088 -17.43424
39.584034 -25.522394 -17.315914
41.38245 -25.284342 -17.310656
40.019348 -25.33947 -17.078588
39.599598 -25.145571 -17.148212
39.397007 -25.428368 -17.1609
40.188396 -25.354383 -17.272291
41.491886 -25.519537 -17.484568
42.582989 -25.521126 -17.583361
42.785397 -25.306845 -17.534845
40.987087 -25.246052 -17.213921
41.594692 -25.572701 -17.462589
39.291916 -25.444929 -17.220215
42.885422 -25.221771 -17.378029
38.624176 -25.361822 -17.127399
42.988594 -25.225801 -17.48979
41.0919 -25.428247 -17.405453
40.793236 -25.523535 -17.427299
42.99617 -25.286703 -17.460283
39.495468 -25.570353 -17.273535
40.886559 -25.222639 -17.313196
42.293869 -25.358006 -17.459799
42.183163 -25.224073 -17.427019
42.694103 -25.227903 -17.470869
41.781101 -25.274632 -17.341047
39.904648 -25.28451 -17.172024
40.990837 -25.221399 -17.322187
42.10392 -25.26973 -17.371992
39.202847 -25.147152 -17.101227
43.193737 -25.311138 -17.564535
38.726799 -25.276169 -17.063272
40.792168 -25.218851 -17.304052
42.886551 -25.228643 -17.482534
41.790619 -25.521463 -17.513075
42.390797 -25.523605 -17.562643
39.395767 -25.643602 -17.299299
43.083977 -25.303364 -17.553911
39.782227 -25.231646 -17.315556
41.48682 -25.23102 -17.28079
42.386967 -25.303211 -17.48925
42.49242 -25.526188 -17.574764
42.286694 -25.284195 -17.400686
42.289883 -25.38179 -17.548405
38.714935 -25.240162 -17.208384
41.389339 -25.518721 -17.479044
41.893467 -25.224974 -17.401638
41.180313 -25.450542 -17.277737
42.892933 -25.286604 -17.448076
42.39323 -25.148026 -17.399416
42.393372 -25.564384 -17.533037
40.901981 -25.283272 -17.283571
40.990597 -25.518377 -17.440142
42.489082 -25.571474 -17.54624
42.288193 -25.220121 -17.434731
41.398537 -25.22533 -17.228239
40.219406 -25.752745 -17.385771
41.889145 -25.568592 -17.495092
42.28672 -25.14818 -17.388159
42.01683 -25.306166 -17.570551
39.291042 -25.513954 -17.289146
43.486534 -25.352871 -17.533125
41.388805 -25.310284 -17.404894
41.592129 -25.429384 -17.451523
42.484756 -25.14909 -17.407475
41.990219 -25.146914 -17.365902
42.691292 -25.439709 -17.537039
42.003834 -25.288876 -17.374926
41.487953 -25.311819 -17.410536
41.802181 -25.571415 -17.487638
41.191406 -25.523457 -17.462675
42.693455 -25.205286 -17.373545
42.487782 -25.454153 -17.417505
42.393467 -25.379002 -17.563377
42.19249 -25.353355 -17.44648
39.687859 -25.222218 -17.201002
41.931252 -25.633108 -17.37269
42.488323 -25.353561 -17.471766
41.791985 -25.435047 -17.468245
41.292103 -25.278704 -17.303926
41.587978 -25.357346 -17.406435
41.192497 -25.219725 -17.339844
42.101669 -25.571163 -17.50956
41.789806 -25.144854 -17.346567
41.089943 -25.523619 -17.451965
41.894501 -25.286009 -17.361244
41.891422 -25.355551 -17.426485
39.702873 -25.428703 -17.179249
39.495579 -25.52002 -17.303402
38.577385 -25.598484 -17.276985
41.293339 -25.357937 -17.372808
41.718876 -25.423351 -17.354443
41.489155 -25.224697 -17.365217
42.2859 -25.566528 -17.526913
41.688309 -25.222013 -17.383768
41.292084 -25.56278 -17.433079
40.803127 -25.284653 -17.262672
40.982105 -25.578022 -17.276081
41.493229 -25.351831 -17.391001
42.791229 -25.228559 -17.47053
42.593143 -25.149462 -17.414478
39.288803 -25.141392 -17.105898
42.891617 -25.157366 -17.43815
41.692856 -25.283146 -17.333136
42.198643 -25.281252 -17.398069
38.278816 -25.574289 -17.28039
41.292469 -25.522419 -17.470751
41.308338 -25.228043 -17.256336
42.19323 -25.577911 -17.516293
41.396111 -25.355818 -17.38693
41.593563 -25.222269 -17.375475
38.890205 -25.104053 -17.012505
41.991604 -25.222897 -17.412151
42.402782 -25.207266 -17.334433
42.39872 -25.357927 -17.467672
40.889732 -25.311609 -17.359612
40.591045 -25.307957 -17.33256
40.585533 -25.357885 -17.311543
42.565018 -25.206717 -17.362871
41.288574 -25.221741 -17.350124
42.093288 -25.357841 -17.441418
41.390686 -25.222483 -17.356203
39.693893 -25.283186 -17.175615
39.784298 -25.43783 -17.161545
42.088203 -25.221615 -17.418633
42.885223 -25.301352 -17.537926
41.496243 -25.286757 -17.325315
42.398403 -25.277197 -17.408989
41.789936 -25.225742 -17.392971
39.687351 -25.637825 -17.33881
41.494926 -25.561737 -17.449736
41.68877 -25.426199 -17.458879
42.287266 -25.489141 -17.448845
41.495861 -25.498968 -17.39348
41.60183 -25.27482 -17.338573
41.690029 -25.143906 -17.339148
42.191559 -25.147469 -17.384842
41.791019 -25.353502 -17.417994
41.686749 -25.358551 -17.412369
38.575665 -25.302599 -17.160994
41.890377 -25.43354 -17.474424
38.716537 -25.15049 -17.048658
41.989697 -25.577095 -17.500971
41.782326 -25.480539 -17.410831
41.488789 -25.432085 -17.440378
42.094299 -25.43269 -17.493622
40.394993 -25.430267 -17.340281
38.468506 -25.291883 -17.082848
42.485218 -25.434921 -17.51545
42.59177 -25.571844 -17.548002
42.19178 -25.435053 -17.499619
42.29203 -25.433012 -17.506521
42.491035 -25.378757 -17.561934
42.896366 -25.36113 -17.506306
41.816105 -25.422022 -17.325237
43.092186 -25.355122 -17.518991
40.390617 -25.522621 -17.392351
39.187881 -25.522356 -17.27264
41.887497 -25.311859 -17.447645
42.091198 -25.147144 -17.37636
40.794571 -25.434061 -17.382179
38.562355 -25.270733 -16.997749
41.992092 -25.434771 -17.483484
40.395515 -25.381329 -17.36879
38.899609 -25.432486 -17.097658
39.194756 -25.637899 -17.272366
42.483727 -25.231712 -17.362417
41.913036 -25.210833 -17.287243
42.151672 -25.448729 -17.364195
41.688694 -25.521149 -17.506863
38.726974 -25.313461 -17.189598
38.720078 -25.626396 -17.218168
39.589798 -25.640461 -17.331633
39.292789 -25.626131 -17.295626
39.789265 -25.634857 -17.354437
38.60437 -25.656994 -17.170238
40.396927 -25.290854 -17.244888
39.387592 -25.349121 -17.183012
38.789425 -25.657383 -17.250782
38.248421 -25.52746 -17.035627
42.012192 -25.488735 -17.405474
41.593735 -25.451517 -17.546728
42.18541 -25.30513 -17.473486
42.536343 -25.150791 -17.147245
42.372787 -25.455242 -17.631542
42.292892 -25.301414 -17.636497
41.598068 -25.654785 -17.420197
41.288403 -25.501963 -17.381428
41.494411 -25.449228 -17.54368
42.995876 -25.396582 -17.641712
41.992912 -25.385887 -17.518953
41.986416 -25.256138 -17.514009
42.690647 -25.501471 -17.471262
41.177708 -25.488466 -17.347878
42.793915 -25.354038 -17.497372
38.58876 -25.678518 -17.372797
41.589737 -25.378639 -17.479786
38.524632 -25.323225 -17.163818
41.480114 -25.382093 -17.471342
39.379711 -25.287172 -17.145224
38.707466 -25.571136 -17.194475
39.498154 -25.35611 -17.378162
39.519058 -25.473141 -17.362682
39.418915 -25.432898 -17.342194
39.395676 -25.600149 -17.357742
39.988304 -25.38727 -17.351101
40.192627 -25.386787 -17.360891
42.579811 -25.383396 -17.585983
39.715542 -25.436607 -17.379759
41.1049 -25.449625 -17.509232
39.584 -25.378222 -17.312525
41.0009 -25.45039 -17.49251
39.58503 -25.467911 -17.381399
39.18692 -25.300041 -17.194344
39.107502 -25.568064 -17.309732
40.388783 -25.305811 -17.315338
39.001335 -25.586695 -17.312382
39.401871 -25.321331 -17.243549
41.786583 -25.311836 -17.438593
40.096382 -25.38187 -17.350296
39.495277 -25.603951 -17.356308
38.851608 -25.590084 -17.266171
39.298214 -25.274933 -17.110989
39.983189 -25.505888 -17.234957
39.502731 -25.358444 -17.20767
40.396015 -25.460228 -17.428106
39.127769 -25.484686 -17.17284
39.299088 -25.576176 -17.251947
39.810669 -25.498062 -17.217674
38.780914 -25.502533 -17.123791
38.817493 -25.206839 -17.030813
39.197968 -25.48712 -17.174086
39.796947 -25.21842 -17.139076
40.283142 -25.279667 -17.220148
38.813828 -25.641745 -17.162523
41.215515 -25.298265 -17.31041
43.193676 -25.354269 -17.516068
38.302345 -25.355936 -17.108152
38.702587 -25.417862 -17.136171
40.687035 -25.379082 -17.38685
39.498047 -25.308083 -17.23658
39.387463 -25.39863 -17.288076
40.484695 -25.457535 -17.445328
38.549992 -25.231224 -17.094597
38.788921 -25.59079 -17.296463
39.202667 -25.221247 -17.145901
42.309242 -25.139105 -17.261074
38.897392 -25.365519 -17.113781
38.4034 -25.599548 -17.235888
38.435677 -25.311615 -17.106817
38.377712 -25.497671 -17.20343
38.617912 -25.715143 -17.289419
40.085655 -25.463966 -17.411926
38.890259 -25.570906 -17.200819
39.575275 -25.479021 -17.216593
39.497547 -25.296368 -17.148773
42.804329 -25.15181 -17.320757
41.0495 -25.308517 -17.495365
38.89925 -25.23086 -17.108406
38.805256 -25.130131 -17.058327
38.965511 -25.411911 -17.263004
38.907017 -25.286436 -17.073887
38.295132 -25.434738 -17.137163
39.588081 -25.336544 -17.372492
40.223633 -25.398642 -17.183908
38.992527 -25.305939 -17.177483
38.507004 -25.573687 -17.20636
39.977654 -25.451241 -17.383018
39.796726 -25.45632 -17.389603
38.478294 -25.457756 -17.184414
38.462158 -25.560377 -17.226484
38.525394 -25.347677 -17.141172
39.890118 -25.382898 -17.3372
38.820004 -25.341211 -17.096823
39.388443 -25.47854 -17.184706
41.160038 -25.438152 -17.495041
42.803917 -25.204023 -17.392405
39.80637 -25.381504 -17.323673
39.300842 -25.390869 -17.255531
38.913906 -25.208723 -17.027428
38.475822 -25.729322 -17.318207
38.68729 -25.668922 -17.321129
38.793507 -25.683775 -17.36809
38.729794 -25.896482 -17.362898
38.779957 -25.709486 -17.329893
38.704308 -25.796686 -17.341534
38.715721 -25.735634 -17.322062
38.58392 -25.728846 -17.410797
38.467495 -25.690977 -17.337337
39.664345 -25.756432 -17.312704
38.595188 -25.865734 -17.368792
38.807774 -25.792551 -17.353085
38.987976 -25.587355 -17.217459
38.88726 -25.729452 -17.342175
38.995907 -25.726011 -17.328718
38.395691 -25.369642 -17.118214
38.188431 -25.53821 -17.021561
38.694679 -25.365633 -17.092342
38.708885 -25.219156 -17.031195
42.883434 -25.128559 -17.314779
42.596909 -25.522793 -17.501328
39.179108 -25.218801 -17.062946
38.823002 -25.162519 -16.946568
38.527481 -25.478582 -17.056534
38.195805 -25.600157 -17.044205
38.919891 -25.524357 -17.147869
39.290058 -25.490614 -17.188072
39.095688 -25.310486 -17.099447
39.002186 -25.282738 -17.085449
38.703724 -25.503134 -17.130314
38.897354 -25.637308 -17.354584
39.99818 -25.326056 -17.433844
39.709209 -25.51005 -17.258095
41.993904 -25.095037 -17.312382
41.782265 -25.095812 -17.285076
41.892338 -25.083992 -17.287222
42.095001 -25.0847 -17.309896
41.863159 -25.494558 -17.422232
