# .PCD v0.7 - Point Cloud Data file format
VERSION 0.7
FIELDS x y z
SIZE 4 4 4
TYPE F F F
COUNT 1 1 1
WIDTH 1613
HEIGHT 1
VIEWPOINT 0 0 0 1 0 0 0
POINTS 1613
DATA ascii
8.4473886 4.9252958 9.6725502
8.6380949 4.5600433 9.6144314
8.9256449 8.8968487 9.8316088
8.9463139 5.8208051 9.6987
9.0031328 8.9006605 9.8354321
8.9916582 8.8558941 9.8392897
8.9030352 7.0733304 9.7594891
8.9958715 6.7922015 9.746562
8.976613 6.7004404 9.7382469
8.6361589 11.711291 9.9415731
8.707818 11.572353 9.9510183
8.1375456 8.5339088 9.8411016
8.4443293 7.0679326 9.7554321
8.6200447 9.1432962 9.8587971
8.3459883 11.917397 10.009205
8.8279724 11.911621 9.9687672
8.528223 11.909482 9.9999657
8.5911293 10.145888 9.9038153
7.9164362 9.8237019 9.9425688
8.1665411 11.404579 9.8612165
8.2369595 8.9285164 9.8969612
8.6364059 8.9469347 9.8636503
8.5034952 8.8663473 9.9237757
8.3391991 11.86625 9.8633871
8.2468805 11.542729 9.8431673
8.1403236 5.4701686 9.6955643
8.1228294 10.316568 9.9737139
7.9631319 7.2497621 9.8519258
8.2547216 11.245201 10.060219
7.9594507 9.9623308 9.8790445
8.3362589 10.628411 9.3426085
7.932025 6.4524989 9.7469749
7.8831167 9.9276934 9.9154654
9.0590324 5.1450596 9.3246346
7.91681 9.5206804 9.9119978
7.8884044 10.057435 9.7832346
8.0281019 9.8943787 9.7409735
8.1044083 10.387464 9.8747988
8.8805294 6.0218821 9.3587742
7.9432845 6.7848287 9.7794542
8.736908 8.9317646 9.8525095
8.242384 6.4260793 9.7166567
8.1471157 8.3977804 9.8796988
8.0584488 8.5872793 9.8155375
8.8278828 7.019536 9.506813
8.0369101 10.948741 9.9834299
8.1380033 11.03886 9.7846003
8.3523827 5.461514 9.5022087
8.2634602 4.8603597 9.4798889
8.3953152 10.755273 7.9582586
7.9772806 8.8706665 9.6609325
8.7761354 12.198451 10.00457
7.8996415 10.116161 9.8718472
8.7533903 5.3273711 9.7264118
8.4396172 6.4104481 9.826376
8.6347866 4.6745906 9.6828308
8.3285656 5.2577906 9.7164469
8.3297482 6.3702588 9.8293877
8.8309317 4.9258132 9.6268368
8.4552441 5.4814663 9.7009354
8.3387012 7.3643918 9.5894804
8.2537403 10.099828 9.9913378
8.5368366 4.9456887 9.6722136
8.3296738 4.728157 9.6823645
8.8266544 4.8753328 9.664607
8.3702784 10.774932 8.0690928
8.8308134 4.7975483 9.6455917
8.7567034 4.9903173 9.6929979
8.7252293 5.1021137 9.6898117
8.8153534 5.2107201 9.6960239
8.634201 6.3730531 9.7780867
8.8078127 5.7357173 9.72334
8.6985044 6.0376678 9.7325611
8.8495436 5.2725854 9.6345921
8.8189659 5.3329325 9.6791954
8.8277855 5.9526501 9.7247124
8.8031979 6.7342043 9.7467899
8.6391916 5.6530795 9.7158623
8.6413851 4.9592872 9.6676149
8.330616 6.848526 9.7582722
8.555171 12.216572 9.9489059
8.2468338 5.0118613 9.5131493
8.5430222 5.2446117 9.696023
8.736433 4.7301755 9.6412058
8.5355492 5.0208077 9.699439
8.2412453 7.3738108 9.6062222
8.7493906 5.741415 9.7346678
8.7270355 4.8072076 9.6559572
8.2392969 4.7073493 9.5013714
8.2564898 5.7697563 9.8049145
8.2586613 5.1119146 9.5230198
8.7183723 5.6412325 9.7269783
8.5264997 4.8146405 9.69382
8.6193771 8.4308939 9.8455973
8.6724358 5.8009934 9.7604618
8.4468803 7.0198078 9.5810938
8.5361958 6.3593764 9.7857924
8.735321 6.5975924 9.7660637
8.1661444 4.8028469 9.484478
8.2462845 4.5967469 9.745244
8.1699104 4.6934071 9.7080164
8.1783104 6.9810386 9.6134911
8.2490931 8.5274534 9.6738958
8.1616611 6.9270864 9.622632
8.6435652 6.0442257 9.7543802
8.2469997 4.6871433 9.6933022
8.5413122 7.4355173 9.8374081
8.1790409 5.0280185 9.512743
8.6319561 5.2558455 9.6874409
8.2550335 5.7704172 9.5344296
8.1582451 6.5383143 9.7518005
8.3441086 5.0180244 9.724782
8.7247725 5.039187 9.6674242
8.3306389 5.6483984 9.7637796
8.3225403 6.3101664 9.7532101
8.7299013 7.1377745 9.7934084
8.7351294 6.4689856 9.7514057
8.260663 4.9047976 9.7595778
8.8039951 5.8418646 9.7314959
8.8259277 6.8818116 9.7707357
8.2591114 6.6355047 9.7686062
8.5657959 5.0221457 9.7362747
8.6362553 7.4329638 9.8229876
8.1261578 9.0115852 9.7681942
8.1389961 7.1198721 9.6279764
8.1569786 5.0601745 9.7485218
8.1608295 5.1859021 9.7915239
8.1298008 5.425334 9.7851725
8.4090595 7.49614 9.8654852
8.2434778 12.34461 10.036074
8.2483015 5.2183261 9.7776012
8.5328836 5.208693 9.7282276
8.1563358 5.1076407 9.567482
8.4389648 4.5975261 9.7051125
8.1603022 4.8806133 9.7941313
8.1494818 6.5022306 9.8412685
8.5136671 10.134464 9.7067785
8.6390104 5.1229844 9.7056265
8.4461489 5.2801833 9.77143
8.2492189 5.0018153 9.7798252
8.2527218 5.1256671 9.7605
8.0371819 8.4277887 9.6466913
8.4387817 5.246736 9.6985321
8.7310658 5.3530984 9.7111158
8.7425461 5.4283504 9.7015657
8.2432356 8.5294485 9.8520517
8.1886072 8.0617104 9.647089
8.1366262 5.1493959 9.4958086
8.6346684 4.632637 9.6342926
8.256382 4.6204405 9.6858416
8.644619 4.7220011 9.65975
8.3412914 4.9339585 9.6892576
8.3371801 5.7803111 9.732604
8.7407112 5.9598303 9.7285624
8.4333048 6.3097725 9.7339802
8.5217056 8.2312012 9.8003864
8.3293352 9.3031425 9.8730736
8.2426434 7.6755619 9.63305
8.1337948 6.296186 9.5492201
8.1726427 8.8081408 9.6865358
8.126543 5.7917862 9.7467184
8.2496614 7.3282351 9.8467665
8.4395018 7.6836295 9.8038769
8.167223 12.073048 9.9381752
8.4539738 5.7859674 9.7115355
8.6276054 7.1285233 9.8042555
8.2321167 12.264032 10.029477
8.0521345 7.3299613 9.6998405
8.5326672 5.1295943 9.7076626
8.3630962 5.1665292 9.4895096
8.7294846 5.2120223 9.6993046
8.8612328 8.3214397 9.8233881
8.6246061 12.26229 9.9028149
8.8114433 6.4279127 9.7124901
8.2434702 8.3125572 9.8804922
8.3488512 11.189474 9.3850441
8.6308384 4.595428 9.673213
8.8197451 4.7145281 9.6276197
8.63902 5.0092053 9.7212696
8.5214005 6.5124817 9.7922201
8.4602566 6.9020166 9.827363
8.7270355 6.8906217 9.788763
8.4498587 5.0459342 9.7113972
8.8155441 5.1359496 9.6784277
8.646122 5.2128634 9.7172499
8.729105 6.2815933 9.7426748
8.7312441 6.3609948 9.7559862
8.641017 6.5065193 9.7722092
8.8296585 6.5995469 9.7645302
8.7422352 6.7969217 9.7737627
8.892499 9.9183588 9.9288855
8.6270199 4.8098631 9.6805849
8.839323 4.9967175 9.6866608
8.3399963 8.0879974 9.8583689
8.7452812 7.7042131 9.7867632
8.6142435 9.3689613 9.8686132
8.2360229 7.9834685 9.6475315
8.2758169 4.8145537 9.5052471
8.4432907 9.3695316 9.8892641
8.531868 4.7134466 9.6672678
8.7463408 6.1852117 9.7267113
8.4395103 10.218884 9.9274712
8.426652 5.7505136 9.761404
8.5274115 12.159114 9.8512096
8.3840485 10.80725 7.7432075
8.6491413 9.9951239 9.9065275
8.4242449 12.283586 10.012094
8.3358383 10.169334 9.7800589
8.2395697 6.303102 9.5628052
8.582468 10.798441 10.004204
8.0785675 10.58104 9.7572613
8.7388525 9.1317444 9.8740625
8.6069708 6.4194198 9.8287125
8.6656199 9.41714 9.9306564
8.6568384 10.483727 9.9792738
8.8472347 8.7873173 9.8680582
8.7401962 10.488744 9.9535179
8.7216139 7.3277178 9.7978935
8.7063761 7.4095297 9.8186426
8.4827023 10.275119 9.9972582
8.2985191 8.2554636 9.7204142
8.5132885 10.286396 10.009781
8.8010082 10.655006 9.986475
8.3285732 11.030701 10.05049
8.4659853 11.86502 10.077859
8.1221657 11.084815 9.8618059
8.1738396 5.1537738 9.698081
8.7363491 8.418478 9.828661
8.3448658 8.5284138 9.8510284
8.2667122 7.6040201 9.5815182
8.2548389 5.6851149 9.49928
8.5379543 5.3380866 9.7147436
8.7356071 8.5269175 9.8011599
8.4347878 9.5986853 9.8817854
8.4415131 11.674603 10.015604
8.2410765 9.6657562 9.7278671
8.2814331 8.3897009 9.6600075
8.6272888 7.7750945 9.8032637
8.4355001 8.3898535 9.8619938
8.3235846 9.4631863 9.927928
8.7353287 11.049619 9.9428444
8.3462124 11.467111 10.039555
8.3167095 11.597649 9.8180771
8.6303129 10.276216 9.9829273
7.8654323 10.125572 9.8990326
8.2531433 4.9158516 9.4927397
8.0192766 12.147278 9.8396759
8.6318665 9.463088 9.8957844
8.5398388 4.6738348 9.6975012
8.277832 11.39271 9.808588
8.4486561 6.5245667 9.7138891
8.8114338 10.62195 9.9332151
8.6370335 11.069314 9.9551859
8.3278542 8.2280874 9.638133
8.6380672 9.335619 9.9068317
8.5512094 10.484201 9.9899893
8.7300758 8.7147903 9.8492155
8.434763 9.1592093 9.880353
8.5455399 10.840385 9.9762592
8.2825794 10.703428 9.7681227
8.2354422 9.5778942 9.7170601
8.1438141 5.6463203 9.7892618
8.7365589 7.7751474 9.8028908
8.648263 8.1866779 9.8477154
8.2725658 7.6217585 9.6533871
8.7913227 8.6923609 9.8785791
8.6452589 11.155941 9.9851151
8.8172207 10.084865 9.9233751
8.7353992 4.9207931 9.6681452
8.6472139 8.8802395 9.9123039
8.4661713 10.80864 10.021536
8.745882 10.790435 9.9683132
8.8372955 5.433085 9.6985722
8.8537683 7.339777 9.7855711
8.3330765 9.3683138 9.8996506
8.1495609 7.6580148 9.618885
8.1671963 5.2201548 9.5259924
8.1291742 5.2527804 9.7380419
8.2248583 9.06744 9.8848238
8.6213551 9.0759983 9.8425817
8.4364414 10.00818 9.9242182
8.3402214 10.101266 9.9745846
8.7269135 10.12911 9.8394461
8.542738 7.7842264 9.8168678
8.5248156 9.3881464 9.8686266
8.3174028 8.610918 9.6672325
8.4194164 4.9822693 9.7526093
8.6419344 9.243782 9.9061604
8.4292707 9.3237066 9.9400682
8.7341213 8.7814102 9.8843775
8.2414265 11.495802 9.7946062
8.6412373 7.2143712 9.8213129
8.5328827 9.4635086 9.9012909
8.8204536 7.2251558 9.8221741
8.7442665 9.3438492 9.9001245
8.344244 6.5297666 9.7210655
8.4289169 9.2399321 9.9123268
8.4316835 9.4349384 9.972888
8.7963486 9.4098616 9.9163275
8.2529821 5.2448788 9.5140066
8.7292442 7.6614933 9.8127689
8.7257366 7.8834338 9.8145704
8.3198538 5.3798175 9.4852161
8.2588825 8.6983585 9.9348898
8.2428684 10.629446 10.000722
8.6343956 10.622169 9.9706116
8.3360538 7.7904768 9.8412838
8.7176285 9.9853954 9.9185038
8.345417 9.9966335 9.9548588
8.5523872 10.579835 10.039789
8.6322346 10.46704 9.913269
8.0265379 10.595125 10.006273
8.8317642 8.5722418 9.8572521
8.2767162 4.9524941 9.6663876
8.4045544 5.0622625 9.5660563
8.65201 9.78267 9.9170122
8.616003 10.098592 9.9523039
8.2625103 10.668549 7.7566543
8.2180386 11.073904 9.8499231
8.7362003 6.6931777 9.759532
8.7255459 8.9041538 9.9123688
8.2528887 9.7830114 9.7452526
8.6278286 7.3486972 9.8062992
8.3387394 9.4104919 9.9842539
8.251997 8.7115402 9.6868229
8.329668 10.782098 7.7114172
8.2373276 6.4703708 9.6048479
8.3320522 4.6833692 9.7310534
8.2542934 4.9938374 9.5910368
8.2642374 5.0353513 9.7329063
8.946209 5.5269995 9.7208967
8.1581726 9.9677181 9.7260256
8.1654921 7.8368773 9.6784
8.0567484 9.5888796 9.912941
8.2458858 10.810195 9.8023405
8.2426491 8.2670765 9.7434559
8.2625313 11.152882 9.8173361
8.7566547 9.8675547 9.9122572
8.2561817 10.002033 9.9451094
8.4361591 10.273242 9.8560095
8.2808056 10.100353 9.7658157
8.3487453 8.3931808 9.6715097
8.3260984 8.2726803 9.9196768
8.5935726 12.113896 9.9013863
8.4611645 5.2157269 9.7395287
8.7261667 9.253705 9.8897247
8.6252527 10.579901 10.047796
8.2399912 11.384763 9.99891
8.2448311 5.2690716 9.6144466
8.2498779 5.3342137 9.7743282
8.881422 12.213214 9.8253689
8.5393887 9.2382565 9.9062061
8.5463028 5.3278031 9.7712326
8.3551579 9.132575 9.6959991
8.1826582 7.2152052 9.8863573
8.4383888 10.57153 10.034909
8.2454987 8.8451042 9.6919889
8.2324753 9.0317421 9.9640827
7.918499 10.218636 9.9810076
8.5210247 6.9706378 9.6985521
8.3505478 11.362442 10.01248
8.3503685 7.9944253 9.6450815
8.4455919 4.670784 9.7169542
8.3359737 10.222968 9.9282713
8.2621775 7.1164975 9.8612995
8.7627306 6.8952055 9.551239
8.1496658 8.9644232 9.7056265
8.1491356 8.1756973 9.7060499
8.1547718 8.2955589 9.9364986
8.6528311 6.9627628 9.6723108
8.6316404 7.0322089 9.7939596
8.5656929 7.1768856 9.595438
8.0529804 9.6730719 9.9265604
7.8804975 9.8783884 9.9534025
8.2578926 4.8083878 9.7409639
8.7261086 7.1912427 9.615387
8.0668907 7.2051072 9.8346014
8.0577555 7.9575586 9.7637548
8.1236038 7.9679093 9.9142084
7.8704877 9.7180948 9.9531174
8.0784359 7.0194211 9.8191833
8.2627964 6.9510574 9.6814508
8.1533318 5.9589572 9.7943764
8.0010691 5.0350223 9.6173573
8.0062799 5.1157184 9.7780123
8.5203781 6.7532048 9.7166033
8.6530962 4.9106636 9.6911173
8.850893 10.228107 9.8521004
8.8171377 10.424109 9.8951492
8.4464369 7.1210046 9.8310385
8.0314703 9.644762 10.00413
8.5434933 4.9131103 9.7118282
8.2446232 7.7801852 9.875104
7.9441156 10.453762 9.9770899
8.241046 10.429407 9.9426317
8.2446423 8.1596041 9.6716537
7.9558668 9.0789309 9.8593912
8.3448133 7.6878185 9.7978373
7.8725252 8.5639315 9.8336086
7.8872757 6.3686256 9.6353149
8.2584877 7.0262771 9.8344469
7.9310274 6.9686136 9.7779703
7.9856043 7.196929 9.7696266
7.8491721 8.7193708 9.9376545
8.0256901 6.0705743 9.5655107
8.1797876 6.816525 9.550107
7.8456078 5.1081395 9.5830088
7.8452291 5.0944595 9.7441053
8.6230974 11.272755 9.9539509
8.0757122 10.514339 9.788147
8.6353168 5.9606676 9.7413549
8.3875628 10.771075 8.3500319
8.1364994 7.0694575 9.8558636
8.7390175 6.9578333 9.6594114
8.4412861 6.9656901 9.6777306
8.0629635 9.3304462 9.8379545
8.336957 6.9761968 9.7195587
8.2502213 9.4084196 9.8372993
8.0120964 5.8494444 9.7668428
8.2414989 6.8109589 9.5783119
8.0503645 9.2964411 9.9095154
8.0542145 9.9202337 9.9351158
8.4185219 11.19746 8.2685156
8.0582762 5.945694 9.7923069
8.3394833 6.0444536 9.8000565
8.4309092 9.863061 9.9608421
8.4628687 10.447313 9.7308016
8.2162952 10.488909 9.8589935
8.1358023 9.7404652 9.8832884
8.1255474 10.223399 9.9470911
8.1120386 9.7938261 9.7195196
8.1543655 10.475278 9.8867254
7.9045701 6.377389 9.7932158
8.0242424 7.1240668 9.5849457
8.3386364 7.0534687 9.5628557
7.9521279 7.1360188 9.8246241
8.1580591 11.01194 9.9085236
8.1509762 9.422965 9.8310719
8.1651287 6.3557634 9.6558237
8.0333071 11.944749 10.02608
8.0541449 9.4274368 9.8702641
8.049881 10.233303 9.9604406
8.0282631 8.6153164 9.8931093
8.1509676 9.8989344 9.9201508
8.1390591 9.5072489 9.8879194
8.0641308 7.9983974 9.8473997
8.1269217 10.858665 9.9881496
8.0432911 6.9762006 9.7507877
8.1396656 5.9220743 9.7839346
8.2737503 9.7458916 10.011334
8.2453985 9.4966087 9.8682013
8.7759037 10.250601 9.9087639
8.2350969 10.220962 9.944025
8.6263218 10.221503 9.9307251
8.245513 9.9159489 9.9249935
8.1464663 6.3061972 9.7662811
8.2621174 10.528699 9.7705889
8.0911131 7.5191569 9.938633
8.149538 7.5506945 9.8313656
8.3191309 9.9648037 10.004049
8.1844549 7.3453398 9.5975609
8.2765818 10.237891 10.035052
8.0833235 11.011717 9.9302578
7.9747396 9.1833725 9.7252941
8.0645466 11.230809 9.9098425
8.0806856 10.703001 9.8865891
8.3297415 9.8497362 9.9939251
8.2504654 10.300097 9.9663916
8.032424 7.0084324 9.6587458
8.2763004 9.8782997 9.7328634
8.1119814 10.539577 9.7737665
8.1524086 9.1637001 9.7104368
8.3391619 10.442183 9.9325151
8.0272942 11.188955 9.9805508
8.5338421 10.119323 9.8802872
8.4493113 10.354155 9.9026203
8.0500393 9.9597778 9.8845987
8.1263695 9.3973341 9.7155285
8.3405762 9.6935387 9.9263039
8.0189323 7.1822376 9.7476454
8.1342955 9.4733152 9.9331703
8.1441364 11.949819 10.00893
8.0632124 10.118521 9.9387827
8.4494915 9.6455393 9.9564419
8.1277771 9.5964451 9.9162912
8.1365232 9.8241129 9.9034309
8.2851467 10.682753 9.3364687
7.9256988 11.002707 9.9348917
8.1499281 12.028567 10.022945
8.1309786 10.13069 9.9272938
8.2048378 9.3501034 9.7126446
8.1640015 10.286111 9.7768917
8.2780552 11.083386 10.074157
8.2524462 10.634599 9.7878275
8.4427395 9.9840193 9.9905901
8.2774677 9.8517895 9.9805632
8.6056986 10.38737 9.8514185
8.2581778 6.5394244 9.5687847
8.2176361 11.962339 10.007882
8.2331686 9.3206701 9.7775335
8.0231848 7.0833793 9.7147007
8.0481739 8.6714468 9.8491354
8.0353222 7.416059 9.7229099
8.0430861 7.5142341 9.7747955
8.0291605 10.425807 9.9808578
8.4212732 10.44159 9.9162865
8.1188774 10.366014 9.7327547
8.0434694 7.6306024 9.5827169
7.9301796 10.124981 9.9507685
8.2423706 9.8104429 9.9034872
8.2642021 9.2676029 9.6908627
8.3090248 9.9333324 9.7052736
8.3569717 10.514763 9.7680817
7.8806729 11.426634 10.040827
8.4254131 8.3237448 9.8584509
8.172719 12.246256 10.046995
7.8663583 9.4096394 9.8790064
7.9412212 11.422545 9.9845848
8.1095905 5.5701909 9.7443972
8.2704611 10.178287 9.7380257
8.0368462 7.606935 9.8119335
8.0438375 10.75508 9.9876251
8.3419895 9.7683153 9.9494963
8.130352 7.2839332 9.7716646
8.2426395 7.4601197 9.8044624
7.8969588 8.0001078 9.8633757
8.0359745 7.8434834 9.8110771
7.9498434 7.9095135 9.8644447
8.0639038 8.7564278 9.8716717
8.2645111 9.6627674 9.9889498
8.1479397 12.125053 10.03195
8.1228037 9.183218 9.8540926
7.9528408 10.362338 9.9559784
7.9656219 7.466527 9.8432074
8.0432196 7.2907062 9.7800312
8.0570831 7.3789291 9.7794113
8.1390839 7.3721495 9.8027601
8.0402908 7.4701724 9.8201456
8.1394749 7.4826641 9.8322554
8.1694469 8.6270475 9.8798437
8.0447502 8.8505611 9.8981619
7.959692 8.6778526 9.864583
7.941936 8.7103033 9.8771162
8.0466967 10.05716 9.8953142
8.0805941 11.323205 9.9475098
7.9420414 11.349379 9.950449
8.3372707 9.5887718 9.8942671
8.263999 9.229475 9.7296038
8.3432598 9.3414717 9.686903
8.1381617 7.1968307 9.739399
8.143981 7.8041911 9.7956543
8.2480469 12.030582 10.017092
8.2492771 10.340694 9.9277229
8.7302799 9.9811964 9.9548492
8.325017 10.353263 9.9075022
8.6635723 8.7484541 9.8184538
8.6380186 8.8331347 9.8365097
8.1506786 7.1145554 9.6633415
8.2389755 6.8832855 9.6786108
8.4493093 9.8161383 9.879837
8.1452513 6.8893161 9.6844015
8.044939 10.359267 9.942317
8.7176628 9.8952579 9.8671322
8.5271397 7.4722762 9.7797747
8.1386223 7.8954897 9.844964
8.0605564 8.1105509 9.8298244
8.0620689 11.097936 9.9417791
8.0480595 10.871237 9.9653816
8.2505503 9.0526571 9.6724586
8.2423992 7.2904334 9.7597408
8.052043 7.9160628 9.81849
8.2337542 8.8295794 9.8835211
8.6447296 9.8677425 9.9339495
8.8412876 9.8905144 9.913559
8.2571697 4.7431326 9.604166
8.2417345 8.0752354 9.8857841
8.1271343 8.0998659 9.8772945
8.4095211 9.2048645 9.8040104
8.3394737 8.0019293 9.8219452
8.148551 8.0095043 9.8495693
8.1593742 8.1215353 9.8286638
8.3504267 10.751906 9.9476814
8.1159973 10.710435 9.8693533
8.0417566 10.787465 9.91891
7.9413486 10.751076 9.9241295
8.1560307 10.568259 9.9195976
8.2469749 10.75746 9.9609003
8.2615814 7.9999151 9.8430672
8.7576513 9.7890692 9.8894253
8.5396872 10.74532 9.9172821
8.1413651 11.105638 9.939435
8.7270546 9.8133297 9.8560314
9.0320168 6.6688604 9.3589621
8.2458601 10.130073 9.9232779
8.1406555 10.667458 9.9527845
8.1392937 10.435082 9.9477797
8.0350428 10.659241 9.9614315
8.2446432 10.661588 9.9481878
8.2593403 7.9172277 9.7925463
8.0612202 10.627216 10.135916
8.1329136 6.9720297 9.7570181
8.4290543 11.973598 9.9785719
8.2425995 8.6636362 9.8296833
8.6826534 9.7762518 9.8365755
8.2109299 7.1129432 9.6564064
8.2571793 7.5959964 9.7883339
8.3524761 7.297349 9.7554703
8.342226 7.2126389 9.8676653
8.5513783 5.1678019 9.6462564
8.1413012 10.795863 9.9246082
8.3470955 10.659268 9.9274025
8.3344383 7.5936189 9.7864342
8.4331589 7.371582 9.7629766
8.33461 10.123481 9.9083729
8.2365847 10.568243 9.9195223
8.1391315 8.7462568 9.8722382
8.5546989 8.0055895 9.801465
8.470952 7.8053875 9.7421255
8.5347033 10.972828 9.9383726
8.16395 8.3052616 9.8571339
8.3302908 11.278039 9.9735699
8.2248135 11.320534 9.926321
8.1436186 9.9470882 9.8801222
8.6066799 10.307114 9.9540892
8.4378052 7.6097379 9.7639694
8.6583586 7.3756123 9.7501078
8.2369347 12.214372 10.035483
8.3380089 10.62464 9.7765388
8.5314941 10.65109 9.9084234
8.6937647 11.428887 10.043447
7.8773932 9.7415533 9.9147434
8.3363991 11.325713 10.052492
8.1422739 10.031057 9.902257
8.1425228 8.6549625 9.8419247
8.4337502 8.1409979 9.7880678
8.1942368 7.9158835 9.6766787
8.3325806 7.369586 9.786272
8.3215141 7.7967963 10.011539
8.2356462 10.70371 9.8644018
8.7241402 7.9201488 9.693141
8.340992 7.9093595 9.7991514
8.333499 7.8248563 9.7750759
8.6695404 7.3458924 9.6691732
7.9756393 10.59363 9.9600544
8.2380152 11.188531 9.963747
8.3294353 11.193183 9.9525843
8.2349339 11.110622 9.9320107
8.248106 10.87112 9.9377394
8.4480457 10.88763 9.9039812
8.3304148 10.710954 9.7924318
8.6336842 10.676128 9.9031305
8.254612 10.054974 9.9001102
8.352293 8.13729 9.7895794
8.3786335 8.4954052 9.9949522
8.7295885 6.8130288 9.6816397
8.4202728 8.750001 9.8412876
8.6446571 7.8150401 9.7252798
8.7956715 7.5275421 9.6712065
8.7366238 7.2906165 9.6586819
8.8447266 9.9658079 9.9269924
8.427 12.029489 9.9918509
8.1477222 11.614477 10.00813
8.4612341 7.2005043 9.8422699
8.4266262 8.3297739 9.7787905
8.7955608 11.117939 9.8019466
7.9617615 11.676852 9.9839821
8.4187059 7.9636121 9.8837271
8.7296352 8.0388746 9.8646717
8.6299477 8.4110479 9.7929306
8.6409159 11.393501 9.8780279
8.7837896 8.6798668 9.7663765
8.3332491 8.7580967 9.8447704
8.3505821 8.6680937 9.7996473
8.6717529 10.927775 9.854022
8.8225965 7.1427326 9.7835836
8.4551449 10.573508 9.8887062
8.7454739 10.552958 9.8313675
8.5192375 11.016894 10.025814
8.6416702 10.595234 9.8374128
8.6166172 10.036469 9.8249502
8.1522322 10.888077 9.953928
8.3328352 8.0356321 9.9058437
8.515996 9.8255901 9.6831036
8.2413588 8.1350031 9.8073072
8.258934 7.8117714 9.7928724
8.2473841 7.3831019 9.7829533
8.773035 7.4744501 9.6896114
8.5330133 9.7178507 9.9641037
8.4340057 11.009552 10.026944
8.4028645 6.7612009 9.7117033
8.9445438 7.9476371 9.58498
8.6161327 11.492069 9.9223604
8.424902 11.112526 9.9000082
8.4499893 7.4344068 9.8495607
8.6290073 6.8971977 9.7986317
8.5497665 7.5887876 9.751297
8.5779858 10.523205 9.8698864
8.3533401 10.917069 9.7937355
8.0821199 10.939409 9.9019814
8.4432745 8.2290277 9.8195267
8.3418932 11.051279 9.7879925
8.7164154 5.8365068 9.7427654
8.5429888 5.2870946 9.5973635
8.1385717 10.950063 9.8988705
8.638896 4.7112875 9.4224873
8.9420958 4.6136808 9.3168621
8.3324289 12.043181 10.005453
8.7342434 4.7103424 9.4115362
8.4414558 4.8048496 9.4714794
8.6315899 4.8083611 9.440999
8.0598135 9.8046513 9.9174738
8.5394316 4.7051926 9.4456367
8.8268394 4.6944976 9.3855257
8.2956457 11.140495 9.7523069
8.222949 11.496033 9.9830675
8.4382753 6.7327232 9.7917519
8.1369724 9.6324997 9.8473415
8.6356468 6.8074479 9.7874737
8.0739689 6.7084723 9.8030109
8.9135733 7.432085 9.4308558
8.3474436 4.7002983 9.4767694
8.102787 7.7322783 9.9115648
8.8172226 10.549371 9.940465
8.3487701 4.7567472 9.768486
8.9072018 8.3592739 9.5424271
8.5437412 8.9242535 9.8740664
8.725296 5.6008544 9.5875187
8.4335279 11.817427 9.9945421
8.3532963 7.639256 9.6376839
8.9587784 11.742959 9.9619331
8.5207319 6.5290103 9.7266665
8.3444214 11.674897 10.030634
8.5282612 11.68508 10.008311
8.2677889 7.2558975 9.8270845
8.2246761 11.781377 10.084218
8.6424084 11.762788 10.034189
8.4473982 11.657925 9.8061838
8.7418633 9.326582 9.6586924
8.6341228 4.6589165 9.4587317
8.79702 10.904194 9.8945293
8.7426157 8.1707563 9.8526554
8.6269646 7.2870049 9.516839
8.555933 7.7111359 9.6192207
8.137804 11.190395 9.9794817
8.4806013 10.792089 7.7102184
8.3580904 11.101738 9.9197521
8.9295464 7.8355289 9.8226032
8.6325779 6.0862236 9.4916306
8.5440712 7.8826652 9.8441572
8.4297934 10.936052 10.005812
8.635932 6.178093 9.5029421
8.4583292 8.821435 9.6606693
8.1201906 7.2485466 9.8394575
8.545125 8.3916836 9.6327915
8.2709141 10.011041 9.7625933
8.0245495 11.240648 9.7741213
8.6440487 4.8997331 9.464057
8.3579311 7.4979362 9.8782959
7.9285665 5.5160265 9.6791573
8.7363319 8.8311644 9.6155376
8.4771786 11.358164 8.3627882
8.8309174 5.9407163 9.4746618
8.5305977 8.1951208 9.5989876
8.3373222 7.5055923 9.7387056
8.0695381 9.8579273 9.8601723
7.9389944 5.9520884 9.6289539
7.9791679 9.5779428 9.708024
8.3457613 10.531179 9.9587708
8.7422295 5.6006598 9.4099178
8.1489573 11.28976 9.9940348
8.6391926 8.3983097 9.6164465
8.8280935 6.1795406 9.4689474
8.3469162 11.062224 9.9698067
8.2826099 11.593988 9.8350544
8.2381401 10.529039 9.9607849
8.4406681 6.633173 9.7764568
8.9478741 6.097621 9.4144297
8.7335653 6.0774355 9.4751034
9.021596 6.1118913 9.3838797
8.5390511 7.4501996 9.5791473
8.2625961 7.5090346 9.7654886
8.2458735 8.5012093 9.9252701
8.1532135 8.348959 9.8216352
8.3301153 5.9737353 9.7775688
8.3544817 11.97676 9.8480034
8.1411285 6.7526135 9.7585096
8.0550947 6.7365432 9.7644606
8.5422535 5.4296112 9.7272902
8.5403709 8.6051683 9.6404552
8.5468597 8.056078 9.8892221
8.631937 8.6072693 9.6261663
7.9586058 8.4150562 9.8688517
8.4412556 8.806201 9.9129419
8.3374195 9.0954628 9.7523031
8.1447744 6.6885691 9.6163635
8.7368593 8.6160345 9.6007719
8.6343327 6.2136235 9.4741879
7.8649616 8.267272 9.8609495
8.8385048 6.5241742 9.4552698
8.7305994 11.56776 9.7467785
8.1384659 5.6724706 9.5541067
8.6471109 10.60599 9.7312689
8.0648537 8.355299 9.8009787
8.7296705 10.522753 9.9358368
8.4407606 4.8934498 9.4942799
8.5305614 4.888586 9.4805155
8.8102455 9.1041002 9.6532116
8.1512222 8.4439106 9.8301163
8.6283054 7.1060758 9.5669489
8.3379936 7.5571108 9.8473558
8.3340998 9.0520458 9.6780119
8.0611429 8.4350548 9.8423815
8.8216906 8.6111088 9.5785437
8.6361904 11.818699 9.9605389
8.8183804 8.0838614 9.6821651
8.0417633 6.0481296 9.6685438
8.2563772 7.5614123 9.8715754
8.6288424 10.188151 9.9601574
8.714119 10.173015 9.9304152
8.3371172 10.174752 10.003231
8.3428555 11.816926 9.9989138
8.3402319 11.598936 9.9961271
8.5363235 4.7998962 9.4563408
7.9428973 8.341177 9.8539209
8.2261829 10.230027 9.878088
8.5347309 7.1055107 9.5828314
8.5269041 10.098192 9.9537916
8.8239727 10.072081 9.6647148
8.3204918 5.2761507 9.7823591
8.8227634 8.2021465 9.5484838
8.5352402 7.1262155 9.820117
8.3393173 7.1072941 9.6194754
8.5349989 7.2940106 9.5394678
8.7445641 7.0485015 9.7813234
8.0616674 6.4223013 9.7900324
8.426506 10.955498 9.9468327
8.1263332 8.3227253 9.6444769
8.2567854 8.3506613 9.8005247
8.6339169 9.770215 9.6894321
8.8449097 5.8267651 9.5546637
8.8397179 7.109036 9.53442
8.7234097 10.649279 9.6860619
8.0451632 10.939619 9.7896233
8.2500906 8.087636 9.6691399
8.0264273 6.2238307 9.7414112
8.8444347 8.386549 9.5721645
7.9922633 8.288415 9.6463823
8.5264254 11.995567 10.030101
8.2436562 6.4000793 9.7850294
8.2284555 5.6159763 9.692112
8.8427038 10.166098 9.9003153
8.6023588 7.6095929 9.7422705
8.051075 6.5325675 9.7862816
8.1408319 11.812427 10.012539
8.9174976 7.8796639 9.4942045
8.2458029 11.600985 10.001865
8.8651409 9.9081917 9.7427025
7.9140396 9.6710138 9.9504547
8.154211 6.3962493 9.8101158
8.2519007 11.070594 9.9694805
8.7310362 9.057498 9.6155462
8.6580276 9.6910391 9.8889227
8.3365088 10.041638 9.8867903
8.0527058 11.069757 9.9967089
8.54916 6.2206717 9.6757021
8.2648182 6.3718834 9.6479511
8.5397968 8.6238947 9.8595114
8.2309284 6.7464433 9.741684
8.4164906 11.203143 9.9362564
8.5331459 9.056284 9.6520767
8.5840435 9.5369358 9.982398
7.9511724 11.066206 10.013747
8.83636 11.592316 9.7330246
8.1512938 10.343629 9.9308453
8.7318687 9.4506207 9.9358644
8.8220844 10.923413 9.7085447
8.2428398 8.6128035 9.6939373
8.1084118 10.965348 9.7834358
8.2383585 11.809013 10.009252
8.7027235 8.1024818 9.8387346
8.6364641 6.3981805 9.7469625
8.6412611 10.98523 9.9111834
8.7331886 9.7735081 9.6639843
8.5412264 6.7117739 9.5459423
8.7134008 11.697839 9.9898787
8.1257715 7.1608267 9.8123322
8.6367912 8.3398838 9.8916216
8.232173 11.678905 10.025168
8.143177 10.172702 9.8685656
8.7412539 8.0934677 9.5733099
8.2921009 6.2277174 9.8665056
8.724329 6.4048686 9.7351294
8.3461056 8.0908136 9.652936
8.3409748 5.8698053 9.7509527
9.0224056 11.753011 10.001226
8.4394989 6.5764256 9.5873528
9.0310764 4.7628169 9.6531754
7.9520454 10.884552 9.9674902
8.9895954 5.894022 9.4058475
8.3484135 6.0366325 9.5845222
8.7309647 8.3005552 9.5834961
8.336113 11.65259 9.8219318
8.2375288 9.5982313 9.9009829
8.1627588 11.220422 9.9160376
8.265831 10.147197 9.7079601
8.631052 9.4097795 9.7274218
8.3283606 8.4830017 9.681139
8.1603718 5.3316865 9.5351505
8.8361168 6.6136928 9.4815187
8.6352024 9.947464 9.7456932
8.0590506 9.383482 9.916461
8.6335201 11.359602 9.7609205
9.1032686 9.0073729 9.7911644
8.2565804 6.5341773 9.7310591
8.6123409 8.2637434 9.6404066
8.9492712 6.5995913 9.4242458
8.0869417 11.531434 9.9492455
8.5441961 8.3370075 9.7692928
8.3319321 6.230372 9.7238293
8.0282488 11.819386 10.029523
8.0602636 11.595807 10.014214
8.3403797 10.72185 8.3885794
8.500042 8.6746073 9.7928028
8.1579847 9.8664055 9.8497152
8.2704153 7.9679561 9.8998556
8.0144262 6.7791376 9.6814804
8.8388138 8.2608471 9.8285866
8.4368477 8.0397921 9.7494545
8.1482582 5.7238264 9.6189289
8.4268913 11.853803 9.8390026
8.73629 7.9004683 9.5470362
8.4417572 7.8814516 9.5859356
8.1442146 11.400643 9.9689751
8.1394701 7.5989647 9.8022566
8.5259266 9.6896544 9.9065351
8.3405552 8.286356 9.657547
8.8401985 5.5337009 9.7035332
8.4442844 10.07143 9.9649305
8.5104704 7.8158545 9.7572842
8.2575293 5.5534902 9.5244303
8.3525629 8.9295197 9.6341753
8.4217701 6.5904446 9.8069534
8.1337175 6.2680154 9.6447058
8.6469536 9.118433 9.6792984
8.2197323 10.644338 9.7518511
8.4400463 6.6654568 9.6626396
8.4486065 10.512691 9.7575235
8.8061562 6.5714087 9.5590868
8.4374924 9.5500584 9.9428215
8.5539389 4.6670556 9.477911
8.1766891 6.2106686 9.7783432
7.9212112 6.228416 9.7666178
8.3428431 7.4494319 9.6115284
8.7358465 10.512122 9.7018213
8.6317015 5.463789 9.4573212
8.8372402 11.671177 9.7387333
8.1247368 6.2348766 9.7280121
8.2067995 11.429347 9.9659491
8.6307487 5.6801543 9.4483566
8.5153618 6.116291 9.6516924
8.071537 10.46984 9.8951254
8.7504435 6.2291694 9.6375055
7.6421599 8.9539232 9.89223
8.4320993 5.4392228 9.7433443
8.5406523 10.514105 9.7361975
8.7398653 11.670959 9.7525091
8.2081079 6.2185569 9.7250738
8.0251846 5.394949 9.7255859
9.059124 10.257873 9.9107714
8.7415257 9.2412806 9.6309404
8.7475662 9.893424 9.6600351
8.4210739 8.2476215 9.6628275
8.5410347 6.8979073 9.8207111
8.3206596 12.107177 10.102067
8.5136013 10.049051 9.8477278
8.4440804 6.3943038 9.5412769
8.5253849 10.823458 7.584774
8.832963 8.0895777 9.5561438
8.4472961 11.993375 9.8217268
8.823802 5.32797 9.4378624
8.5376415 5.4670243 9.6720295
8.4343882 7.9941907 9.818779
8.7385731 6.9156446 9.7570887
8.8284321 9.3685436 9.6210794
8.7254953 5.3363914 9.4435282
8.1470013 8.0508604 9.8101778
8.229248 12.123558 10.029924
8.4549265 7.9566851 9.6473494
8.8244038 9.2181454 9.619092
8.5387535 5.3309875 9.4785824
8.8313189 7.3718581 9.4954643
8.534194 12.112353 9.8036528
8.6461935 11.131732 9.7467604
8.3277969 10.825532 9.7978344
8.8260994 10.297707 9.6761293
8.334136 6.7047663 9.642911
8.7412891 10.739463 9.7054367
8.5376759 6.0795445 9.510561
8.5380068 10.993286 9.7755671
8.3467407 5.3299775 9.5105257
7.8701763 6.7929215 9.7852888
8.2408409 6.9430656 9.8117104
8.6318769 10.928655 9.746932
7.8227634 6.1215391 9.7199888
8.4473791 7.1066065 9.6044331
8.5429449 10.215146 9.9099092
8.5525198 11.538345 9.7958803
8.2606907 5.8472233 9.5513239
8.3735371 11.53017 9.8301926
8.7280302 11.078835 9.8235788
8.5528908 10.923022 9.758338
8.5331125 11.581199 9.7782784
8.2359524 11.286922 9.984231
8.6185932 10.47443 9.7489586
8.7384644 11.993648 9.7708826
8.5423756 11.135163 9.7737007
8.3381615 9.2448292 9.9385595
8.3317814 9.327136 9.9613266
8.5401812 10.755623 9.7459297
8.7774792 11.507788 9.7246208
8.7378654 9.976778 9.6780834
8.739645 5.3827248 9.411109
8.6396008 9.9839115 9.6899252
8.3335705 9.6702957 9.7178288
8.4406586 8.6271124 9.8665228
8.3384895 9.1801043 9.633563
8.5069313 6.0023489 9.6988993
8.426754 6.9358215 9.7846136
8.5410233 9.9014645 9.6990948
8.550251 9.6721811 9.6931915
8.7443819 9.3577642 9.6312799
8.70397 8.1431675 9.5625973
8.5621319 7.6025982 9.5422153
8.7247076 7.7326317 9.6216402
8.5472736 12.079359 9.816206
8.5397358 6.6689758 9.6381273
8.9272318 6.8345671 9.4241161
8.237812 6.0419188 9.5987215
8.7277822 9.6630325 9.6527596
8.3465605 12.208294 9.8482866
8.3405304 5.9922433 9.5213442
8.0271139 5.5848341 9.7029819
8.3384695 6.1846914 9.7848644
8.4479122 11.489046 10.033401
8.2656536 9.7201691 9.8766165
8.0258656 10.160604 9.7177191
8.6262455 8.7954702 9.8757515
8.5341606 11.458461 9.78724
8.4613085 10.836033 9.7591324
8.6342573 6.6105018 9.5153847
8.4470272 7.5173988 9.7453451
8.3408184 6.6555815 9.8460865
8.2576809 6.6122317 9.5783186
8.8472786 10.179174 9.7029343
8.3183241 8.5887537 9.9558449
8.5387716 11.768905 10.033088
8.7270327 11.239863 9.7446289
8.5429077 9.9948997 9.9270048
8.4415398 10.713757 9.9896612
8.1408539 6.4410577 9.730134
8.5580978 8.8629322 9.6892033
8.4465179 10.090624 9.7390985
8.353672 9.3310642 9.7301226
8.2765169 9.1030235 9.9752655
8.2654772 4.7442169 9.791048
8.3528137 6.0751257 9.5394497
8.5397339 5.8632731 9.5019007
8.4423447 9.9313135 9.8133936
8.4236374 9.723752 9.8083677
8.3391752 5.7693696 9.522481
8.4520988 8.5806789 9.7288036
8.5410995 10.526826 9.9406071
8.6364193 10.298548 9.7146931
8.257411 8.0484819 9.9361019
8.3356581 6.6138058 9.5685129
8.5448399 5.3770919 9.4422522
8.2569485 6.8516827 9.7599344
8.3339844 9.2358217 9.7156763
8.3439598 8.8774042 9.7798977
8.4412842 8.8934364 9.7379904
8.5053272 8.5635309 9.6843748
8.3242493 7.2034507 9.6894999
8.7349129 10.661977 9.875639
8.2425356 8.9302835 9.7079
8.0469761 6.0074463 9.5557051
8.838315 10.44084 9.6708698
8.0337744 6.5532265 9.687747
8.2594261 6.8133135 9.8395462
8.2808514 9.9305582 10.004633
8.8195333 7.6752386 9.5238285
8.5493164 9.4124203 9.7261076
8.5428066 10.083658 9.7206764
8.5848761 9.9641151 9.9781303
8.2657127 5.4229331 9.5584898
8.3346386 9.8676338 9.7552319
8.3427172 8.8385973 9.6811304
8.4488621 8.0759563 9.6279144
8.9310207 5.5728846 9.4209023
8.9458942 10.394957 9.6712513
8.5351753 6.2856536 9.7775335
8.439126 9.9069176 9.7145634
8.5428658 9.0168915 9.6745491
8.6894312 10.882055 10.016009
8.5327854 6.5676599 9.5610838
8.3541584 6.6258187 9.7701235
8.4344749 7.4173903 9.6220779
8.4400406 11.049214 9.7792931
8.3400764 8.613903 9.8888502
8.5380163 11.066465 9.9764452
8.7307034 6.8334928 9.5007601
8.4415779 11.637547 9.8767576
8.9739399 10.092025 9.6385937
8.5354757 8.8254004 9.8998251
8.6388035 8.7521982 9.613636
7.9255776 10.840211 10.024271
8.3471727 10.477881 9.8042097
8.4302053 4.7363257 9.6832895
8.533803 9.6017513 9.678792
8.3438921 8.2178698 9.8260279
8.5375729 6.9378371 9.7755709
7.9641047 6.6823401 9.7280149
8.8250647 6.0859947 9.4415693
8.5428696 11.038252 9.7582979
8.6368322 9.3575649 9.6544819
8.4422588 9.3557272 9.688755
8.5458946 9.2398424 9.682971
8.3466511 8.9184132 9.693059
8.2448997 6.0638809 9.8479471
8.5370188 9.1013794 9.705411
8.1701097 11.958159 9.8706818
7.9367609 6.0823321 9.7075396
8.1652822 7.0768795 9.6004057
8.5389194 7.9281869 9.7702522
8.3571215 4.8955784 9.5099735
8.4433107 9.224123 9.7007246
9.0164204 6.896523 9.38589
8.3287144 6.7140841 9.8060322
8.3375645 8.1841488 9.9071255
8.6335278 8.168561 9.6129341
8.5406513 7.7651806 9.5980844
8.5431108 6.3931565 9.5299587
8.4514055 11.572999 9.7999992
8.7239094 8.1780252 9.5970688
8.3264761 6.9082975 9.8482199
8.5458241 8.1776342 9.6288261
8.63834 11.673818 9.7749386
8.2538261 7.439867 9.622057
8.7217999 8.4404268 9.5703154
8.2284832 5.3861585 9.6705379
8.483984 11.367248 8.4060335
8.4425592 7.1958203 9.6697779
8.265645 7.4480352 9.8774281
8.616662 11.3099 9.8020515
8.6307869 7.4119782 9.5878706
8.8283281 9.4555101 9.6309662
8.4407339 11.547625 9.8159246
8.8201609 8.4834757 9.6057644
8.3412809 6.4910402 9.5766401
8.6113214 8.0884247 9.6909218
8.3424768 8.17451 9.6643076
8.5615625 11.314395 10.01612
8.1275358 5.8405466 9.6624279
8.4324856 7.0296998 9.8129606
8.6384974 8.8252554 9.628953
8.7271461 6.1763868 9.4951706
8.5580759 6.9916091 9.5108767
8.2383928 5.6344953 9.7841101
8.4540863 5.0817981 9.4419975
8.3326445 6.5936198 9.826149
8.4364891 6.8078904 9.8132687
8.6460028 5.1484003 9.4289532
8.44487 6.6094623 9.5491724
8.5412235 6.1794024 9.5225658
8.7296333 4.7983103 9.4247074
8.5439053 9.4592323 9.6872997
8.535738 5.9090786 9.4688749
8.2531013 7.7699471 9.6425419
8.4409552 7.2473521 9.8156176
8.7396669 5.6845446 9.4330664
8.2376318 9.6980085 9.9209299
8.3454037 9.4447479 9.7203236
8.4437809 8.7093067 9.6699123
8.727272 10.393632 9.7091999
8.7340689 7.6802821 9.5461998
8.8095198 4.8886023 9.4362431
8.7379951 8.4925137 9.6199226
8.3362484 9.6538343 9.9830503
8.5511627 8.7529249 9.6297636
8.828186 8.7260151 9.5741119
8.8318768 8.7094555 9.594058
8.7992373 8.1163702 9.5313864
8.5453634 5.5669942 9.7184582
8.4254684 9.5353642 9.8405828
8.6342163 10.389714 9.7234964
8.439127 12.21024 9.833396
8.3583355 10.759895 7.8508539
8.5322638 7.146595 9.5572014
8.7514505 7.416223 9.5992785
8.3382711 8.5267029 9.6594095
8.4979057 5.6247778 9.6661491
8.3328705 11.146925 9.8020382
8.54002 10.386442 9.7424183
8.8347921 10.392982 9.6880484
8.4346304 6.1813316 9.7711716
8.4368086 6.4885011 9.7903595
8.4422045 10.149099 9.750927
8.7222767 4.8850389 9.4453039
8.6396341 8.5158606 9.6115131
9.0129156 4.840344 9.3176584
7.9403701 10.634949 9.9928341
8.7333736 7.0184765 9.5301142
8.0742788 5.6346827 9.6223221
8.272171 8.2399607 9.9338923
8.5414553 8.5163889 9.6242762
8.3471746 11.871147 9.8332911
8.7485218 7.1042776 9.5585346
8.8925858 5.3573656 9.4243793
8.8578968 8.4311886 9.5522289
8.242754 9.792345 9.9419308
8.2621441 10.700056 10.042714
8.8411331 9.1428595 9.6097374
8.3238277 5.2057791 9.7692719
8.8235588 11.369329 9.7257662
8.8326588 11.452509 9.7286701
8.9399738 5.1514463 9.35464
8.2480526 9.8691998 9.7866726
8.3332281 10.61954 9.9962292
8.7542734 7.2737713 9.4877071
8.7320137 8.3971825 9.5935411
8.4139957 5.8755841 9.806427
9.0441666 7.1812057 9.7690725
8.6370449 6.3944097 9.5085268
8.3505249 8.7055197 9.6872311
8.8358374 8.2968969 9.5624599
8.5421295 8.295887 9.6244812
8.5344448 10.704615 9.7630072
8.5453243 8.0770655 9.6134729
8.4325371 6.0937409 9.744092
8.7330275 11.881026 9.7575378
8.4435825 11.772548 10.047254
8.5402489 4.8375349 9.420023
8.4538097 8.3147116 9.6375103
8.7365408 8.5177889 9.587245
8.0792131 10.331959 9.7444592
8.8358145 12.105328 9.7509613
8.4233742 8.2000847 9.622139
8.9033527 7.3127751 9.5077524
8.4273882 9.4138432 9.7972012
8.8333569 4.8390393 9.3517809
8.2518244 6.7143989 9.8254604
8.9253197 8.3013449 9.5383158
8.4352636 8.525197 9.6502686
8.3329153 6.4891262 9.8052149
8.7748365 6.9865766 9.4621611
8.4400005 8.4903669 9.6760626
8.9500113 6.2177715 9.3847961
8.9482889 4.74612 9.3087063
8.6287565 11.044271 9.7415552
8.63515 9.2440176 9.6563635
8.5378981 5.6548772 9.7255125
8.7549028 8.7393837 9.5850973
8.7352066 8.2087755 9.5708046
8.8312302 7.7710981 9.5337114
9.0070696 7.7508354 9.4870358
8.8196554 5.3713326 9.3859177
8.9387455 10.521163 9.6610498
8.4393368 7.4561434 9.5971069
8.5408802 11.845014 9.824584
8.4412355 6.2805657 9.7903872
8.2591619 7.8547878 9.8898678
8.6341457 9.6724701 9.6785889
8.3305073 7.731761 9.8890676
8.7554731 12.177773 9.7799091
8.733429 7.8612046 9.5678072
8.5240374 6.4424763 9.4896593
8.7315311 5.199327 9.4757109
8.4359055 5.1133761 9.4941721
8.5330706 6.4872975 9.5427847
8.2422924 7.8576403 9.6571541
8.4334736 9.4435015 9.7054443
8.4401331 6.176054 9.5349312
8.6425238 9.7014551 9.7206602
8.2450018 5.3315501 9.5382843
8.6388226 9.4561357 9.6679449
8.7306461 5.9536572 9.4897451
8.6398516 8.4826431 9.6276445
8.5471201 5.8326602 9.7722597
8.439827 7.7647519 9.6139174
8.1584921 8.5773802 9.6701784
8.609477 9.9384422 9.9201689
8.3263693 7.1516123 9.7739296
8.6412544 10.698203 9.7497768
8.5364723 9.5562563 9.9335623
8.7210522 5.1149182 9.4420156
8.8477507 6.7532301 9.435955
8.4446316 5.7680812 9.5030041
8.3033161 6.9915199 9.5451193
8.2190933 11.019691 10.094368
8.5437622 5.1436124 9.4432793
8.256424 5.487391 9.6367798
8.3414459 7.6750708 9.6043072
8.8557615 5.6323676 9.6821976
8.6324139 11.581055 9.7681894
8.331192 9.8258944 9.8825684
8.8029804 7.3918977 9.5626526
8.4466248 6.8394938 9.5488768
8.3514538 9.5759106 9.6816788
8.341836 7.0294065 9.8409662
8.6022873 6.6484408 9.5808821
8.4495544 6.5296059 9.5231876
7.9403257 10.772398 10.00095
8.2469826 4.6921501 9.7566614
8.4367676 8.8017244 9.6885338
8.3394032 7.4203377 9.6447201
8.7520399 7.5883093 9.513464
8.7367592 10.430596 9.6865129
8.0371351 6.6899147 9.7405577
8.4588995 7.5916638 9.5610075
8.6280575 7.2541828 9.8046207
8.7176018 11.291086 9.7425213
8.6283684 5.3661966 9.4294558
8.5508709 9.93713 9.7606277
8.4490452 5.5730553 9.726553
7.9601669 11.72107 10.028524
8.2506294 8.1834421 9.9317322
8.5549755 10.457541 9.9091988
8.4553595 8.191926 9.8744564
8.5374336 7.4124613 9.6085091
8.7278481 10.088511 9.9137297
8.7368927 7.5506849 9.5460014
8.5534916 10.612603 9.7470388
8.9533482 7.8471837 9.5255013
8.5317469 11.56144 10.035327
8.7123394 6.0095415 9.7015047
8.5385532 11.984474 9.8129425
8.2432442 9.9492292 9.8543167
8.333374 8.3040266 9.8635902
8.7374592 10.704659 9.7396593
8.5413904 6.8332639 9.5371819
8.6384621 9.062994 9.6360788
7.9357533 9.1488409 9.6591921
8.9339123 6.7504587 9.3887033
8.3476362 6.8313789 9.5664263
8.7442389 10.614327 9.7088451
8.4366693 12.085525 9.8436136
8.720892 11.256631 9.9877472
8.7415752 5.4212694 9.4686995
8.6431131 4.8486452 9.4086628
8.5434608 9.3273106 9.6926394
8.4339142 8.8398438 9.8624172
8.6423788 7.7652988 9.5745821
8.3509951 10.774364 7.6345429
8.8277798 11.891495 9.7497883
8.4397802 6.4868836 9.5547523
8.3312616 10.401929 10.000881
8.3284254 8.4915953 9.9258032
8.4626522 9.8555784 9.7307148
8.9204597 10.612588 9.669733
8.55023 11.675087 9.7869129
8.5240879 8.7857542 9.6732559
8.5348129 5.4241171 9.4950275
8.3270054 4.7994218 9.7227278
8.5359135 7.2377014 9.5715761
8.8260851 7.8476677 9.5522461
8.6416645 4.9178252 9.428153
8.6020393 5.6003881 9.4248457
8.4184303 10.476813 9.7744074
8.5341454 9.1446991 9.6733007
8.3247652 6.7693286 9.5412111
8.4461136 5.1103296 9.7195635
8.5342064 6.2635303 9.53827
8.5324574 9.5267496 9.8309135
8.6433191 10.830195 9.7354975
8.2527943 6.4918551 9.8380117
8.54039 7.0185308 9.5623131
8.528595 6.7143927 9.780839
8.6455154 11.457052 9.7643023
8.8390789 12.280714 9.7827759
8.7362947 7.7747245 9.5553675
8.3488865 9.9392424 9.8110838
8.6411991 9.2844553 9.6346235
8.2547512 6.2652454 9.5943689
8.6153936 7.1733823 9.7404594
8.7529202 8.5698175 9.6799812
8.8216486 7.6466255 9.8013926
8.3416033 7.0221562 9.6002092
8.6501446 11.270372 9.7417812
8.5388794 9.1527109 9.9001865
8.5380373 5.765727 9.485404
8.6395235 6.8855648 9.570569
8.548234 7.1560426 9.7591877
8.6406593 5.9046264 9.4437647
8.3349104 9.5650854 9.9657288
8.5373878 11.581633 9.9672251
9.0326853 6.1030569 9.3464289
8.4302425 7.7359014 9.863843
8.430192 7.8700438 9.8681746
8.3278713 4.6023502 9.7353153
8.210475 12.204228 9.8776855
8.6414118 6.3021002 9.495841
8.4410477 6.7085824 9.5617142
8.8392067 7.5843596 9.4875975
8.7321377 6.3048716 9.4784613
8.7117357 7.1745582 9.735177
8.6459227 10.508175 9.714138
8.6340666 9.1478291 9.6530838
8.5390005 8.5018101 9.8831701
8.4415436 5.4566703 9.4837437
8.6327915 6.9308476 9.7875338
8.2482796 6.0812321 9.5633926
8.751956 11.313354 10.000543
8.6350517 7.3634706 9.5408344
8.8216972 5.6503062 9.4527998
8.8458996 12.352175 9.7578745
8.4400101 8.1716032 9.6444178
8.3297596 6.9352193 9.7964449
8.3243036 5.3813696 9.6895447
8.1432667 6.6579585 9.7102318
8.830162 7.1373854 9.4979696
8.5394592 10.827938 9.7547569
8.2927113 12.18561 9.9784231
8.26404 7.0244617 9.6205835
8.4519663 6.8898568 9.617281
8.442399 8.3978167 9.6463099
8.4427795 5.6562634 9.745163
8.5469856 7.365438 9.5541344
8.7292013 10.925888 9.7318344
8.2482891 6.1765728 9.5819159
8.5471134 9.3640089 9.673173
8.948554 5.7904296 9.397315
8.8287439 5.1617522 9.3784895
8.6322699 8.9246616 9.641654
8.3328857 9.5119162 9.8800411
8.9128275 11.278365 9.6997414
8.9628601 7.2862191 9.4487514
8.5385065 5.9880066 9.4893208
8.6463375 8.1996374 9.5818138
8.5370951 11.347403 9.7808771
8.3361292 4.9833503 9.756093
8.8353262 7.0657043 9.4706869
8.8283148 10.743826 9.6992188
8.6525364 12.208833 9.7915154
8.9260788 7.7098565 9.4907112
8.8441353 8.9132433 9.6013651
8.5454941 7.0675116 9.5366726
8.9587078 10.67778 9.6685581
8.2378864 8.4929285 9.732276
8.3469934 9.150878 9.9043884
8.3180866 11.821419 9.8011284
8.4390755 5.158452 9.4651804
8.72999 5.1422615 9.4128761
8.83183 7.7477102 9.8407803
8.5374022 12.22688 10.019528
8.0747271 11.765154 9.8051329
8.4405441 8.9305496 9.6800508
8.343132 12.25559 10.003471
8.8336859 12.082154 9.7657681
8.8278475 9.6820889 9.6364555
8.7401505 5.7725401 9.4514389
8.8101692 9.0046701 9.6306171
8.7315531 9.4503765 9.6453714
8.6431503 7.5265827 9.6730671
8.6352482 5.4193392 9.4792166
8.4472618 10.703302 9.785511
8.4455109 8.2727127 9.8956594
8.5444984 11.886563 9.7985258
8.9081068 7.2196469 9.7832909
8.7328129 6.3972168 9.4939566
8.7330246 4.6576147 9.454586
8.830307 5.0171533 9.4060078
8.7370071 7.7662029 9.8272657
7.8080735 5.5895209 9.729681
8.8298473 11.03699 9.700325
8.6388397 7.0219965 9.5453758
8.7461596 6.756381 9.4835873
8.3400555 6.3407893 9.6205482
8.4539909 9.1388311 9.6794987
8.7403059 6.4492016 9.4534016
8.3528404 11.726004 9.7846031
8.630888 7.2348175 9.5542107
8.5386066 10.627878 9.984766
8.9081669 7.4451303 9.5003185
8.5465803 7.7538366 9.8622751
8.630187 5.109848 9.4606752
8.2649155 9.0258675 9.710269
8.341424 10.070079 9.7655954
8.4443874 6.3019314 9.5268431
8.3311176 6.2170477 9.5244617
8.6388445 7.4553752 9.5575542
8.2514877 6.1884689 9.7996225
8.3542099 7.9347053 9.6586103
7.8880157 6.3794141 9.7841692
8.3443279 11.349475 9.8095493
8.8227291 5.7251811 9.4661455
8.3714695 11.706419 10.105599
8.5432606 7.9911666 9.6007929
8.7423143 11.535118 9.7588577
8.6202278 5.5250249 9.7355099
8.5370674 6.3048406 9.5139742
8.4421043 12.115522 10.012377
8.4331598 7.1624002 9.7763205
8.6306725 5.4441829 9.7193136
8.452055 11.245965 9.7994757
8.6341066 7.9056392 9.5676928
8.4396896 9.3230963 9.7193832
8.6440868 12.308683 9.8065395
8.5419445 7.2512317 9.8037777
8.7322893 6.4858088 9.5151157
8.3495197 7.5444665 9.626503
8.5425682 8.828907 9.6459875
8.6261597 7.8656254 9.5918722
8.5088444 10.88998 9.9174185
8.728447 5.7325826 9.4989109
8.3463202 11.239602 9.8115072
8.3426847 6.0974197 9.7585001
8.8306627 8.8312836 9.5891457
8.34237 10.306286 9.9733105
8.2391891 6.0883584 9.750906
8.3371754 10.715785 10.025946
8.6357365 11.342546 10.03585
8.8387976 10.596374 9.6919804
8.5141935 8.2771339 9.8907261
8.1627598 7.1144662 9.8669491
8.2648859 6.5953999 9.8471746
8.3325615 11.553911 10.057895
8.5160828 9.4274282 9.9596424
8.647543 7.0628324 9.517045
8.7179956 6.8124132 9.5347652
8.7948933 7.1933742 9.7474403
8.3119125 12.032907 9.8043423
8.8097515 6.8617759 9.5410414
8.4484501 6.2175403 9.5004339
8.4468479 6.8031249 9.5744305
8.539835 7.6724796 9.5782948
8.3289547 6.2851539 9.8106642
8.7930937 11.802444 9.7425566
8.6337681 9.6414318 9.7022123
8.4455662 9.033639 9.6624374
8.0277805 5.9345956 9.6378965
8.6619263 6.7638011 9.4933491
8.7408142 11.763847 9.7673788
8.4430637 5.3817787 9.6216059
8.5440569 9.8634586 9.7139921
8.6333838 12.06174 9.8081961
8.4531984 11.772066 9.8264427
8.8301659 9.0404539 9.6019621
8.3308945 7.9683013 9.8953857
8.3403139 8.8507299 9.8680801
8.4386063 9.6283083 9.7581978
8.3454075 6.2653103 9.5723705
8.8286228 6.3936954 9.4709702
8.6455412 6.5731096 9.5449066
8.6349926 9.5531635 9.6818199
8.0918512 10.627194 9.7684145
8.4363012 5.4172382 9.5090065
8.4473915 10.930427 9.7793398
8.4429836 11.323221 10.046423
8.6431293 10.079499 9.7017145
8.4440565 11.354333 9.7971878
8.7345142 7.2427044 9.5296488
7.7958207 6.0386319 9.6854038
8.5447044 7.3305063 9.822506
8.5417728 5.2352371 9.4639311
8.7490721 5.8624845 9.4662266
8.7392311 8.7924051 9.6393871
8.1503744 5.9946251 9.7442474
8.6369734 5.7243438 9.49613
8.7300415 7.4532132 9.540926
8.6355324 7.1424985 9.5382118
8.2439871 9.3481379 9.9858046
8.5362396 12.206275 9.8074245
8.1396275 7.500083 9.7719126
7.9769759 5.5684476 9.76859
8.4440165 5.9532509 9.5273046
8.3370304 5.549129 9.734416
8.6338558 5.8685398 9.4868565
8.7399654 11.366172 9.7401094
8.918746 11.475165 9.7223854
8.7213783 9.135603 9.6344538
8.2070303 12.160461 9.946394
8.3402653 8.4001026 9.8999681
8.4431725 5.8619266 9.5161161
8.5367508 11.368034 9.9982805
9.0074654 4.9267392 9.3391466
8.7263994 6.9279375 9.5152216
8.7201252 9.2819118 9.6204367
8.4439678 9.6753521 9.7128611
8.3089943 6.1235313 9.8346663
8.344348 5.4257536 9.5281792
8.6399031 7.9871764 9.5816326
8.6354933 5.6464434 9.4823084
8.2491131 10.849426 9.9854336
8.6394577 9.860363 9.7010641
8.2535524 9.5426912 9.9952459
8.3391371 6.3937497 9.5629225
8.3539467 8.7864733 9.71735
8.4502363 4.9023976 9.7206974
8.0372858 11.681847 10.04448
8.5541668 10.480766 9.7544327
8.3583183 4.6761322 9.5099859
8.5315208 10.181373 9.9729509
8.2374601 5.9489884 9.5782318
8.3425617 5.1953354 9.5272818
8.637064 8.0828409 9.5960569
8.2657862 11.253424 9.8252974
8.166605 10.188667 9.7336903
8.3305359 8.7388477 9.6551657
8.4992714 11.962406 10.088508
8.526535 6.4124436 9.7629528
8.8576965 11.621273 10.017034
8.7366362 5.4517527 9.4325714
8.5301437 11.273271 9.7695122
8.8395348 6.2180271 9.4283848
