# .PCD v0.7 - Point Cloud Data file format
VERSION 0.7
FIELDS x y z
SIZE 4 4 4
TYPE F F F
COUNT 1 1 1
WIDTH 730
HEIGHT 1
VIEWPOINT 0 0 0 1 0 0 0
POINTS 730
DATA ascii
1.7271073 49.87088 -32.153839
1.5534008 49.316124 -32.19418
1.3166993 48.996613 -32.18362
1.5465639 48.66626 -32.178883
1.6386847 49.285519 -32.1777
1.2379656 49.273376 -32.141502
1.4757531 48.818665 -32.132679
1.2386515 49.033749 -32.127426
1.2350304 50.488899 -32.06995
1.5450594 48.785755 -32.139141
1.4578431 48.955517 -32.170372
1.0757005 50.210022 -32.067703
1.6268744 48.683384 -32.067768
1.6897225 48.660275 -32.168079
1.3463695 49.257099 -32.144142
1.5545189 48.760883 -32.203842
1.5522127 49.162762 -32.193039
1.0019956 49.083096 -32.087471
0.77239597 49.252804 -32.257736
1.436311 48.673679 -32.176071
0.57792294 48.774845 -32.156082
0.76928604 49.612644 -32.152985
0.65128577 50.895676 -32.113705
0.65399945 49.831291 -32.139404
0.67245185 48.834202 -32.156773
0.74819505 49.655083 -32.184193
0.67740262 50.72646 -32.150528
0.55270863 49.835297 -32.12714
0.4736222 49.822838 -32.138943
1.1004696 49.881241 -32.220898
0.9698627 49.875031 -32.222519
0.7636348 49.838181 -32.148972
0.75898838 49.925259 -32.142479
0.67131484 49.982456 -32.151348
0.47419 49.86301 -32.173035
1.5340388 50.638142 -32.118294
1.7362924 48.68935 -32.158768
1.4896407 49.658585 -32.11713
1.0460067 49.902775 -32.059677
1.7331378 50.239449 -32.203323
0.86444724 49.460037 -32.135662
0.75142789 48.987274 -32.172207
1.7095594 48.897606 -32.258335
1.3399272 49.788872 -32.126091
1.0661685 51.029339 -32.172729
1.1511457 50.19149 -32.077553
1.2581084 51.217487 -32.152321
0.47220635 49.228058 -32.215401
1.3416619 50.898415 -32.164936
1.6437721 49.489826 -32.167641
0.75716162 50.899487 -32.117378
0.76800168 50.551132 -32.104408
0.3376658 50.047752 -32.107124
0.53656876 50.028893 -32.126122
1.2441256 50.901154 -32.157547
1.840667 50.31004 -32.116131
1.3687732 50.194561 -32.098377
1.5455532 49.883202 -32.139309
1.6327012 49.695148 -32.184532
1.7326024 49.488827 -32.179516
1.4333704 49.049377 -32.147655
1.0488353 49.478073 -32.143188
1.1452458 49.273331 -32.11496
0.94422984 50.548676 -32.115223
1.5193591 50.191284 -32.123932
1.8035388 50.902851 -32.103786
1.7397342 49.744347 -32.153191
1.4638913 49.574806 -32.145615
1.6525805 49.167213 -32.195457
1.4627926 49.164383 -32.167351
1.6372004 49.888279 -32.153347
1.5352242 49.805019 -32.155277
1.1521082 49.574707 -32.11314
1.6133349 49.641224 -32.151207
1.6715722 49.389923 -32.265072
1.4017122 49.391895 -32.235191
1.0580394 49.339954 -32.234802
0.95313764 50.892731 -32.128296
1.243947 50.685879 -32.158894
0.86740732 50.547604 -32.112385
1.1415231 51.184368 -32.090675
0.6468302 50.246998 -32.11417
1.283848 49.919151 -32.101994
1.2527995 50.544388 -32.125221
1.3552649 50.54694 -32.135574
1.4349387 50.189701 -32.110638
0.64854026 50.543533 -32.091694
1.252399 49.158443 -32.158382
1.0642188 51.257854 -32.176815
1.1376252 50.717964 -32.209126
1.1484349 50.551731 -32.124744
0.95838571 50.504826 -32.175743
1.2252929 50.466534 -32.208965
1.0527613 49.660538 -32.211124
1.0330348 49.41716 -32.20731
1.0585089 50.172104 -32.20686
0.95878172 49.426006 -32.204037
1.2409728 50.72525 -32.202091
0.85797024 49.514729 -32.168751
0.85299933 49.401188 -32.155556
0.85407531 49.615513 -32.156673
0.9502306 49.200417 -32.196823
0.95996976 49.827435 -32.165253
0.96524501 49.389336 -32.1656
1.1538999 49.16254 -32.164639
0.95411897 49.922249 -32.155235
0.95751739 48.978985 -32.196404
1.2508426 48.943188 -32.151043
1.0481627 49.701328 -32.157097
1.0441043 49.207176 -32.20031
1.0504377 50.55851 -32.12505
1.3587201 49.203117 -32.236565
1.1468594 48.983101 -32.207874
1.1411715 48.886002 -32.22472
1.037122 48.942383 -32.152859
0.95138049 50.01236 -32.129807
1.5488715 49.720654 -32.178524
1.0424199 48.980186 -32.201752
1.0505648 49.296604 -32.187618
1.1529462 49.931404 -32.16021
1.2486472 49.956825 -32.216515
1.1489255 49.425411 -32.221195
1.1429739 49.293358 -32.196335
1.2707765 49.408325 -32.240067
1.1460507 49.20269 -32.220947
0.95123386 49.606415 -32.16758
1.5609851 50.730122 -32.104179
1.0579238 49.391979 -32.165573
1.0519075 49.927513 -32.158489
0.95548582 49.699982 -32.150379
1.6378593 48.704029 -32.155552
0.95092845 49.512447 -32.178585
0.95154119 49.075203 -32.177216
1.2500367 49.062798 -32.194416
1.051122 49.613316 -32.170132
0.95295262 49.299068 -32.179451
1.0478308 49.074497 -32.188263
1.2551951 50.017139 -32.132046
1.1889153 49.858025 -32.100285
1.5611341 50.228901 -32.165928
1.7537432 49.33836 -32.139069
1.2560329 51.125916 -32.171223
1.7379644 50.459892 -32.205601
0.85161579 49.827744 -32.155476
0.46199775 49.191246 -32.108589
1.4351926 49.599812 -32.17379
1.4578822 50.995735 -32.165779
1.5549202 50.053879 -32.220161
1.6592088 50.038258 -32.22789
1.7132854 50.081345 -32.227787
1.7486391 51.098438 -32.214294
1.2509246 49.927307 -32.164883
1.3578475 49.877331 -32.119747
0.59639204 49.136875 -32.135384
1.5585315 50.146812 -32.204845
1.3447845 50.112736 -32.121471
1.667068 50.129509 -32.219574
0.77459216 50.734188 -32.162163
1.847785 51.112782 -32.220989
1.4412017 49.808208 -32.138626
1.3596139 50.145569 -32.170586
1.2436335 50.052059 -32.190834
1.4740133 50.121765 -32.127163
1.1473937 50.154213 -32.168186
1.0480876 50.149765 -32.162838
1.2527633 50.137558 -32.174541
1.1471603 50.428326 -32.081314
1.3498147 51.121468 -32.176804
1.7316358 50.578495 -32.217239
0.63911891 49.480667 -32.11895
1.3348651 49.831799 -32.178844
1.3476667 51.013622 -32.207973
1.35201 49.342358 -32.115776
1.4736016 49.3559 -32.145226
1.0593953 50.021828 -32.119629
0.858078 50.900249 -32.120621
1.1596584 48.688938 -32.226521
1.6382446 49.619659 -32.221039
1.658649 49.300072 -32.227421
0.87539935 50.741982 -32.187988
1.344244 50.680542 -32.166702
1.0416272 50.275391 -32.179745
1.2824724 48.788055 -32.142059
1.5538318 50.582279 -32.207436
1.7342374 50.106167 -32.154095
1.4567344 48.698578 -32.151413
1.2568288 49.392448 -32.166363
1.4345429 49.29303 -32.193089
1.6372831 50.582039 -32.215443
1.7507849 49.41217 -32.164497
1.0498388 48.676262 -32.211185
0.77086961 51.033138 -32.149509
1.4368286 49.476639 -32.150265
1.528239 49.494137 -32.170876
1.2592428 49.483833 -32.147381
1.9159243 50.680733 -32.237255
1.6511493 50.90197 -32.200363
1.1560943 49.64193 -32.101303
1.6425469 49.386299 -32.18251
1.5352638 49.389046 -32.170868
1.2403965 48.851643 -32.177643
1.4690602 51.176487 -32.108696
1.1505527 50.901726 -32.15799
1.7301543 50.646721 -32.164898
1.2602284 49.80122 -32.121414
1.6315432 50.319004 -32.151283
1.7411165 50.88443 -32.21273
1.546469 49.849594 -32.213776
1.2481058 49.827557 -32.187122
0.75972438 50.238091 -32.125229
0.9577086 50.855675 -32.107674
1.7606785 50.128853 -32.223316
1.6609974 49.999195 -32.170341
1.161979 49.487667 -32.138302
1.1506004 48.940643 -32.147915
1.3479784 48.936737 -32.15955
0.94185638 48.940948 -32.149868
0.45176768 49.064907 -32.131088
1.3454368 50.994106 -32.144703
1.446348 50.677582 -32.176773
1.7249548 50.345741 -32.13715
1.5545738 51.001179 -32.171852
0.57654691 49.390858 -32.143173
0.46836615 49.381237 -32.123234
0.75613737 51.083645 -32.091896
0.44587207 49.590992 -32.131611
1.8471119 50.930008 -32.235992
1.127867 49.962471 -32.196049
0.95297503 50.148045 -32.152161
0.7511977 49.484329 -32.119942
1.5464158 51.123211 -32.190788
1.244514 50.864746 -32.103771
1.4950988 50.164776 -32.262539
0.84134102 51.120338 -32.124531
0.85896122 50.168186 -32.193066
0.6839776 50.860081 -32.073769
1.2291155 49.762081 -32.196434
1.1326911 49.863773 -32.228771
0.94068766 51.099503 -32.130299
1.7512386 50.836399 -32.150219
1.0586917 49.833324 -32.177662
0.98424935 51.012566 -31.997301
1.4577925 49.260277 -32.156113
0.54478407 49.727348 -32.113445
1.5570142 48.941334 -32.170483
1.6395981 49.332493 -32.16724
1.3598244 50.417522 -32.104343
1.1501055 49.832603 -32.181278
0.94900107 50.811531 -32.155476
0.64057469 49.382122 -32.132202
1.3492029 50.868977 -32.123489
1.3594351 48.697662 -32.128132
1.4484506 49.386066 -32.167187
1.542727 50.863777 -32.139778
1.2119699 50.003796 -32.056011
1.3529913 51.179245 -32.101147
0.66553283 50.266655 -32.135319
1.1781719 51.034298 -32.045647
0.86310017 50.009689 -32.125881
1.1556983 49.794601 -32.122025
1.6475844 50.564266 -32.191364
1.254961 50.468674 -32.155628
1.6490233 49.575375 -32.161064
0.94512486 50.201633 -32.204899
0.863729 50.812126 -32.142658
1.2101047 51.0368 -32.064522
1.1420934 51.217773 -32.138103
1.9032283 50.335018 -32.226009
1.3448434 49.395626 -32.167767
0.65247655 49.624882 -32.140511
1.5581734 50.905228 -32.189713
0.93304348 51.075127 -32.103462
1.0605607 51.209503 -32.124084
1.4405527 50.953453 -32.106133
1.6470926 49.507839 -32.236023
1.0391438 51.082832 -32.114983
1.0822763 50.652084 -32.08263
0.75292182 51.206799 -32.102085
1.4540496 49.694927 -32.168274
0.85836697 50.847698 -32.099499
0.84411359 48.801876 -32.239697
1.1735222 50.64172 -32.076401
1.1634049 50.862217 -32.099945
1.4534545 50.908833 -32.188065
1.4536381 50.859264 -32.132984
0.86652994 49.961868 -32.176296
1.1509466 50.682938 -32.154747
1.0512416 51.131897 -32.151802
0.81301665 50.618668 -32.088078
1.3643978 49.563961 -32.119598
1.5287192 49.610271 -32.196075
1.0499969 49.157005 -32.166561
0.65953887 50.67469 -32.109779
0.46525753 49.310585 -32.137455
1.59266 50.301079 -32.211967
0.85309207 49.872154 -32.222664
0.65037239 49.722546 -32.152794
1.4407036 48.882599 -32.261349
0.77339971 49.165924 -32.147049
0.95626068 50.637695 -32.087082
1.6444676 49.826485 -32.226799
1.2260406 51.169239 -32.10672
0.65007567 49.153919 -32.130417
0.96998405 49.176094 -32.163792
0.85960853 49.16095 -32.147728
1.3449876 49.754131 -32.19978
1.3454859 49.480148 -32.15078
0.46287024 49.199066 -32.156532
1.4525533 49.829693 -32.195694
1.375483 49.429363 -32.084507
1.1502941 49.615765 -32.175621
1.4430857 50.354549 -32.127621
1.6489592 50.655952 -32.143383
1.4435768 50.642265 -32.112602
1.3543448 50.286938 -32.200352
1.2568629 50.643677 -32.097149
1.2208955 49.658978 -32.092495
1.3219802 48.784962 -32.309223
1.2660882 49.565559 -32.124634
1.3490667 50.652222 -32.10833
1.6681209 50.881859 -32.148819
1.5250247 51.180599 -32.117748
0.79460907 50.860775 -32.088551
1.8061931 49.732407 -32.13126
1.4390497 49.897186 -32.115883
1.5646493 50.500114 -32.225887
1.3415875 49.282246 -32.198864
1.6720533 49.067566 -32.22327
1.7360437 49.53133 -32.158192
1.3499722 49.706493 -32.154877
1.6136124 50.822376 -32.24511
1.6728303 48.907101 -32.27626
1.4697552 50.502075 -32.230438
1.6712813 50.250225 -32.19981
1.5539639 50.420345 -32.134087
1.6328557 50.466946 -32.198029
1.1497402 50.461578 -32.152073
1.8335271 50.463223 -32.230408
1.043767 50.240433 -32.140457
0.65704942 50.77 -32.098755
0.54797304 50.767933 -32.089455
1.9404798 50.79269 -32.229931
1.8177633 50.21991 -32.18589
1.5668576 49.354832 -32.143459
1.34115 50.946232 -32.098881
1.3485951 49.616852 -32.182137
1.3492393 50.74044 -32.082684
0.75538182 50.682896 -32.118988
1.1948416 50.731979 -32.071281
1.0705559 50.960175 -32.061924
1.259654 50.733356 -32.071285
1.1512909 48.760315 -32.204201
1.4553742 49.923969 -32.171082
1.0534649 48.75766 -32.197376
1.730612 48.940289 -32.188625
1.3717444 49.67321 -32.233665
1.4582644 50.798779 -32.213688
1.2515814 49.52721 -32.203716
1.1506581 49.700809 -32.155758
1.1556644 49.388073 -32.179276
1.8342528 50.798054 -32.208771
1.5393827 49.445419 -32.112617
0.87279737 50.239918 -32.128326
0.75572038 50.999557 -32.108589
0.77538109 50.949635 -32.173706
0.95209002 50.272507 -32.168148
1.5404825 51.215099 -32.175499
1.910768 51.168865 -32.250923
1.143589 50.108624 -32.089382
1.6592686 50.284225 -32.245575
0.85619712 50.278027 -32.161755
1.1234236 51.028427 -32.180241
1.3519719 49.93536 -32.164898
0.95758343 50.587555 -32.153858
1.2509408 49.617447 -32.175682
1.2764087 50.224228 -32.078423
0.382851 50.234276 -32.091103
1.2398567 51.064728 -32.204857
1.6531422 51.090523 -32.16074
1.0399137 50.892693 -32.14669
1.5526295 50.683537 -32.192749
0.85806239 50.683472 -32.128693
1.4524221 50.590096 -32.201817
0.86229265 50.458851 -32.127853
1.1454885 50.367004 -32.174747
1.1546891 50.96104 -32.090546
1.2463539 50.826763 -32.178078
1.0534132 50.771961 -32.13031
1.6448133 50.775341 -32.181164
1.0554988 50.676521 -32.143421
1.2583425 48.700142 -32.144611
1.5560277 49.240719 -32.133419
0.8627131 50.993889 -32.113129
0.9211638 51.059246 -32.146149
0.94523644 51.193199 -32.119514
1.2429941 51.088951 -32.116688
0.75082099 50.772427 -32.107151
1.244575 50.764641 -32.132469
1.0487573 50.584595 -32.15937
0.75701416 50.467854 -32.121128
1.2569439 50.588085 -32.172474
1.2457917 50.371681 -32.173534
1.4415412 51.222 -32.160454
1.4472566 51.092918 -32.142857
1.1512432 50.817219 -32.171482
1.1451368 50.500507 -32.190788
0.95043397 50.46706 -32.135571
1.4544694 50.359653 -32.193214
1.0431907 49.513088 -32.182816
1.6511905 51.204601 -32.186573
1.6485095 51.12254 -32.20676
1.3444235 51.087063 -32.129166
1.6418688 50.679173 -32.197166
1.3559735 50.462933 -32.154476
1.0554106 50.465767 -32.14703
1.6438735 50.375763 -32.209133
1.5573692 50.352688 -32.201889
1.7443378 50.935017 -32.116512
1.0493476 50.865047 -32.103455
1.1581535 50.77763 -32.128429
0.86399043 50.77792 -32.117466
1.1450918 50.579952 -32.17572
0.8598516 50.363628 -32.144444
1.3322279 49.531696 -32.201599
1.5286081 50.796375 -32.21048
1.3449316 50.360878 -32.17601
1.3499112 49.088867 -32.195942
1.3508766 51.208008 -32.148899
1.4535141 50.457005 -32.167496
1.1579463 50.337181 -32.104954
0.95043778 50.370735 -32.148144
0.86531746 51.090019 -32.096783
1.2301583 50.948822 -32.076389
0.76066411 50.269085 -32.153419
1.3557751 50.478527 -32.217636
1.1476181 50.198505 -32.210438
0.95215821 50.051319 -32.166985
0.85839295 50.051098 -32.155689
1.054081 50.046707 -32.175068
1.3428385 49.963627 -32.217865
1.1542146 51.084934 -32.105572
1.4576378 51.034225 -32.21489
0.95243168 50.68153 -32.134602
1.4478576 50.724106 -32.229614
1.4806311 49.94556 -32.231895
1.5444551 50.555637 -32.163715
1.3569279 50.333641 -32.119659
1.2633989 50.426029 -32.091145
1.6723745 51.147297 -32.131554
1.6888034 50.774624 -32.11367
1.258116 50.331291 -32.114178
1.7119968 50.196594 -32.128216
1.0905602 50.401337 -32.059086
1.7300868 50.435799 -32.139431
1.438195 49.503456 -32.215111
1.0553322 49.952221 -32.207497
1.0578918 49.736977 -32.185131
1.7546098 51.007206 -32.197025
1.7452667 50.773735 -32.197937
1.7487302 50.688061 -32.208267
1.6383073 49.934441 -32.202763
1.5531471 51.092312 -32.148544
0.77035034 51.114788 -32.121811
1.4466281 51.130554 -32.182957
1.8402884 50.833595 -32.252544
1.8184516 50.588669 -32.234657
1.1488621 50.046959 -32.175941
1.247808 49.709999 -32.159756
1.0460863 50.499275 -32.184002
1.7536602 49.064732 -32.230427
1.5653203 50.972122 -32.11058
1.7306385 50.560436 -32.177059
1.5259116 50.323845 -32.13686
1.8473701 51.098701 -32.194988
1.8335156 50.679012 -32.210583
1.8267932 50.545551 -32.192818
1.8732975 50.917095 -32.175022
1.4356067 49.076504 -32.189087
1.5399311 49.068542 -32.198303
1.1513045 49.078026 -32.191395
1.7768898 50.358692 -32.228874
1.7673755 50.254208 -32.235367
1.5506163 49.911648 -32.179859
1.9068747 51.129963 -32.195107
1.8695326 50.369122 -32.243877
1.1441042 49.511024 -32.19809
1.4609437 50.154774 -32.18483
1.5231733 49.59206 -32.141449
1.423022 48.680035 -32.224792
1.6417282 50.991261 -32.183556
1.0487483 50.362793 -32.152596
1.2351456 48.986797 -32.212818
1.5412469 48.86488 -32.190449
1.239975 48.685253 -32.22113
0.56560063 49.074955 -32.139595
1.1539526 48.854942 -32.18544
1.4362686 48.766068 -32.218868
0.93502712 50.960129 -32.184776
1.8510978 51.024891 -32.20475
0.67901099 49.665962 -32.169128
0.66619515 49.990829 -32.114651
0.54561496 49.873577 -32.163586
0.6799773 50.173477 -32.165871
0.75497186 49.734356 -32.161205
0.46386683 49.526672 -32.141171
0.76183593 49.517094 -32.164345
0.76097465 49.422806 -32.177784
0.39597499 49.357639 -32.150311
0.76244366 49.29554 -32.163464
0.59452713 49.66362 -32.154591
0.54007638 50.14093 -32.131229
0.65492439 50.361111 -32.122978
0.66099083 50.152145 -32.12447
0.34474468 50.132786 -32.090336
0.30084264 49.984711 -32.099632
0.95836806 49.963768 -32.185825
0.65253437 49.929466 -32.125668
0.27935827 49.801884 -32.094028
0.8626579 49.676399 -32.199692
0.26501501 49.640728 -32.139111
0.56096339 49.612492 -32.128014
0.74735701 50.585072 -32.134682
0.35956073 49.969147 -32.116123
0.34785092 49.870064 -32.129761
0.74803734 50.652462 -32.182156
0.76140368 49.200581 -32.176796
0.75989246 49.077595 -32.164036
0.44080377 48.914711 -32.240292
0.56257534 50.843929 -32.077827
0.91429353 50.725971 -32.183483
0.7558347 50.498741 -32.150341
0.66563058 50.051086 -32.148895
0.33543384 49.756573 -32.119892
0.32200611 49.639347 -32.13401
0.96400499 49.652679 -32.213634
0.65924251 49.520248 -32.154533
0.3082732 49.522171 -32.145267
0.56071138 49.43499 -32.155769
0.8571384 49.426144 -32.188568
0.5464313 49.928726 -32.117001
0.85161793 49.927383 -32.13932
0.85240984 49.699169 -32.140121
0.56389165 49.508995 -32.132771
0.49605536 49.450874 -32.105877
0.76825726 49.388786 -32.147892
0.46906519 48.978764 -32.161716
0.42311835 48.880482 -32.127541
1.0479815 48.90057 -32.221138
0.75362754 48.845325 -32.152084
0.95034814 48.765327 -32.1982
0.86248171 49.297947 -32.170666
0.55451822 49.283535 -32.138519
0.8594991 49.204071 -32.185711
0.85854793 49.07795 -32.170166
0.84995973 48.981834 -32.18853
0.84755993 48.888206 -32.202545
0.85175073 48.858559 -32.169357
0.76012468 50.15868 -32.140884
0.4754746 50.15345 -32.117065
0.66214311 49.204769 -32.167679
0.56305373 48.981403 -32.15583
0.58609891 48.885147 -32.144432
0.85844302 50.143101 -32.145714
0.57498288 48.887421 -32.166992
0.47949708 49.953495 -32.165836
0.47351861 49.589634 -32.19133
0.46765924 49.040417 -32.194267
0.65795541 49.698612 -32.122288
0.65362 49.070621 -32.148956
0.7506181 50.819965 -32.132946
0.6693145 50.804977 -32.141331
1.0446374 50.737404 -32.198376
0.76579607 49.963249 -32.163288
0.77372193 49.332119 -32.211597
0.76600492 49.116447 -32.202988
0.75771892 48.884052 -32.194386
0.46017325 48.89397 -32.180531
0.56532669 49.188175 -32.155727
0.8526814 49.112377 -32.200352
0.64189458 50.508232 -32.132759
0.9481895 48.857178 -32.173679
0.48287237 49.427567 -32.162483
0.97546291 49.334351 -32.244446
0.98959255 49.240803 -32.263687
0.9516542 48.892155 -32.216492
0.48642218 48.792553 -32.206566
1.2538643 49.292915 -32.188938
1.0554965 48.856274 -32.184715
1.3342168 48.75169 -32.20929
0.63963401 50.588863 -32.122814
1.2208805 49.183445 -32.217602
1.2529671 48.761677 -32.214401
0.65980339 49.296986 -32.160938
1.1192822 49.632549 -32.222187
0.65566516 48.98872 -32.168732
1.1460981 49.104862 -32.249134
1.0631919 49.789768 -32.116486
0.95439744 49.106167 -32.221062
0.85748243 50.49736 -32.173122
0.65988016 49.431038 -32.165897
1.1369803 49.331215 -32.243187
0.65183806 49.119854 -32.1954
0.66983914 48.917072 -32.141468
1.0365088 49.123753 -32.216221
0.96292806 49.480965 -32.141964
1.0291247 50.313946 -32.106277
0.73633003 48.948086 -32.13092
0.93707871 50.321781 -32.111221
0.88061643 50.321518 -32.107731
0.92566323 49.780628 -32.120533
1.0748632 49.294914 -32.130939
0.93833971 49.229607 -32.119827
1.1707928 49.020874 -32.135727
0.82654834 49.345932 -32.219658
0.89406586 49.232212 -32.127842
0.55013156 49.956375 -32.162292
0.82671165 49.579082 -32.247089
0.76756859 49.526257 -32.234928
0.80728626 49.241756 -32.246925
0.79533553 49.046799 -32.242752
0.82880688 49.023407 -32.246845
0.4250325 49.128067 -32.14304
0.64674056 49.35989 -32.187378
0.5260427 49.102158 -32.171535
1.0501516 48.993385 -32.260639
1.232034 48.888901 -32.228432
1.4278388 48.966496 -32.240021
1.267019 49.142006 -32.232635
1.5308089 49.752842 -32.226738
1.3361681 50.022633 -32.134754
1.8117363 50.041527 -32.171272
1.3460321 50.053009 -32.191902
1.445698 49.73748 -32.216602
1.4446471 50.024353 -32.152153
1.3533556 50.2365 -32.144432
1.5448027 50.460964 -32.190571
1.6243787 50.105518 -32.139862
0.95566463 51.167397 -32.057968
0.47743642 49.754997 -32.153999
1.1415358 49.7313 -32.19965
1.7549353 49.674519 -32.152061
1.7543545 49.011795 -32.156021
1.4453228 48.852097 -32.17326
1.6395438 49.01474 -32.177063
1.6565313 48.954342 -32.198456
1.3511548 48.838924 -32.176571
1.6770897 48.855274 -32.204742
1.3238933 49.668064 -32.093834
1.8190105 49.524887 -32.130276
1.5955608 49.121666 -32.117455
1.3342154 49.033157 -32.131866
1.6415565 48.817574 -32.153484
1.3553457 48.80407 -32.117352
1.3657024 48.625767 -32.10878
1.7658587 49.103752 -32.150818
1.5320868 49.035576 -32.156822
1.5162249 48.900574 -32.125011
1.7757463 48.833984 -32.15292
1.5505502 48.703197 -32.160648
1.7609844 48.799965 -32.228561
1.7303705 48.758259 -32.256771
1.4331729 49.201954 -32.232471
0.85497308 49.744381 -32.164871
1.6708281 49.192177 -32.271378
1.6408155 48.752148 -32.234764
1.2733209 50.658363 -31.960278
1.3445175 49.140198 -32.08503
1.2913291 49.340622 -32.261719
1.3217978 49.215767 -32.30476
1.3199668 49.139889 -32.299507
1.2548006 50.266953 -32.198391
1.4583619 50.057606 -32.205257
1.4618106 50.273064 -32.216019
1.1552455 50.242558 -32.148678
1.6247346 49.738121 -32.229343
1.2497158 50.999557 -32.137329
0.94425416 50.989967 -32.120708
1.7299137 50.013325 -32.14325
1.0860026 50.126534 -32.077152
0.55380082 49.754513 -32.133286
1.545186 50.007862 -32.151966
1.0565293 51.173664 -32.088566
1.2648547 50.106499 -32.117821
1.5421433 50.117138 -32.133167
0.95937729 49.747189 -32.18063
1.3527713 50.813419 -32.193119
0.77009273 49.69698 -32.139866
1.0521901 50.990841 -32.130703
1.4390168 50.537189 -32.141701
1.6370099 50.477226 -32.122753
1.342664 50.771069 -32.139729
1.1516099 50.0135 -32.135563
0.86030984 50.586239 -32.139324
1.3605821 49.171459 -32.157043
1.7188993 49.156887 -32.187778
1.6562612 49.770878 -32.155476
1.4643233 50.428696 -32.10743
0.95111799 50.236477 -32.138203
1.3445323 50.595089 -32.17823
1.2486918 50.249832 -32.144958
1.1548748 50.987103 -32.130177
1.7466211 51.086578 -32.170532
1.3447819 48.684216 -32.20536
0.9478097 48.681854 -32.20602
1.4470236 50.772774 -32.166618
0.75377738 50.050457 -32.148815
0.46837413 50.040138 -32.135857
0.770733 50.028202 -32.113117
1.552202 49.65395 -32.116631
1.1463771 50.280014 -32.190826
0.91435814 50.086872 -32.231983
1.0566413 50.80835 -32.17181
1.4377353 50.725235 -32.094677
0.85385549 51.216892 -32.108345
0.88145483 51.170845 -32.079895
1.1624036 51.124088 -32.157394
0.65563118 50.474762 -32.116367
1.3037357 50.140923 -32.235294
1.250499 50.204124 -32.203632
1.2465258 48.660191 -32.153999
1.3626778 48.667484 -32.162846
1.0483267 50.389721 -32.221699
0.95944118 50.414459 -32.20536
1.4311061 50.233852 -32.153042
1.6812351 50.990955 -32.110142
0.47571588 49.80492 -32.191902
0.94290113 50.777618 -32.12093
1.5466027 50.781273 -32.171741
0.76549196 50.172497 -32.176743
1.0097613 49.965221 -32.046902
