# .PCD v0.7 - Point Cloud Data file format
VERSION 0.7
FIELDS x y z
SIZE 4 4 4
TYPE F F F
COUNT 1 1 1
WIDTH 1612
HEIGHT 1
VIEWPOINT 0 0 0 1 0 0 0
POINTS 1612
DATA ascii
16.928671 7.5881238 26.170525
17.134731 5.7167139 26.428699
14.634422 7.5431566 26.437712
17.444736 5.3551536 26.463583
16.54866 7.6762671 26.882515
15.011625 7.6082754 26.157938
18.360052 5.2702937 26.393553
13.452218 7.7298756 26.357122
17.210905 7.6089916 25.993214
16.628372 7.8801394 26.66814
13.845742 7.7276745 26.327364
16.731306 7.9305673 26.73884
15.641255 7.3825932 26.125698
20.523935 7.7608719 25.764666
16.642714 8.0198917 25.987318
17.438515 6.3405561 26.103678
17.940216 6.3924255 26.50494
15.972327 7.873208 26.696562
16.138384 7.5432234 26.139544
14.946497 7.647326 26.795204
17.973078 6.1679869 26.512968
15.319426 7.9775963 26.154596
14.736895 7.7319827 26.265593
17.748177 5.3404245 26.457951
15.445535 7.4863811 26.67371
17.352079 5.901382 26.126492
15.552902 7.3881984 26.824383
16.025602 7.934629 26.233397
14.035259 7.8483472 26.288681
15.039135 7.9093828 26.308338
11.433956 7.5481563 26.458416
16.489531 7.4481883 25.973993
15.235272 7.9185443 26.291172
16.94768 7.5659699 26.806843
14.945986 7.791996 26.894157
17.538782 6.962656 26.395395
17.335724 6.7338176 26.43268
17.037712 7.5762677 26.773823
15.154488 7.9244051 26.300549
12.088588 7.5534911 26.40991
13.634933 7.7329102 26.341637
13.640603 7.543602 26.306591
17.036318 7.7314167 26.118486
17.936846 5.3230481 26.490576
14.929736 8.1266241 26.13541
17.540234 6.2108746 26.446827
17.439678 7.7012477 26.82967
13.925821 7.7283797 26.321327
17.248268 7.5854292 26.76483
16.13777 7.5912857 26.21966
16.617496 7.330451 26.460485
17.530886 7.0602088 26.125092
17.626835 7.4587822 26.508257
13.548748 7.716888 26.357203
15.291105 7.8001299 26.695807
13.722166 7.5515728 26.302715
16.766464 7.4352169 26.746937
21.199871 7.9989152 25.882744
14.842151 7.8199768 26.279022
21.336288 7.7470284 25.932415
17.347042 7.8445234 26.687778
12.167322 7.5104752 26.953199
12.966516 7.6977587 26.38763
17.431479 7.498415 26.107275
18.040178 6.7013006 26.504116
16.235958 7.8655276 25.887512
15.241813 7.7648559 26.186682
11.422281 7.7802935 26.367674
17.668066 7.7228918 26.137829
17.259096 5.289115 26.049242
13.741707 7.7310357 26.335104
17.50444 5.6832309 26.114851
18.173803 6.2658191 26.52792
17.272512 5.7474313 26.354485
15.737292 7.7406659 26.770243
17.647863 6.9946976 26.495562
17.624216 5.7987013 26.390392
17.64616 7.4471569 26.294308
17.636341 7.4418573 26.601257
16.239458 7.9596353 26.159079
16.729219 7.9069276 26.819422
17.23727 7.8822069 26.62137
17.331844 7.5011311 26.11414
13.911026 7.6726656 26.388147
20.26907 7.6964617 25.909185
15.300781 7.5884423 26.526957
21.436897 8.0360432 25.915026
17.53138 7.4273791 26.092386
17.823294 7.6209197 26.660255
17.643076 7.5500422 26.019209
13.655073 7.7681475 26.291374
15.8349 7.5980754 26.234985
18.106276 7.1718884 26.504915
17.537441 5.5158229 26.350176
15.859818 7.4886947 26.124464
18.029585 5.5679688 26.42956
21.425335 7.9610085 25.878651
17.543354 7.2014256 26.097069
15.340894 7.8635497 26.208992
17.546219 7.0915203 26.378235
16.242119 7.9346151 26.765305
17.636457 7.6163683 26.101557
14.722302 7.8010578 26.930321
15.740602 7.5761495 26.882463
17.445023 6.5453792 26.385481
17.234278 7.5328755 26.052645
17.245768 5.3542948 26.456461
13.625095 7.4676142 26.781057
16.219526 7.8971157 26.838987
17.431187 6.2415571 26.093845
14.93797 7.5096564 26.284855
16.634171 7.6393819 26.119736
15.348228 7.3393202 26.471636
16.950012 7.4002533 26.734224
17.338013 7.6323242 26.070946
17.137754 7.5369134 26.066971
14.139704 8.0733204 26.270977
16.23007 7.8586869 26.684673
16.638615 7.547328 26.302645
17.157799 6.6845603 26.083427
17.137058 7.4322929 26.112846
15.842163 7.5314512 26.363991
13.138015 7.4588499 26.843287
13.54927 7.4709187 26.787941
17.434128 7.4582324 26.315403
17.147327 7.5648432 26.496061
14.543892 7.6091433 26.886284
17.727448 5.7043595 26.373625
17.080093 7.8459239 26.246712
14.947792 7.4818869 26.178547
15.623393 7.3962302 26.617769
13.74213 8.0780506 26.298635
15.023843 7.5809059 26.309856
13.743481 7.4523315 26.792328
13.455476 8.1599503 26.34787
20.921623 7.9028921 25.906345
15.248113 7.8062062 26.88451
16.059889 7.8827009 26.879122
17.535276 7.4967003 26.102928
11.549897 7.9805984 26.401501
16.138176 7.8345079 26.760391
15.039009 7.7149062 26.868345
15.159957 7.3612537 26.518454
15.996099 7.9607549 27.013103
17.832539 5.6945314 26.366667
12.409048 7.4630342 26.550266
17.866621 7.6012449 26.076984
11.491511 7.622333 26.506048
13.835474 7.5446029 26.289536
13.742198 7.8263488 26.374521
15.548633 7.8064165 26.851337
16.036676 7.8558965 26.159117
16.452093 7.8775673 26.870216
17.458532 5.2237229 26.362564
17.948166 7.4267206 26.576029
17.428162 6.4884181 26.427252
15.232295 7.4483738 26.251228
13.957165 7.3974195 26.944559
17.424847 7.6028032 26.117672
17.442217 7.5709629 26.745171
17.430111 6.6958933 26.067532
16.332113 7.4559617 26.700487
16.038017 7.5834365 26.236038
18.29624 5.3742647 26.403168
17.03702 7.6067882 26.162039
14.742935 7.5102997 26.295332
17.828297 5.3036757 26.491581
16.33618 7.5125785 26.183428
17.944853 5.3506846 26.454205
13.54271 7.5523334 26.303986
14.23872 7.8599253 26.276545
16.2561 7.9479942 25.994547
15.439115 7.6485605 26.773441
18.041824 7.4596138 26.489826
16.566488 7.583704 26.420513
14.402191 7.3838058 26.487495
18.21184 5.321332 26.427629
18.23609 7.4356098 26.544806
21.262756 7.7674527 25.739712
15.634068 7.8633213 26.183529
18.022209 7.4357843 26.57519
15.537548 7.7398744 26.209372
16.844387 7.5679154 26.790478
17.441513 6.9558487 26.399429
17.317698 6.6879225 26.04192
15.886924 7.5257263 26.971554
11.482743 7.9739943 26.391903
16.40704 7.4217153 26.23547
14.349373 7.5831513 26.189953
17.844324 5.906848 26.352303
18.106825 7.498044 26.689034
18.442245 5.2587323 26.43601
17.126659 5.8002639 26.438259
16.016989 7.4087992 26.803713
17.74695 5.3353333 26.504229
11.775752 7.7024269 26.568336
16.63739 7.7341723 26.135027
16.440495 7.5936766 26.206924
16.647049 7.5829167 26.802948
13.724604 7.4901271 26.701483
16.533743 7.6388154 26.126495
15.438223 7.636035 26.205097
16.538063 7.7314587 26.144787
16.016907 7.4806399 26.126863
16.943531 7.8364477 26.702484
14.128091 7.4639845 26.253469
14.043288 8.0002213 26.260981
11.616692 7.8289061 26.416077
11.619676 7.9880648 26.408052
13.632733 7.8255014 26.370003
15.141737 7.5430861 26.216934
17.136841 7.7339878 26.112646
16.416475 7.8108459 26.647491
17.835024 7.449996 26.489017
17.543814 6.9955034 26.364077
17.428396 5.2609458 26.410671
15.842282 7.8228426 26.208281
15.853272 7.4504976 26.487478
16.31687 7.7903666 26.644365
17.68737 5.3049998 26.502211
18.140911 7.4303808 26.554905
18.146233 7.6770253 26.007011
17.847294 7.7204828 26.06151
11.545966 7.7120881 26.618374
13.44692 7.4560852 26.826147
15.540012 7.8590746 26.18932
18.096901 5.9704618 26.375956
17.053228 7.3996048 26.181572
16.341198 7.9974051 26.868704
17.365267 6.6887712 26.369516
20.159184 8.0997715 25.839077
13.638638 8.1315594 26.206491
16.639185 7.5867882 26.193737
16.638184 7.9279566 26.198868
16.542162 7.9062481 26.195879
17.432137 7.6161909 26.69063
17.260134 5.8447065 26.051815
18.156694 5.3226757 26.49304
13.754034 8.3739567 26.44449
15.432334 7.5948548 26.256399
17.542599 7.6396675 26.055338
11.538039 7.6999106 26.359043
16.606447 7.7587066 26.901386
16.134926 7.826602 26.196148
14.868294 7.3865261 26.447941
16.500671 7.5884519 25.998888
17.734016 7.6334267 26.047594
20.802816 8.0489073 25.813759
14.34199 8.082345 26.264431
16.349401 7.891942 26.051455
18.363731 7.4799247 26.504623
15.806885 7.5974121 26.432474
15.839699 7.6398258 26.174557
16.007011 8.0412159 26.961584
14.830748 7.6101503 26.871279
12.445483 8.0749826 26.379486
18.764339 7.9961815 26.037365
16.036165 7.6342635 26.159412
17.140738 7.6358666 26.093863
13.837203 8.1418343 26.32761
14.942162 7.6342659 26.240025
21.194168 7.6520996 25.875069
16.235512 7.8578739 26.141665
15.14086 7.6390262 26.222319
15.634232 7.6400161 26.189993
14.240028 7.5476179 26.268482
17.628336 7.8006086 25.986164
14.701992 7.5802412 26.585161
15.363697 7.4050641 26.3962
16.342878 7.6377659 26.142014
16.935719 7.7286835 26.117743
17.631596 6.9640603 26.389435
15.118405 7.3753462 26.399725
16.73938 7.7461538 26.698626
15.338717 7.4534988 26.770117
16.139925 7.454618 26.172348
13.828395 7.4470716 26.648649
15.738796 7.4523792 26.198019
17.534203 6.6949205 26.363346
20.526375 7.9378977 25.934393
17.960222 7.5139918 26.035089
15.136975 7.8601532 26.220026
16.138386 7.9362969 26.771955
17.742294 7.5005264 26.343899
13.420193 7.817246 26.382359
16.732508 7.6386971 26.114515
17.15398 7.8812432 26.601954
13.735636 7.7632113 26.297588
16.4277 7.4032445 26.814089
16.538982 7.9317393 26.738747
15.547594 7.5934372 26.275381
18.865799 7.9179735 25.955873
16.039606 7.9312334 26.776268
16.56373 7.4191628 26.451054
13.024863 7.896162 26.440994
15.04101 8.1050072 26.113415
17.934877 5.9796538 26.464815
15.940613 7.5032716 26.317663
17.257044 6.9749928 26.401306
17.440708 6.685153 26.36972
17.452671 7.4211226 26.691366
15.835115 8.0116911 26.915401
14.835173 7.6540008 26.806299
17.938543 7.4556761 26.496859
17.516937 5.5025549 26.117735
17.674183 6.7131038 26.049068
16.261841 7.3880048 26.342104
18.911493 8.0716133 25.977453
12.218252 8.0929308 26.413115
15.188539 7.3867846 26.44829
17.028078 7.8033104 26.601318
16.43856 7.3630109 26.303469
16.757347 8.0005884 26.037405
17.62328 5.2908645 26.365612
16.932261 7.5485902 26.273302
16.639603 7.9605021 26.123795
17.944805 5.2356129 26.476149
17.72435 5.8324866 26.354488
21.174381 7.9992456 25.879457
15.64014 7.6167717 26.799248
17.136229 7.8638306 26.066191
15.139367 7.5852361 26.292156
11.365844 7.7672424 26.546152
16.553028 7.4619274 26.688177
17.456299 6.015255 26.1549
14.943007 7.6796708 26.1772
14.840412 7.9574008 26.252743
16.118376 7.8248787 26.053165
18.143244 5.9601741 26.51576
15.335747 7.5469527 26.200224
20.527996 7.8287926 25.798275
14.21937 7.9267402 26.221375
14.867409 7.9305944 26.1642
14.646705 7.7751575 26.228357
12.168337 8.0762777 26.351734
15.441289 7.6147914 26.81216
13.10494 7.3199887 26.469887
15.241776 7.6117792 26.828714
15.837345 7.9292293 26.788219
15.041381 7.4817801 26.181789
17.043476 7.8556547 26.066797
15.351089 7.474349 26.167994
13.234499 8.0898104 26.323143
16.739206 7.4889598 26.572756
17.330563 7.5356793 26.055813
15.637816 7.4981322 26.847246
15.320902 8.1318607 26.081005
11.7915 8.0003023 26.476738
15.458644 7.3445044 26.20463
17.430851 7.8498569 26.677523
18.117823 6.7983503 26.512653
12.243649 7.8360901 26.475353
15.496971 7.4334536 26.509823
16.340717 7.5170722 26.727282
17.925379 7.4287872 26.024199
13.345125 7.7623444 26.309263
13.926587 7.7528024 26.274839
15.834936 7.7088375 26.801424
15.340741 7.9627576 26.218447
17.572023 7.2505388 26.393778
12.33868 8.0618486 26.399216
17.945107 6.5544224 26.364126
14.140939 7.9602556 26.295732
20.72687 7.8159523 25.921253
15.242559 7.9570704 26.224489
20.837053 7.8945403 25.773113
14.332802 7.8972206 26.180485
14.143439 7.471714 26.443604
16.81562 7.8724437 26.815014
14.437961 8.064743 26.301285
20.971102 8.0007105 25.920488
17.827089 7.3959289 26.458134
16.345684 7.771306 26.114004
17.434235 6.0166349 26.088722
18.225769 5.1985292 26.447895
14.941049 7.5886698 26.31398
11.940021 8.0663843 26.408873
14.559753 7.8227596 26.126486
20.935349 7.7030296 25.915859
15.33963 7.6421657 26.20854
15.936923 7.7452106 26.756866
15.636221 7.7389641 26.201157
20.506126 8.0556049 25.801367
14.019596 8.136425 26.202982
17.331356 6.9817333 26.418236
13.34078 8.0641136 26.327328
15.244442 7.6489758 25.947081
11.615064 7.8924198 26.394871
17.159719 5.2336445 26.113754
13.323134 7.6427631 26.340324
20.160099 7.9980955 25.818241
13.830813 7.9549003 26.320341
16.426079 7.6210227 26.944771
16.233999 7.5907569 26.219547
17.152187 7.0954289 26.094749
15.336373 7.7083592 26.84399
17.831631 7.4281669 26.06089
16.836901 7.5427957 26.086481
17.662609 6.7797832 26.070017
15.656927 7.4802227 26.138769
14.746089 7.8307476 26.862707
15.036523 7.738811 26.240793
16.034718 7.5809979 26.850986
15.641752 7.9566822 26.197025
17.543598 5.6999445 26.38278
16.432297 7.7072124 26.768137
15.258618 7.7130604 26.307341
17.535725 7.799046 25.99229
16.024071 7.6547766 26.918314
16.342897 7.7267475 26.155458
16.451555 7.6932187 26.885979
14.939112 7.7708349 26.214867
15.744232 7.4620647 26.146252
15.946922 7.5935616 26.243292
16.107151 7.707283 26.897146
16.361284 7.6892619 26.870979
18.13653 5.2123442 26.476425
16.638714 7.4580731 26.12919
18.022432 6.5950289 26.36323
15.730136 7.8866963 26.740665
16.038433 7.7608595 26.134052
15.472046 7.8949056 26.111662
17.441208 7.4263039 26.083918
16.535898 7.8220077 26.160444
15.235728 7.7403774 26.229818
15.334238 7.733438 26.219694
16.133762 7.6764789 26.085354
17.346008 5.3313961 26.445377
14.742829 7.6779766 26.189653
15.225209 7.6702209 26.129969
15.238507 7.6366458 26.218317
14.753109 8.0050097 26.206654
19.268457 8.0517521 25.920366
18.413759 5.8207951 26.408161
16.734015 7.7777452 26.08762
14.937799 7.9278822 26.866385
14.93964 7.8423347 26.836977
12.93022 7.7648888 26.312634
15.836985 7.9593315 26.185057
16.493538 7.3410897 26.381168
17.266851 5.1686301 26.086761
14.7853 7.9688635 26.093493
13.554024 8.1504984 26.223251
15.427698 7.8823476 26.751513
14.639548 7.8280253 26.872183
14.536823 7.8368282 26.876486
15.849052 7.4634809 26.731525
14.335764 7.7672734 26.25095
11.902496 7.934062 26.51893
14.933543 7.545785 26.420755
17.840267 6.0735769 26.486
14.742086 7.7778077 26.225029
17.24473 7.4264402 26.401773
14.536829 7.707695 26.923563
15.926249 7.4560285 26.192085
15.137158 7.7630339 26.19783
15.11769 8.0032635 26.181154
16.751808 7.9355273 26.008358
15.137715 7.8335776 26.823904
14.844524 7.6358376 26.246645
18.005892 7.4821835 26.00131
15.828879 7.7720065 26.1455
14.838387 7.7672505 26.211077
16.735363 7.5471153 26.283951
16.840794 7.5032754 26.466845
15.034422 7.9940372 26.171068
18.810078 8.188139 25.96187
13.363783 7.928401 26.435581
15.942309 7.4699831 26.124269
11.59997 7.8315001 26.382999
17.449728 7.6724038 26.152504
16.444372 7.446537 26.142117
17.736874 7.4115138 26.373323
15.650111 7.6891294 26.143801
15.438229 7.547708 26.191814
17.839682 6.5395865 26.36178
16.237017 7.5457778 26.133492
17.952366 7.5665393 25.969757
20.854622 8.0117292 25.95159
14.93313 7.9965334 26.194462
15.129018 7.8566327 26.768028
17.038628 7.4563856 26.10778
16.236671 7.7188821 26.878229
15.63647 7.5298982 26.375237
17.344578 7.4371624 26.090042
14.840142 7.9259644 26.864529
15.739392 7.5341458 26.375381
15.33651 7.5357518 26.401558
16.140097 7.5311475 26.340187
14.53674 8.0045242 26.224354
17.238689 7.604835 26.706968
15.541268 7.9355903 26.813076
16.434986 7.8656449 26.125937
13.342673 7.4232087 26.367487
17.648514 7.3948836 26.128355
18.909996 8.1662531 25.946636
14.842516 7.6574092 26.173817
17.446297 7.5543113 26.032778
14.658822 7.9995456 26.210539
16.037401 7.5342879 26.344582
17.259733 5.4005241 26.412792
17.520939 6.5069733 26.453613
17.541603 6.1107354 26.412998
14.543771 7.7668161 26.23773
17.576479 5.5643339 26.080696
17.819769 6.0632162 26.331547
17.841694 6.8219337 26.494978
17.25543 5.7657886 26.041561
15.447993 7.7687998 26.176764
17.990503 7.2331171 26.382374
17.378258 6.0476704 26.486696
16.938639 6.3324256 26.076052
17.654234 6.0572248 26.454306
16.433573 7.7623248 26.890619
17.424723 7.178019 26.163471
13.734276 8.1359005 26.228731
14.941395 8.0287189 26.883059
15.224566 7.4138031 26.845747
14.342114 8.0630407 26.309626
20.637211 8.0244389 25.930538
15.016512 7.8027983 26.760904
17.125994 7.6042271 26.151556
14.349566 7.4814601 26.654924
15.32389 7.6851697 26.144144
17.148233 7.7808747 26.060896
16.243176 7.8242264 26.186749
16.241711 7.9918404 26.088524
15.543959 7.4591641 26.75131
17.145109 6.7328877 26.135376
17.413258 7.1626978 26.024874
14.111693 7.6982079 26.389444
15.536757 7.7166491 26.301466
15.032963 7.2894263 26.39131
17.536613 7.4114771 26.372522
15.218286 7.6780086 25.990744
16.146975 7.6886721 25.981968
15.25645 8.0103645 26.044098
16.148033 8.0241728 26.001053
17.423204 5.9127893 26.120661
16.540205 7.8374405 26.724037
18.024792 7.4859033 26.712585
16.74865 7.6435466 26.007154
17.652985 7.6711164 25.951197
16.353884 7.9958224 26.079605
16.1406 7.9539509 26.160017
15.839035 7.5923071 26.045462
14.836126 7.8414083 26.847534
14.435628 7.991087 26.222578
18.219374 7.1344504 26.497978
17.023066 7.6631427 25.983826
14.449675 7.9255543 26.904251
17.638248 5.3380051 26.466114
14.436664 7.6362367 26.272547
15.854263 8.1385212 26.042875
13.65414 7.511971 26.588444
14.837081 7.543201 26.436426
13.746618 7.4310093 26.584404
13.478149 7.5266571 26.543131
14.140494 7.6338463 26.293928
14.030797 7.6342931 26.298021
21.008047 7.9727526 25.764393
13.430778 7.6487966 26.324636
15.73783 7.8352051 26.215258
16.190498 8.00735 26.910103
15.812265 7.3813152 26.291515
16.343584 7.5956717 26.211285
17.547066 7.188879 26.380867
15.04559 7.5048671 26.887081
17.538782 6.554915 26.377102
12.505553 8.1577406 26.332031
11.494532 7.788342 26.361389
17.570477 7.675149 26.134754
18.234327 6.5838037 26.505154
15.830809 7.5004082 26.838284
13.731693 8.1533146 26.318415
16.833639 7.8297372 26.143909
17.639952 6.6661692 26.096394
13.351582 7.4457932 26.582457
14.848587 7.7038674 26.875395
16.430168 7.6652222 26.065613
17.444418 6.7841496 26.377361
18.258266 7.6480165 26.004053
12.422699 7.6956749 26.344332
16.026543 7.4220138 26.26853
14.541884 7.689642 26.203182
20.894318 7.655036 25.856796
15.428367 7.6729746 26.153986
13.635495 7.6821518 26.26923
17.149977 6.9716377 26.129118
13.143471 7.6712112 26.318628
17.222931 7.8373446 26.682503
14.843769 7.4784923 26.200403
13.764383 8.3758116 26.365164
13.938059 8.0818768 26.28895
20.478455 8.0353813 25.861973
13.938077 7.704021 26.261408
15.531238 7.5277205 26.390938
17.458796 7.2234955 26.369862
17.66147 6.5018506 26.285482
13.31727 7.7245412 26.452486
12.275661 7.6033812 26.877901
16.839281 7.8421893 26.70694
16.935427 7.5328665 26.596626
12.728214 8.0469027 26.404781
17.241905 7.6381249 26.080465
14.142275 8.113452 26.171709
20.423819 8.1015177 25.810574
15.958846 8.0950699 26.051643
13.656349 8.0628691 26.353474
16.589804 7.9730935 26.976706
13.940165 8.0583801 26.336172
20.273994 8.0129957 25.96213
17.764629 7.4424629 26.659855
14.247919 8.1068497 26.154856
17.03594 6.4230866 26.535149
14.529528 7.9412575 26.898046
14.244715 8.0645771 26.316565
20.710117 8.0232897 25.940845
13.451859 7.4240193 26.864391
17.050442 7.0951653 26.10969
14.257311 7.964148 26.365566
12.336256 8.0513382 26.464464
15.738305 7.7368493 26.195103
14.571629 7.7315216 26.763802
18.036427 5.3494129 26.451454
15.434314 7.7408514 26.789265
15.436446 7.7355824 26.212423
14.040038 8.0768671 26.279186
16.534185 7.7009268 26.769915
15.332077 7.73701 26.80077
16.635855 7.7103848 26.755173
18.265368 7.5889697 26.723864
16.709316 7.7602658 26.892366
21.110714 7.7161145 25.994307
14.539407 7.9067526 26.187666
18.616531 8.0046387 26.011648
12.52878 8.0742188 26.365932
14.145162 8.0611563 26.322889
20.461674 8.0166006 25.958582
16.906281 7.9900351 26.819735
13.839141 7.8581977 26.296278
16.725096 7.7874532 26.777395
16.53158 7.8039298 26.791519
17.240839 5.6644335 26.046734
14.313624 7.6891055 26.213291
17.339325 6.7851233 26.075909
17.536354 6.9796844 26.105528
13.931358 7.9960675 26.253412
17.924988 5.7054739 26.38402
17.640627 7.8508477 26.663414
15.238737 7.7420034 26.801683
14.246412 8.0756693 26.268372
14.239954 7.6800346 26.232262
20.753685 7.8646069 25.791548
14.415198 7.9121194 26.201406
17.548847 7.221487 26.036589
17.623833 5.38941 26.378597
14.437135 7.8598781 26.261942
15.531937 7.769124 26.172972
14.551955 7.6417341 26.824911
16.363436 7.8865499 26.879608
17.743015 6.9658318 26.398596
17.634853 7.4388227 26.686148
15.722061 7.6782732 26.114536
13.128268 7.9555984 26.369802
15.75398 8.005127 26.910048
20.331594 7.7363591 25.876135
17.249243 5.5728068 26.435776
18.060905 7.434916 26.012863
13.645255 7.9903808 26.282814
17.639874 5.5622211 26.416033
17.429449 6.1066065 26.420031
15.043208 7.6218872 26.842154
17.52861 5.5664296 26.410191
17.646164 6.1051993 26.394133
20.801884 8.0153589 25.773624
14.332913 7.9635487 26.284683
14.675961 7.5477896 26.664251
18.50519 5.5540576 26.393974
15.637116 7.4889951 26.652458
16.941519 7.930954 26.722799
18.035349 6.3199244 26.386051
17.523556 5.3532081 26.441942
18.028967 5.8667297 26.497036
17.840332 7.1585951 26.498655
17.345646 6.9737682 26.116219
20.59869 8.0544405 25.928246
13.447253 7.6700344 26.271318
14.400243 7.5743117 26.594069
18.192196 5.3524656 26.358772
17.438763 7.8135457 26.746296
17.229221 7.6893277 26.154457
13.637962 8.1594706 26.327736
15.341153 7.7712307 26.185743
15.936113 7.8243542 26.202408
15.730446 7.7740259 26.156631
13.225758 8.1582851 26.359144
14.937789 7.5480413 26.226923
15.542824 7.9597454 26.20155
14.046269 8.1571636 26.298168
15.030777 7.8739738 26.773735
17.840242 5.5694451 26.427229
20.638914 7.850563 25.889416
17.339081 7.8052778 26.743338
18.045603 5.7869458 26.386843
17.620777 5.5461845 26.362337
20.742548 7.7821999 25.772943
17.136978 7.5182056 26.36845
17.941187 7.8001184 26.003857
12.050587 8.0560513 26.474833
16.133999 7.7698898 26.126801
17.243172 5.4902735 26.097424
18.051691 6.4749508 26.47254
15.838029 7.8388901 26.777273
15.840031 7.8565593 26.305752
15.13747 7.710422 26.86581
18.132944 7.6052666 26.675924
16.042936 7.709528 26.790674
16.632669 7.7403941 26.707764
16.542366 7.5410357 26.313168
15.645188 7.7796426 26.159758
14.127869 8.2770844 26.313938
17.922903 7.4440479 26.641966
17.033579 7.429471 26.714197
17.24305 7.5607309 26.474522
17.548336 5.3868608 26.378559
17.730076 6.7336326 26.433931
18.039486 7.6153569 26.680733
16.241995 7.7099648 26.775515
16.743837 7.7102346 26.751019
16.132339 7.4859848 25.908701
15.937614 7.835362 26.770855
16.942339 7.6051722 26.718601
15.141848 7.7418137 26.804712
17.538876 7.8495011 26.67697
16.745169 7.6119294 26.724915
15.138752 7.7344913 26.233137
15.235501 7.5467119 26.394159
16.031099 7.7388554 26.752443
15.14011 7.6139331 26.835577
15.637693 7.8365545 26.792353
19.572334 7.9736753 25.881151
15.209054 7.8069124 26.698345
15.034943 7.5849786 26.925571
11.943671 7.8508139 26.423338
17.537844 7.6534176 26.616268
16.434883 7.930512 26.74918
17.343628 7.4136896 26.393837
14.625611 7.4993501 26.624037
16.438768 7.6145816 26.745584
15.344525 7.5821118 26.275536
17.262341 7.6385179 26.637739
17.647774 6.5075822 26.460213
16.375767 7.3900619 26.786448
15.736061 7.8378682 26.781023
15.431492 7.4295316 26.513895
18.119183 6.5892205 26.498749
21.184368 7.6826668 25.73757
17.334709 5.3855934 26.410028
14.024595 7.6836615 26.249447
16.542576 7.620378 26.742853
17.253609 7.3898129 26.157461
15.933834 7.7743349 26.141201
17.827156 6.7277908 26.445505
14.136834 7.5434914 26.274988
15.34124 7.448544 26.242699
14.938957 7.5137367 26.833197
16.337814 7.6090822 26.757126
16.957994 6.5588064 26.161762
17.040779 7.9343262 26.718468
15.454876 7.4987822 26.858858
15.943039 7.6150222 26.776039
15.07871 7.9075313 26.156691
14.939118 7.9346256 26.314793
17.946199 7.5779791 26.750858
16.830643 7.9300747 26.724699
16.74925 7.5003147 26.769518
14.511026 7.4068727 26.366919
11.565226 7.8678575 26.433769
16.033199 7.6070838 26.772135
16.83794 7.5060744 26.759073
16.637445 7.6081934 26.732908
16.212025 7.6044106 26.843334
17.035658 7.4984226 26.743025
15.231499 7.4912066 26.879797
17.14175 7.62008 26.705486
16.240194 7.619863 26.758966
15.84198 7.6203794 26.785915
16.636841 7.5210533 26.708664
13.240046 7.9493103 26.364515
17.017321 6.7209196 26.107252
15.035406 7.7393999 26.809872
12.07193 8.0316105 26.416946
11.71419 8.0071974 26.383728
17.436659 7.5309973 26.657763
15.422005 7.4602656 26.155107
18.72245 8.1783781 25.965067
17.536682 7.4900093 26.725794
17.037617 7.6070347 26.708727
15.336576 7.6099577 26.819767
17.036562 7.5192404 26.679522
16.432407 7.8405299 26.734291
14.741899 7.61725 26.869421
14.938795 7.617939 26.857084
16.544098 7.50349 26.789207
16.456814 7.5738602 26.836506
16.134872 7.6114984 26.763374
17.333778 7.4978261 26.727451
16.630573 7.497633 26.773947
15.542959 7.6166854 26.805815
16.441765 7.5003653 26.802677
15.041249 7.9627447 26.237192
20.947403 7.9090085 25.830091
17.335972 7.5795054 26.759499
17.536371 6.3301196 26.387054
15.927606 7.5628433 26.85766
17.229156 6.7868018 26.084011
17.746082 7.0610814 26.462442
15.733088 7.4995356 26.835018
16.343822 7.5056534 26.793474
15.73771 7.6113939 26.791424
17.144274 7.4957137 26.733358
13.53298 8.0487881 26.359657
14.732282 7.7213607 26.902496
16.536594 7.9009757 26.839674
14.841382 7.9251142 26.325064
12.328033 8.038271 26.54689
17.541733 7.0325589 26.410925
14.74131 7.5410767 26.237089
12.423216 8.0246725 26.546703
15.036131 7.5428472 26.220877
16.541285 7.7414289 26.714872
16.435856 7.7465439 26.725092
17.450935 7.4151802 26.386545
13.342205 7.9608345 26.344601
16.239731 7.4980106 26.808357
15.530557 7.659956 26.919373
16.339632 7.7075877 26.772499
16.540985 7.4606571 26.071873
15.440084 8.0157433 26.156242
13.951712 8.2261705 26.408451
13.723636 7.5333209 26.606268
15.233652 7.5174685 26.491983
21.109924 7.7410846 25.791975
20.51062 7.7305331 25.8473
14.031077 7.7120557 26.42222
20.509306 7.6422124 25.818014
13.335691 7.6745863 26.303726
13.949055 7.4551935 26.772083
16.24254 7.4290209 26.927687
18.553082 7.8284407 25.924896
12.219069 7.8427916 26.344971
18.83128 7.8967772 25.90353
19.111858 7.9736905 25.887634
12.801886 7.9423189 26.376324
19.922466 8.041625 25.830299
14.004283 8.2231064 26.409986
11.99141 7.8869433 26.369244
19.570154 7.6503696 25.89543
12.730422 7.6720076 26.338242
17.442669 7.3817687 26.145142
18.533596 7.7743683 25.989462
12.052647 7.6934586 26.543926
20.950821 7.8297744 25.856382
19.02615 7.859477 25.960497
12.552993 7.9161825 26.327015
20.349392 7.9057455 25.872116
20.535061 7.9829206 25.84684
21.549864 7.7430606 25.764812
16.738506 7.5908685 26.190714
20.46007 7.9397306 25.955143
18.853014 8.1504593 26.03903
14.342378 7.5157299 26.876879
21.665239 7.7798729 25.851416
21.20417 7.7442098 25.924995
20.299324 7.8567247 25.957087
20.286018 7.9363751 25.958675
14.624631 7.455523 26.092152
17.834644 6.6914949 26.027195
20.328297 7.6911225 25.957279
15.55819 7.8399043 26.03742
21.50528 7.720005 25.884027
14.387538 7.4057078 26.16189
15.155303 7.4088702 26.117889
16.196426 7.5793967 26.060541
14.664133 7.6120706 26.167292
16.931835 7.6677933 26.006241
14.436929 7.7639279 26.15402
21.061617 7.7193394 25.938507
13.833966 7.5218434 26.813171
13.148794 7.5538116 26.336561
20.14423 7.6232505 25.773956
15.252415 7.4764566 26.172663
18.076345 7.6402159 25.948977
11.51503 7.699657 26.334816
21.042532 7.8121605 25.763178
17.691439 6.6288705 26.284719
20.307455 7.6616721 25.823179
13.538507 7.6704965 26.286865
20.836086 7.7156825 25.890968
14.548998 7.7247005 26.349377
15.462107 7.5947013 26.10745
15.875379 7.6557331 26.10146
17.03829 7.7037382 26.178364
15.345426 7.8252916 26.244989
21.255484 7.9174652 25.889942
20.183334 7.7265806 25.956516
20.714928 7.7281985 25.920488
14.713611 7.8057861 26.12709
21.318096 7.7177052 25.877762
13.557562 7.6955395 26.427219
19.835159 7.7461238 25.925348
16.739555 7.5129757 26.159136
21.473625 7.6732726 25.834799
14.674706 7.9221377 26.18421
18.742304 8.1159859 26.054722
19.129391 8.0901003 26.083521
20.456806 7.7018213 25.94206
20.805088 7.7320685 25.938095
14.090645 8.2287569 26.381708
17.341909 6.354897 26.098267
18.067984 6.1577306 26.511112
17.817932 6.2141953 26.458654
18.014103 6.2262592 26.481417
14.891543 8.241909 26.094635
14.437474 7.4691162 26.526302
15.538871 7.5132065 26.469036
21.52692 7.7696824 25.85181
17.837215 6.1396446 26.352629
17.923895 6.0001025 26.36858
16.832857 7.5811076 26.174694
18.233936 5.5692854 26.392235
17.722511 5.9272733 26.368242
19.075413 8.1347046 26.071037
12.94701 8.0211954 26.3904
21.244213 7.8279071 25.857111
19.086803 8.0596561 26.026836
20.751392 7.9031277 25.951851
13.796257 7.403244 26.791624
17.833353 6.0231285 26.374016
17.635384 5.921514 26.374434
20.653996 7.7236242 25.912699
20.119328 7.7927723 25.950361
20.636051 7.7604547 25.917576
20.875248 7.8304076 25.899687
20.328861 7.9444218 25.934313
18.947147 8.1261616 26.035624
17.537769 6.0788102 26.475334
17.948284 6.0782328 26.483437
17.772667 6.1577821 26.497763
16.275799 7.6646781 26.09338
16.961784 7.2343202 26.112949
17.443169 5.7577667 26.471292
17.606726 5.8421149 26.360636
17.905922 5.9198256 26.355961
18.213493 6.8304234 26.502579
15.743097 7.5833893 26.252724
17.331871 6.0135221 26.410666
13.602848 8.2963514 26.331308
17.448483 6.2399793 26.386778
14.388104 7.5947905 26.567629
14.341215 7.4834509 26.424166
17.449234 5.9208922 26.389151
17.539433 5.9196472 26.372389
17.430243 6.7506237 26.13085
17.435631 5.8919888 26.429962
17.741488 6.0194945 26.377222
13.637674 7.8713493 26.297853
14.273713 7.6165996 26.632534
13.555541 8.0042439 26.278318
17.237093 6.4167266 26.44294
16.434788 7.4999604 26.28116
14.045144 7.4726086 26.246872
14.030285 7.6106791 26.17898
14.245709 7.5426531 26.700661
14.329476 7.8216867 26.317562
15.13719 7.4638991 26.782087
14.405722 7.3930645 26.373621
15.241035 7.4987984 26.362774
14.439994 7.4817586 26.422134
17.71977 6.1452079 26.340593
14.866299 7.3881154 26.40547
16.704538 7.5253949 25.999111
15.338333 7.5013118 26.358772
14.83707 7.49406 26.391529
13.94508 8.4044027 26.302885
14.437088 7.4419293 26.60745
17.622328 5.1877141 26.082464
16.38372 7.2484794 26.494663
17.4722 5.8410845 26.121117
16.84016 7.4965644 26.254873
12.637352 8.1093311 26.372841
17.129086 5.3597531 26.475191
13.732798 8.4164057 26.331818
13.558228 7.5170884 26.706673
14.344821 7.5341048 26.783701
16.731712 7.4990869 26.252689
14.350238 7.4116764 26.686386
14.341706 7.5665274 26.687031
14.421535 7.5678706 26.6742
13.917482 8.5164137 26.509108
17.350094 6.6044273 26.188288
14.546198 7.5696754 26.605337
13.826961 7.5012426 26.985462
15.237353 7.5029268 26.588753
14.001011 8.3603363 26.306204
13.54102 7.8929057 26.241167
13.955297 7.510211 26.918005
17.429445 6.6510749 26.104128
17.651121 7.0033827 26.060226
13.931972 8.3584108 26.361004
13.55116 7.9665194 26.342583
14.111492 8.5931168 26.618683
15.843499 7.7446761 26.763189
13.840017 8.0650206 26.336403
20.308842 8.0182362 25.938665
15.966925 7.7561369 26.288729
17.735432 7.699676 26.79454
15.340111 7.6526933 26.780771
18.306374 6.0582829 26.468769
17.594757 6.9184494 26.026781
18.097271 5.5140514 26.394056
14.650255 7.9126654 26.314699
17.552307 5.8014874 26.392202
13.92433 8.5135937 26.458691
13.940612 8.2837477 26.258677
18.334661 5.7651539 26.414454
17.199114 7.481925 25.94375
18.248356 5.7667699 26.455196
14.94017 7.5145612 26.517771
17.930695 5.4836965 26.40596
17.337957 5.8780093 26.43972
15.035607 7.6473684 26.783829
17.423744 6.9707513 26.11174
15.131694 7.4122624 26.546171
15.039675 7.9396548 26.853662
17.839045 5.5491004 26.48311
17.623831 5.6318316 26.532375
18.054979 5.6227078 26.496105
17.739973 6.0740147 26.485941
14.649479 7.641118 26.831921
15.736548 7.4600921 26.737438
17.749895 7.1296487 25.987747
14.152321 8.1849976 26.197849
15.463513 7.8002481 26.734308
15.440488 7.526773 26.709871
17.226734 7.1610637 26.038057
13.124694 8.0641546 26.347122
15.641855 7.6589026 26.757792
16.838245 7.6325274 26.665625
15.836514 7.6488948 26.745184
17.498289 5.1871009 26.089746
17.439308 6.1194167 26.106363
16.238049 7.652143 26.709688
17.325399 5.7150412 26.065971
17.473766 5.2294106 26.132214
18.240089 5.4735107 26.375347
18.212463 5.6587758 26.408066
18.1199 5.8863406 26.395695
17.937517 5.6634111 26.462469
18.472658 5.6506581 26.404665
18.440859 5.743556 26.410254
17.948532 5.7796364 26.480158
18.36072 5.9731212 26.404846
17.818768 5.9859252 26.466675
17.935139 5.4397292 26.472363
18.135242 5.4452639 26.44075
18.042408 5.6759014 26.464785
18.342751 5.4248195 26.41555
18.292751 5.4970369 26.399376
17.832195 5.4508352 26.473993
15.143659 7.5392742 26.404835
17.628529 6.1412048 26.103085
17.500694 6.5928774 26.468233
14.791726 7.5740409 26.110828
17.54076 6.6509852 26.098402
18.172159 5.2546039 26.413525
15.934195 7.6564531 26.742468
17.749821 5.7643223 26.475866
15.646196 7.4566321 26.748875
17.651978 5.6607423 26.452991
15.443342 7.4604754 26.765215
17.544195 7.5357046 26.633427
17.944099 5.8075986 26.362385
17.825214 5.6643724 26.465878
17.752758 5.7544975 26.025499
18.047949 5.459691 26.400486
18.310757 5.8110261 26.405407
13.840033 7.833262 26.352705
20.316536 7.7681847 25.961988
18.035564 5.8822799 26.428894
18.134043 6.1865277 26.4988
17.748909 5.44765 26.464703
18.0249 5.4533863 26.468504
19.579113 7.8558216 25.962318
17.628347 7.5237479 26.64102
17.842897 6.2436357 26.520134
18.015896 5.7574716 26.480368
18.301046 5.6796741 26.426273
18.232237 5.9737735 26.452179
17.962242 6.1066179 26.390047
18.133923 6.0835371 26.487455
17.64489 5.4387689 26.476664
14.020988 7.827312 26.345913
18.143904 5.6572676 26.43643
18.014954 5.9800506 26.457449
18.211472 6.1017485 26.424833
18.012459 6.0638037 26.487276
18.302231 5.8670502 26.419439
19.3181 7.849874 25.984787
15.62776 7.4290309 26.527266
18.207443 6.1714892 26.430845
18.001389 6.0960388 26.439455
18.219942 6.0578089 26.480181
17.833891 5.7520609 26.476521
13.947389 7.8272915 26.350288
18.239975 5.4413252 26.443542
18.021656 5.2545543 26.438019
14.932502 7.8248425 26.26878
21.211224 7.7826233 25.893425
18.266407 5.7917314 26.395199
14.145325 7.8343506 26.334908
20.461811 7.8053083 25.961096
17.220335 6.9329162 26.055395
18.240906 5.8455825 26.498226
18.135187 5.8564181 26.493858
17.916317 5.5296907 26.491705
15.33851 7.4915752 26.672026
17.645367 6.7213039 26.416687
18.050411 6.600771 26.499645
17.641373 6.4175339 26.402956
18.057362 6.2863488 26.483402
18.099909 6.1875587 26.467554
18.198441 5.6218143 26.4737
18.215591 5.3574505 26.489164
15.14034 7.5168929 26.496866
16.050184 7.3956475 26.49497
17.622366 5.7538552 26.478527
17.652584 5.5093446 26.486914
17.639544 7.0887599 26.368303
17.542034 6.3744011 26.185997
14.638361 7.8318033 26.295879
19.156404 7.8428798 25.993647
14.645161 7.5349488 26.772778
17.486427 6.5788851 26.472601
17.752996 6.374495 26.489025
17.751179 6.3127437 26.477381
17.348207 6.2815757 26.472908
17.35006 6.0314932 26.476166
17.562788 5.7687211 26.469194
17.43709 5.6746588 26.456024
17.334885 7.0876479 26.399725
15.760209 7.786581 26.330221
17.548485 5.6917415 26.461771
17.351131 5.6598177 26.459572
17.35383 6.4406657 26.126326
17.329866 6.193428 26.43833
17.431572 5.4541163 26.479973
17.335915 6.6559982 26.110659
17.453268 6.7411704 26.435524
17.48867 6.7049623 26.458935
17.336546 6.3315635 26.417162
18.436615 7.4428782 25.990129
17.425423 6.4251595 26.41914
17.447361 6.3300166 26.397331
17.427431 6.2836242 26.460596
17.260914 6.2016096 26.460268
17.435766 6.1909256 26.448421
17.444685 5.9901948 26.461151
17.307163 5.456408 26.475552
17.556038 6.7455945 26.106619
17.242847 6.4326553 26.135992
17.341276 6.4213119 26.430731
17.541737 6.2403131 26.37978
17.629889 6.3366852 26.385479
17.634115 6.2301583 26.374008
17.239647 6.97683 26.129372
17.230787 5.9734688 26.464582
17.192001 5.6493015 26.012688
16.337494 7.5045638 26.286633
17.344452 6.6560607 26.410202
17.340782 6.2335396 26.403694
17.246344 6.2377176 26.416126
17.342165 7.0143366 26.295799
17.161966 6.728066 26.437885
17.061802 5.5939355 26.444572
13.318219 7.9984107 26.314354
15.941815 7.4343257 26.502851
17.383232 6.7486405 26.253983
18.057573 6.5540028 26.509621
17.237482 6.459188 26.409832
17.139402 6.1945434 26.467825
16.966797 7.037003 26.133003
12.904186 7.9674501 26.252859
17.419191 7.0206952 26.072218
17.157707 6.9824014 26.088545
17.542747 6.4499297 26.374552
14.013957 8.5212917 26.436813
16.929605 7.6356139 26.656076
17.347029 6.8457742 26.410204
16.63983 7.418509 26.208012
17.817474 6.3033662 26.475971
16.979952 5.3979101 26.077768
18.113928 6.5704584 26.52865
17.648932 7.2969637 26.110903
17.252861 6.8659291 26.420727
17.2556 6.4656858 26.07493
17.21958 6.7837248 26.010334
15.729096 7.5798154 26.597792
17.05401 6.020822 26.497499
15.635916 7.7057457 26.81851
14.641744 7.4882531 26.406464
14.151573 7.4262242 26.939842
17.163292 6.8506026 26.430887
15.150524 7.7755547 26.737453
15.443317 7.5815024 26.610109
14.71512 7.4904761 26.123478
15.639371 7.7388592 26.77696
14.970247 7.5040565 26.070545
17.641317 6.8759437 26.377649
14.154658 7.5506768 26.784136
18.336927 5.8378992 26.498564
17.046329 6.474051 26.104994
14.035776 7.449213 26.544024
18.051888 7.1111712 26.521406
17.538647 6.8476701 26.138758
17.545773 6.8776956 26.378967
16.745665 7.4436841 26.421244
14.055098 7.371942 26.722301
15.035444 7.480186 26.468428
17.161016 7.4403281 26.420769
17.66567 6.3009968 26.460556
17.437916 6.8712187 26.382486
15.169118 7.3850007 26.657726
14.13511 7.4315858 26.628571
17.239962 7.4297366 26.098452
15.22011 7.3959956 26.719036
17.751289 6.8332658 26.474504
17.732635 6.8703551 26.37159
16.203527 7.379003 26.692469
15.349532 7.3376389 26.705389
17.417933 6.9252486 26.044815
17.353477 5.8417339 26.049929
17.000538 5.9516416 26.086023
17.234516 6.6425314 26.42194
17.054764 7.4513907 26.405548
15.432333 7.3806529 26.709738
14.344032 7.5132804 26.562204
15.536567 7.503901 26.563717
17.548599 6.6451645 26.387316
17.632357 6.6467094 26.384016
15.63951 7.5148091 26.457148
17.433472 7.5081511 26.336464
15.3404 7.5142174 26.48538
17.328346 7.5225363 26.346184
17.95295 6.6134777 26.500513
16.237694 7.5097575 26.517717
16.237583 7.5157571 26.41923
15.836259 7.5062509 26.548296
16.132372 7.5075159 26.522552
15.736178 7.5082722 26.555939
15.043777 7.5004234 26.596645
15.934791 7.5159326 26.436729
15.838373 7.5139294 26.445406
15.622719 7.5674767 26.618044
16.341152 7.5187383 26.416464
16.338942 7.5058804 26.509684
15.22899 7.4322991 26.557371
15.439711 7.4990811 26.575142
15.940889 7.5053244 26.537262
16.936295 7.5200772 26.36661
16.038126 7.5156956 26.428349
16.941498 7.5040555 26.46439
15.640231 7.5051365 26.557198
15.938764 7.4713473 26.401697
15.538327 7.4797368 26.43116
16.338335 7.4970641 26.602751
17.037542 7.5213356 26.35784
16.736477 7.5094552 26.481865
14.031746 7.9588671 26.30085
16.639727 7.520596 26.390184
16.24486 7.4908605 26.60441
17.941233 6.8200388 26.490734
17.877626 6.4659262 26.501497
18.034061 6.3878555 26.505367
18.117586 5.5531988 26.474817
17.937111 6.4882402 26.49868
18.116829 5.9871159 26.480759
16.038101 7.5071397 26.534071
17.054554 7.4830103 26.547842
18.030487 7.2320566 26.510975
18.065683 6.5008445 26.505398
18.129364 6.3812017 26.507254
18.1471 6.2933469 26.503117
18.065474 5.9260292 26.499565
16.63645 7.5084229 26.495678
17.43907 7.4923315 26.420406
17.942635 7.4705811 26.722765
18.211458 6.4780707 26.49906
18.025114 6.2503586 26.508417
17.87438 5.6369042 26.506775
16.13415 7.4937716 26.615988
16.542946 7.5090995 26.494356
17.963572 7.4746017 26.765995
18.139416 6.4872212 26.516296
18.323862 5.9388866 26.506363
16.831184 7.4689178 26.34968
17.136122 7.4988594 26.45142
17.543333 7.4938517 26.406736
16.938395 7.4904242 26.562002
18.256113 5.7131972 26.502943
18.248953 6.7180257 26.496784
18.252378 6.6110344 26.499216
18.225109 5.9508276 26.514692
17.996534 7.4749022 26.760063
18.147413 7.1048918 26.498583
17.239595 7.4900966 26.438162
17.342947 7.4957805 26.431915
17.821152 7.5180273 26.787895
18.166855 6.3498325 26.531345
18.388962 5.7345181 26.531755
17.976608 5.7206359 26.530428
17.926125 5.6488743 26.511141
17.809372 5.4302502 26.532495
17.991562 5.4061809 26.51189
16.435894 7.5103259 26.496243
18.162249 5.7220936 26.510942
17.774412 5.6208878 26.502327
18.187883 5.59483 26.504803
18.097795 5.4088078 26.500261
15.657061 8.0859213 26.078169
15.035831 7.3363156 26.322569
17.558374 6.478416 26.071815
17.953125 6.8948436 26.362116
17.745302 6.6940875 26.485022
17.754622 6.6050467 26.476612
17.726097 6.4702401 26.502089
17.646019 6.4146104 26.515873
17.829622 6.7723064 26.369314
17.646036 7.3713021 26.459061
18.043766 6.7690997 26.368206
17.627911 6.4344172 26.104483
16.736528 7.5206342 26.391941
17.733166 6.651432 26.383368
17.741213 6.3353958 26.380108
15.443814 7.512887 26.475805
17.535643 5.700305 26.091476
17.718546 6.0669994 26.328369
16.546835 7.4662714 26.368162
14.133189 7.9962568 26.258705
13.627112 7.9571934 26.332458
17.721893 6.7757797 26.362938
17.734766 6.2376499 26.376457
17.755817 5.5240726 26.349224
15.129647 7.5560951 26.638147
14.773903 7.6102514 26.48103
17.905998 6.2576513 26.356796
19.306429 7.8916335 26.019703
16.739119 7.4740705 26.35778
17.654175 6.6304379 26.472391
15.276168 7.5925169 26.123728
15.051421 7.5482745 26.640661
16.347368 7.4678111 26.372372
15.627097 7.5849004 26.111139
17.635361 6.7748742 26.374863
17.842485 6.2329636 26.36128
15.326553 7.6084518 26.126417
16.623077 7.4740024 26.366838
16.434168 7.4643431 26.380781
16.041416 7.4672351 26.398737
16.239862 7.4713931 26.388306
16.127098 7.4624181 26.38286
15.83847 7.4747734 26.422735
15.632649 7.4706483 26.431078
17.958338 5.9451132 26.503355
17.826283 5.91396 26.506035
15.739305 7.4773989 26.411747
15.310084 7.642467 26.94578
12.932364 7.6204419 26.458912
16.037735 7.2946682 26.543657
15.436472 7.8247213 26.232588
14.736526 7.496254 26.627579
15.437217 7.4763212 26.435509
15.721396 7.4416394 26.510639
12.744846 7.6028423 26.463964
13.940485 7.9664307 26.305178
14.745422 7.4783988 26.718735
14.537539 7.4951944 26.636812
15.239545 7.4778867 26.456999
15.821598 7.3118463 26.581228
12.854063 7.618742 26.452324
14.441709 7.4888725 26.638098
15.143694 7.4809389 26.455374
14.530349 7.4742599 26.733646
14.436951 7.5071335 26.546061
14.940628 7.4718904 26.473049
14.145578 7.5197911 26.898333
18.104416 6.880765 26.525639
14.637767 7.4788446 26.726328
15.333929 7.4769311 26.4433
14.04679 7.5151677 26.889719
18.066133 7.3486485 26.719233
14.044614 7.5361662 26.822367
14.133776 7.5228906 26.575039
14.253753 7.5262818 26.791914
14.028612 7.5126834 26.581074
13.934496 7.5093617 26.582933
17.236031 5.797236 26.124247
14.440397 7.4753256 26.748413
14.13976 7.4653673 26.758608
13.940278 7.4463053 26.565969
14.650588 7.4714952 26.495312
14.837816 7.4787912 26.494669
14.136659 7.4569645 26.542503
14.239186 7.459579 26.540003
14.03626 7.4302335 26.635174
13.85322 8.2770872 26.368587
14.739662 7.47683 26.491787
14.235411 7.4800282 26.434523
13.838678 8.2266426 26.433693
14.025414 7.4911919 26.671228
18.37245 5.5686693 26.414873
13.842598 8.5291023 26.519453
14.542278 7.468441 26.508394
17.04664 7.8914914 26.639481
11.949794 7.6731033 26.4904
13.840553 7.5157871 26.590029
13.940346 7.4782548 26.678082
14.33601 7.4636745 26.74748
14.0339 8.2728271 26.339159
16.148005 7.7777305 26.285662
12.249949 7.9992094 26.371176
13.990891 8.4555473 26.453638
16.032904 7.8254523 26.204046
15.549936 7.3531523 26.699774
17.529629 5.9316125 26.073524
11.440568 7.7157683 26.531857
16.971727 7.3466301 26.110435
14.028482 7.4883814 26.95146
17.327034 5.8157072 26.114573
14.202114 7.9205399 26.1161
17.037895 7.793416 26.757254
18.120848 6.9188066 26.503952
17.05505 6.2905989 26.513323
16.013033 7.8444734 26.289005
16.834053 7.5433373 26.60841
15.356999 7.8640642 26.053307
13.955001 8.1559906 26.23036
17.02165 7.6422071 26.645893
18.027996 6.9181886 26.388376
16.938877 7.5645962 26.493322
17.357485 6.8313446 26.160017
13.781765 8.2433815 26.365314
18.032183 6.916676 26.511763
18.018276 5.5557494 26.478106
14.098061 8.4588995 26.476873
18.20664 5.4986038 26.496624
13.872225 7.886126 26.38427
14.333714 7.460104 26.521946
13.746067 7.4948797 26.922892
14.141996 7.4357939 26.852503
13.945267 7.4866333 26.997654
13.845575 7.4555225 26.577196
18.03702 6.804791 26.514269
13.832973 7.4307356 26.881271
18.02342 7.6582952 26.724936
11.649143 7.7834349 26.390226
11.845699 7.7231526 26.493906
14.183517 7.5938864 26.601009
16.848362 7.5634675 26.518663
17.638409 6.6882854 26.357201
16.347811 7.5624423 26.552593
16.939888 7.5901036 26.392504
17.930565 6.638803 26.364386
13.846984 7.4446015 26.768223
17.946135 5.569037 26.443844
17.835066 7.7820916 25.971878
18.100739 7.7034245 25.945618
12.310131 8.2829552 26.46678
14.053078 7.4453349 26.861294
17.035295 7.5396042 26.590975
18.1413 5.5759935 26.400526
17.750015 6.9246888 26.484047
17.933897 6.8008862 26.353409
16.966764 7.7881398 26.619072
16.943754 7.8052249 26.758068
17.552862 6.3082905 26.461487
17.639378 7.6043925 26.669096
18.333809 7.4029956 26.004824
17.145138 7.4736142 26.052174
13.940365 7.3959699 26.738642
12.055639 7.6362495 26.442846
11.723932 7.6958432 26.503208
16.228155 7.5500727 26.553761
11.432042 7.6870465 26.344553
13.762752 7.4366693 26.877226
12.726465 7.6412902 26.392277
18.922396 7.8653979 26.039644
12.629768 7.6480927 26.385931
12.855609 7.6377964 26.384142
13.629272 7.8990002 26.244167
11.64632 7.7429976 26.554546
18.245583 7.7175317 25.944773
14.146284 7.5679994 26.702896
17.423967 6.8539138 26.150414
18.020332 7.7892737 25.994244
18.164286 7.7817907 25.967266
11.422068 7.7966132 26.518482
15.04786 7.6787171 26.175226
12.91861 7.6730142 26.387915
12.35202 7.7296872 26.482101
12.008375 7.7270393 26.492489
14.440275 8.0846043 26.257736
20.772717 8.0196209 25.895664
17.136316 7.5991101 26.415144
17.833921 6.3226757 26.366282
11.634932 7.8342834 26.559658
11.799562 7.6949868 26.555613
17.235384 6.7617612 26.141819
12.618649 7.9645276 26.418726
13.057011 7.8575258 26.362293
11.613579 7.673665 26.505724
12.238603 7.717257 26.46917
13.141153 7.5054617 26.424074
13.037464 7.732398 26.394615
13.055904 7.6181865 26.358578
13.168673 7.5999794 26.435368
11.857036 7.9229546 26.554895
11.823454 7.8314915 26.423031
11.86198 7.6654682 26.479918
12.281298 7.6832805 26.523453
18.0219 7.542212 25.994328
12.014391 7.9058633 26.514698
12.021555 7.8334599 26.531359
12.501383 7.7559443 26.481972
12.543928 7.9246016 26.502375
18.114899 7.5474195 26.011662
18.406609 7.7461743 25.977396
12.570675 7.4232731 26.627142
12.010326 7.8617549 26.450277
15.838639 7.3607335 26.202271
15.378428 7.3567204 26.241867
12.146961 7.6203322 26.426056
13.473789 7.8886929 26.391075
12.425144 7.7292566 26.462862
12.323071 7.9442339 26.448032
12.415983 7.9125576 26.499537
11.744411 7.8335299 26.555025
12.65645 7.9287262 26.486158
18.122355 5.7336311 26.440821
12.340876 7.840395 26.498394
12.327487 7.7022724 26.554243
12.289481 7.9062862 26.526554
12.263175 7.999238 26.562065
17.830278 7.5127115 26.07481
13.537203 7.8312025 26.38744
12.616072 7.8004737 26.482388
12.640614 7.6745858 26.511684
13.612078 7.3643265 27.148771
12.617952 7.5134745 26.790482
12.485639 7.707624 26.493109
12.525305 7.47399 26.753132
13.43784 7.467422 26.501837
12.806823 7.71526 26.412998
13.328057 7.5105834 26.406101
12.740157 7.9505982 26.409288
12.258982 8.1465073 26.490185
13.286742 7.5400772 26.98431
13.046685 7.8466845 26.422939
13.151764 7.5733666 26.771875
13.041517 7.9458041 26.369328
12.969736 8.1388502 26.391029
13.111929 7.3596263 27.155994
12.32443 7.8642435 26.399841
12.261301 8.1663828 26.441326
13.820874 7.4203229 26.447981
13.022685 8.0493898 26.417788
17.364218 7.3782058 26.544338
15.049163 7.3783312 26.660301
16.537123 7.9597287 26.136908
17.129757 7.3986802 26.536621
13.052929 7.7769885 26.326616
15.567806 7.5650892 26.604
12.203661 8.252327 26.473522
16.03138 7.5644579 26.575117
15.244066 7.5582209 26.621264
12.186806 8.1170912 26.456017
12.294054 7.5667338 26.722284
12.650065 7.7391748 26.420319
11.716494 7.8495488 26.436081
13.638748 7.4284964 26.661396
12.710404 7.4841375 26.941011
13.558654 7.475348 26.312044
12.636533 7.7529106 26.358168
12.13732 7.7606974 26.390881
12.554581 7.875669 26.377409
15.899479 7.3826928 26.551065
12.535786 7.9894838 26.359468
15.437889 7.3826466 26.585894
16.361088 7.3827372 26.516235
12.241212 7.6863356 26.365583
18.459082 7.6406965 25.972401
13.228203 7.5417356 26.318789
12.71647 7.7569485 26.34734
13.130522 7.876461 26.346859
13.055145 8.1517973 26.37989
12.730521 7.5455084 26.832243
12.71514 7.526392 27.1472
12.646865 8.156951 26.411562
12.741562 7.5399685 26.35943
12.024902 7.7770839 26.410803
12.045483 7.6768932 26.392424
