# .PCD v0.7 - Point Cloud Data file format
VERSION 0.7
FIELDS x y z
SIZE 4 4 4
TYPE F F F
COUNT 1 1 1
WIDTH 746
HEIGHT 1
VIEWPOINT 0 0 0 1 0 0 0
POINTS 746
DATA ascii
24.200258 8.6024885 35.075863
24.49511 6.5751672 34.951122
24.220875 6.0068307 34.891945
24.855576 7.2900124 35.06469
24.699432 8.0240803 35.114239
24.87022 8.591855 35.099552
24.689554 8.6292048 35.084946
24.357157 8.5257921 35.044296
24.268528 6.8856635 34.953979
24.563114 6.5866127 34.961922
24.665691 7.514924 35.056503
24.790688 7.4850688 35.075077
24.679581 8.0567417 35.077892
24.385601 8.0410004 35.048382
24.763683 6.8690705 35.042175
24.596357 6.877903 34.988461
24.287909 8.6049242 35.07354
24.287037 8.2822742 35.033707
24.139732 7.5213857 34.979332
24.172916 8.032402 35.032562
24.281916 6.0628328 34.891418
24.286388 8.1983519 35.005657
24.607258 5.6254935 34.849892
24.650736 8.5132093 35.076313
23.499414 8.4943361 35.012611
24.77166 7.1649575 35.01947
24.361198 8.5978813 35.08012
24.356085 7.7655444 35.025723
24.472822 8.5852671 35.087997
24.635176 8.6987734 35.192749
24.24721 6.3427916 35.09441
24.266476 7.7486868 35.032688
24.093954 7.6068444 35.047009
24.550417 6.2522388 35.088856
24.549915 8.5468845 35.129322
24.653841 7.6266017 35.06992
24.472715 7.6208835 35.049191
24.493195 7.6585894 35.139843
24.57604 7.5976276 35.061699
24.568987 7.5694499 35.112595
24.386164 6.4570513 34.970337
24.465538 6.434094 34.977112
24.085903 7.7937236 35.070625
24.067915 8.4961739 35.137177
24.273355 8.5410223 35.123196
24.583042 6.7502942 35.005466
24.367437 6.7733126 34.998611
24.174236 6.7592907 35.000156
24.268295 7.8746963 35.113056
24.165058 6.4459958 34.965942
24.269524 7.6033463 35.053062
23.939816 6.3670774 34.92141
24.46664 6.3463359 34.947342
24.266336 6.4439077 34.962646
23.976934 7.1567707 35.014042
23.99078 7.7885933 35.064938
24.169756 6.7209525 35.022434
24.474501 6.7184858 35.05526
24.479462 6.763226 35.001114
24.293753 6.6721654 35.121605
23.794722 7.3154359 35.079052
23.776836 7.1687441 34.993107
24.166771 7.8725023 35.096756
24.076054 6.72157 35.014515
24.075998 6.3684254 34.927147
24.164845 7.5365586 34.922863
23.914574 5.8343887 34.892548
23.877518 7.1632524 34.999825
24.175854 8.4525032 35.102901
24.459896 8.4290543 35.167667
23.700302 7.3858576 34.98629
23.533247 8.3304596 35.026054
24.187521 8.5003128 35.150829
23.88126 7.4694395 35.029243
24.158136 6.3545575 34.937416
23.679859 6.7539535 34.918842
23.628435 8.236867 35.037117
24.576611 7.4718943 35.096416
24.376509 7.3775125 35.056755
24.278414 6.3800244 34.939476
24.273746 7.4736109 35.067638
24.176807 7.3959613 34.973656
24.542858 7.893199 35.148685
23.981302 7.3714361 35.02845
24.093693 6.567955 35.059803
24.184677 8.5388241 35.120361
23.794416 7.7043443 35.030518
24.271982 6.7265568 35.038174
24.373085 6.7246904 35.04776
24.568947 6.7229366 35.0742
24.273472 7.693327 35.077602
24.085043 7.6937709 35.058552
23.896809 7.6942801 35.032001
23.895786 7.9111547 35.043861
23.776566 7.3703589 35.002796
24.45649 7.4816232 35.090843
24.496569 6.8187618 35.090885
24.36377 7.354022 35.100216
23.892258 7.3604364 35.075146
24.259449 7.9641275 35.014683
24.685946 7.9235535 35.089981
24.572138 7.9673262 35.047222
24.746656 7.9504271 35.092007
23.888481 8.0053406 35.056938
24.400551 8.5729132 35.200371
24.014887 7.9685178 35.122414
24.570345 7.9977875 35.109436
23.985014 7.9214888 35.051861
24.631199 8.4089594 35.16143
24.453722 7.8822265 35.134834
23.892599 7.886826 35.092148
24.272047 7.3820229 35.051361
24.354219 6.6562328 34.97617
23.99357 7.0333004 35.035328
24.276844 7.3406973 35.089981
24.090414 7.8807802 35.094666
24.076542 6.9415112 35.021431
24.270071 5.8106589 34.905693
24.076418 7.9247518 35.071507
24.174763 7.9588413 35.124554
24.645893 6.2405033 35.081131
24.560474 5.6847992 35.028316
24.268776 6.2692075 35.04258
24.771978 7.8294363 35.084244
23.775946 7.4855776 35.012661
24.080181 7.4756951 35.051609
23.686981 7.4622087 35.005203
23.978262 7.478724 35.040562
23.69943 5.9435267 34.96476
24.079426 8.0088701 35.075191
24.362707 8.4168205 35.152237
23.674364 7.6966734 35.008434
24.474693 7.3614593 35.114094
24.577082 6.4450502 34.986065
24.366653 6.3605876 34.942993
24.473366 7.0739355 35.020271
24.278427 8.4171276 35.142109
23.765322 6.9492626 34.98938
24.740015 8.5894985 35.119183
24.210442 7.1787558 34.972607
24.469097 7.9259863 35.074329
24.518064 7.5849819 35.206837
23.875425 6.9394999 35.003544
24.39472 8.2638483 35.042763
24.493969 7.7491684 35.03503
24.13855 7.2206402 35.122593
24.076902 6.4188499 34.99255
23.988941 6.9381566 35.005447
23.784239 7.6750193 35.077942
24.371078 7.1903267 34.99025
24.289879 8.5135164 35.176857
24.18437 8.3741913 35.064964
24.36055 7.5618391 35.099895
23.90126 8.4123268 35.087738
23.876942 6.846714 34.979282
24.182276 7.9149594 35.071781
24.41226 7.4567013 35.137177
24.460247 7.37503 35.055824
23.773144 7.9269776 35.032043
24.301828 7.9555383 35.138336
24.679367 7.3744583 35.040924
24.575085 7.9256468 35.08614
24.364967 7.956521 35.147469
23.923147 7.7450786 35.121468
24.073231 6.2524438 35.019615
24.163141 6.6151276 35.084572
24.369417 7.4486008 35.004768
23.87604 7.2971697 34.99324
24.276621 7.575067 35.087067
24.409161 6.4714785 34.906467
24.37599 7.9146981 35.080738
24.658115 7.8344393 35.075943
23.778778 7.2554393 35.028358
24.174927 6.9380116 35.02816
24.551762 5.7731204 34.963932
24.175404 7.5741572 35.079262
24.281273 6.1846008 35.009167
24.720745 6.7878962 34.961182
24.368374 8.7312994 35.1922
23.90464 6.3794713 34.918274
24.3055 7.4268737 34.97028
24.17672 7.4735289 35.059952
24.774986 7.9490452 35.046963
23.859858 6.9002552 35.047504
23.80061 7.9862294 35.04454
23.97904 7.2986312 35.002983
24.078794 7.5655308 35.068043
23.875708 7.3777752 35.012436
24.5737 8.7491922 35.201847
23.774107 7.295599 34.996078
24.234047 7.4127421 35.122757
23.687281 7.8981948 35.025532
24.274382 7.9126687 35.076565
24.369181 7.4667315 35.085205
24.572092 7.7046976 35.082489
24.63789 6.8366656 35.05114
24.172178 7.257443 35.049068
24.557812 7.3334336 35.114491
24.378988 6.3054657 35.003513
23.982664 6.4928956 35.009914
24.060043 6.8876562 35.068592
23.978298 6.8567085 34.993153
24.08322 7.3816919 35.039028
24.273649 8.00562 35.099918
24.174717 7.3769155 35.045086
24.07959 6.8433385 35.002182
24.241314 6.2887654 34.919884
24.464527 7.5768585 35.114761
24.206837 6.8959947 34.944721
24.60033 6.3658819 34.949673
24.477867 7.7026792 35.085155
24.495892 6.9832745 34.994587
24.397079 7.6432118 35.135441
24.093369 6.6451554 34.939125
23.911129 6.6740212 34.93639
24.504189 7.4390764 35.023499
24.083654 7.348175 35.075943
23.781733 6.3309059 34.942051
24.182055 8.419796 35.130169
24.672705 7.6956992 35.079315
24.747862 7.7400155 35.070404
24.433395 7.4388533 35.130413
24.163271 7.3246255 35.08033
24.692993 7.7265186 35.049377
24.573736 7.1765032 35.057995
24.265656 5.6209502 34.886494
23.87616 7.802022 35.050484
23.771257 7.7885914 35.058395
23.86161 6.2532563 35.008713
24.899878 7.4081016 35.076775
24.465317 7.2068653 35.007481
24.470446 6.949008 35.06493
24.578167 6.9247241 35.072186
24.066998 6.9861059 34.965946
23.880077 6.3178902 34.948608
24.464643 8.7226372 35.188816
24.279148 7.7890434 35.097118
24.370026 7.6988797 35.08606
24.675461 7.0337071 35.119114
24.296886 6.6011024 35.086365
24.778481 7.6949444 35.070457
23.957758 7.3422241 35.052124
24.554636 8.6466198 35.173542
24.278526 6.9451733 35.045151
24.313282 6.211237 35.142014
24.76812 8.3464489 35.116074
24.566967 8.337594 35.138046
24.372135 5.6946898 34.924614
24.539619 7.7260103 35.044575
24.374565 7.7884011 35.105946
24.170506 6.9747086 34.992573
23.926567 7.5402431 34.994518
24.070808 7.02597 35.031368
23.861261 6.9663143 34.961121
23.676102 8.3213978 35.034412
24.272005 7.0716496 35.026077
24.379799 6.9223285 35.120785
23.962687 7.7660732 35.130054
24.372 6.1744909 35.020752
24.556229 6.6733317 34.975803
24.374933 7.8732934 35.121544
24.265574 7.2081289 34.993237
24.364307 6.9406977 35.047291
24.225512 6.5701456 34.909332
24.556129 6.7933593 35.079643
24.687944 6.7857113 35.101284
23.691698 6.3194103 34.913677
24.474766 7.0291057 35.082703
24.178883 7.6594925 35.10181
24.388094 5.7465901 34.851833
23.865631 6.3486285 35.019577
24.582041 6.3031874 35.029869
24.39378 8.2728901 35.177219
24.171488 8.010088 35.091469
24.389219 6.5609517 34.935711
23.978521 7.8913589 35.078384
24.75416 8.0560093 35.073448
24.086357 7.8301859 35.038841
24.3717 8.011591 35.10685
23.596737 6.9700065 34.926804
24.724007 6.4544926 35.068729
23.542732 7.1899438 34.906639
23.993877 7.8135743 35.019814
24.2859 6.8051724 35.068428
23.793451 6.9998217 34.970764
24.268719 7.8223996 35.040066
23.885775 7.8386598 35.01899
24.18018 7.8356299 35.036999
23.754927 7.8560529 35.014069
24.386442 7.8215222 35.058167
24.473248 7.8171363 35.054665
24.384201 6.2809505 34.91608
23.973927 6.7537618 34.974754
24.571285 7.8300147 35.067703
24.374102 6.4097066 35.028591
24.085817 5.7226014 35.018574
23.896948 5.7817159 34.931263
24.667114 7.1952863 35.034855
24.35714 7.0386529 35.066456
24.367483 7.0746479 35.024704
24.080894 7.0594792 35.013783
23.796303 7.0756564 34.977592
24.104166 7.1898885 34.957542
24.277637 6.4066501 35.012123
24.543262 7.0243702 35.088978
24.372759 7.1626086 35.057533
24.557621 7.2050161 35.012783
24.173424 6.842617 35.014313
24.675804 5.7205868 34.891495
24.671207 5.8176837 34.928074
24.361292 7.1128254 34.96328
24.271511 7.0246997 35.059734
24.473978 7.156004 35.070023
24.472164 8.0466909 35.068913
24.772636 7.1112771 35.004074
24.554144 7.1372118 34.996193
24.770718 5.8997979 34.971409
24.184214 5.9130883 34.935574
24.390945 6.9019938 34.974758
24.379925 5.7913799 34.903172
24.416317 5.9360867 34.879131
24.373312 6.9718304 34.989326
24.655664 7.1223054 35.006248
24.788338 7.1951418 35.06488
24.174318 7.603919 35.04995
24.2658 8.0989141 35.118645
24.27453 5.9123359 34.940166
24.785244 6.008172 35.009102
24.765741 6.5286808 35.01815
24.468668 6.6591253 34.977055
24.762142 6.5795059 34.962345
24.274078 6.8404293 35.023678
25.04356 6.6082687 34.976273
24.369518 6.8407269 35.030987
24.66144 5.7957063 34.972771
24.479317 5.7088714 34.949276
24.51992 7.9803638 35.049969
24.317558 6.6025949 34.957542
24.278097 6.1288352 34.931423
24.830229 6.1076512 35.042854
24.279305 5.7337446 34.838337
24.281267 5.9968328 34.974117
24.761162 6.4439259 34.999763
24.470684 6.6260362 35.035194
24.377344 5.9037075 34.949989
24.597197 6.0694237 34.952976
24.837004 6.2780299 35.017052
24.823576 6.4061208 35.03447
24.372797 6.1402879 34.935143
24.866209 6.1944275 35.000507
24.376741 6.2845583 35.050964
24.908356 5.7019033 34.953171
24.880968 5.7497334 35.01693
24.285431 6.6557865 34.958527
24.755005 6.5914874 35.060886
24.271982 6.7576075 34.999405
24.772547 6.7519898 35.01347
24.273067 6.3088555 34.997646
24.804716 6.292922 35.085426
24.273264 6.5320001 34.998142
24.779875 6.4612827 35.091267
24.478027 7.250504 35.099236
24.651823 7.3479786 35.13747
24.473377 6.8587117 35.046947
24.662893 7.4853339 35.111847
24.363819 5.7823453 34.972603
24.662664 6.6305614 35.043457
24.278229 6.627028 35.018818
24.651159 6.3283496 34.998131
24.755615 7.0903969 35.03278
24.371899 5.9688234 35.02261
24.826679 6.0431118 35.036671
24.583742 6.0692911 35.029755
24.883505 5.736619 34.903355
24.652342 5.7099323 34.962627
24.17277 7.1627984 35.035957
24.772205 5.7125211 34.987907
24.281696 5.7069168 34.925869
24.694077 6.5864668 34.966522
24.475782 8.1412096 35.080048
24.474197 6.3293619 35.015186
24.569178 5.7380209 34.864899
24.582365 5.7073393 34.933437
24.576052 5.9784231 34.994247
24.808378 5.7717953 35.001095
24.1689 6.6333857 34.946098
24.6541 6.4176912 35.000454
24.091238 7.2571006 35.042938
24.097263 7.6454849 35.097973
24.439695 6.9254427 35.146584
24.682859 6.7626076 35.182838
24.541502 7.4677286 35.199932
24.468693 5.7372947 34.867687
24.171114 6.534277 34.989391
24.592434 6.4032116 35.05645
24.745165 5.7105851 35.050758
24.564981 6.4854054 35.067516
24.496649 6.8844242 34.981075
24.570122 6.8446054 35.029835
24.467989 6.2210412 34.98785
24.763515 5.9081492 35.022308
24.375526 5.8718715 34.997387
24.653749 6.2195444 34.992023
24.670973 6.7251 35.06163
24.705305 6.0930486 35.023518
24.277353 6.0922322 34.992802
24.725374 5.9564447 35.062782
24.461258 6.4892735 35.056942
24.08086 6.4956274 35.017185
24.579998 7.2295909 35.101959
24.17272 6.4032536 34.997765
24.277327 7.2580776 35.065483
23.880342 7.2553153 35.030846
24.276157 7.1538229 35.049423
23.979845 6.5294013 34.965271
24.386513 6.4957094 35.043484
24.662205 6.5307326 35.015301
24.838243 7.8106928 35.118473
23.969492 5.7896848 34.927025
24.27536 7.6504607 35.116787
24.16917 7.7927585 35.082897
24.197159 6.7944722 35.051994
23.880806 6.8016162 35.052246
24.564884 7.0698733 35.032967
23.772327 6.6165762 34.965309
23.981499 6.6279931 34.985863
23.778042 6.5332084 34.948662
24.175518 6.4933248 35.0271
23.78266 6.4216628 34.955929
24.08363 5.8695641 34.962502
24.384701 5.6529055 35.000156
24.642162 6.7590966 35.046806
23.98246 7.5736194 35.061646
23.957668 7.1288261 35.06065
24.287825 7.0999861 35.089436
24.179779 7.0345984 35.051373
23.86445 6.4933872 35.015556
23.889778 5.8583484 34.95359
23.786098 7.5769687 35.046028
24.147392 7.1177702 35.100811
23.979282 6.1793728 34.98362
24.090235 5.9537706 35.02837
23.959293 6.7959247 35.050056
23.767889 6.7201719 35.002403
23.882109 6.1850271 34.991982
24.180079 7.0660214 35.01849
23.981266 8.1102209 35.085613
24.663042 7.0736051 35.042408
23.786055 6.0915904 34.940399
24.193367 6.0379181 35.048531
24.081514 6.7991166 35.042885
23.9799 6.7197871 35.008335
23.788145 6.4996057 35.009762
23.675968 7.264452 34.997189
23.69112 7.166357 34.984142
24.085308 7.1202736 35.077705
24.796844 7.4617729 35.069653
23.985458 8.1898479 35.118011
23.800795 8.1150827 35.095467
23.868631 6.7014298 35.004848
23.683201 6.6146412 34.95509
23.972662 6.0905085 34.952801
24.27293 5.9548912 35.017708
23.896494 5.9591894 34.98494
24.277964 5.8730688 34.986229
24.070005 6.6326985 35.000195
23.711235 6.422956 34.962486
24.082878 6.3159208 34.97337
24.176033 6.097023 34.973782
23.779383 5.9701076 34.968796
24.1828 5.9536295 35.007622
23.97764 6.3200555 34.967178
24.633221 6.9401569 35.062298
24.367344 6.8064108 35.071079
23.873125 7.027225 35.036686
23.982914 7.0638204 34.993877
23.883215 6.4035769 34.980476
23.559456 6.0591378 34.914948
23.972019 5.9491935 34.992298
23.996817 7.6645126 35.099937
23.970167 7.2556272 35.030178
23.802608 7.1417217 35.061653
23.886124 6.0937209 34.942375
24.079069 6.0917687 34.970798
24.260235 6.9125581 35.103485
23.872412 7.5697613 35.047298
23.988985 6.407342 34.987766
24.081951 6.1827083 34.996326
23.988022 5.867209 34.968559
23.986382 6.2918696 35.032368
24.072834 6.0578623 35.034309
24.183119 5.8698888 34.979923
23.78511 5.8658733 34.929317
23.800133 6.2405357 35.00293
24.180506 6.6329718 35.005154
23.764675 7.6019611 35.008026
23.873388 7.0641518 34.985382
24.173674 6.3160806 34.979744
23.973001 6.2225628 34.93816
23.791656 6.0096741 34.919563
24.357939 5.6247044 34.919342
23.748646 8.4903393 35.032864
24.376003 6.5328856 35.003857
23.694916 7.0725756 34.961308
24.078569 6.5320659 34.978436
24.170841 6.2178774 34.963676
24.177973 6.1800103 34.996204
24.378685 6.2211051 34.977356
24.479372 6.2798553 35.070259
23.657608 6.8541999 34.941074
24.673727 8.3690186 35.109188
24.073503 7.1658888 35.027588
23.78146 6.1848211 34.965492
23.685987 6.0075626 34.902668
24.078535 5.997241 34.955467
23.653429 6.9847116 34.888729
23.774214 6.8383093 34.975792
24.082743 6.7539868 34.980976
23.88332 6.7579398 34.951782
23.884205 6.6377878 34.970165
23.739864 6.6752744 34.897232
23.946215 6.6330342 34.894043
23.770372 6.5557852 34.868145
24.470631 8.347086 35.08617
23.585548 7.1794953 34.95182
23.571468 7.0551505 34.934628
23.979086 6.9932919 34.975197
23.615108 6.9028378 34.929661
23.693857 6.5486593 34.939091
23.776342 6.4685922 34.926399
23.68829 5.925477 34.88253
23.873022 7.6020799 35.015869
23.617867 7.7607126 34.971901
23.980503 7.7017174 35.046093
23.55793 6.6169944 34.894436
23.568125 6.515152 34.893127
23.986158 6.4439712 34.946827
24.074448 6.2138333 34.954506
23.650894 6.2100401 34.901642
23.883558 6.2154493 34.92527
24.076391 6.1422749 34.9244
24.173624 5.9984236 34.954159
23.769569 5.9166656 34.890457
23.860764 6.4357681 34.929653
24.557348 8.3746958 35.102993
23.895491 6.1280303 34.90707
23.884981 6.0095868 34.923832
24.468348 5.8745623 35.003025
24.277233 6.21907 34.970131
24.378622 6.0957642 34.996178
24.277298 6.4984517 35.031857
23.878819 6.5355887 34.952618
24.285976 8.3642111 35.078556
24.369083 8.3595123 35.075943
24.52862 6.2774296 34.936321
24.690657 6.9874563 35.013355
24.248734 7.3595667 34.964153
24.371189 8.3147268 35.13784
24.083908 8.3899832 35.055256
24.180511 7.3071332 35.018051
24.581797 7.2859416 35.04007
24.078484 8.22719 35.085537
24.481249 5.7881536 34.975471
24.07593 8.3287592 35.097473
24.280788 8.326601 35.126068
23.975639 8.3835201 35.057545
24.091892 7.2908893 35.018421
24.377789 7.2859974 35.010704
24.280806 7.2957673 35.025196
23.947086 6.3558202 35.038258
24.487162 7.3038592 35.02277
24.562933 8.0290852 35.057175
24.181404 8.3249731 35.111126
23.985355 8.3210077 35.091084
24.185642 7.7571669 35.015041
24.477722 8.6755457 35.113335
23.976326 8.0071411 35.068081
24.707438 6.692255 34.970951
24.079994 6.4435072 34.955189
24.681286 7.3061357 35.03764
24.669109 6.1447067 34.957817
24.663567 6.0513277 34.935268
24.477839 6.415854 35.034332
24.174589 8.2258663 35.099064
24.800499 7.6584826 35.046204
24.731243 6.3538966 34.929401
24.506533 6.5675697 35.088627
24.185982 6.2616973 35.021606
23.996826 7.1928139 34.972214
24.373892 8.2362099 35.106579
24.375259 7.5967798 35.056503
24.591337 5.7650499 34.914593
24.470793 5.8025808 34.90736
24.546148 8.5905714 35.097828
24.752676 7.3918271 35.067253
24.594807 7.3835821 35.057251
23.87384 8.1851749 35.093658
24.583439 6.2208514 35.003029
24.741318 7.7687292 35.109859
24.671188 7.7696643 35.090775
24.468765 7.8032436 35.113033
24.552828 7.8036489 35.127945
23.887714 8.216835 35.068253
23.894371 7.5169902 34.984867
23.607283 7.4458532 34.991108
24.665552 8.6738396 35.129047
24.37731 7.2590661 35.076672
24.953905 6.4860249 34.993198
24.626959 7.9090524 35.144184
24.478617 7.5137911 35.029045
24.637499 6.3549099 34.950336
24.87771 7.7604346 35.061733
24.276344 8.2297068 35.100262
23.97834 8.2244139 35.078876
23.885513 5.907527 34.919586
23.799471 7.0387697 35.028484
24.371498 6.0039587 34.982391
23.81283 8.3924932 35.045452
23.985825 7.598083 35.027462
23.973288 5.9042659 34.910843
23.786352 6.7755308 34.960201
24.175844 7.6950059 35.068687
23.895866 8.3595915 35.052113
23.722473 7.8398876 35.019207
23.986822 8.5391521 35.101139
24.579592 7.5012474 35.040199
24.59763 6.1255383 34.968025
24.189152 8.1956329 35.130676
23.892073 7.6660175 35.090443
24.475796 6.0904779 35.012024
24.468338 6.1868963 35.029922
24.38162 7.5255113 35.02692
23.979017 5.9999309 34.925369
23.778755 6.1524448 34.909317
24.372578 8.1080818 35.12849
23.891748 8.1088676 35.074024
24.076214 8.0997715 35.090866
23.761831 6.211607 34.92318
24.355633 7.1248565 35.092667
23.765574 8.1562023 35.042065
24.277508 8.1328201 35.073967
24.564846 8.0947256 35.137516
24.464764 5.9126029 34.970505
24.50104 5.963707 34.901386
24.489408 6.0487757 34.92152
23.967798 6.1229715 34.90749
24.483572 6.1339364 34.947418
24.481506 6.5264468 35.008034
24.582939 6.9695544 35.013695
24.541805 7.4382496 35.017582
24.286058 7.5070539 35.011597
23.578197 5.9462166 34.87249
23.573101 6.0258112 34.884796
23.860924 8.1410074 35.039513
24.073738 5.9066887 34.926891
23.681536 7.6182961 35.009766
24.365438 6.6228957 35.031223
24.271719 8.1917076 35.137993
23.729389 8.2035875 35.030117
24.466736 8.012352 35.107155
24.469009 5.9977326 34.989506
24.188782 6.1301565 34.933071
23.986727 8.4564686 35.085079
24.377743 8.4550285 35.104778
24.366684 8.5458097 35.1306
24.367712 8.6373587 35.156544
24.078995 8.6399622 35.122181
24.268108 8.6412315 35.147964
24.285275 6.9767056 34.985928
24.077694 8.4175138 35.11842
24.0793 8.5428715 35.112865
24.171497 8.6407881 35.135303
24.172527 8.1097183 35.097965
24.384956 8.1289787 35.077412
23.973032 8.1409006 35.057453
24.276999 8.447525 35.103363
24.078501 8.4565821 35.093563
24.461159 8.6235981 35.165478
24.190603 8.1388817 35.066917
24.468113 8.1003256 35.142506
24.078678 8.1352539 35.062103
24.457993 8.3098259 35.144848
24.470934 8.4538536 35.101055
24.573206 8.2315359 35.109303
24.581867 6.5315623 35.004372
23.960373 8.4151621 35.100574
23.883995 8.3284512 35.078514
24.462263 8.1899786 35.162746
24.491556 8.5184278 35.206989
24.475605 8.5583315 35.130852
24.355038 8.189187 35.140667
24.454876 5.9604468 35.032356
24.554155 8.1878948 35.159866
24.38896 6.0339899 35.045082
24.463688 8.2338991 35.09407
24.071098 8.1811008 35.107647
24.56818 8.4595318 35.116058
24.561125 6.6172976 35.04884
24.557566 8.4088478 35.164444
24.556423 6.1866417 35.047325
24.434608 8.2688799 35.187042
23.969143 8.4853315 35.120895
24.56921 5.8957806 34.97298
24.331669 8.4885998 35.171658
24.529282 5.9361587 35.058769
24.462372 7.1143012 35.114178
24.291283 8.2680368 35.163921
23.767664 8.2235126 35.103447
23.715837 6.4033599 34.914021
23.901169 7.125731 35.044498
23.957331 6.0612202 35.022976
23.808252 6.7816706 35.035923
24.36924 6.0307341 34.920124
24.657366 6.4963489 34.943081
24.677168 8.5470781 35.143021
24.695967 8.458971 35.125725
24.75753 8.2607021 35.117691
24.785175 8.4745979 35.128262
24.799894 8.2596703 35.094799
24.746132 8.1290283 35.101688
24.290121 8.0590525 35.04369
24.653351 5.9635806 34.975868
24.658615 8.3288355 35.134594
24.638546 5.8987255 34.947464
24.67627 8.1187572 35.101479
24.66177 5.6442647 34.924599
24.680485 8.2614622 35.110519
24.576223 8.1368322 35.090199
24.553564 8.6631269 35.120781
23.555037 8.0949583 35.016781
24.090483 7.5295706 34.98872
23.864864 7.1979008 34.956718
24.770903 7.3043742 35.039799
24.671064 8.6297264 35.178864
24.950853 6.5515671 34.987839
24.162323 6.8881989 35.115219
24.692532 6.8705039 34.977802
24.733685 6.2302513 34.915958
24.951403 6.613245 35.004066
24.638842 6.2944655 34.945278
24.9583 6.2413802 34.967281
24.963121 6.1137228 34.967712
24.911501 5.9155216 34.964787
24.915377 5.8240304 34.952129
24.481556 8.2297964 35.05109
24.544859 8.271081 35.070827
