# .PCD v0.7 - Point Cloud Data file format
VERSION 0.7
FIELDS x y z
SIZE 4 4 4
TYPE F F F
COUNT 1 1 1
WIDTH 546
HEIGHT 1
VIEWPOINT 0 0 0 1 0 0 0
POINTS 546
DATA ascii
49.370697 44.258789 58.806473
50.235294 42.655914 58.745098
50.153347 43.670181 58.764931
50.296108 43.883976 58.775372
49.918789 44.003792 58.757984
50.419422 43.728802 58.78228
50.012562 43.978516 58.771301
50.375416 43.951893 58.788097
49.96703 44.272682 58.772846
50.466991 44.059551 58.845753
50.452221 44.144424 58.842224
50.344311 44.699295 58.854252
49.978344 44.905079 58.835869
50.052399 45.183193 58.814392
50.278263 44.853775 58.8181
50.072807 45.125385 58.809151
50.2174 45.200645 58.825768
50.387833 42.454105 58.752388
50.180252 44.818642 58.801376
50.112625 45.200382 58.815567
50.217323 44.440365 58.809788
49.860958 44.473846 58.9132
50.188229 44.518436 58.938023
50.177792 44.590157 58.937038
49.760471 46.746082 58.833805
49.816807 46.204124 58.81995
49.748131 46.155487 58.785225
49.836369 46.713459 58.819088
50.017555 46.694077 58.873283
49.934097 45.415031 58.804531
49.950733 46.366016 58.840214
49.707947 45.357658 58.800056
49.752663 46.380997 58.81728
49.940235 45.113693 58.804199
49.713699 45.12574 58.755283
49.744953 45.334724 58.77277
49.736374 43.928242 58.733757
49.837971 44.22559 58.746052
49.665749 43.232121 58.73354
49.559139 44.203735 58.712513
49.711037 42.927582 58.701427
49.691124 43.62928 58.712257
49.783592 42.505188 58.691879
49.869633 42.417179 58.707329
49.756195 42.425293 58.696812
49.846874 42.63131 58.708679
49.934387 42.570591 58.720394
50.032879 44.647007 58.80378
50.069756 46.556244 58.883057
50.116791 42.30859 58.739033
50.201092 42.301651 58.796787
49.872402 42.418922 58.774357
50.091537 42.498585 58.818939
50.303207 42.508232 58.831402
50.043633 42.686588 58.806389
50.20929 42.68232 58.841965
49.954041 42.601662 58.779289
50.016953 43.273106 58.783451
50.007023 43.144825 58.792122
49.8848 43.520576 58.802437
49.974884 43.560982 58.78167
50.160023 43.322704 58.838436
50.233837 42.523117 58.814472
50.216373 42.612003 58.82933
50.082726 43.556046 58.845898
50.143997 43.677307 58.858814
49.942139 42.493412 58.77055
50.225601 43.364613 58.846775
50.316864 43.550243 58.870941
49.944794 44.056583 58.838177
49.849846 42.616203 58.776688
49.930656 42.718239 58.79475
49.929951 42.931633 58.793007
49.982109 43.851536 58.835136
50.140564 42.302147 58.784874
50.106182 43.528412 58.837814
50.261856 42.404037 58.815186
49.916702 44.43972 58.784882
50.322651 42.81271 58.806366
50.142567 43.012844 58.798943
50.308319 42.546955 58.823738
50.037895 42.592857 58.777412
50.061966 42.413193 58.794422
50.146507 44.29369 58.867157
50.217735 44.370777 58.880177
49.959114 44.832943 58.836239
50.227371 43.296822 58.855473
50.239407 44.061649 58.86095
50.138134 43.786724 58.859474
50.03717 45.014603 58.898506
49.86137 44.817139 58.837307
49.965645 43.35796 58.818253
49.966011 42.822334 58.792191
50.256413 44.773933 58.876324
49.953541 43.765114 58.805531
50.237049 45.151569 58.893112
49.958229 45.593765 58.85994
49.861301 45.696285 58.862652
50.347454 45.938885 58.941212
49.943478 45.292377 58.846401
50.146717 45.58807 58.918137
50.19585 45.919163 58.93359
49.894588 44.411011 58.84655
50.035973 45.58226 58.879677
49.97374 45.154839 58.86618
50.202652 43.615089 58.856369
50.29567 43.754829 58.873905
49.957375 44.516521 58.822605
50.35878 45.433403 58.941753
49.940224 43.984367 58.834728
50.310379 44.439285 58.899807
50.052246 44.39856 58.86441
50.046745 45.490837 58.89415
50.121914 45.788307 58.914253
50.23811 43.84367 58.860928
50.042648 44.867977 58.864117
50.198292 45.581322 58.896893
50.293983 43.098793 58.832035
50.053749 43.272133 58.8158
50.03299 44.740845 58.844109
50.160542 45.528404 58.851982
50.150871 45.829971 58.887623
50.305897 44.21566 58.862438
49.976795 44.345085 58.835945
50.157322 44.923283 58.891613
50.031551 44.090332 58.843662
50.041363 44.231651 58.815533
49.949478 42.299778 58.766167
49.974297 45.703945 58.880554
50.226879 45.688549 58.905888
50.340939 44.136059 58.856197
50.221275 44.947403 58.893311
50.233807 44.319817 58.868584
49.943531 43.040371 58.778679
50.23642 45.799206 58.921104
49.934437 46.119762 58.858906
49.919018 46.199352 58.889259
49.947968 45.487976 58.882236
50.115372 43.462807 58.840599
50.209175 45.292305 58.868111
50.411785 45.465412 58.925377
50.419411 43.994289 58.875259
50.17794 43.873302 58.858192
50.143055 45.478386 58.902866
50.352631 42.922256 58.824493
50.171547 44.434654 58.844002
49.933735 43.213528 58.809189
50.256638 42.778725 58.845673
50.13419 45.179668 58.897552
49.93718 45.286526 58.894146
50.19664 45.307846 58.920948
49.956898 43.15358 58.792686
50.292717 43.190266 58.856789
50.33411 45.288368 58.930588
50.04879 45.268417 58.896111
50.160343 43.625313 58.861252
50.042938 43.771191 58.833015
49.939575 43.456291 58.802101
50.226517 45.500076 58.912365
50.101818 44.045956 58.846943
50.047081 43.652512 58.813526
50.365314 43.660019 58.851646
50.141888 43.873211 58.837734
50.204453 42.908527 58.812344
50.134247 42.618984 58.802288
50.036316 42.795662 58.802139
50.068771 43.295574 58.828873
50.1283 42.385578 58.806461
50.13485 43.012535 58.833599
50.154297 43.24041 58.843483
50.02993 42.911789 58.804359
50.048241 42.302776 58.772514
50.050411 45.381306 58.884739
50.126568 42.416103 58.758087
50.243923 45.395226 58.896324
50.220592 44.88747 58.871269
50.241711 43.763977 58.855957
50.243122 43.449631 58.83213
50.046906 45.165653 58.880817
50.137188 44.843983 58.885834
50.141205 44.749901 58.837074
50.194153 43.545177 58.80724
50.234081 44.010475 58.83522
50.341766 44.015278 58.843807
50.314991 43.605515 58.831059
50.271667 42.831051 58.785358
50.239769 45.074799 58.853298
50.308994 43.452442 58.830765
50.045635 45.800114 58.89304
50.125683 44.394321 58.863583
50.167427 42.530922 58.786274
50.120228 45.901203 58.890739
50.039272 43.980865 58.834332
50.14777 45.688354 58.898731
49.895809 44.160854 58.905273
50.115795 44.126556 58.804512
50.318348 46.027813 58.917419
50.124119 44.219097 58.834885
50.1469 46.160522 58.880295
50.212223 44.525791 58.836105
50.130802 46.218937 58.902451
50.157265 44.500553 58.842342
50.152531 45.60482 58.876968
50.239204 43.670139 58.81712
50.133152 45.280602 58.860012
50.252075 42.959621 58.767555
50.04847 44.528954 58.836399
50.15369 45.383667 58.847099
50.273537 42.436115 58.744106
50.037567 45.688183 58.884079
50.168224 42.905109 58.795074
50.079872 44.300598 58.844311
50.057693 45.908733 58.875431
50.176689 42.962177 58.765682
49.954391 45.379894 58.85593
50.157146 42.570385 58.739632
50.300976 44.938332 58.85165
50.237171 42.712193 58.768494
50.118599 43.991409 58.831631
50.03326 45.509705 58.846394
50.134113 42.825722 58.792854
50.059052 42.720749 58.751514
50.059166 45.827393 58.852463
50.139034 43.281448 58.769573
50.203766 42.567947 58.744865
50.296043 42.352829 58.748615
50.13369 45.719246 58.850945
50.051079 46.149502 58.863277
50.301434 45.506565 58.855026
49.904903 45.665203 58.792324
49.925484 46.902195 58.849918
49.83535 45.516911 58.801159
49.918945 46.463577 58.848278
49.936943 45.836353 58.828999
49.915104 46.726173 58.810051
49.929882 45.306046 58.76897
49.950798 45.9258 58.807579
49.832012 46.463291 58.847504
49.849781 45.422108 58.862389
49.83913 44.022091 58.75444
49.918331 44.349083 58.774395
49.929901 44.969658 58.816124
49.898247 45.203346 58.801788
49.892006 43.420311 58.733364
49.852383 43.953934 58.732044
49.773499 44.330841 58.762402
49.757435 46.207104 58.843849
49.832451 44.137264 58.752872
49.838444 44.54258 58.796337
49.824085 43.18 58.738663
49.933277 44.112434 58.784592
49.929695 44.751995 58.824303
49.851742 43.267761 58.738224
49.84903 45.194099 58.793224
49.842571 44.208351 58.820354
49.843655 44.925602 58.856018
49.813972 45.244823 58.871025
49.860535 46.036709 58.825661
49.825989 43.685028 58.737587
49.819511 44.420856 58.852337
49.815964 45.166122 58.832085
49.767715 44.107738 58.755753
49.794075 45.605839 58.841892
49.829163 46.150707 58.838516
49.755108 44.313198 58.805153
49.760487 45.01635 58.830086
49.757893 45.825256 58.814827
49.771572 46.864353 58.979973
49.810829 43.644512 58.771454
49.849567 44.306343 58.818214
49.851799 46.899166 58.848797
49.764015 43.33194 58.751278
49.751396 46.500458 58.902092
49.773209 43.136562 58.770477
49.751389 46.149612 58.831402
49.835629 43.986393 58.787411
49.828804 44.760868 58.792244
49.73682 42.506699 58.74633
49.650486 44.567192 58.799759
49.608456 45.556107 58.867599
49.603897 46.681957 58.893513
49.960831 45.777317 58.89912
49.606644 45.19038 58.868622
49.732662 42.633427 58.700813
50.048779 42.650753 58.73354
50.043602 45.908134 58.817162
49.640804 42.619423 58.762691
50.221172 44.570816 58.888756
49.465744 42.495705 58.74435
49.617096 46.945816 58.879307
50.223465 44.575115 58.793655
49.543331 45.181549 58.789505
50.002117 47.018436 58.87492
49.843784 46.35891 58.834995
50.14621 42.763447 58.746559
50.133392 44.607975 58.866982
50.078835 44.628891 58.874931
49.588333 43.504395 58.786903
49.327461 45.189983 58.77652
49.913353 46.484497 58.816769
49.632999 42.631073 58.706215
49.496357 42.60535 58.847233
49.841457 46.984905 58.862743
49.856602 44.966206 58.796677
49.752556 45.902122 58.824856
49.959873 45.911526 58.848434
49.476143 45.446686 58.833302
49.639675 45.896309 58.855774
50.131607 45.051941 58.867176
49.8283 45.057892 58.823647
50.035172 45.051491 58.851551
49.656868 43.496117 58.796272
49.592621 43.337341 58.748302
49.933659 43.277576 58.774384
49.64024 45.469639 58.860489
49.744553 44.412876 58.783085
49.526024 43.273712 58.746586
49.855949 44.489758 58.745441
49.741341 44.469105 58.724045
49.642273 43.039696 58.759689
49.836849 44.788551 58.771023
49.738609 43.704288 58.737427
49.580265 44.035873 58.704071
49.926373 46.674652 58.85038
49.967537 43.719028 58.738464
49.512051 44.134575 58.81707
49.762226 42.606205 58.770679
49.749359 46.447174 58.842716
49.872589 46.238541 58.871819
49.639702 46.804634 58.941151
49.830307 45.723698 58.80426
50.058456 44.428322 58.830502
49.635235 46.294525 58.875126
49.632732 44.440762 58.782738
49.736427 43.531597 58.840656
49.849438 46.008137 58.884224
50.027451 44.99321 58.830151
50.141193 45.993111 58.919655
50.054386 46.009167 58.899776
49.976383 45.969532 58.882248
50.036129 43.805519 58.773552
49.758595 45.502907 58.804459
49.93943 44.553543 58.783611
49.562756 42.573292 58.795563
49.664932 44.199898 58.8312
49.626617 43.506878 58.808952
49.915493 46.534283 58.880192
49.599243 46.572716 58.88443
49.619789 44.700325 58.83223
49.93351 46.161217 58.796837
49.840443 44.872101 58.783047
50.062523 45.574341 58.785301
49.35321 44.225609 58.750988
49.549023 44.863659 58.75919
49.756172 45.289299 58.798698
49.748146 46.993946 58.852428
49.834743 45.294876 58.810307
49.224121 45.285835 58.87336
49.822731 45.767731 58.872459
50.045895 44.554211 58.789577
49.846664 42.720222 58.734367
49.633698 43.345501 58.767803
49.850216 43.352566 58.765621
49.834923 43.14669 58.762104
50.04071 42.496864 58.778404
50.099396 44.900425 58.806206
49.85696 44.571999 58.760876
49.66048 42.512691 58.747494
50.043377 44.878773 58.80621
49.634563 44.761211 58.947498
49.93639 42.951305 58.739567
49.397194 43.015434 58.697788
50.060543 45.30444 58.841095
50.296459 45.167912 58.892426
49.662804 43.124565 58.791641
49.742138 46.293755 58.793133
50.208927 45.539368 58.852859
49.571091 44.505161 58.744923
49.829201 42.966156 58.733818
49.786495 44.789848 58.888226
49.848072 46.667667 58.846546
49.811687 43.44463 58.789745
49.519402 42.713306 58.706871
49.773933 44.757587 58.802433
50.116711 44.977646 58.826862
50.052582 44.929581 58.885017
50.121986 46.719749 58.852024
50.04335 43.885239 58.804356
49.781429 43.453178 58.785278
49.941246 45.051617 58.827686
49.632256 42.72921 58.722378
49.401138 42.569378 58.75494
50.040955 44.110249 58.793842
49.752541 45.93433 58.79327
49.58086 43.880966 58.86235
49.640602 46.355904 58.842251
50.052059 43.048462 58.782253
50.058281 46.030422 58.841194
49.762199 43.057247 58.730942
49.84129 43.038017 58.741047
49.421928 45.322151 58.846344
49.568443 45.41016 58.839481
49.728401 45.547722 58.940437
49.754772 46.484451 58.817223
49.923206 45.519814 58.812389
49.358585 44.298244 58.703297
49.585075 42.846184 58.815117
49.755802 44.029472 58.740051
49.52364 45.228279 58.854431
49.668739 44.111595 58.758392
49.476654 44.103737 58.78828
49.757118 46.653168 58.839478
49.85339 44.589195 58.901329
49.63937 44.613613 58.833981
49.550678 46.651062 58.882561
49.990383 42.736832 58.704716
49.845242 46.592209 58.836418
49.754143 44.868992 58.767082
50.046459 43.354454 58.789165
50.061275 44.221443 58.919167
49.843304 42.493237 58.74403
50.057674 46.833748 58.917648
49.703686 42.258381 58.781536
49.626194 43.655582 58.804966
49.759869 42.713001 58.741547
49.732922 43.758137 58.780701
49.651127 43.782536 58.810745
49.873459 46.785759 58.860504
49.819988 45.116749 58.78413
49.551296 45.310768 58.830063
50.146626 44.360413 58.804588
49.842346 45.828716 58.813419
49.634827 45.990856 58.891308
49.779373 44.516903 58.800335
49.852863 45.419415 58.795963
50.167599 44.68726 58.888405
49.44672 43.875889 58.821278
49.843193 44.338684 58.77055
49.411495 45.017651 58.831402
49.742256 42.182384 58.722477
49.55695 44.23053 58.80357
49.73048 45.276318 58.874435
49.851578 45.912956 58.839241
49.845409 46.492676 58.816387
49.355007 44.986126 58.818634
49.838112 44.453999 58.778942
49.222511 44.999329 58.821087
49.607552 43.817486 58.892685
50.12978 43.78743 58.765202
49.638996 45.358433 58.82951
49.931732 42.621365 58.72131
50.32766 45.670696 58.929359
49.743568 44.57933 58.75705
50.051662 46.764523 58.829556
49.618774 42.94104 58.773495
49.738483 42.888939 58.753563
50.028481 43.442081 58.820358
49.935192 45.707661 58.807327
49.514462 43.496895 58.832012
49.396061 44.344948 58.808395
49.305706 45.033092 58.811237
49.23188 45.091164 58.871311
49.667515 44.23304 58.735886
49.659027 44.341129 58.781841
49.345066 43.046299 58.640015
49.550598 44.933117 58.851887
49.553547 45.06271 58.828297
49.654598 42.283894 58.734764
49.833599 42.840714 58.702457
49.634224 45.013302 58.811741
49.656315 42.524647 58.676712
49.483906 43.187046 58.70747
49.798267 46.691399 58.93412
49.759682 43.901176 58.755096
49.759682 44.661728 58.764095
50.201584 46.14888 58.940094
49.854359 45.600388 58.832237
49.569069 42.714405 58.807877
49.599895 44.817677 58.843128
49.632221 42.701633 58.79977
50.238327 44.974022 58.824467
49.748413 44.218056 58.774162
50.107906 44.049171 58.7733
49.943401 42.440407 58.748169
49.847244 43.48011 58.74221
50.236969 43.583939 58.797539
49.852779 44.549271 58.914982
50.245583 43.887344 58.806946
50.161213 45.115513 58.807961
49.911812 46.573071 58.829395
49.851517 45.944309 58.815689
49.917965 47.086941 58.879246
49.597412 42.347755 58.661144
49.739555 42.780552 58.846256
49.342693 45.167534 58.845448
49.278053 43.293919 58.708633
49.695786 42.352161 58.695324
49.270969 43.465122 58.776581
49.6534 42.79668 58.755352
49.549713 44.983395 58.823635
49.26498 43.350426 58.683224
49.076305 43.066322 58.638084
49.395222 43.077133 58.636459
49.605423 45.032635 58.82896
49.352413 43.486622 58.735336
49.542305 46.615341 58.884556
49.543812 44.351376 58.750286
49.618263 44.308311 58.80368
49.534634 43.595066 58.779434
49.580841 43.489037 58.751362
49.460415 44.941093 58.880772
49.672092 42.404915 58.702168
49.607704 43.23135 58.804615
49.612396 42.462116 58.80114
49.725697 46.085724 58.906498
49.756985 46.908852 58.843887
50.024006 44.352894 58.77647
50.028816 42.406487 58.734165
49.93837 44.213829 58.826885
50.153469 44.652557 58.823597
50.036877 43.587612 58.797344
49.953556 43.897709 58.81414
49.944298 45.872288 58.791576
49.855286 45.646935 58.802418
49.93475 42.375309 58.780533
49.930038 46.051991 58.821609
49.946075 43.661751 58.807339
49.843758 43.90012 58.770424
49.824757 42.825268 58.74826
49.929237 46.983849 58.858093
49.748863 43.983452 58.795368
49.838284 46.8102 58.836693
49.753826 43.676685 58.783154
49.759094 46.809776 58.832951
49.916618 46.819679 58.837013
49.539364 44.860001 58.845375
49.621685 42.39312 58.76162
49.648895 45.289635 58.830467
49.806789 47.08688 58.878445
49.61787 43.577671 58.786381
49.851387 44.658775 58.787842
49.664509 46.028641 58.84568
49.665432 47.079105 58.900799
49.624939 44.981602 58.862274
49.631702 43.885025 58.765373
49.74152 45.454704 58.849655
