# .PCD v0.7 - Point Cloud Data file format
VERSION 0.7
FIELDS x y z
SIZE 4 4 4
TYPE F F F
COUNT 1 1 1
WIDTH 969
HEIGHT 1
VIEWPOINT 0 0 0 1 0 0 0
POINTS 969
DATA ascii
-9.1628723 19.203812 23.415501
-7.5234013 19.480404 23.563448
-8.6830511 18.285749 23.333723
-8.1222477 20.156723 23.715498
-9.6739283 19.991497 23.314962
-8.9605637 19.47291 23.355017
-7.8561368 18.654713 23.4366
-9.9575806 18.512863 23.191914
-9.153616 19.58334 23.406912
-7.9577422 20.137939 23.773439
-8.9612703 19.128592 23.405375
-7.8134861 19.917189 23.516994
-8.3366747 19.48749 23.426264
-8.98769 19.165302 23.489157
-10.218009 20.07342 23.230244
-9.5356741 19.995716 23.298235
-9.4083071 19.125038 23.243134
-10.271013 19.844669 23.119875
-10.112821 20.032845 23.329456
-10.089049 19.115955 23.256052
-10.251476 19.996561 23.302975
-9.8237076 19.496758 23.312387
-9.8289528 19.586704 23.308537
-9.2486763 19.705982 23.361834
-10.10683 19.023808 23.124119
-9.3416004 18.815138 23.24021
-9.2931852 18.258871 23.250549
-10.297358 18.427641 23.070061
-9.4971046 19.77758 23.38554
-8.7319355 18.722342 23.295012
-8.9731522 18.922569 23.464426
-8.8372059 18.946516 23.508312
-9.3293657 18.42231 23.225183
-9.9960003 19.965347 23.309254
-9.7127562 19.570055 23.255625
-9.9411821 19.124037 23.215933
-8.0249634 20.056282 23.616365
-7.4467516 18.56274 23.622908
-7.0554857 20.03163 23.759953
-9.0208683 20.051512 23.461853
-8.2073631 19.179745 23.492798
-8.5801458 18.630064 23.422365
-9.5982285 18.249697 23.188286
-9.4272032 18.378019 23.18948
-8.063674 19.464083 23.470451
-8.4320307 19.376411 23.383865
-8.5987682 18.445173 23.341528
-9.6071405 19.482492 23.228336
-10.065511 18.995226 23.070381
-10.180717 19.902916 23.15373
-9.2179031 19.791903 23.437275
-8.1570187 19.565254 23.547173
-7.2232237 18.300018 23.50186
-9.9366255 19.546144 23.276287
-8.7634363 19.472254 23.373833
-10.133234 18.437151 23.116934
-8.8248043 19.340239 23.37779
-9.8332348 20.024221 23.371548
-7.135098 20.042273 23.725245
-7.5401335 19.034479 23.504255
-8.8514433 19.424242 23.404804
-8.1820011 18.232531 23.386606
-9.1170101 19.769436 23.346779
-9.1283865 20.080879 23.453842
-8.2117376 20.076769 23.591217
-7.7018676 19.170231 23.476002
-8.6046305 19.709515 23.550985
-7.209497 18.716513 23.491823
-7.8331714 19.856308 23.561628
-9.2082796 20.0753 23.440151
-7.5308218 19.860086 23.612974
-9.3388948 20.057659 23.43047
-9.3007088 19.660378 23.450878
-7.1904097 18.513941 23.492462
-7.5448465 19.413992 23.717016
-9.688755 19.745171 23.288116
-9.7095013 19.804062 23.263138
-9.4398432 20.059881 23.410971
-8.9759521 19.254147 23.347212
-10.041395 18.498442 23.196514
-7.4478331 19.549805 23.605446
-9.9028988 19.956667 23.217306
-7.3529539 20.04705 23.715424
-10.296645 18.973375 23.065056
-9.3420181 18.627401 23.22312
-8.7424593 18.419403 23.300318
-10.030428 18.949057 23.255997
-8.3502569 19.674427 23.456505
-8.8779383 19.569218 23.440693
-9.3090925 19.548857 23.328798
-7.1528964 18.291761 23.509375
-9.1621075 19.724907 23.4172
-9.5213346 18.416502 23.209473
-8.4344196 19.661079 23.455889
-8.8715582 19.471918 23.350227
-9.7221003 18.471689 23.106287
-8.9853725 19.428951 23.298841
-9.41922 19.765602 23.307989
-7.9365206 19.751245 23.419188
-9.4665251 19.93222 23.2885
-8.7469597 19.261452 23.445156
-7.4208088 19.432526 23.610634
-7.3772764 19.501831 23.617264
-9.7427807 19.623192 23.266357
-9.6220226 18.422762 23.172909
-10.219104 19.615129 23.154474
-7.5474901 19.76059 23.579123
-8.0384636 19.865116 23.528429
-8.4326715 18.479456 23.311424
-10.233507 18.785784 23.056393
-9.8261528 20.249575 23.385164
-10.118237 19.627628 23.207058
-8.6997919 19.932285 23.402409
-10.146051 18.535818 23.13138
-9.2576809 18.936647 23.242374
-10.051501 18.866486 23.087173
-9.9274788 18.438841 23.142456
-7.8080478 19.943722 23.595787
-9.335084 19.500469 23.3619
-9.522707 18.488157 23.150322
-9.3273525 19.773861 23.330709
-10.014503 18.429682 23.110296
-7.4679794 19.714716 23.54285
-9.9103794 20.154032 23.308403
-10.2532 18.955425 23.082464
-7.504384 19.893911 23.700184
-7.9586802 18.337393 23.463923
-8.9273605 19.424652 23.388327
-9.530118 18.374966 23.173491
-7.5331469 18.336586 23.524693
-8.725235 19.33683 23.424805
-8.837182 18.430428 23.311651
-9.7247877 18.422363 23.174942
-9.8233433 18.426687 23.148315
-9.7394228 20.159712 23.335772
-8.7288122 18.789364 23.3463
-9.13167 18.429686 23.248554
-8.4281368 18.773804 23.384535
-10.028468 20.05271 23.311481
-8.3368397 19.424238 23.451168
-7.3287077 19.647791 23.621912
-8.7341099 18.485218 23.273783
-7.510932 20.059931 23.700054
-8.2729197 18.838343 23.355375
-8.7258358 19.764505 23.424156
-7.8215632 19.819506 23.631372
-7.6468458 19.113636 23.509275
-7.4585109 18.334234 23.535263
-9.6194735 19.689722 23.261362
-8.7171907 19.399899 23.435986
-8.1502285 18.632914 23.30064
-8.797451 18.615738 23.231115
-10.04609 18.973921 23.187794
-8.0436659 18.330153 23.459522
-7.729022 19.584469 23.639923
-9.9091825 19.023771 23.224911
-9.4021311 18.959818 23.261883
-9.5626707 18.944933 23.133854
-9.970788 19.00317 23.046619
-9.4858284 19.926676 23.429905
-9.7325325 18.752813 23.152719
-7.8186417 18.901846 23.466726
-8.0419064 19.227121 23.523466
-7.3394771 19.856081 23.676487
-9.4204931 19.647736 23.319172
-9.0138769 18.904205 23.325686
-10.143136 18.684551 23.054375
-9.1861439 18.822914 23.308859
-7.2708731 19.883644 23.62101
-8.5420876 19.861856 23.469973
-8.4325686 19.871767 23.473608
-8.8920631 19.966923 23.382185
-9.7243624 20.0028 23.24551
-8.2103043 19.881235 23.456699
-9.3222179 19.246059 23.266918
-9.0336094 18.983696 23.331141
-7.4262209 19.791231 23.68935
-9.2079363 19.306305 23.199192
-7.8864107 19.815315 23.460173
-9.2435493 19.021357 23.272919
-7.3238358 19.98263 23.639946
-9.3205786 18.662706 23.220282
-8.0759211 19.803196 23.442314
-8.2209253 19.983564 23.494802
-8.5451326 19.45278 23.3748
-8.529129 20.044207 23.539444
-8.8295202 19.98218 23.40346
-9.0165834 18.600954 23.273211
-9.0171471 19.725832 23.422647
-10.039223 20.068182 23.261444
-7.5247312 18.63205 23.444601
-7.7270551 18.804544 23.459763
-7.5172348 19.706081 23.610266
-9.9096479 20.042044 23.332298
-7.645195 19.325933 23.52706
-9.0240145 19.329405 23.361372
-8.6305799 19.935278 23.472803
-9.6320667 20.049162 23.390842
-7.5290804 18.437101 23.473625
-7.6797724 19.060339 23.566217
-8.0414734 18.441664 23.410789
-7.6222477 18.440901 23.45756
-8.5393085 19.98987 23.449142
-7.8604994 18.442614 23.438046
-8.3189077 18.447659 23.368565
-7.5922599 19.657681 23.543785
-7.7132411 18.432234 23.473591
-9.2242508 19.563152 23.452402
-9.5315123 18.671902 23.201611
-7.8361368 19.716415 23.579966
-9.6284704 20.020218 23.295006
-9.1452847 18.986828 23.32217
-9.0440359 19.275019 23.372128
-9.5336723 19.938749 23.339767
-8.8275356 19.635422 23.417507
-7.9305987 18.448448 23.417593
-7.6354537 20.054588 23.676542
-9.9368668 19.065561 23.274923
-8.2305632 18.429733 23.410046
-8.638463 18.788403 23.346922
-7.650363 19.742626 23.619473
-9.9319363 19.174431 23.225365
-7.6927223 19.685097 23.551189
-7.5287495 19.964109 23.605648
-8.137289 18.580763 23.386965
-7.7190728 18.501978 23.416216
-7.4392471 19.870962 23.620705
-9.725565 20.047489 23.355745
-9.7232647 20.085779 23.304365
-9.7473879 18.716549 23.122431
-9.6367416 19.705112 23.327158
-7.6662836 19.486719 23.512642
-7.444376 18.89258 23.512884
-9.4127417 19.009024 23.243547
-9.4449987 20.003572 23.312395
-7.0536623 19.895021 23.716852
-9.4188566 19.509478 23.343777
-8.7209873 19.728977 23.448616
-9.2200289 20.0161 23.356741
-10.006166 20.136591 23.288488
-7.8220663 19.987492 23.548941
-10.155229 20.164015 23.270638
-7.6196294 18.92622 23.465015
-8.7310658 19.863913 23.442722
-9.3488045 18.937155 23.228224
-9.3331347 19.635572 23.337597
-8.4266834 19.126591 23.3869
-8.4401407 19.988068 23.474066
-8.4304228 19.547775 23.415079
-9.7045555 19.855036 23.283876
-7.9244342 19.637253 23.530245
-9.735466 18.312994 23.178854
-8.7738619 18.851473 23.536314
-9.4111204 18.921745 23.199886
-9.5172749 19.788532 23.29162
-8.0337982 19.907934 23.483606
-8.7212572 18.687805 23.333075
-8.5266047 19.117914 23.375172
-8.1414089 18.427334 23.400171
-7.9418406 19.119255 23.480053
-8.5264902 19.57122 23.402523
-7.7339211 19.870535 23.589314
-9.6792603 18.637741 23.134607
-9.1219044 19.545387 23.341513
-9.1696777 18.957788 23.269337
-7.4362254 19.644932 23.620539
-7.8153653 18.638128 23.411955
-8.4199476 19.579832 23.503168
-9.0450096 19.02953 23.318008
-8.6094122 20.0499 23.521124
-8.6252127 18.582703 23.319059
-7.0455832 18.528133 23.570044
-8.133708 19.485975 23.410946
-8.0156279 19.158016 23.440681
-8.627574 19.997698 23.433588
-8.0256996 19.341436 23.460072
-7.7230935 19.317688 23.514879
-8.1408501 18.333225 23.451921
-7.5070076 18.573797 23.463156
-8.2244778 19.460779 23.426785
-8.9358959 19.328445 23.375257
-8.9247561 19.541504 23.38669
-8.6024532 19.821413 23.525139
-8.619092 19.570311 23.374908
-7.2746916 18.590948 23.518839
-7.6588163 19.775553 23.546907
-7.9310379 18.79299 23.431541
-9.8276815 19.847046 23.270912
-9.9134588 20.087355 23.269218
-8.1308336 18.971125 23.368912
-7.925199 19.333313 23.498133
-9.8656397 20.026747 23.250589
-9.8256702 20.086716 23.29352
-8.7380228 18.869081 23.365768
-8.1313066 18.222731 23.426727
-7.5477457 18.989803 23.55064
-8.0291643 19.661489 23.50795
-7.7047181 19.249289 23.556778
-9.7248974 19.965551 23.332436
-8.5238705 19.531502 23.478323
-9.0255518 19.629936 23.368958
-7.4434528 19.763622 23.611576
-8.9327993 19.764963 23.385374
-7.2197075 19.679249 23.622187
-9.0278254 18.883965 23.447926
-7.7359018 18.947205 23.437899
-8.6576252 20.108021 23.562094
-8.8805962 18.965961 23.293833
-9.6070156 19.049961 23.318836
-8.9278822 19.630833 23.402231
-7.822732 18.939678 23.434984
-7.1813169 20.084469 23.797142
-9.0246744 19.511171 23.411652
-8.1060915 18.878962 23.420845
-7.9392338 19.199493 23.491852
-8.0144415 18.948839 23.401409
-8.8378487 19.710918 23.35371
-7.9362788 19.984114 23.535219
-8.8358335 19.517647 23.427658
-8.1194019 19.3682 23.424562
-8.536952 18.895794 23.36224
-9.6271791 20.087805 23.318092
-8.6998816 19.678209 23.395054
-9.8159904 19.350939 23.266945
-8.1321917 19.564301 23.477001
-8.10501 19.106886 23.435762
-9.5329895 18.988367 23.231911
-8.2209806 19.537012 23.444494
-8.0237179 19.125235 23.467943
-8.0293341 20.105442 23.568235
-9.8617735 19.21838 23.20368
-7.6043048 19.250845 23.515591
-7.9258614 18.896629 23.45701
-8.4055595 18.253887 23.346998
-8.8280563 18.873053 23.34672
-8.8131981 20.127214 23.535139
-8.6219597 18.930962 23.32617
-9.6247149 18.649109 23.181524
-9.3229246 19.115887 23.273468
-8.4972792 18.258932 23.449064
-8.9274588 18.897194 23.338852
-7.9297361 18.956268 23.395781
-7.821249 19.111216 23.483511
-7.629097 18.694977 23.453482
-8.4758263 18.936947 23.348284
-9.2290897 19.542093 23.340569
-8.5463705 19.617044 23.446075
-8.5509501 19.780584 23.445194
-9.8395891 18.598166 23.12911
-8.3211403 18.323753 23.426191
-8.1278334 19.881756 23.648043
-8.1196117 19.352135 23.445057
-7.7303715 19.113106 23.495668
-7.8782496 19.339254 23.583641
-10.026327 18.925501 23.120443
-9.3390532 18.892033 23.252398
-8.8255119 19.759956 23.404478
-8.6216631 19.85976 23.449703
-9.3842344 19.05172 23.338135
-7.8181267 19.542973 23.53636
-8.0234604 18.39262 23.342628
-7.6629577 19.164801 23.490885
-8.5531025 19.233006 23.362825
-9.8357553 19.390162 23.21196
-9.7283239 18.402327 23.089109
-7.6391811 18.667797 23.497234
-8.0378323 18.877583 23.440615
-9.7203693 19.812204 23.410723
-9.622735 19.817087 23.342865
-8.2059298 19.874758 23.500347
-7.80968 20.055859 23.656025
-9.5325432 18.889576 23.217098
-10.125999 20.082674 23.237421
-7.5185533 20.104309 23.726917
-7.8254952 19.239874 23.483267
-9.4106712 18.898941 23.242914
-7.4604106 18.690235 23.469345
-8.1149559 19.056095 23.42565
-9.4598589 18.726196 23.207455
-7.6265945 19.938377 23.629875
-8.3687363 19.578878 23.421162
-9.824008 18.470497 23.08218
-8.791048 18.786879 23.511494
-8.0293894 19.771643 23.504843
-9.2485504 19.694687 23.319752
-7.9141841 19.866434 23.539795
-8.4364691 18.882433 23.40011
-8.7108288 18.334949 23.36269
-8.1358967 19.655903 23.502625
-7.9107561 19.726231 23.581579
-7.6691542 18.780455 23.541403
-7.8337626 19.023245 23.46616
-8.3495941 19.299461 23.348392
-8.9119568 19.897575 23.358158
-8.3451757 18.860973 23.389454
-8.3448277 19.698137 23.522943
-9.8724136 19.190472 23.150366
-9.5223417 19.651196 23.295813
-8.3369274 19.791042 23.46472
-8.1270599 19.703758 23.467175
-9.3135004 19.021166 23.252798
-7.6428552 18.584669 23.443699
-9.3309402 19.959286 23.519533
-8.9234781 19.823507 23.474354
-8.6168327 18.859707 23.297363
-8.6297731 19.911789 23.38916
-7.9327769 18.701263 23.42033
-7.7383952 18.707861 23.438272
-7.619853 19.023907 23.490091
-7.4615211 19.108208 23.554874
-8.0334644 19.950428 23.567434
-9.4028521 19.844885 23.434069
-9.7693138 20.133926 23.380819
-9.532732 19.614706 23.410803
-7.7142086 19.758799 23.567974
-10.015428 20.123924 23.366936
-9.3102722 19.311913 23.290167
-7.9137421 19.491831 23.592745
-7.9226823 18.943323 23.499729
-8.1399965 19.732094 23.542053
-7.4858446 18.685068 23.536549
-8.1260357 18.481758 23.368948
-9.6737299 18.939739 23.172558
-9.4672823 19.428865 23.427639
-9.6235113 20.108442 23.43059
-8.9182701 19.033636 23.503059
-8.9199791 19.859545 23.393251
-9.5033264 19.251293 23.419916
-9.031642 19.117716 23.344704
-8.5238152 19.2038 23.439568
-7.919641 19.773361 23.520824
-8.1184254 18.784204 23.408016
-7.6114006 18.901026 23.495855
-9.5074778 20.019869 23.529289
-8.4047995 19.708225 23.538115
-9.1212196 19.514572 23.385296
-9.6392508 19.061281 23.22492
-8.3433199 18.947454 23.361835
-8.0510387 19.240538 23.428366
-8.6028118 18.980204 23.447338
-8.0310268 18.715349 23.398195
-8.0138807 19.007143 23.413389
-7.9195647 19.023373 23.45491
-8.1295643 19.863186 23.517946
-8.430234 19.923719 23.437124
-8.211669 19.765644 23.555716
-8.9423218 18.42384 23.280617
-7.5953903 19.024929 23.599319
-9.292696 20.12215 23.451502
-7.7368021 19.026894 23.487471
-8.231245 19.764402 23.486479
-8.2002277 18.715788 23.368088
-9.0200844 19.700462 23.346596
-7.1258368 18.369078 23.535276
-9.0047626 19.757204 23.358223
-8.1231318 19.762257 23.496031
-8.6345072 19.77478 23.421577
-10.001495 19.16654 23.123425
-9.2294655 19.325491 23.308311
-7.7257013 18.632244 23.420477
-7.5299311 18.495026 23.432293
-8.8232918 19.776966 23.474964
-9.4895802 19.333984 23.249571
-8.9117699 19.515869 23.417976
-9.2313499 18.996799 23.298876
-9.842248 20.136835 23.391468
-10.06357 19.198811 23.165783
-9.9025211 18.698763 23.109369
-8.84056 19.554768 23.400896
-9.5288925 18.704605 23.176502
-9.8704662 18.674511 23.157799
-8.6349373 19.064819 23.428888
-7.937428 19.946846 23.596848
-9.6308298 19.559175 23.246088
-9.0268621 19.554958 23.364326
-8.7455969 19.52141 23.43433
-9.116416 19.820503 23.450974
-9.4304066 19.328201 23.292383
-9.6786184 18.883484 23.161726
-9.1222239 19.206907 23.341335
-9.8107405 18.410954 23.072289
-7.9205503 19.91798 23.515438
-9.1173897 19.068693 23.35428
-7.47226 19.91671 23.595856
-9.5422001 18.612244 23.170698
-9.3755817 18.762072 23.268969
-8.3477297 20.099188 23.611687
-7.9511418 18.755501 23.509964
-9.6207485 19.642626 23.281515
-7.8369474 19.774595 23.545193
-7.8196507 18.794247 23.439819
-9.9434977 19.371166 23.282511
-7.6462946 19.966579 23.584595
-7.9361506 18.676107 23.44541
-9.1317863 18.802591 23.316338
-7.6343541 18.631683 23.425339
-8.4256353 19.773382 23.434896
-8.8289089 19.866327 23.41589
-10.254766 18.915749 23.089832
-8.2065191 18.665005 23.386112
-7.5355649 19.548906 23.584883
-8.7666302 18.895046 23.472355
-8.677599 18.551542 23.354124
-9.5316734 19.009981 23.292751
-9.1989765 19.147692 23.256592
-7.8081498 19.46467 23.4876
-9.5181894 18.309505 23.220491
-9.2148438 19.848146 23.284203
-9.6064034 18.714266 23.156569
-8.9182386 20.06922 23.480162
-7.5426478 19.099226 23.537252
-9.0394306 18.795387 23.280394
-9.8250723 19.133734 23.208881
-10.13179 18.73151 23.124657
-8.7364368 19.560175 23.423323
-8.1244183 18.668541 23.409626
-8.73629 19.994394 23.422487
-7.3061309 18.919708 23.497065
-9.6037855 18.896681 23.197582
-7.7277179 19.982489 23.593868
-8.8986959 19.432417 23.481424
-8.5240374 19.166674 23.362741
-9.2199497 19.50168 23.370941
-9.6209002 18.581505 23.15933
-9.3393517 18.492573 23.165995
-9.4392223 18.802019 23.214834
-9.8324013 20.162409 23.32519
-10.369998 20.037088 23.252291
-10.029074 19.123194 23.176081
-8.6269579 19.154245 23.329556
-8.1640148 18.388506 23.460703
-8.0929947 19.784904 23.578705
-8.9280186 19.292669 23.404339
-7.1945243 18.418835 23.546247
-7.422061 18.912991 23.49815
-7.4317698 18.443823 23.629196
-9.898798 18.938433 23.120724
-9.2240839 19.110964 23.29661
-9.4925385 19.716763 23.32708
-8.5325327 19.839207 23.530327
-9.6085625 18.820736 23.170036
-8.7137051 19.819633 23.498085
-8.5234232 19.951973 23.480829
-7.3281097 19.925329 23.662876
-9.7113686 19.069384 23.207645
-8.3194609 18.695711 23.321306
-8.9413471 18.786472 23.309242
-8.0178652 18.470278 23.37373
-7.9867659 18.556112 23.484371
-7.6301751 18.798904 23.463867
-8.0288658 19.697594 23.495157
-9.0374966 20.124077 23.509726
-8.7313213 19.644341 23.435419
-9.5256519 19.374987 23.361158
-7.311049 19.782623 23.620241
-9.877018 18.886818 23.095407
-8.2950401 19.008307 23.451694
-7.7714701 19.642941 23.690098
-8.134943 18.714174 23.394045
-9.5197201 19.097212 23.270834
-9.427475 19.424078 23.309008
-7.8286834 20.096046 23.690777
-8.2314243 20.103054 23.537691
-8.6247587 19.686531 23.383272
-8.0322237 19.745358 23.558935
-10.080155 19.191694 23.229527
-9.3276939 19.718037 23.351202
-10.033461 18.76819 23.169041
-8.0412378 18.373764 23.50358
-9.1333456 19.849823 23.360802
-7.429431 19.981943 23.613794
-7.9349751 19.481125 23.509686
-8.9668093 19.560472 23.445467
-9.2171173 19.418442 23.343178
-8.3045778 19.699804 23.423775
-9.0328655 19.422722 23.369547
-8.923172 18.836981 23.383865
-8.1275139 20.101513 23.556684
-8.6079531 19.497843 23.476654
-8.6182022 19.420599 23.426567
-7.23246 20.092628 23.685659
-7.4252048 19.049633 23.525944
-8.3080177 18.794563 23.315928
-7.4362707 18.580929 23.472286
-7.8183775 18.717554 23.43425
-9.6052923 19.927393 23.274412
-9.7550287 18.997585 23.251907
-7.9379964 18.49831 23.393305
-10.234242 19.990332 23.277199
-8.849925 18.86832 23.42729
-9.0147047 19.836649 23.375587
-9.9418106 20.009817 23.285048
-7.4552832 19.931608 23.64123
-9.984437 19.24614 23.248217
-9.2443409 18.91238 23.26613
-9.5253477 18.256321 23.20528
-7.9254355 20.077837 23.638157
-9.6564846 19.247532 23.213558
-7.6258225 18.34996 23.45484
-8.5399609 18.569279 23.33696
-8.7450314 18.57028 23.307171
-8.6229687 18.670187 23.344934
-7.4503765 18.641371 23.469597
-7.8451695 19.68469 23.500689
-7.7397003 19.72637 23.61072
-8.29949 18.646275 23.379196
-8.3477764 20.073359 23.573101
-8.7303572 20.099646 23.526833
-8.6343307 18.47595 23.289482
-7.8337121 19.333374 23.499784
-7.9201798 18.627571 23.357367
-8.4378309 18.440952 23.337107
-7.4995737 18.863163 23.475929
-8.8222094 19.686424 23.541534
-9.4312096 19.874784 23.329338
-7.9263535 20.098894 23.589067
-7.9011464 19.690487 23.515194
-9.638216 19.193512 23.318005
-8.8253002 19.740257 23.439886
-9.8307037 19.269264 23.181103
-9.2468901 19.137934 23.410484
-7.8777571 19.423635 23.639294
-7.6281433 19.867579 23.605965
-7.7115364 19.438314 23.513535
-9.2206583 19.198015 23.325859
-7.5264082 18.823469 23.472925
-8.4248905 18.649153 23.365002
-8.9182701 18.97958 23.358463
-8.0391397 18.670315 23.419626
-9.4186058 19.165138 23.218166
-8.4584322 18.978928 23.359137
-8.809495 18.587412 23.296213
-8.8248825 18.504396 23.259274
-7.822391 18.589619 23.435146
-7.8402715 19.161581 23.454954
-8.8234653 18.684696 23.323896
-8.926795 18.705595 23.273806
-9.9509001 19.147881 23.262192
-8.4386511 20.067585 23.548412
-8.5527744 19.906542 23.399328
-8.9219723 18.714447 23.298756
-9.1274929 19.1227 23.321941
-8.852294 19.080082 23.364538
-8.4477158 18.582682 23.329561
-7.6250839 18.480022 23.430902
-8.2565222 19.121744 23.433561
-7.6233091 19.796898 23.645723
-8.6297836 19.361137 23.404589
-8.8296289 20.054243 23.523584
-7.6575351 19.900764 23.565765
-8.6330252 19.652632 23.44557
-8.7853003 19.43013 23.47748
-8.8363419 18.700296 23.290493
-8.060009 18.945312 23.321045
-9.2254906 20.123554 23.472534
-9.9999666 18.743799 23.095306
-8.8353996 19.076662 23.4118
-7.739789 18.771524 23.517218
-8.4631186 18.672665 23.319103
-8.0037737 19.622784 23.592978
-8.5214472 19.004862 23.34877
-7.5286036 19.956287 23.643045
-8.3245687 19.323547 23.422779
-9.24086 18.583406 23.213612
-8.9094543 19.352173 23.420404
-7.8382292 19.567835 23.620199
-7.2172513 18.646526 23.489979
-8.6013565 18.749926 23.399437
-8.729991 18.771221 23.370413
-8.0128145 18.764238 23.474306
-9.6518393 19.770426 23.265436
-8.2242231 18.479933 23.344086
-7.8219466 18.764648 23.495945
-9.337348 18.566259 23.146677
-7.7388244 18.685066 23.490988
-9.2837372 18.657597 23.204422
-8.1091795 18.561121 23.480316
-9.4358864 18.751102 23.267534
-9.017066 19.087332 23.392916
-8.2243853 19.281879 23.443214
-9.0911303 18.815218 23.276579
-8.5176229 19.334414 23.378052
-8.821887 18.744905 23.358757
-8.0329304 18.574402 23.399063
-9.4155531 18.280283 23.223745
-7.601603 19.940922 23.764553
-8.8379726 19.907312 23.374262
-9.0412025 19.336578 23.440262
-7.9285002 18.580774 23.41814
-9.1965294 19.353443 23.402889
-8.7222252 19.374615 23.47261
-8.9192848 19.72365 23.421188
-8.5357637 18.811424 23.336468
-7.8331356 19.645828 23.552189
-8.6091728 19.258039 23.356943
-7.7277746 19.953274 23.60784
-9.1369915 19.475441 23.31513
-9.4587765 18.318804 23.253675
-9.0063295 18.690796 23.257597
-8.925066 18.613144 23.245646
-8.6993446 19.593216 23.509396
-8.0980892 18.658213 23.502098
-9.2124138 19.454605 23.289728
-8.6312618 19.446007 23.376686
-8.1521921 19.206491 23.457142
-8.6410942 18.693966 23.30164
-9.4440517 19.332611 23.425083
-9.3181257 19.182774 23.295918
-9.1406202 19.040525 23.296654
-7.224103 19.75119 23.633947
-9.4216089 18.676846 23.221083
-9.5397377 19.536198 23.276899
-9.5287018 19.432501 23.287664
-9.3777571 19.149328 23.233442
-7.7304535 19.234221 23.486649
-8.9213085 20.119516 23.5117
-8.9359903 19.058451 23.378824
-9.4196815 20.133001 23.455019
-8.6260653 19.736738 23.478018
-9.5344992 19.448811 23.256212
-7.4240265 18.953941 23.363773
-9.3134651 19.069307 23.358643
-8.6304426 19.111202 23.377296
-9.1274862 19.412392 23.359669
-8.9229259 19.109463 23.36799
-9.2769032 19.790092 23.343218
-8.7421579 20.076208 23.507603
-7.5403957 19.650633 23.588293
-8.1479416 18.750578 23.43507
-9.4017525 19.283766 23.329929
-8.8771935 18.556475 23.345367
-9.4336958 19.543425 23.291862
-9.2212048 19.290331 23.365477
-7.2436724 20.065573 23.760509
-9.175642 19.901796 23.333353
-8.5397501 18.669643 23.358418
-7.9323344 19.172256 23.449827
-8.0273561 18.794209 23.432152
-8.2345247 18.392855 23.484087
-9.3044586 19.290071 23.346977
-8.9986219 19.231531 23.540474
-8.4398804 19.328653 23.420271
-8.4159279 19.431112 23.458578
-7.4448223 19.716003 23.636507
-9.2986403 19.415087 23.342779
-8.7034025 19.974388 23.601604
-7.7195334 18.592764 23.438715
-9.1215076 19.628963 23.364065
-8.0178404 18.634901 23.353788
-8.4234285 19.228905 23.385616
-9.1303949 20.133514 23.476225
-7.3041162 18.977291 23.429914
-8.1396666 20.051407 23.596624
-7.7683401 18.851149 23.408283
-7.3120298 18.89151 23.391165
-7.5302238 19.141903 23.504482
-8.1064205 20.102648 23.637182
-7.969985 18.709192 23.319679
-7.4434881 18.419931 23.499573
-7.6319385 19.648909 23.580509
-8.2399149 18.720625 23.449308
-9.5153694 20.132803 23.454369
-7.2865357 18.877201 23.495308
-9.1940107 18.731863 23.237865
-9.3174639 18.333279 23.297512
-8.0637264 19.018747 23.504423
-9.1227179 19.263884 23.311916
-10.229508 20.005096 23.184635
-7.5339861 19.69248 23.580206
-7.4509134 18.964869 23.547501
-7.8244386 18.484873 23.410172
-7.2512398 18.838156 23.565594
-9.6222448 18.482712 23.127947
-9.5130997 18.792759 23.19754
-8.3366289 18.794973 23.383223
-9.7159348 19.236437 23.210831
-8.3754168 19.101313 23.403429
-7.0481291 18.371025 23.527632
-8.3333044 19.163225 23.359537
-8.5153475 18.729216 23.385378
-7.9595404 19.401968 23.410917
-7.8291621 19.361378 23.440723
-9.3006392 19.859114 23.373953
-8.9062824 18.632929 23.220922
-9.9049072 19.837242 23.275936
-7.7278209 19.635332 23.581791
-9.7195759 19.422947 23.27656
-9.2197084 19.868299 23.351639
-8.7265282 19.009047 23.463694
-7.5385556 18.704973 23.458372
-9.9346991 20.025084 23.417967
-9.7457304 19.141357 23.318493
-7.9296923 19.224075 23.466717
-8.2120028 18.581871 23.369045
-9.4491978 19.581593 23.393805
-8.8512993 19.296103 23.420988
-10.331301 20.005405 23.184994
-8.3614197 19.025633 23.3936
-7.3375607 18.98032 23.525787
-7.5486355 19.049376 23.457916
-9.0258999 20.086113 23.416201
-8.2106314 19.02285 23.396122
-8.6847887 19.012947 23.371096
-8.8354445 19.022139 23.354694
-9.2301884 19.614634 23.357601
-8.7369127 18.981482 23.391327
-8.9027023 19.023384 23.329826
-8.2662506 18.972801 23.429977
-9.408803 19.730686 23.353783
-7.327549 20.099682 23.767458
-9.5632391 19.097448 23.320515
-9.3399839 19.564737 23.383865
-9.2260914 19.082993 23.357918
-10.114843 19.544485 23.186365
-10.098151 19.46394 23.198233
-10.035159 19.6217 23.205467
-8.1223297 18.545656 23.315176
-9.7956934 19.563889 23.251539
-8.541543 18.711191 23.312996
-10.181812 19.33497 23.168465
-10.180143 19.712286 23.150806
-9.6146183 19.289404 23.262997
-9.8340769 19.646187 23.224615
-9.6022749 18.305771 23.116636
-10.37925 19.627457 23.144794
-8.326642 19.201406 23.44976
-10.117614 19.334612 23.192482
-10.322459 19.735447 23.138317
-9.7061062 19.331448 23.291
-10.217194 18.643827 23.029116
-9.4404402 18.476141 23.156044
-9.5078697 19.230774 23.26384
-8.1019955 19.256275 23.421827
-9.425559 19.235779 23.235121
-9.1267328 18.479973 23.199419
-9.8739328 19.010504 23.169167
-7.5415077 19.489273 23.595852
-7.4557052 19.274414 23.530754
-7.6290607 18.997381 23.545191
-8.8239641 19.23476 23.266098
-9.179163 19.449234 23.457947
-9.9473104 19.201895 23.345526
-8.8120966 18.809576 23.335991
-8.0190887 19.547586 23.494406
-9.9048462 19.746706 23.24007
-8.8438272 18.977795 23.378004
-9.4422216 19.975302 23.36377
-7.7575989 18.993084 23.548101
-10.205378 19.564754 23.195173
-7.6398096 19.527277 23.612358
-8.9242277 18.755999 23.346766
-9.3390617 20.102335 23.53862
-8.3336744 19.877844 23.500265
-9.3349924 18.971897 23.273956
-9.8270645 18.381363 23.126202
-9.7892418 18.956562 23.213087
-10.044813 18.905886 23.164202
-7.6268277 18.769314 23.38069
-8.6275692 19.274128 23.417282
-9.430686 18.600893 23.11628
-10.103885 18.789886 23.068705
-8.7662973 18.48822 23.380621
-7.7359495 19.359268 23.468985
-7.7608442 19.311369 23.409161
-8.4932528 18.996649 23.459734
-10.322561 18.971579 23.074093
-8.8550329 19.215904 23.39459
-7.4694433 18.799257 23.514826
-8.622365 18.85177 23.395533
-10.29761 19.874882 23.154894
-8.3174477 19.234745 23.408615
-10.023085 19.24649 23.141241
-9.7310658 18.381624 23.145142
-9.6731215 18.974051 23.247604
-7.5305729 19.202637 23.524712
-9.9115658 19.241079 23.156282
-9.0007381 18.811037 23.345543
-10.040436 19.552509 23.194574
-8.4444513 19.212416 23.510523
-8.4248905 19.948811 23.504889
-9.2202959 19.940655 23.401987
-9.6128073 19.859634 23.297188
-9.1229582 19.330921 23.341412
-9.7165098 19.349451 23.239584
-7.057157 18.439928 23.534334
-9.9373589 19.333946 23.200701
-9.1986008 20.121834 23.568079
-7.9301782 19.417963 23.520681
-7.415019 20.112175 23.747833
-8.5362949 20.121763 23.568249
-9.1216488 19.366295 23.411297
-7.0318413 18.578651 23.504313
-9.5346136 19.875668 23.312607
-8.8130474 19.936007 23.426893
-8.3512726 18.600677 23.348679
-9.2615023 18.465155 23.198257
-8.9947605 19.991024 23.355
-7.5336838 19.173857 23.397793
-8.7714119 18.539892 23.208672
-9.5972137 19.560703 23.33555
-9.9131012 18.989531 23.145611
-7.9597158 18.37492 23.509174
-8.0271683 20.120724 23.643677
-8.2262592 19.954561 23.52857
-8.1986799 19.653265 23.534945
-7.0837345 18.216597 23.535561
-10.254866 18.9867 23.070183
-7.9221272 20.114243 23.674366
-8.5188093 18.386353 23.422638
-9.1363573 19.945513 23.414038
-9.2928991 19.371252 23.372561
-9.2864904 19.793131 23.407944
-8.2285786 20.12125 23.623968
-9.3496904 19.95393 23.36599
-7.0643816 19.982246 23.723846
-8.2630224 19.431643 23.488886
-10.127649 18.460386 23.054899
-9.6460733 19.415924 23.275074
-8.1576433 19.439819 23.503723
-7.5509758 19.406298 23.578215
-8.5374546 19.424175 23.441238
-8.3460217 19.928469 23.521336
-8.4912586 19.894777 23.574463
-7.9283514 19.539114 23.5229
-9.5539093 20.040077 23.394766
-9.1385059 19.940659 23.353104
-8.0465403 19.441444 23.502028
-9.6204233 18.375223 23.154596
-9.0314703 19.202604 23.362902
-7.6289625 19.55287 23.552557
-9.4957151 19.930639 23.265285
-9.7228575 19.008478 23.189995
-10.231145 19.740709 23.18865
-7.5370746 19.416491 23.462284
-9.9217672 18.37431 23.109276
-9.4098587 19.20805 23.270325
-8.739851 19.184076 23.40661
-8.375864 19.874006 23.442595
-8.9336205 19.195765 23.38603
-9.7901525 18.928249 23.184875
-7.2423105 18.87718 23.544971
-7.720325 18.87356 23.477211
-9.1254892 18.892496 23.29431
-8.1498947 19.816326 23.434216
-7.4320073 19.472725 23.641644
-7.8466616 19.5333 23.574335
-8.6390705 19.390781 23.346609
-9.2458611 19.25181 23.291033
-7.749794 19.488749 23.592089
-10.420057 19.578672 23.122982
-10.363846 19.574791 23.179569
-7.7166743 19.54397 23.553061
-9.6218395 18.632017 23.109379
-8.7276201 19.939865 23.459909
-7.8211365 19.438349 23.540537
-8.9123306 19.943562 23.413313
-9.9403877 19.422634 23.223427
-8.1329708 19.937468 23.53923
-7.656641 19.432899 23.562098
-9.1330776 19.287102 23.368744
-8.1168985 19.988302 23.506157
-8.3085232 19.984404 23.484579
-8.6752062 19.937445 23.609694
-9.9135704 19.470871 23.19474
-7.7074733 19.410898 23.54949
-10.099352 19.471098 23.182709
-8.7157393 19.103889 23.377985
-9.8966875 18.518446 23.041876
-7.5336237 18.898235 23.475082
