# .PCD v0.7 - Point Cloud Data file format
VERSION 0.7
FIELDS x y z
SIZE 4 4 4
TYPE F F F
COUNT 1 1 1
WIDTH 1558
HEIGHT 1
VIEWPOINT 0 0 0 1 0 0 0
POINTS 1558
DATA ascii
50.322598 20.52243 -57.550964
50.35881 22.202873 -57.698994
50.42765 22.775764 -57.704147
50.352634 21.723375 -57.490349
50.379925 24.992212 -57.31279
50.385979 21.903543 -57.871952
50.370926 22.078794 -57.596512
50.955944 22.841703 -57.675949
51.104763 23.228626 -57.615437
50.355228 20.295031 -57.559208
50.230206 24.349396 -57.368546
50.235634 21.239584 -57.431122
50.308258 24.95079 -57.37656
50.289654 23.863213 -57.445724
50.312012 22.106924 -57.829086
50.229446 20.199352 -57.704746
50.795502 22.903278 -57.724266
50.252716 19.99321 -57.655994
50.314644 25.320839 -57.334538
50.26125 20.566313 -57.663055
50.33242 23.315195 -57.500359
50.327927 24.994938 -57.308502
50.190731 23.221115 -57.375973
50.321636 25.404406 -57.309059
50.12722 21.701141 -57.558899
50.249382 19.939259 -57.64333
50.330368 24.443306 -57.341831
50.253216 22.782505 -57.45562
50.179844 25.044785 -57.317528
50.224277 24.615026 -57.673481
50.282879 24.378561 -57.372108
50.300156 22.156744 -57.788151
50.268097 20.396122 -57.555779
50.417049 21.906815 -57.695904
50.237194 24.51889 -57.645065
50.365162 21.491911 -57.500038
50.627937 21.064188 -57.754185
50.35556 21.655581 -57.468208
50.113354 24.909332 -57.39053
50.113914 20.694435 -57.580395
50.213974 24.304617 -57.455769
50.056103 20.699438 -57.588482
50.644238 21.871313 -57.710274
51.104576 22.504829 -57.600086
50.845173 22.21937 -57.668133
50.789829 21.286438 -57.691525
50.155903 21.138884 -57.527405
50.03413 20.842686 -57.548321
50.069363 21.41729 -57.554562
50.232384 22.743164 -57.518261
50.621017 22.243404 -57.698837
50.302044 21.411051 -57.55378
50.801487 21.84506 -57.657265
50.8442 21.922859 -57.654415
50.970604 23.373133 -57.566685
50.370316 22.624825 -57.410305
51.17202 23.390871 -57.551647
50.966103 24.102568 -57.537472
50.596973 22.115086 -57.705544
50.346161 20.230211 -57.564796
50.338478 21.935324 -57.756001
50.241577 21.554461 -57.542278
50.954266 24.008781 -57.536716
50.501801 23.484341 -57.74062
50.836472 23.693338 -57.533756
51.097618 23.542534 -57.543049
50.643242 23.546165 -57.673695
51.0341 22.5301 -57.619282
50.898582 22.503227 -57.613403
51.154453 22.941069 -57.575916
50.652775 23.76194 -57.680534
50.729492 23.546381 -57.672966
50.935696 21.064459 -57.720268
50.935276 22.959986 -57.594074
50.955269 22.878712 -57.565033
50.837875 22.815281 -57.66132
50.967468 23.746584 -57.568943
50.676048 21.616665 -57.722782
50.618141 21.496777 -57.721264
50.698387 21.581976 -57.71376
50.341679 21.717043 -57.68824
51.142323 22.396763 -57.615467
50.875889 22.043026 -57.642326
50.406219 23.47681 -57.591824
50.430111 22.647869 -57.695683
51.021019 22.946953 -57.59951
50.775196 22.42815 -57.6493
50.992195 22.432171 -57.582336
50.428368 24.632746 -57.392456
50.506245 21.852484 -57.766094
50.341164 24.725058 -57.393818
50.43362 25.234285 -57.362858
50.438244 24.943239 -57.385765
50.50935 22.347656 -57.7071
50.300121 24.483294 -57.652485
50.336517 24.928553 -57.648376
50.422184 25.334499 -57.343231
50.506058 21.936766 -57.725552
51.293461 25.415871 -57.280758
51.000626 24.342304 -57.383526
51.12661 24.619814 -57.349461
51.096947 25.163811 -57.330318
50.821629 24.966604 -57.350006
50.356285 22.392181 -57.777199
50.381355 24.509771 -57.684235
50.422043 23.236828 -57.485855
51.13073 24.911299 -57.325714
51.000549 24.845417 -57.363224
50.752605 24.332922 -57.387276
50.896282 25.173908 -57.336739
50.349464 23.958204 -57.717308
50.335793 24.589571 -57.672646
50.437687 23.352571 -57.44603
50.68755 24.9282 -57.36121
50.329109 22.304235 -57.797504
50.387051 24.612301 -57.655014
50.433327 25.363447 -57.634468
50.406322 23.761663 -57.484833
50.797112 23.783382 -57.40448
51.191223 24.596594 -57.329971
50.617981 22.961641 -57.661682
50.4161 24.408064 -57.652977
50.930103 23.790506 -57.397617
50.416286 22.394438 -57.804127
51.239651 24.378672 -57.328854
51.02 24.619623 -57.355946
50.701202 21.713377 -57.710751
50.720642 23.518518 -57.61536
50.610878 22.726141 -57.463028
50.441952 22.796282 -57.780006
50.412354 21.971796 -57.829693
50.422295 22.508921 -57.804604
51.131912 22.932287 -57.418533
51.271736 24.116829 -57.336178
50.420776 22.588596 -57.797569
50.408649 24.813515 -57.659203
50.298656 24.876331 -57.592834
51.178059 24.31303 -57.349174
50.430565 21.22592 -57.831875
50.455513 22.291727 -57.80904
50.750565 21.705223 -57.791462
50.423481 22.757128 -57.790188
50.624382 21.390833 -57.748543
50.488747 21.331879 -57.544529
50.927582 23.251728 -57.438652
50.737801 23.26313 -57.43927
50.622971 23.225761 -57.457283
50.7369 23.790657 -57.415611
51.162758 23.98538 -57.403362
51.242592 24.197136 -57.392658
50.824692 24.343716 -57.405785
50.922241 24.296268 -57.388847
50.820541 24.625912 -57.377193
50.735104 24.595139 -57.393486
50.949623 24.797623 -57.381168
51.007481 24.908566 -57.345676
51.051563 25.123867 -57.347595
50.692585 25.166786 -57.368031
51.011696 25.59133 -57.355152
50.4422 22.688606 -57.750355
50.431774 23.557627 -57.695072
51.092388 24.075258 -57.364803
50.424072 21.624514 -57.781483
51.107742 25.491758 -57.310303
50.417801 22.895578 -57.756687
51.04834 23.608311 -57.562405
50.335506 20.050972 -57.607227
50.991386 23.703535 -57.549946
50.977432 25.45565 -57.328369
50.455521 20.5259 -57.574425
50.819229 22.76755 -57.592083
51.152729 23.575405 -57.572136
50.50909 23.202568 -57.716621
51.206646 23.856487 -57.341095
50.48114 22.606359 -57.746582
50.419971 21.832754 -57.807476
50.503033 23.665108 -57.703171
50.993279 23.103006 -57.573826
51.053947 22.862442 -57.594906
50.818737 21.338634 -57.509567
51.028748 24.102535 -57.367165
51.113754 24.395668 -57.337601
51.219643 25.253967 -57.272961
50.51717 22.855865 -57.754074
51.228489 21.640968 -57.446583
51.213039 24.507502 -57.305775
51.303101 23.859011 -57.325279
51.321342 24.041445 -57.29744
51.306541 23.552864 -57.343498
51.286446 24.823339 -57.251305
50.418114 21.312695 -57.821957
51.317856 24.469154 -57.274033
51.305931 24.381098 -57.274818
51.012444 25.262024 -57.307114
51.299576 23.719519 -57.331543
51.291122 23.069635 -57.359016
51.334034 25.010365 -57.248974
51.230419 24.182465 -57.311409
51.125637 23.159536 -57.638149
50.792992 23.726931 -57.578651
50.823406 24.032124 -57.580273
51.20612 22.815672 -57.393322
51.221321 24.816771 -57.275967
51.188313 24.952017 -57.312275
50.911911 24.957172 -57.338314
50.608868 25.327003 -57.325745
50.930088 23.871389 -57.370224
51.012428 24.41663 -57.345966
51.229988 24.723423 -57.283836
51.233662 23.012007 -57.378536
51.310146 23.663509 -57.326332
50.947792 24.777679 -57.385151
51.20681 25.337713 -57.241383
50.623711 22.34252 -57.68729
50.800125 21.358027 -57.709339
50.34898 23.588936 -57.45261
51.205856 21.727678 -57.443565
50.539284 23.32514 -57.437187
51.018421 25.582708 -57.278637
51.000942 23.836205 -57.548824
51.31596 24.55847 -57.260925
50.719749 25.361347 -57.323227
50.479187 22.211103 -57.772263
50.508316 21.089142 -57.798801
50.606415 25.247732 -57.340618
51.289295 22.736691 -57.335854
50.603203 21.618811 -57.740932
50.5145 25.473761 -57.341457
50.823448 22.696142 -57.460384
50.815357 23.25103 -57.425655
50.722755 23.323484 -57.4179
50.922943 24.711029 -57.336857
51.127033 24.714987 -57.326805
50.81234 21.612734 -57.734604
50.824017 24.398741 -57.371727
50.537632 21.719049 -57.505939
51.199516 25.628687 -57.219292
51.393036 24.632963 -57.246449
51.305962 24.173203 -57.289082
50.331696 23.290815 -57.625805
50.337887 24.49391 -57.405823
51.012012 23.87384 -57.366127
51.276241 25.251392 -57.249287
51.104767 25.341173 -57.260654
51.096054 25.554556 -57.269398
51.035599 22.721125 -57.592899
51.009907 22.686712 -57.439678
51.021187 22.176304 -57.449471
50.626335 24.394224 -57.387402
51.085838 21.407089 -57.463799
50.605453 22.016449 -57.721695
51.302982 24.88409 -57.255646
51.324703 25.119951 -57.241474
51.336979 25.333656 -57.234344
50.642178 21.343664 -57.725689
51.218395 21.206907 -57.451321
51.093071 22.765278 -57.578392
51.114933 22.675215 -57.431381
50.326069 24.83588 -57.670654
51.115993 21.112864 -57.510124
50.891922 21.325832 -57.510517
51.119545 21.565088 -57.488724
50.722126 22.178982 -57.481426
50.62822 23.340755 -57.420242
50.818104 23.878967 -57.392868
50.909142 25.557745 -57.282612
51.109272 25.636974 -57.236404
50.827007 25.47846 -57.319016
50.852566 25.387104 -57.354622
50.622513 21.716843 -57.497826
50.813972 22.16259 -57.473854
51.137798 23.859966 -57.357208
50.734268 23.856672 -57.396786
51.209862 25.110767 -57.241375
51.215988 25.558718 -57.245399
50.817188 25.568064 -57.298634
50.624596 24.08494 -57.408585
50.614693 25.475031 -57.333889
50.928082 25.343718 -57.283176
51.304398 24.801378 -57.10009
50.81942 24.715845 -57.336498
50.410652 20.330767 -57.588474
50.905926 21.625195 -57.489437
51.021309 21.638554 -57.476757
50.924957 22.191626 -57.450905
50.90469 22.721815 -57.432686
51.257645 22.725946 -57.390877
50.917576 22.597929 -57.644222
50.831879 21.959064 -57.464191
50.944176 22.470974 -57.642494
50.82766 21.631628 -57.485573
51.006329 24.714073 -57.316414
50.739056 24.107033 -57.40226
50.760048 24.009094 -57.424625
51.099052 23.634947 -57.339806
51.013603 25.336296 -57.26178
50.823627 21.71871 -57.467449
51.016823 25.03854 -57.285885
50.829971 25.518902 -57.259731
51.186043 22.419819 -57.426846
51.102253 21.819994 -57.433506
51.385704 23.639851 -57.285248
50.922058 24.490698 -57.324772
50.909035 25.074701 -57.375332
50.920189 25.458593 -57.308159
50.533646 25.236872 -57.352364
51.131809 21.309591 -57.486015
50.917759 21.406128 -57.481033
51.030163 21.411551 -57.475273
51.120888 21.498148 -57.445152
51.150921 21.675682 -57.446438
50.913681 21.948839 -57.45332
51.021999 22.779152 -57.408669
51.123859 22.801552 -57.394417
51.112217 23.955286 -57.320362
51.101501 24.279202 -57.308472
51.114155 24.485956 -57.308125
51.109901 24.805515 -57.271671
51.128342 25.037516 -57.286163
51.122219 25.120234 -57.254475
51.301151 25.216759 -57.227962
50.638809 23.368631 -57.704327
50.625244 23.229404 -57.702671
50.61668 23.02718 -57.700356
50.908844 22.038048 -57.441025
51.214809 23.663675 -57.326923
51.213535 23.823385 -57.31102
51.207291 23.970036 -57.32473
51.228188 24.048883 -57.299236
51.219395 24.579361 -57.266102
51.008591 25.214731 -57.255753
51.298824 25.420076 -57.201134
51.117352 25.439081 -57.235958
51.106407 25.514463 -57.220531
51.116131 21.193352 -57.465595
51.124741 22.144899 -57.396896
51.019039 22.887556 -57.383263
51.217735 24.377987 -57.285095
51.226532 24.877453 -57.251827
50.834782 24.080824 -57.400463
51.206039 21.829712 -57.395855
51.10091 22.665049 -57.387241
51.204453 22.67491 -57.374081
51.100929 22.882891 -57.370773
51.113209 23.745174 -57.329391
51.120468 24.58209 -57.277298
51.202579 24.98741 -57.225151
51.39505 25.187529 -57.180298
51.200603 25.437876 -57.226383
51.217636 25.55019 -57.211697
51.304283 20.718847 -57.377502
51.213516 21.598663 -57.405334
51.376854 22.063797 -57.301617
51.455894 23.712566 -57.198483
51.267601 24.107594 -57.195892
51.273041 24.156267 -57.241879
51.272118 24.209488 -57.190472
51.277245 24.332392 -57.181316
51.28347 24.437672 -57.180706
51.284325 24.509155 -57.168648
51.12051 24.548151 -57.21772
51.292198 24.642412 -57.166759
51.509544 24.818838 -57.128662
51.302391 24.878658 -57.151611
51.534142 25.206812 -57.113312
51.09383 25.304338 -57.216705
51.537987 25.311897 -57.099747
51.110497 25.384024 -57.15609
51.136036 25.490795 -57.117569
51.215538 20.860678 -57.417503
51.122543 22.363775 -57.393158
51.091202 22.431288 -57.369461
51.294483 22.458517 -57.299736
51.139297 22.949776 -57.288021
51.34761 23.340141 -57.240425
51.3647 23.673698 -57.230717
51.386002 24.163183 -57.203106
51.387955 24.212753 -57.199665
51.386429 24.297934 -57.176834
51.116714 24.350716 -57.221626
51.203655 24.453074 -57.247055
51.399124 24.535957 -57.170959
51.12471 24.612864 -57.208698
51.389 24.661701 -57.192837
51.223293 24.762609 -57.208248
51.412735 24.828798 -57.156517
51.420242 24.944613 -57.15799
51.307053 24.987459 -57.186768
51.201729 25.078421 -57.200779
51.20118 25.201904 -57.220047
51.018322 25.296926 -57.232964
51.431473 25.318157 -57.118229
51.209534 25.407696 -57.163097
51.014664 25.520899 -57.232994
51.049847 23.611012 -57.544693
51.214191 22.437418 -57.368561
51.2038 22.9856 -57.350582
50.917259 22.107111 -57.648476
50.807716 24.519535 -57.403233
50.338707 24.193119 -57.719349
51.187138 20.781128 -57.38007
51.237316 21.156229 -57.361721
51.396732 21.479536 -57.315231
51.204536 21.558571 -57.343304
51.407902 21.683868 -57.311852
51.034977 21.835188 -57.344608
51.288273 21.869246 -57.311932
51.297367 22.078041 -57.304855
51.31525 22.547585 -57.278709
51.221188 22.763641 -57.301025
51.27042 23.248337 -57.232243
51.473515 23.36949 -57.19009
51.32645 23.619984 -57.241085
51.489994 23.708082 -57.17952
51.296978 23.926077 -57.209755
51.115559 24.236553 -57.240227
51.317425 21.656704 -57.332027
50.332653 23.762321 -57.715839
51.350883 21.348354 -57.336205
51.330685 21.571222 -57.327053
51.179939 21.873634 -57.333649
51.224331 21.926619 -57.349815
51.217449 21.984766 -57.32806
51.369133 22.028797 -57.294518
51.204205 22.118494 -57.316807
51.225346 22.630085 -57.28833
51.185585 22.707003 -57.273827
51.114269 22.82534 -57.305687
51.250668 22.941996 -57.263645
51.436367 23.167759 -57.229137
51.222515 23.16629 -57.255199
51.402397 23.286032 -57.21822
51.403435 23.332336 -57.214252
51.254421 23.37365 -57.246143
51.206402 23.919693 -57.245834
51.428947 24.119247 -57.172241
51.219051 24.138823 -57.24807
51.306717 22.298342 -57.313629
51.113235 23.184057 -57.2742
51.009068 23.923986 -57.509846
50.993156 21.290531 -57.666096
51.019436 23.644989 -57.363739
51.050652 22.675827 -57.564522
51.212215 23.745716 -57.313385
50.774193 23.84618 -57.611397
51.400177 21.64835 -57.291073
51.195957 21.700329 -57.343819
51.199615 21.785658 -57.334579
51.382507 21.829256 -57.283646
51.005032 21.791807 -57.370811
51.226776 21.328848 -57.349617
51.248802 21.372538 -57.350357
51.269596 23.311764 -57.219635
51.066452 21.016876 -57.51368
51.047409 24.156586 -57.498566
51.370735 20.834579 -57.351795
51.366772 20.889622 -57.349209
51.224289 20.916456 -57.369049
50.983379 22.886665 -57.54776
51.295235 22.257202 -57.340935
51.001377 23.07893 -57.558895
51.031391 24.059103 -57.529682
51.209408 20.707863 -57.391121
51.312283 20.77647 -57.367954
51.187141 22.172785 -57.308525
51.286442 23.792774 -57.200424
50.85334 21.68535 -57.677555
51.128273 21.251701 -57.375328
50.902508 22.732716 -57.619812
50.702713 23.808594 -57.572323
50.733173 21.775763 -57.662365
50.522408 25.027018 -57.359623
50.765823 20.788738 -57.675327
50.83049 21.434826 -57.636227
50.343563 22.836264 -57.406418
50.335827 24.999704 -57.376198
50.133686 24.318571 -57.631325
50.513725 23.764473 -57.698689
50.25037 23.836992 -57.69014
50.393135 24.222338 -57.696281
50.386612 24.301729 -57.684685
50.486065 20.609831 -57.504147
51.111523 21.141029 -57.404945
51.01926 21.501204 -57.448833
51.200027 21.074179 -57.419708
50.626656 20.746149 -57.527538
50.5317 25.125996 -57.255272
50.620083 24.804363 -57.346939
50.735771 25.296288 -57.244961
50.623405 23.698744 -57.595882
50.6217 22.728785 -57.641888
51.114616 23.825983 -57.305511
51.111588 23.998636 -57.248661
51.207767 24.693113 -57.256413
51.122704 24.907896 -57.260159
51.108105 24.992838 -57.238209
50.828865 25.216524 -57.27562
50.924068 25.211523 -57.257717
50.948818 25.356041 -57.189926
50.965317 22.932775 -57.321854
51.108749 24.677307 -57.258976
50.478443 22.076391 -57.78027
50.535355 21.938593 -57.498055
51.116104 24.369246 -57.285484
50.419216 21.383888 -57.79258
50.922363 22.886244 -57.396576
50.523525 21.076529 -57.521797
51.102196 21.6567 -57.375023
50.940018 21.779833 -57.393021
51.021255 22.936689 -57.294704
50.743858 25.062513 -57.253105
50.623817 25.096001 -57.251198
51.112572 21.050735 -57.421337
51.115589 24.053122 -57.311424
50.6446 24.533075 -57.285316
51.006676 24.993975 -57.256294
50.929554 25.077732 -57.21883
50.812794 25.092007 -57.233322
50.430794 22.019909 -57.739437
50.524181 20.554184 -57.569077
50.734837 22.794989 -57.427338
50.414185 23.83679 -57.357788
51.011009 25.083715 -57.223236
50.532841 24.6548 -57.400417
51.107155 21.889345 -57.383923
50.824413 24.988461 -57.270546
50.719208 25.010828 -57.323936
51.114819 20.939419 -57.485596
50.942085 21.165079 -57.433308
50.923252 24.997395 -57.262619
50.827087 24.795549 -57.302223
50.726498 24.906094 -57.300385
50.713539 24.984442 -57.277061
50.592094 23.604513 -57.664951
51.221764 24.271143 -57.30117
51.12286 21.353003 -57.385223
50.780869 21.777147 -57.400471
50.821625 23.331697 -57.397964
51.105743 24.148026 -57.291363
51.009026 24.902088 -57.26944
50.622826 21.288506 -57.736996
51.01413 20.652834 -57.489956
50.528008 22.114815 -57.475777
50.608284 20.746836 -57.77499
50.671181 23.929579 -57.543201
50.672993 22.799767 -57.669277
50.666904 21.549292 -57.674824
51.010288 21.157927 -57.409958
51.117599 21.285446 -57.434696
51.211578 23.485176 -57.244553
51.110451 24.43523 -57.266853
51.020145 24.529997 -57.223732
50.712597 21.143896 -57.470226
50.949032 21.281475 -57.401741
50.625847 22.351345 -57.445423
50.924789 24.893824 -57.283024
50.617218 24.891041 -57.316669
50.43203 21.503653 -57.522003
50.438168 21.407211 -57.539722
50.721859 22.7679 -57.402176
50.81855 23.650175 -57.37648
50.523922 22.66637 -57.685711
51.109795 20.757748 -57.468479
51.115265 23.391792 -57.299843
50.730888 23.734951 -57.371986
50.911037 24.755514 -57.258495
50.722004 24.80118 -57.322758
50.825439 21.50322 -57.474995
50.513615 23.628222 -57.657547
50.507759 22.26403 -57.729469
50.822948 22.035702 -57.447105
50.812519 24.448481 -57.294636
51.027943 24.45417 -57.273312
50.923874 24.562342 -57.248978
50.923542 24.682844 -57.286751
50.615112 21.691505 -57.728626
50.619228 21.168427 -57.753323
50.819881 21.184502 -57.495022
51.018105 22.452827 -57.383858
50.535027 23.006229 -57.615803
51.012493 21.285147 -57.465317
51.012012 22.846676 -57.330147
50.522129 20.444057 -57.560081
51.125496 21.99719 -57.360283
51.214104 21.234114 -57.356247
51.015694 21.246832 -57.393356
50.916153 22.755974 -57.374592
51.015648 24.363434 -57.294983
50.929989 24.456795 -57.280674
50.524586 23.517515 -57.633053
50.737282 21.684021 -57.434635
50.753189 21.788742 -57.402317
50.9202 21.497629 -57.465488
50.923088 21.679138 -57.423523
50.723843 21.721874 -57.479816
50.72261 24.44302 -57.301617
50.516747 21.674025 -57.488083
50.529011 20.750816 -57.545322
50.821594 22.351845 -57.432426
50.520908 22.330956 -57.452847
51.006828 22.349487 -57.411995
50.540291 21.334131 -57.687504
50.515846 21.397577 -57.751255
51.020176 21.371832 -57.409405
50.825695 22.759104 -57.388851
50.923435 24.360016 -57.305077
50.489281 21.747839 -57.799999
50.473305 21.568974 -57.556141
50.605286 21.933861 -57.715755
50.63942 22.030415 -57.470901
50.631737 23.864075 -57.400753
50.620693 22.131416 -57.447247
50.744453 21.406639 -57.69165
51.226231 21.016035 -57.364952
50.722885 21.501427 -57.48473
51.234913 22.844429 -57.290905
51.216736 22.879486 -57.342739
50.826412 22.884512 -57.399654
51.016567 24.051907 -57.316868
51.018204 24.145496 -57.29525
50.637917 22.179726 -57.51004
50.527626 23.212315 -57.64946
51.081116 21.312717 -57.375469
51.011742 22.213434 -57.380211
51.214092 22.304405 -57.308819
50.537003 21.501873 -57.522232
51.009514 21.673315 -57.400867
50.961304 22.825556 -57.620724
50.559185 22.188116 -57.655479
51.214188 21.461376 -57.359699
50.589676 23.431904 -57.636917
50.571964 21.779604 -57.718262
50.812424 21.696192 -57.425098
51.01519 21.902079 -57.405014
50.61208 23.825037 -57.606663
51.118107 22.205816 -57.338211
51.020988 23.833855 -57.319305
50.51207 24.72707 -57.375153
50.545689 24.112074 -57.392544
50.462593 24.431507 -57.572094
51.131607 22.630299 -57.316772
50.926819 22.867105 -57.342522
50.43335 22.836206 -57.408596
50.410892 22.140203 -57.476334
50.825306 22.135143 -57.434525
50.421375 22.209297 -57.446594
50.421848 23.648939 -57.419693
50.51429 22.213606 -57.538616
50.510872 21.39934 -57.531204
50.522774 21.62417 -57.744392
51.043438 22.62023 -57.33292
50.92337 21.720469 -57.457733
50.421448 22.083858 -57.794411
50.544369 23.739582 -57.391018
50.728836 22.218344 -57.418251
50.718712 22.357069 -57.443668
50.918209 24.050903 -57.324543
50.550308 22.72052 -57.635262
50.682899 20.614372 -57.50222
50.513821 21.269831 -57.740612
51.015411 21.468849 -57.393936
50.526173 24.895414 -57.349815
51.043762 22.073042 -57.350712
50.532116 23.540848 -57.676384
51.123226 20.710821 -57.401154
50.928711 20.609907 -57.453094
50.515884 23.632605 -57.415051
50.515408 22.475204 -57.718609
50.617935 20.63191 -57.491894
51.022762 22.022057 -57.42387
50.519745 22.036633 -57.493526
51.014072 23.728384 -57.334026
51.02034 23.908892 -57.296593
50.531292 21.176384 -57.748314
50.822151 20.627279 -57.475624
51.127399 21.464415 -57.372574
50.926022 22.664396 -57.336796
51.018539 23.153511 -57.290085
50.452904 23.591242 -57.562752
50.419563 21.786411 -57.44239
50.345211 21.142368 -57.513115
50.326252 23.726425 -57.382236
50.826466 23.733812 -57.355381
51.017872 22.761692 -57.365788
51.015884 22.664682 -57.385296
50.314476 24.393406 -57.673527
51.018707 23.68848 -57.271088
50.614475 20.773632 -57.777374
50.736275 23.180073 -57.331608
50.501553 23.900249 -57.361397
50.514977 23.009247 -57.683311
50.502541 23.621874 -57.593773
50.537819 21.894711 -57.687351
50.534821 23.728016 -57.615494
50.500031 20.77519 -57.798405
50.816143 22.219547 -57.409222
50.912769 23.910122 -57.307415
50.435799 22.343416 -57.700596
50.905258 24.851475 -57.230812
50.389301 21.566986 -57.749001
50.444809 20.707705 -57.651066
50.436298 24.663132 -57.565716
50.916443 22.664919 -57.400848
50.777859 22.392237 -57.483616
50.821106 23.92169 -57.312912
50.411972 22.228577 -57.730953
50.441204 21.356441 -57.726093
50.421749 23.737213 -57.650547
50.7202 23.923704 -57.328682
50.403553 22.476534 -57.742645
50.408516 21.713654 -57.736115
50.421593 24.478596 -57.609867
51.027843 22.481405 -57.422394
50.414169 21.747467 -57.809799
50.341797 22.255213 -57.744579
50.920029 22.448767 -57.400684
50.827824 22.667168 -57.406658
50.907055 23.384956 -57.318432
50.348534 25.224003 -57.358253
50.923557 21.372789 -57.439644
50.416565 21.094187 -57.81522
50.435642 25.151726 -57.609791
50.422634 21.164776 -57.779079
51.017181 23.999796 -57.256805
50.934208 22.31081 -57.366093
51.066628 20.70846 -57.415905
50.978996 21.566175 -57.379211
50.298008 20.786037 -57.623348
50.320904 22.069536 -57.724754
51.02079 24.768524 -57.251072
50.721645 25.116486 -57.310818
50.317425 24.567717 -57.604122
50.733337 22.319292 -57.385445
50.408356 24.878613 -57.561234
50.410484 21.762104 -57.646076
50.424931 23.632643 -57.660931
50.63876 25.297527 -57.268032
50.624981 23.141363 -57.352646
51.015205 20.835169 -57.423813
50.137402 24.022558 -57.6399
50.637291 24.04915 -57.367275
50.820072 24.67338 -57.286404
50.089958 24.378071 -57.672169
50.425095 20.744514 -57.53532
50.399197 24.035854 -57.368202
51.012741 24.5882 -57.285145
50.476559 22.924273 -57.748753
50.527817 21.597324 -57.48703
50.401836 21.148161 -57.49704
50.601532 21.153154 -57.470989
50.604374 24.15596 -57.344624
50.914085 23.154829 -57.317364
51.136127 24.765228 -57.234253
50.32803 21.305311 -57.604588
51.015976 21.094849 -57.492466
50.824818 21.15329 -57.448689
50.614998 23.948561 -57.378014
50.803024 23.229437 -57.306885
50.72961 21.317972 -57.530075
50.529388 21.806141 -57.492977
50.426926 24.254448 -57.595631
50.407814 22.6579 -57.442059
50.826607 22.486109 -57.442017
50.736298 21.37171 -57.467674
50.723686 21.599865 -57.475002
51.304829 22.971758 -57.304848
50.691944 24.010626 -57.304043
50.839836 20.931736 -57.712032
50.922558 22.538237 -57.366776
50.624084 21.596861 -57.480423
50.717491 25.563768 -57.311325
50.433189 21.950975 -57.422256
51.0205 22.983522 -57.363758
50.912247 20.709375 -57.409752
50.343243 24.679005 -57.352318
51.022327 23.606041 -57.316448
50.72044 22.485521 -57.458195
50.915501 23.200291 -57.375259
51.113464 23.188093 -57.353909
51.011536 24.678757 -57.267391
50.319962 21.228161 -57.470364
50.448639 21.132425 -57.560886
50.402767 25.294073 -57.279716
50.430489 22.170778 -57.54248
50.625256 23.511387 -57.385639
50.415199 20.531393 -57.541565
50.544163 20.912968 -57.490128
50.824802 25.024826 -57.310623
50.820675 24.362198 -57.306816
50.142315 24.35988 -57.449409
50.730175 24.051794 -57.345776
50.293751 20.939314 -57.555824
49.942989 21.173763 -57.615677
50.032692 24.363134 -57.387474
50.350174 20.917505 -57.515125
50.465202 22.976845 -57.472652
51.295609 23.82884 -57.302929
50.461205 24.421204 -57.377754
51.2089 25.311327 -57.197365
50.527851 21.149525 -57.48233
50.50856 23.024506 -57.453312
50.426323 20.458788 -57.71743
49.964725 24.607422 -57.481655
50.128189 21.197361 -57.598103
50.459427 21.065315 -57.749401
50.82217 20.929714 -57.452297
51.229202 21.596083 -57.273678
50.71455 23.678946 -57.327332
51.003151 24.862919 -57.225574
50.213242 20.787941 -57.540859
50.57711 23.712488 -57.32832
50.389107 24.559074 -57.305359
50.545258 21.139278 -57.712894
50.525627 24.502834 -57.376923
51.109203 22.468733 -57.429825
50.191074 23.980257 -57.513031
50.298119 23.787024 -57.619572
51.099022 23.720087 -57.256042
50.220108 24.028103 -57.606701
50.924976 24.186012 -57.341984
50.249676 23.794157 -57.609035
51.019829 22.308786 -57.349461
51.01741 21.059483 -57.46624
50.105831 24.715948 -57.615551
50.714226 21.648252 -57.496696
50.540451 24.602343 -57.352928
50.950264 22.399235 -57.454884
50.830109 22.639786 -57.353912
50.220608 24.47484 -57.352814
50.472778 22.532215 -57.405426
50.419815 24.791595 -57.576767
50.623402 21.06601 -57.516846
50.910042 20.880486 -57.506187
50.932392 25.303265 -57.237926
50.408123 24.355059 -57.341404
50.379955 24.240726 -57.328915
50.926937 24.581057 -57.294571
50.632401 23.194895 -57.405411
50.619686 23.107224 -57.432693
50.624859 21.820711 -57.485001
49.999905 24.69907 -57.466183
50.923134 24.237061 -57.407375
51.131554 24.851423 -57.195625
50.690857 23.145836 -57.653366
50.524361 23.199753 -57.428322
50.613091 24.370777 -57.332802
50.728943 24.356436 -57.317501
50.255562 20.188175 -57.572628
50.165722 24.004709 -57.498966
50.684761 24.841106 -57.262543
50.938889 23.782768 -57.263248
50.604355 21.643257 -57.512817
50.92625 24.231899 -57.281761
50.611008 24.258532 -57.315079
50.332825 24.233463 -57.333698
50.813198 20.751678 -57.509674
50.618034 24.697184 -57.371227
50.374008 20.627634 -57.745068
50.425766 23.202055 -57.4277
50.402512 24.080219 -57.692551
51.010677 24.267588 -57.31427
50.616661 23.427292 -57.408558
51.280609 24.631971 -57.251419
50.98325 20.794086 -57.515549
50.823769 24.89757 -57.286263
50.81731 22.529064 -57.386944
51.273033 23.429974 -57.340847
51.203205 23.40786 -57.34087
50.903099 24.091721 -57.383892
50.519268 25.124622 -57.34116
50.724422 24.142788 -57.319485
50.923309 24.138386 -57.304707
50.818707 24.143589 -57.308666
50.819153 24.226408 -57.287601
50.724453 24.226084 -57.295834
51.103065 23.544643 -57.387196
50.06361 24.039236 -57.414211
50.732357 23.829325 -57.345768
50.607342 22.215656 -57.434425
50.520214 24.352407 -57.353783
50.929329 25.019817 -57.306408
50.189213 22.26193 -57.474556
51.006447 23.197319 -57.365265
50.314667 24.773548 -57.567692
50.829891 25.175861 -57.367718
50.629147 23.372286 -57.364574
50.406406 24.351213 -57.605854
50.138195 20.461533 -57.655777
50.980461 21.869236 -57.470936
50.683228 21.029408 -57.655701
50.52433 21.070507 -57.744453
51.159458 21.783058 -57.35014
51.10725 25.107138 -57.189449
50.573868 23.274626 -57.54565
50.224228 23.99885 -57.378216
50.529011 23.817339 -57.370235
50.382896 24.889437 -57.280758
50.312504 20.515491 -57.771175
51.02562 23.956701 -57.334068
50.209152 21.586159 -57.508301
50.819706 24.494026 -57.329117
50.913002 20.802198 -57.521858
50.724869 23.108942 -57.416279
50.822151 22.795731 -57.427349
50.833046 23.026709 -57.423737
50.356239 20.682444 -57.640408
50.543663 20.836504 -57.778732
50.41943 24.708059 -57.381741
51.010998 23.409676 -57.35825
50.383316 23.408554 -57.503033
50.718853 22.520876 -57.391685
50.843922 25.311247 -57.258396
50.678658 20.866705 -57.755505
50.332928 24.139561 -57.364113
50.929352 23.007879 -57.426907
50.025795 23.926413 -57.523087
51.164078 23.449703 -57.503624
50.532124 20.739914 -57.771076
50.525436 24.13855 -57.33609
51.201088 23.204863 -57.340298
51.130348 24.173195 -57.327602
50.405254 24.13744 -57.346485
50.717667 21.060337 -57.496887
51.223492 23.06778 -57.272488
50.529049 23.836647 -57.601463
50.229038 22.987034 -57.454559
51.215328 23.095356 -57.360352
50.715954 21.464781 -57.727753
51.191055 22.526819 -57.313251
50.215576 24.174925 -57.370449
51.349304 23.081532 -57.324711
50.826675 23.515242 -57.358837
50.921574 21.180773 -57.488113
50.821896 20.998167 -57.431099
50.518986 24.941633 -57.366158
50.636177 22.44223 -57.423244
50.080132 24.123997 -57.38715
50.587868 24.916494 -57.365593
50.913883 22.355879 -57.421669
51.008427 23.519798 -57.340679
50.079365 24.878429 -57.543556
50.628712 21.114115 -57.531742
50.395008 20.832672 -57.519997
50.788803 21.612854 -57.663277
51.124039 22.337563 -57.342121
50.242153 22.259497 -57.481659
50.53138 20.852087 -57.517677
51.022625 22.254971 -57.427155
49.742699 25.023766 -57.398445
51.13567 22.515703 -57.339737
51.109543 25.215532 -57.249786
50.930984 24.801945 -57.296772
50.903366 22.485443 -57.440319
51.13129 21.52808 -57.365044
51.103561 23.023882 -57.395779
50.822536 23.101877 -57.397797
50.536129 24.258383 -57.313747
51.029625 24.240353 -57.268044
50.728531 23.009647 -57.434731
50.829338 23.822153 -57.333
51.315575 25.151524 -57.138798
50.725471 21.106621 -57.51796
51.461887 24.780554 -57.223095
50.891933 22.385748 -57.351116
50.625938 22.983721 -57.408215
50.586845 21.029936 -57.76899
50.819523 22.259176 -57.444824
50.822296 20.793535 -57.527206
51.104233 23.284325 -57.328712
50.398842 20.964729 -57.657974
50.928783 23.425673 -57.536007
50.404369 21.667461 -57.692833
50.237206 25.129141 -57.339844
50.768562 20.697695 -57.460243
50.828102 21.10096 -57.514343
50.33218 24.483603 -57.693237
50.356228 20.316757 -57.586384
50.530285 23.407352 -57.412598
51.09734 24.947378 -57.154469
51.117424 22.575583 -57.401981
50.723518 22.264194 -57.458054
50.322388 21.284538 -57.522392
50.511108 24.05921 -57.653755
50.918697 23.647814 -57.364918
50.816074 21.063576 -57.484856
50.724903 20.831345 -57.497608
50.329399 20.854885 -57.523922
50.429508 20.60066 -57.526287
50.533794 21.200523 -57.537155
51.112465 23.431986 -57.354614
50.820873 21.595356 -57.460106
50.313034 24.272875 -57.717056
51.148949 22.39072 -57.313526
51.119003 20.820547 -57.417229
50.237743 21.364637 -57.508411
50.591518 20.909494 -57.49036
50.304543 25.233585 -57.317528
50.917545 22.570032 -57.415104
50.128551 20.577129 -57.659569
51.336773 23.273235 -57.317081
51.217529 23.51844 -57.332008
50.4468 21.474001 -57.454372
50.920647 22.792862 -57.414089
50.813015 20.656061 -57.51503
50.802284 24.856211 -57.392307
50.547272 22.246777 -57.484619
50.403084 20.797642 -57.602318
50.32711 23.429569 -57.435234
50.404266 20.944258 -57.682831
50.07357 20.758484 -57.569218
50.921135 24.267511 -57.319176
50.379723 21.970993 -57.533443
50.386101 23.689377 -57.360847
50.727264 24.497282 -57.344429
50.50391 21.093428 -57.545639
50.402153 21.512701 -57.768532
50.645901 20.837143 -57.493553
50.252316 21.827127 -57.504482
50.98156 22.467524 -57.308968
50.128822 22.348072 -57.492603
50.630928 21.47571 -57.444748
50.916718 20.97027 -57.492908
50.818996 22.569958 -57.42556
50.53595 23.511009 -57.405483
50.600044 20.476566 -57.585602
51.024086 22.52833 -57.367294
50.04998 24.221977 -57.596935
51.012482 23.071051 -57.337208
50.73642 23.612606 -57.348488
50.520123 21.492559 -57.746307
49.977802 22.987612 -57.471943
50.470715 23.543125 -57.487366
50.811329 21.032284 -57.535236
50.902187 23.253281 -57.606628
51.314953 21.001831 -57.362061
50.227173 20.419809 -57.709419
50.617664 24.495832 -57.348583
50.512634 23.543478 -57.437336
50.83334 23.60568 -57.337135
50.41394 23.295311 -57.654182
50.520214 20.646465 -57.55341
50.367794 23.168928 -57.383621
50.671001 22.874359 -57.669529
49.945511 24.802507 -57.530235
51.215992 22.588629 -57.386326
51.462284 23.011189 -57.224174
50.424717 20.65391 -57.554913
51.012398 22.569138 -57.409134
50.917679 25.639973 -57.259716
50.541649 23.575424 -57.374668
50.161907 22.533583 -57.446308
50.626823 22.262869 -57.460876
50.319164 21.131592 -57.573483
50.718033 20.532543 -57.517811
50.727791 23.516438 -57.367268
50.309303 25.171635 -57.266464
51.009987 24.797689 -57.286495
50.920086 23.832161 -57.3293
51.083366 23.250275 -57.405655
50.132801 21.074869 -57.636353
51.125206 22.253466 -57.407928
50.216976 24.699413 -57.629246
51.107094 23.513863 -57.339584
50.923134 21.476786 -57.397274
50.822491 24.76539 -57.262081
51.290783 23.263988 -57.367878
51.018185 22.138483 -57.406502
50.323906 22.256655 -57.515034
50.357819 24.23485 -57.522266
51.174664 22.381348 -57.341022
50.92466 20.843489 -57.466419
51.00013 21.1985 -57.478245
50.428177 22.262444 -57.502224
49.975925 24.592627 -57.483665
50.409283 23.503836 -57.389626
50.314484 24.707747 -57.667706
51.283218 23.503735 -57.33585
50.997852 20.877222 -57.499535
50.517845 20.964443 -57.780327
50.904278 21.033154 -57.681541
50.792507 24.293657 -57.275448
51.18557 22.280663 -57.395947
50.821941 20.833099 -57.485119
50.72578 23.966259 -57.377731
50.298916 21.607542 -57.49678
50.391243 23.166355 -57.382046
50.824295 24.263733 -57.334908
50.505402 23.141424 -57.368015
50.971237 24.301146 -57.246815
50.825726 23.956625 -57.357792
51.359463 21.919405 -57.353573
51.306866 23.473907 -57.225998
50.481461 21.66173 -57.681599
50.241158 23.862507 -57.435917
51.023075 24.494408 -57.311893
50.725052 20.753958 -57.517475
50.180813 24.165133 -57.589005
50.561523 25.280226 -57.289482
51.015064 20.972374 -57.488445
51.115196 25.261408 -57.282349
50.526615 23.970642 -57.379105
50.431667 22.175726 -57.772831
50.424057 24.498653 -57.376781
50.310005 24.130154 -57.574879
50.226616 24.445154 -57.455627
51.009151 23.374357 -57.296722
50.727722 25.514267 -57.274277
50.421089 23.981724 -57.37228
50.611404 22.52334 -57.414181
50.508217 21.718046 -57.723022
50.813839 23.203602 -57.384968
50.615765 24.281736 -57.361881
50.51717 20.525805 -57.540714
50.326717 24.321163 -57.305939
50.817219 23.067312 -57.362041
50.119884 23.947876 -57.658669
50.733204 24.260788 -57.345158
50.349483 21.429731 -57.480427
50.825897 22.449526 -57.413464
50.920086 23.520491 -57.349445
50.413498 23.834324 -57.613773
50.227489 24.954815 -57.409077
50.399765 25.226282 -57.298038
50.406403 24.094955 -57.467419
50.435642 23.105497 -57.472092
50.490665 23.87298 -57.416813
50.806183 23.827484 -57.55611
50.284309 24.434666 -57.466503
50.510166 21.582626 -57.723133
49.968258 24.886957 -57.588787
50.56432 23.715506 -57.343212
50.843491 24.846296 -57.225948
50.722012 25.211176 -57.274628
50.362503 20.372114 -57.534115
50.690147 22.622667 -57.375641
50.828724 25.119274 -57.28896
51.062992 23.029467 -57.267872
50.266827 22.989313 -57.366108
50.824894 22.328115 -57.377228
50.149796 24.749842 -57.459343
50.303719 23.959766 -57.422535
51.211319 25.158569 -57.165783
50.429688 22.345964 -57.470573
49.991348 21.170321 -57.613594
50.627312 23.779518 -57.425537
51.119286 23.906298 -57.267002
50.728622 22.580738 -57.433632
51.190895 23.464836 -57.416668
50.632877 21.187925 -57.517021
50.816048 21.021358 -57.705154
50.631138 23.899935 -57.356503
50.23299 24.888052 -57.593639
50.734299 24.715509 -57.349461
51.104698 25.214834 -57.164787
50.724087 23.197868 -57.386707
50.336323 20.251411 -57.639977
50.51939 22.986881 -57.42379
50.411407 21.064245 -57.509106
50.428375 23.40737 -57.399609
50.382423 25.188944 -57.387215
50.353264 22.352148 -57.458313
50.156574 19.7978 -57.758907
51.311638 25.296083 -57.173992
50.883686 24.29932 -57.262901
50.921272 23.958775 -57.343849
51.292633 23.173344 -57.311825
50.126953 24.688875 -57.575195
51.026527 23.111702 -57.388615
50.261677 24.68185 -57.570923
50.635918 23.284746 -57.381126
51.212421 23.292139 -57.301338
50.250076 23.973545 -57.448853
50.520164 24.068295 -57.38158
50.325718 24.0474 -57.376026
50.620316 23.830059 -57.356907
50.825069 24.045931 -57.32716
50.911945 25.530071 -57.243126
50.125992 24.778679 -57.639362
50.335892 22.956614 -57.411098
51.007721 21.594534 -57.431755
50.916645 21.603703 -57.45219
50.262768 24.813913 -57.482887
50.730732 21.451084 -57.437824
50.442753 21.191248 -57.522827
50.626312 20.650953 -57.542309
50.721756 20.655617 -57.529819
51.289867 24.749836 -57.184937
50.913776 21.815563 -57.444046
50.599319 24.60433 -57.41143
51.10989 20.901093 -57.476635
51.016994 21.810829 -57.43111
50.718124 21.559387 -57.407829
50.336952 23.64908 -57.425686
49.798038 24.948893 -57.460613
50.819702 25.342464 -57.288586
50.955795 24.166765 -57.569939
50.029911 23.997444 -57.516167
50.624851 21.366169 -57.478916
50.727474 21.412788 -57.504227
50.415901 21.669109 -57.467945
50.506645 21.638803 -57.526085
50.190659 24.62291 -57.462673
50.4174 21.549871 -57.56966
50.279919 22.208689 -57.60725
50.019119 24.808886 -57.664532
50.919712 23.064615 -57.362228
51.012936 25.423569 -57.247986
50.523312 25.43186 -57.322296
50.947018 24.631775 -57.22467
50.126637 21.360075 -57.574558
50.733582 25.425579 -57.291435
50.344383 24.897484 -57.339283
50.829994 25.439957 -57.272133
50.821209 23.149889 -57.343311
50.921459 23.693375 -57.295971
51.143414 23.078505 -57.315205
50.915375 25.430271 -57.258911
50.318947 24.804686 -57.301861
50.911945 22.265982 -57.436493
51.039173 23.280304 -57.553787
50.280674 24.204334 -57.391964
50.923832 22.228149 -57.400597
50.255096 21.919853 -57.491894
50.731586 23.42557 -57.387413
50.817932 23.424362 -57.377884
51.217682 22.210339 -57.325817
50.622562 21.909607 -57.465466
50.915192 21.914082 -57.429642
50.426647 20.457104 -57.567612
50.944248 20.800907 -57.72147
51.11285 23.618244 -57.295135
50.992046 21.003279 -57.394604
51.206768 24.007555 -57.218327
50.986565 21.313501 -57.53347
50.914295 25.243608 -57.310619
50.750874 25.460428 -57.35445
50.322128 24.718166 -57.692032
50.920181 23.417641 -57.367947
51.107372 20.934181 -57.399456
50.64872 23.456985 -57.453098
50.51601 23.420588 -57.666615
50.715813 24.045933 -57.520145
50.535591 20.966393 -57.527752
50.612141 25.436726 -57.311989
50.184357 24.773474 -57.643047
50.640923 25.182472 -57.346725
50.345783 21.832417 -57.478859
50.214123 20.956841 -57.593922
50.41877 21.295408 -57.515972
50.406517 21.89719 -57.455528
50.217621 22.347197 -57.485249
50.57943 20.797697 -57.726746
50.31678 25.124937 -57.353157
50.6464 22.608236 -57.374184
50.721413 22.039795 -57.465481
50.028091 24.265711 -57.625099
50.186977 22.885305 -57.441532
50.225445 23.604893 -57.408272
50.323921 25.31212 -57.304901
49.981697 22.509506 -57.588203
50.342331 23.838854 -57.374313
49.467972 20.211971 -57.756187
51.009628 25.115458 -57.266525
50.241707 25.007717 -57.326099
50.398556 24.572247 -57.60371
50.927273 25.116821 -57.274361
50.597298 22.075714 -57.400055
49.994785 24.186571 -57.471367
50.534809 21.806396 -57.706413
50.750172 24.175814 -57.378216
50.520245 25.341105 -57.330204
50.339386 23.612402 -57.376343
50.343681 25.071768 -57.296867
50.8298 23.972822 -57.570461
50.030174 24.228251 -57.449818
50.330387 22.239832 -57.449467
50.427383 24.708958 -57.631207
50.424782 24.804903 -57.36697
50.259521 20.536314 -57.576603
49.858055 24.843742 -57.436649
50.132393 24.70458 -57.345222
50.28598 24.411501 -57.518795
50.519653 24.463703 -57.332458
50.298653 23.706934 -57.353035
50.531158 20.843708 -57.690956
51.230721 23.60544 -57.268764
50.629147 22.565985 -57.452194
50.801598 21.687986 -57.627987
50.630436 22.414167 -57.494286
50.912384 24.401127 -57.353889
50.501808 23.854952 -57.652561
51.208488 23.859346 -57.210365
50.729683 22.455189 -57.421036
50.612843 23.650429 -57.406929
50.926136 22.005259 -57.395504
50.41082 22.577497 -57.411991
50.418156 22.799076 -57.485889
50.622875 25.012905 -57.290771
50.606777 22.488464 -57.465363
50.663822 21.526522 -57.425644
51.515831 24.926918 -57.122597
50.638954 22.456568 -57.68808
50.216553 24.694397 -57.358871
50.339832 21.977022 -57.465584
50.775677 22.982775 -57.65984
50.403511 22.398417 -57.5597
50.633522 23.604923 -57.345978
51.233192 23.789661 -57.215691
50.918461 23.602991 -57.328564
50.612698 25.126141 -57.325901
50.239601 23.055426 -57.413151
50.53788 25.215399 -57.318752
50.323906 20.855301 -57.572773
50.556248 20.48291 -57.588692
50.538322 22.476938 -57.473488
50.729012 22.393942 -57.491524
50.226116 25.018763 -57.396286
50.545288 22.800924 -57.457016
50.619061 23.728172 -57.383404
50.525814 21.908926 -57.466846
50.334953 22.597221 -57.479694
50.311543 24.546082 -57.306053
50.032635 24.459635 -57.371384
50.213196 21.201077 -57.549366
50.396973 20.998163 -57.850559
50.10981 21.018066 -57.595688
50.910686 23.571287 -57.394867
50.420616 21.806763 -57.481339
50.607265 20.782669 -57.562149
50.117054 24.274298 -57.375816
50.219978 22.569056 -57.474541
50.416115 25.124226 -57.342953
50.295933 25.180412 -57.402866
50.316982 22.796026 -57.49659
50.623882 20.439892 -57.55154
50.429596 23.087717 -57.411442
50.724533 21.818827 -57.466038
50.165157 23.07412 -57.390713
50.419025 25.293734 -57.448074
51.021091 20.625263 -57.432781
50.420101 21.858921 -57.56778
51.223473 23.684164 -57.225628
50.334904 23.288818 -57.393131
50.389977 24.456881 -57.330856
50.294853 24.696184 -57.493221
50.628723 24.463556 -57.313828
50.921745 22.129715 -57.424095
50.613377 22.67189 -57.439861
50.426922 23.40337 -57.585842
50.507473 21.999563 -57.620781
50.421501 21.729977 -57.523651
50.405346 24.897581 -57.329941
50.828438 23.294094 -57.361038
50.727558 22.135412 -57.442627
50.827866 24.088173 -57.261105
50.922932 23.294933 -57.349468
50.63522 23.077705 -57.382626
50.343197 24.149607 -57.669785
50.534538 22.131874 -57.695175
50.219009 22.491217 -57.520687
50.728436 23.646564 -57.400524
50.721523 21.95046 -57.473434
50.969742 24.112171 -57.237316
50.999851 20.747667 -57.489254
50.94508 21.884855 -57.470459
50.792404 23.455103 -57.467907
50.714775 21.254772 -57.737022
50.613045 24.593649 -57.329914
50.718769 23.071806 -57.371956
50.536366 23.458549 -57.352474
50.402428 25.076452 -57.291763
50.55328 23.058064 -57.614948
50.488136 22.437984 -57.678898
51.036648 23.015949 -57.404175
51.017944 25.633793 -57.235825
50.54031 24.182034 -57.388237
50.819908 21.286781 -57.482037
50.615696 23.013515 -57.449509
50.621891 21.514925 -57.498497
50.631695 21.930389 -57.493694
50.736626 25.248762 -57.333046
50.613178 22.857464 -57.366669
50.270756 24.203318 -57.404469
50.743629 21.446226 -57.640347
50.633224 23.090563 -57.669666
51.04327 20.960896 -57.406502
50.856064 21.545879 -57.400269
51.046604 23.473984 -57.283695
50.815399 24.186739 -57.363861
50.437618 25.022642 -57.351082
50.825542 24.58127 -57.31403
51.009056 21.951878 -57.456474
50.960556 23.259764 -57.288574
50.828148 20.966703 -57.499966
50.62466 22.317066 -57.404926
50.820148 20.872551 -57.515011
50.723457 22.666538 -57.423382
50.717728 21.28116 -57.492935
50.920361 24.00927 -57.269817
50.819267 21.368948 -57.459755
51.017357 21.72459 -57.453876
50.336071 24.100569 -57.706497
50.436752 23.949369 -57.654823
50.414989 24.266565 -57.370346
50.723812 21.906067 -57.450615
51.036835 24.460901 -57.450275
51.121819 22.747972 -57.345104
51.138706 23.255503 -57.263477
50.920376 21.064371 -57.470215
50.827118 21.404882 -57.487335
50.68322 22.866634 -57.674568
50.81358 25.263748 -57.308887
50.725723 22.989929 -57.391407
50.145191 24.148214 -57.634491
51.021187 22.003237 -57.370266
50.924595 21.110659 -57.502445
50.826443 21.821257 -57.453842
50.231339 24.163773 -57.648685
50.924931 20.669611 -57.509697
50.815773 22.975721 -57.384453
51.013725 24.180431 -57.3409
50.725357 23.459347 -57.333679
50.728397 23.289389 -57.374367
50.962948 23.911596 -57.45668
50.421886 22.462849 -57.447132
50.647484 24.684643 -57.308861
50.364094 23.997215 -57.506969
49.99939 20.37752 -57.640831
50.809509 23.999664 -57.290382
51.260056 20.638407 -57.430889
51.231289 25.025789 -57.266785
50.628902 20.970346 -57.514797
50.816792 22.223537 -57.629501
50.92165 20.922163 -57.434456
50.876579 21.826006 -57.657879
51.022537 20.931009 -57.702221
51.098011 21.614058 -57.384071
50.51236 23.327522 -57.686893
50.414288 23.398739 -57.677269
51.097904 24.526724 -57.369396
50.418293 20.998297 -57.544434
50.434937 20.972111 -57.776424
49.928329 21.276239 -57.619152
50.148056 20.893919 -57.555084
50.61628 21.682629 -57.452377
50.336281 23.916803 -57.356194
50.521038 22.882502 -57.434525
50.420055 22.892475 -57.44809
50.510639 22.357533 -57.545574
50.351799 23.082766 -57.402088
50.637154 20.952679 -57.760368
50.213139 24.717688 -57.41991
50.459503 22.494587 -57.489548
50.717861 23.267939 -57.633728
50.104156 21.280855 -57.6712
51.334255 20.60017 -57.375511
50.3423 22.551769 -57.421207
50.41291 22.308083 -57.622299
50.334099 22.774027 -57.440109
50.327511 24.568878 -57.382771
50.234539 24.564981 -57.636147
50.239491 23.716995 -57.394951
50.03064 24.285879 -57.560196
50.819393 23.689051 -57.311245
50.224064 24.814243 -57.376209
50.405685 23.722807 -57.398815
50.120762 24.272163 -57.624821
51.165787 23.773098 -57.241283
49.924034 24.816536 -57.567768
50.234535 22.482685 -57.472351
50.430187 20.372684 -57.522518
51.202507 23.566578 -57.228199
50.341606 21.92371 -57.474827
50.319382 24.97286 -57.518818
50.117943 22.715191 -57.49461
50.394646 21.526627 -57.857048
50.505493 22.57144 -57.462124
50.742146 23.331112 -57.535076
50.738487 21.229237 -57.43729
50.353436 22.31703 -57.428883
50.98365 23.767937 -57.278584
50.226444 24.979164 -57.553417
50.722004 23.558151 -57.425861
50.413879 23.30225 -57.408752
50.414207 24.191706 -57.399975
50.176456 24.239422 -57.375072
50.628628 23.940968 -57.60767
50.412964 21.912479 -57.777504
50.709328 20.801357 -57.545025
50.976845 23.601723 -57.426376
50.823776 23.552929 -57.397766
50.663734 22.602428 -57.549843
50.418079 23.598 -57.374214
50.51952 20.661936 -57.712181
50.537186 20.798462 -57.55801
50.413464 21.131632 -57.707409
50.95945 23.430315 -57.434734
50.537979 22.304768 -57.604874
50.504215 24.450411 -57.516552
50.533218 21.289837 -57.500423
50.496449 21.519464 -57.782158
50.887722 20.968496 -57.71471
50.562794 22.859093 -57.387218
50.526516 21.39765 -57.489754
50.539532 23.063259 -57.396317
50.433506 25.063774 -57.448719
50.522972 20.859135 -57.54966
51.190056 23.004242 -57.255421
50.665043 21.99585 -57.424271
50.079014 20.265322 -57.691471
50.532742 23.089357 -57.443836
50.390076 23.991018 -57.339222
50.453861 24.724251 -57.697193
50.5341 22.219076 -57.433517
50.624901 22.889784 -57.427387
50.729492 24.543262 -57.281708
50.416935 22.047529 -57.47607
50.226017 22.138933 -57.487598
50.459038 21.250069 -57.769619
50.629005 20.56352 -57.554615
50.397785 22.762695 -57.418621
50.34679 22.114038 -57.474808
50.721401 21.186956 -57.507927
50.616817 25.030539 -57.346848
50.55827 22.057577 -57.570404
50.614449 23.479437 -57.607975
51.106956 23.106684 -57.383385
50.514687 24.107521 -57.571129
50.400982 23.369373 -57.383198
50.919952 23.108438 -57.388176
50.630177 21.407148 -57.510784
50.537785 23.291801 -57.38308
50.821701 21.909309 -57.443405
50.813816 21.269096 -57.413082
50.645317 22.404959 -57.658966
51.464176 23.095686 -57.213112
50.913105 21.109722 -57.678101
50.636547 25.210253 -57.300034
51.178856 23.367132 -57.367649
50.896458 21.664839 -57.651749
50.542908 22.058891 -57.713112
51.009399 23.314943 -57.38504
51.100559 23.33371 -57.370937
50.513206 24.803724 -57.363533
50.921925 23.732662 -57.350368
50.723301 20.868971 -57.522972
50.633526 20.879284 -57.530861
50.407681 25.208221 -57.56974
50.287113 24.28492 -57.629513
50.915115 21.290489 -57.469795
50.727364 20.972252 -57.513577
50.998817 24.558245 -57.383911
51.073429 23.533634 -57.238136
50.818394 22.837061 -57.361553
50.93018 23.341457 -57.393654
50.821651 22.009533 -57.398586
51.212814 22.409481 -57.293861
50.192795 20.867262 -57.583061
