# .PCD v0.7 - Point Cloud Data file format
VERSION 0.7
FIELDS x y z
SIZE 4 4 4
TYPE F F F
COUNT 1 1 1
WIDTH 674
HEIGHT 1
VIEWPOINT 0 0 0 1 0 0 0
POINTS 674
DATA ascii
-10.446639 34.381794 -12.295486
-10.310193 36.091618 -12.162745
-10.435266 35.129021 -12.250368
-10.479321 35.946167 -12.414989
-10.501549 35.814522 -12.439021
-10.482651 34.978157 -12.394247
-10.522892 34.812012 -12.545312
-10.382148 36.016674 -12.302605
-10.349021 35.042194 -12.420971
-10.396085 36.085579 -12.244745
-10.327766 34.35796 -12.199583
-10.276896 36.052109 -12.153488
-10.298511 34.266426 -12.176539
-10.355379 36.244659 -12.101782
-10.241112 36.131104 -12.059222
-10.394354 35.88467 -12.217207
-10.281602 35.463001 -12.080514
-10.293563 34.292019 -12.229681
-10.379526 35.114506 -12.448562
-10.536819 34.505928 -12.481426
-10.382478 34.571388 -12.231306
-10.457639 36.005451 -12.320167
-10.3873 35.580841 -12.209587
-10.359989 34.951008 -12.249919
-10.263935 34.95845 -12.181154
-10.463629 36.006039 -12.252606
-10.5046 36.048523 -12.358817
-10.393531 34.373547 -12.24577
-10.292805 35.253666 -12.262155
-10.463439 34.909279 -12.457019
-10.442036 35.216763 -12.408904
-10.463178 35.148121 -12.259581
-10.458853 35.080235 -12.285072
-10.395302 35.06118 -12.235023
-10.391277 35.330952 -12.296021
-10.458714 36.148479 -12.376262
-10.385427 35.964745 -12.328599
-10.47556 34.034126 -12.456411
-10.446508 35.497143 -12.28233
-10.496438 35.371078 -12.411016
-10.596998 35.964211 -12.506428
-10.463627 35.381325 -12.356856
-10.541514 36.226074 -12.356677
-10.438969 35.004837 -12.351846
-10.271009 35.119099 -12.058458
-10.385304 35.352901 -12.272915
-10.294234 34.600384 -12.212781
-10.325781 35.565289 -12.297589
-10.224272 34.931953 -12.041972
-10.48595 34.029369 -12.55074
-10.278375 35.408436 -12.076957
-10.312958 35.09972 -12.329285
-10.372812 35.50317 -12.16934
-10.423954 36.13723 -12.189367
-10.444147 34.619667 -12.473279
-10.185136 34.200199 -12.071048
-10.371226 34.606567 -12.296536
-10.324813 35.20005 -12.148124
-10.389484 34.509567 -12.313834
-10.283281 34.636135 -12.286687
-10.406198 35.070904 -12.411646
-10.304727 34.589699 -12.321616
-10.268747 34.621845 -12.223736
-10.40405 36.004158 -12.267196
-10.299307 34.413895 -12.22777
-10.364309 35.048477 -12.353932
-10.405059 34.573421 -12.26829
-10.367469 35.34557 -12.22456
-10.295444 34.394047 -12.158343
-10.224333 35.468327 -12.023118
-10.516298 36.240551 -12.420033
-10.545423 36.278133 -12.335431
-10.350021 36.003365 -12.207017
-10.471299 35.845875 -12.397516
-10.478281 35.736404 -12.25103
-10.435606 35.836723 -12.455016
-10.391773 35.662094 -12.425092
-10.412662 35.382328 -12.418259
-10.489772 35.95369 -12.473179
-10.49689 35.459499 -12.382872
-10.423079 35.221783 -12.409272
-10.420353 35.28685 -12.329458
-10.448433 35.189758 -12.428987
-10.466145 35.116901 -12.505012
-10.397664 35.661308 -12.34798
-10.450241 35.197655 -12.354631
-10.445036 35.134949 -12.354473
-10.453846 35.17865 -12.501822
-10.414911 35.453964 -12.389672
-10.387281 35.724823 -12.26391
-10.47588 35.035908 -12.514748
-10.439224 35.09219 -12.361978
-10.463499 34.933903 -12.475657
-10.457345 35.121948 -12.413744
-10.445851 35.07357 -12.459598
-10.463517 34.973206 -12.472419
-10.471772 35.223537 -12.462932
-10.464789 35.247189 -12.365442
-10.453484 34.958542 -12.437197
-10.45167 35.048771 -12.437152
-10.480359 34.903004 -12.528183
-10.34638 35.538216 -12.225252
-10.43635 35.224586 -12.493318
-10.45122 35.478165 -12.479495
-10.380298 35.146252 -12.189524
-10.32433 35.373405 -12.319776
-10.39976 35.306675 -12.371258
-10.435963 34.524357 -12.449121
-10.404502 34.406406 -12.419835
-10.423833 34.07972 -12.482761
-10.36282 34.838207 -12.389016
-10.340208 35.220272 -12.234832
-10.32672 35.293709 -12.295229
-10.404205 35.272163 -12.384621
-10.48815 34.136097 -12.381902
-10.370564 34.858906 -12.187251
-10.382045 34.83968 -12.199853
-10.369689 35.182648 -12.175817
-10.412868 34.517265 -12.492386
-10.397001 34.998974 -12.40814
-10.384223 34.97551 -12.401559
-10.375949 35.218418 -12.35127
-10.456732 34.196033 -12.470467
-10.444375 34.114433 -12.481292
-10.367363 35.092239 -12.175486
-10.389439 34.570816 -12.438974
-10.375577 34.913239 -12.377711
-10.302936 35.50996 -12.104309
-10.398479 35.294899 -12.408752
-10.38945 34.585754 -12.491572
-10.470443 34.488228 -12.403621
-10.407616 34.449646 -12.482996
-10.377725 34.870026 -12.392941
-10.285489 35.590256 -12.081694
-10.450382 34.558113 -12.466226
-10.353284 34.527184 -12.332059
-10.407486 34.485981 -12.360346
-10.439779 34.347851 -12.387831
-10.373538 34.916183 -12.281501
-10.422581 34.143105 -12.500474
-10.402269 34.864162 -12.390836
-10.399151 34.825649 -12.402444
-10.367456 34.850788 -12.25375
-10.372455 34.756676 -12.304951
-10.36884 35.018009 -12.282434
-10.371037 35.127811 -12.331973
-10.348845 35.084553 -12.3338
-10.295865 36.106533 -12.127837
-10.376997 34.592892 -12.34702
-10.369224 35.181896 -12.351465
-10.3285 35.176685 -12.335719
-10.549616 36.25174 -12.349474
-10.378477 34.619694 -12.325136
-10.396784 34.189133 -12.412311
-10.358718 35.143108 -12.273235
-10.472505 34.118816 -12.449913
-10.44011 34.206249 -12.399851
-10.377254 35.387627 -12.216308
-10.273321 36.240013 -12.1001
-10.392241 34.912273 -12.4331
-10.302359 35.011715 -12.130141
-10.423162 35.953831 -12.282826
-10.500626 36.260952 -12.313293
-10.388389 34.465588 -12.420874
-10.487358 34.444057 -12.451097
-10.423727 35.16156 -12.436826
-10.361834 35.41217 -12.161462
-10.409483 36.163193 -12.21232
-10.398349 35.427895 -12.209335
-10.380557 35.485622 -12.210261
-10.466372 35.169495 -12.362958
-10.355515 34.596436 -12.37015
-10.390131 34.426109 -12.334871
-10.478438 36.133739 -12.237812
-10.293836 34.12746 -12.27508
-10.459146 34.581493 -12.407909
-10.34259 35.418793 -12.0762
-10.453471 34.14426 -12.478095
-10.256414 35.040821 -12.242882
-10.313705 36.182987 -12.239982
-10.453988 34.530899 -12.315547
-10.445459 34.436005 -12.397938
-10.268961 35.589363 -12.16287
-10.313112 35.453053 -12.21764
-10.383793 35.183372 -12.286393
-10.361724 35.087582 -12.25805
-10.294701 35.112247 -12.219163
-10.478193 36.009651 -12.291768
-10.515881 35.416595 -12.395738
-10.363527 35.009975 -12.179577
-10.373047 35.093761 -12.289238
-10.212944 35.430759 -11.962642
-10.403383 35.507431 -12.378045
-10.480691 34.318203 -12.465734
-10.405639 36.242683 -12.403268
-10.30391 34.336746 -12.249244
-10.478357 34.516815 -12.514398
-10.358053 35.560375 -12.36407
-10.296742 35.144451 -12.108846
-10.37647 34.843197 -12.31124
-10.456108 35.272198 -12.437788
-10.480777 35.488194 -12.382378
-10.394116 34.555656 -12.416818
-10.477336 35.013931 -12.304365
-10.263168 34.931885 -12.255477
-10.384263 35.600933 -12.179296
-10.304436 34.568195 -12.236053
-10.547337 36.282059 -12.440178
-10.378548 36.184441 -12.303525
-10.225451 34.967632 -12.047351
-10.37755 34.727776 -12.287872
-10.435216 34.219818 -12.405951
-10.301298 35.102982 -12.129206
-10.387249 34.262962 -12.495211
-10.359565 34.942081 -12.337557
-10.208524 35.649181 -12.042461
-10.595747 36.23106 -12.426874
-10.363321 35.53582 -12.329098
-10.442982 36.15229 -12.369667
-10.488503 35.535259 -12.442791
-10.394433 35.63879 -12.179562
-10.471538 36.259262 -12.314716
-10.45784 36.172832 -12.293093
-10.299454 35.450745 -12.168196
-10.443547 36.153046 -12.261405
-10.447211 35.647274 -12.419514
-10.523008 35.560707 -12.491009
-10.297418 34.212502 -12.138515
-10.342643 34.990967 -12.146254
-10.493865 35.50383 -12.453435
-10.316794 34.459446 -12.347373
-10.48909 36.129894 -12.418752
-10.298934 35.539711 -12.265351
-10.605918 36.133099 -12.429847
-10.313643 35.270252 -12.301543
-10.46578 34.356335 -12.434068
-10.381842 36.116337 -12.305547
-10.456342 35.141296 -12.441941
-10.390733 34.354546 -12.457469
-10.387207 36.212311 -12.14023
-10.38266 34.234707 -12.422332
-10.470893 35.854824 -12.332647
-10.309935 34.340118 -12.335124
-10.41678 35.192997 -12.421374
-10.501298 34.579857 -12.433141
-10.477334 35.406769 -12.380808
-10.531403 34.922401 -12.45202
-10.473686 34.266781 -12.446385
-10.294025 35.489029 -12.147194
-10.540956 34.507111 -12.490001
-10.393731 34.298325 -12.347722
-10.307 35.513786 -12.143372
-10.265823 34.546425 -12.096319
-10.463336 36.133583 -12.323373
-10.300959 34.396648 -12.259034
-10.37816 34.355995 -12.256657
-10.387976 34.281601 -12.317148
-10.472915 35.331429 -12.45497
-10.183303 35.672081 -12.066783
-10.244192 35.548065 -12.159366
-10.378284 34.342392 -12.324664
-10.295064 35.542702 -12.076922
-10.262836 35.56913 -12.123837
-10.473497 35.512241 -12.374784
-10.381265 35.962212 -12.277984
-10.390307 35.36047 -12.378987
-10.542948 34.916149 -12.463728
-10.388819 34.46954 -12.321809
-10.219543 35.532719 -12.106596
-10.402864 34.188515 -12.32346
-10.436682 34.054314 -12.347404
-10.378594 34.936127 -12.315666
-10.38098 34.417385 -12.299077
-10.295717 34.425972 -12.245721
-10.422781 35.818306 -12.294033
-10.376093 36.074459 -12.316584
-10.281429 35.523933 -12.205049
-10.415137 34.448586 -12.387969
-10.36136 34.318062 -12.253393
-10.259083 35.689766 -12.036822
-10.223042 34.814034 -12.16316
-10.40406 34.008625 -12.360512
-10.490423 34.838127 -12.419964
-10.311771 35.119511 -12.20551
-10.270687 34.896423 -12.165252
-10.449751 35.313538 -12.407845
-10.396164 35.579346 -12.434616
-10.423969 35.74229 -12.244555
-10.286385 34.323059 -12.207322
-10.46722 35.81937 -12.339645
-10.281075 35.215191 -12.264812
-10.314914 34.825142 -12.148899
-10.295661 34.340981 -12.156219
-10.309764 36.242382 -12.074664
-10.336475 34.298302 -12.325353
-10.270438 34.854698 -12.258358
-10.551275 34.01506 -12.436899
-10.469885 34.78363 -12.403151
-10.466684 34.320755 -12.352703
-10.265675 35.08392 -12.241247
-10.381348 34.564365 -12.318456
-10.534515 36.217133 -12.326567
-10.306342 34.583855 -12.180553
-10.381903 35.033253 -12.328279
-10.283852 34.650394 -12.219128
-10.331615 34.781727 -12.382714
-10.483809 34.82877 -12.387858
-10.316379 34.263329 -12.365197
-10.451139 34.35627 -12.328485
-10.406986 35.42923 -12.247667
-10.508168 35.698997 -12.312387
-10.293715 35.532761 -12.154818
-10.337494 35.213524 -12.134665
-10.242886 35.709358 -12.011198
-10.45318 35.19688 -12.450878
-10.224194 35.703091 -12.107509
-10.562972 35.568977 -12.442919
-10.404464 35.870323 -12.200858
-10.424595 36.211216 -12.280688
-10.293037 34.305828 -12.163908
-10.296995 35.662464 -12.126735
-10.389973 36.177567 -12.146464
-10.278438 34.881477 -12.259518
-10.407066 35.425064 -12.318002
-10.274925 36.173183 -12.028749
-10.306805 35.058735 -12.11411
-10.37365 35.066101 -12.300569
-10.376886 34.933914 -12.217842
-10.273916 35.004757 -12.28966
-10.287823 34.573311 -12.284326
-10.435373 34.860493 -12.41449
-10.269402 35.088436 -12.067871
-10.310033 35.240372 -12.221377
-10.285441 35.600613 -12.13769
-10.43681 34.202713 -12.496358
-10.413775 35.671692 -12.26169
-10.474933 35.588661 -12.436902
-10.458219 34.300571 -12.41854
-10.374297 34.127373 -12.375592
-10.467985 35.679726 -12.310811
-10.4768 34.520298 -12.416718
-10.363267 34.076256 -12.334799
-10.46063 36.19738 -12.245259
-10.381732 34.305164 -12.245846
-10.416244 35.426712 -12.289557
-10.385592 35.199581 -12.206748
-10.469144 35.086384 -12.437659
-10.487656 34.007637 -12.490169
-10.489212 36.049793 -12.412848
-10.457323 35.437519 -12.300656
-10.38305 34.260559 -12.263426
-10.310491 34.293274 -12.271852
-10.408403 35.542511 -12.296898
-10.465553 36.208241 -12.2945
-10.47194 35.502663 -12.357137
-10.268546 34.958256 -12.078485
-10.263147 35.162025 -12.154663
-10.380618 34.613037 -12.41616
-10.468896 35.003571 -12.468054
-10.47707 35.059631 -12.400267
-10.469151 36.204941 -12.382839
-10.402009 34.995026 -12.38561
-10.294763 34.987682 -12.127738
-10.401709 35.466263 -12.303104
-10.48762 34.974815 -12.314417
-10.282957 34.713844 -12.298499
-10.395096 35.338192 -12.350415
-10.59221 36.133492 -12.431622
-10.39171 34.226494 -12.282125
-10.370673 34.977428 -12.199906
-10.410517 35.783619 -12.335553
-10.299 34.250599 -12.152364
-10.394681 35.590084 -12.275988
-10.302215 34.271881 -12.289851
-10.363722 34.960388 -12.176872
-10.479435 34.106777 -12.36637
-10.320282 35.142151 -12.31716
-10.286973 35.016464 -12.205643
-10.409127 36.133728 -12.266926
-10.472672 35.530643 -12.255804
-10.294518 34.379375 -12.238375
-10.399638 36.20702 -12.24634
-10.324094 34.837906 -12.262378
-10.462456 34.469318 -12.420175
-10.196442 35.513027 -12.130502
-10.579659 36.256847 -12.400553
-10.40358 35.447407 -12.355193
-10.209368 35.45126 -12.049644
-10.480444 35.766571 -12.320637
-10.316978 35.441296 -12.228707
-10.464247 35.43531 -12.274116
-10.40357 36.231842 -12.170086
-10.276777 34.922195 -12.189836
-10.286817 34.561417 -12.311114
-10.405168 34.257397 -12.466805
-10.471655 35.943935 -12.324442
-10.468702 34.875668 -12.48587
-10.4743 35.703373 -12.42163
-10.370762 35.504814 -12.365617
-10.416225 36.195095 -12.215887
-10.385674 35.390564 -12.363481
-10.21993 35.561787 -12.109142
-10.423415 35.848938 -12.297578
-10.473604 35.551689 -12.361017
-10.290215 35.458122 -12.072579
-10.39567 34.338139 -12.25402
-10.469178 35.774239 -12.43864
-10.606665 36.187763 -12.441427
-10.417212 36.172752 -12.255636
-10.420426 35.803509 -12.244325
-10.289587 35.513592 -12.177909
-10.326702 36.233982 -12.183141
-10.301422 34.202564 -12.228521
-10.449018 35.411362 -12.409316
-10.471438 35.797047 -12.393659
-10.552626 35.648167 -12.516039
-10.481813 35.592915 -12.359467
-10.482362 35.625652 -12.396974
-10.403435 35.622948 -12.359557
-10.352863 34.124878 -12.39638
-10.478219 35.562656 -12.276803
-10.392055 35.505444 -12.283929
-10.401203 35.64151 -12.389428
-10.42829 35.932037 -12.299606
-10.384022 34.903431 -12.355381
-10.348984 35.119289 -12.23297
-10.469907 35.503761 -12.256083
-10.264706 34.916809 -12.084204
-10.467397 35.515972 -12.282465
-10.296668 34.285686 -12.137458
-10.29322 35.17165 -12.284249
-10.361351 34.630081 -12.356783
-10.427959 36.061546 -12.219118
-10.298762 35.05167 -12.207204
-10.258438 34.981407 -12.250201
-10.277691 34.508289 -12.205676
-10.488571 35.617836 -12.442535
-10.409364 35.841984 -12.216398
-10.387032 34.342686 -12.359398
-10.409031 35.741787 -12.347345
-10.538484 35.512619 -12.342075
-10.489329 34.880535 -12.411912
-10.394197 35.19408 -12.306375
-10.29624 35.427322 -12.109024
-10.318264 34.155903 -12.270461
-10.537401 35.625786 -12.488094
-10.406814 34.33577 -12.440272
-10.572713 35.331993 -12.564296
-10.261693 35.680733 -12.094423
-10.468899 36.278721 -12.269601
-10.289169 34.547295 -12.191347
-10.223549 35.629395 -12.108676
-10.400334 34.514038 -12.415174
-10.32591 35.128857 -12.246624
-10.403421 34.376827 -12.430513
-10.280172 34.234428 -12.113302
-10.470349 35.659351 -12.269208
-10.411098 36.157352 -12.294463
-10.381144 34.713257 -12.419415
-10.453135 35.806793 -12.273853
-10.45933 35.704708 -12.365211
-10.319193 34.884903 -12.163368
-10.38062 35.730782 -12.165792
-10.467962 36.322956 -12.24194
-10.461026 34.055397 -12.526976
-10.321181 35.213825 -12.242834
-10.49366 36.071323 -12.292542
-10.328821 36.130711 -12.243018
-10.470964 34.942883 -12.307206
-10.301499 34.237984 -12.284993
-10.405439 35.704342 -12.342914
-10.296928 34.209808 -12.252971
-10.473232 35.95919 -12.370742
-10.47957 36.102375 -12.253171
-10.303138 35.088985 -12.198155
-10.365074 34.703888 -12.321955
-10.39906 34.226086 -12.380035
-10.480415 34.920067 -12.312983
-10.456492 35.89444 -12.383472
-10.387791 35.853836 -12.336789
-10.470248 36.267124 -12.222332
-10.327181 35.07476 -12.158327
-10.274396 34.404789 -12.287482
-10.359034 35.054924 -12.173541
-10.387257 34.881237 -12.223539
-10.462923 35.681789 -12.446121
-10.467384 35.632168 -12.336157
-10.461993 35.365372 -12.441557
-10.395716 35.758789 -12.262523
-10.474075 35.826313 -12.367238
-10.258587 34.790302 -12.179646
-10.382639 35.71545 -12.337255
-10.384319 36.039989 -12.153091
-10.45221 35.841228 -12.265164
-10.367212 35.613518 -12.288092
-10.560436 34.779373 -12.49292
-10.398061 35.612919 -12.218755
-10.481123 35.616482 -12.291192
-10.465881 35.752331 -12.269685
-10.471216 35.782108 -12.258508
-10.401199 36.099792 -12.175994
-10.27733 34.464146 -12.180816
-10.45929 35.665791 -12.405284
-10.387677 36.088055 -12.146858
-10.486205 35.689552 -12.2745
-10.445326 36.089745 -12.291956
-10.386738 35.557911 -12.189816
-10.380912 36.266041 -12.140753
-10.402142 35.682835 -12.292309
-10.391936 35.788464 -12.181237
-10.458388 35.03088 -12.386445
-10.501514 35.137653 -12.425309
-10.3916 35.648251 -12.193134
-10.481228 34.053543 -12.479573
-10.425793 35.158833 -12.350595
-10.396974 35.386494 -12.323841
-10.392051 35.514233 -12.201632
-10.452037 35.722801 -12.313839
-10.391695 35.692734 -12.184628
-10.366842 34.614529 -12.229301
-10.383835 34.182941 -12.2568
-10.474426 34.4058 -12.432171
-10.483625 35.460995 -12.454791
-10.364807 36.108551 -12.116463
-10.456179 34.121067 -12.325931
-10.476679 34.880329 -12.309934
-10.476288 35.685913 -12.36525
-10.483672 35.982311 -12.421963
-10.484781 34.045841 -12.377711
-10.512003 35.281548 -12.508303
-10.457038 34.439548 -12.338147
-10.484104 34.799034 -12.433158
-10.412327 35.643684 -12.299333
-10.414432 35.774715 -12.287279
-10.372118 34.134518 -12.256749
-10.455964 34.31123 -12.5161
-10.390781 35.684872 -12.3589
-10.385189 34.394691 -12.250563
-10.27516 34.846184 -12.145097
-10.266633 35.185184 -12.136895
-10.298772 34.128277 -12.202964
-10.367061 34.808681 -12.320983
-10.330872 35.393909 -12.322851
-10.402849 36.122017 -12.240254
-10.487685 34.574356 -12.529851
-10.375444 34.85062 -12.221097
-10.404759 34.520508 -12.435878
-10.496888 34.830402 -12.326939
-10.299976 35.646664 -12.255633
-10.58238 34.026516 -12.558764
-10.570065 34.027969 -12.453829
-10.402001 34.389835 -12.44942
-10.438004 34.410629 -12.465937
-10.411054 34.036373 -12.391775
-10.434602 34.606041 -12.385363
-10.280547 34.973251 -12.207714
-10.293312 35.692654 -12.091608
-10.390277 34.392319 -12.345374
-10.307229 34.175095 -12.185866
-10.381763 34.208412 -12.337092
-10.362444 34.974606 -12.285613
-10.371817 34.150032 -12.232438
-10.351442 34.138588 -12.381512
-10.380188 34.247147 -12.327517
-10.294546 34.341988 -12.268487
-10.302315 34.460369 -12.229553
-10.300781 34.2603 -12.35539
-10.292901 34.520832 -12.237876
-10.291842 34.244816 -12.242371
-10.36919 34.637653 -12.290195
-10.278135 34.506958 -12.301997
-10.376476 34.550022 -12.289075
-10.347623 34.670429 -12.323318
-10.327826 34.756279 -12.247972
-10.315534 34.354271 -12.335517
-10.283337 34.634872 -12.19915
-10.256954 34.828476 -12.266652
-10.274219 34.864792 -12.177752
-10.284974 34.872177 -12.205853
-10.269927 34.906998 -12.072755
-10.38734 34.522717 -12.33188
-10.271292 34.999897 -12.073824
-10.213505 35.502758 -12.006816
-10.304306 34.684231 -12.226477
-10.269061 34.330166 -12.107743
-10.230595 34.795887 -12.246382
-10.230697 34.813786 -12.251801
-10.220932 35.195641 -12.206922
-10.315084 34.186378 -12.333205
-10.26433 35.166992 -12.223991
-10.369132 34.715405 -12.372432
-10.461925 36.123165 -12.377711
-10.380413 34.688118 -12.399867
-10.268499 35.036991 -12.06379
-10.374895 35.11459 -12.20049
-10.268441 34.995117 -12.171627
-10.306568 34.684113 -12.277981
-10.377877 34.686733 -12.305083
-10.406171 34.21862 -12.49488
-10.278002 34.71064 -12.25659
-10.258816 34.929024 -12.25616
-10.268993 35.032021 -12.242827
-10.25867 35.145027 -12.227823
-10.388588 35.318157 -12.2628
-10.458879 34.71912 -12.447266
-10.401058 35.350517 -12.445158
-10.275157 35.724934 -12.052418
-10.371374 34.770687 -12.268572
-10.475127 35.773422 -12.353401
-10.279782 35.233864 -12.27185
-10.401112 34.424168 -12.438167
-10.375566 34.486237 -12.426382
-10.375652 34.653057 -12.408158
-10.3873 34.379246 -12.321646
-10.261257 35.64917 -12.142426
-10.395273 35.330624 -12.394867
-10.331532 35.073692 -12.356274
-10.378862 35.137463 -12.367291
-10.293407 35.559082 -12.101029
-10.37974 34.875988 -12.301518
-10.372568 34.823914 -12.283552
-10.272083 34.825855 -12.18151
-10.396615 34.261772 -12.370003
-10.45692 35.052818 -12.362298
-10.284245 36.219814 -12.038889
-10.441772 35.579552 -12.37639
-10.295164 36.084812 -12.053917
-10.477665 35.355503 -12.398325
-10.388344 35.933517 -12.30407
-10.384477 35.244049 -12.419371
-10.379296 34.929493 -12.203053
-10.468972 35.9785 -12.308691
-10.384845 34.808887 -12.2757
-10.376162 34.653694 -12.313564
-10.451874 34.786804 -12.468377
-10.554701 34.001663 -12.532887
-10.468542 36.053291 -12.224032
-10.314669 34.791882 -12.184522
-10.44166 36.084602 -12.31951
-10.406594 35.706394 -12.224687
-10.391945 35.101875 -12.396625
-10.405828 34.21357 -12.441406
-10.419516 36.097843 -12.306192
-10.411473 35.576965 -12.382339
-10.464629 35.860851 -12.358132
-10.399294 36.184322 -12.271523
-10.553664 35.592678 -12.508264
-10.426217 35.861954 -12.312363
-10.360069 35.053524 -12.269778
-10.468067 35.653687 -12.348749
-10.434569 35.934093 -12.338895
-10.410068 34.29562 -12.463667
-10.280469 34.295063 -12.334419
-10.467332 35.097721 -12.460893
-10.46138 36.215324 -12.32243
-10.404039 34.179398 -12.376148
-10.26769 36.175335 -12.155589
-10.447883 36.191357 -12.312246
-10.376924 34.786633 -12.393546
-10.421635 35.726055 -12.326972
-10.537467 36.111145 -12.388506
-10.499372 34.777393 -12.443835
-10.299968 34.746796 -12.285907
-10.351277 34.771168 -12.33443
-10.407094 35.645546 -12.275039
-10.406696 35.581993 -12.34373
-10.353157 35.667065 -12.134691
-10.345514 34.137463 -12.306426
-10.309254 34.130516 -12.25883
-10.318195 34.224056 -12.372838
-10.458767 34.172668 -12.429107
-10.489506 34.823345 -12.511452
-10.370845 34.782005 -12.301403
-10.286275 35.642414 -12.075148
