# .PCD v0.7 - Point Cloud Data file format
VERSION 0.7
FIELDS x y z
SIZE 4 4 4
TYPE F F F
COUNT 1 1 1
WIDTH 1612
HEIGHT 1
VIEWPOINT 0 0 0 1 0 0 0
POINTS 1612
DATA ascii
41.692604 38.547394 47.998608
41.979382 38.643681 47.977066
42.079151 39.103378 47.975708
41.618725 39.821308 48.07148
41.903397 39.908581 48.029137
41.5826 39.960075 48.118546
41.484608 40.10659 47.911247
41.978863 39.981018 48.059662
41.898315 40.097038 48.03933
41.964874 39.0448 47.978939
42.000126 39.888702 48.011127
41.789211 39.402466 47.977474
41.870102 39.375324 48.014462
41.594955 39.375351 48.019962
41.736671 39.433765 48.027191
41.519928 33.312378 47.285988
41.31498 33.328632 47.690083
41.814606 37.581142 47.911179
40.813465 38.869396 47.834023
41.38163 33.54427 47.683743
41.906532 38.170052 47.88813
41.317303 33.565792 47.689671
41.306812 33.239796 47.674908
41.660328 33.239307 47.615978
41.619576 37.68652 47.891396
41.185772 36.0989 47.738602
41.512714 33.553738 47.668804
41.69659 33.557053 47.638393
41.644482 33.303074 47.627094
41.576019 33.255466 47.642769
41.505161 34.081673 47.698315
41.600739 33.554493 47.654228
41.390594 33.770073 47.441803
41.398079 34.066792 47.723373
41.690155 34.08889 47.669727
41.796021 33.33886 47.612881
41.819447 34.082664 47.636215
41.582157 34.033695 47.716713
41.586079 33.349758 47.639725
41.785694 33.238491 47.601795
41.597889 34.080563 47.682407
41.487488 33.35458 47.654369
41.864819 33.319363 47.599655
41.50634 33.265461 47.636425
41.405853 33.345066 47.67696
41.395275 33.24559 47.680248
41.137726 33.137566 47.333611
41.678543 35.656029 47.78371
41.780548 39.518547 48.026489
41.269772 40.523251 48.100735
41.57576 38.320415 48.011967
41.025833 40.97813 47.918346
41.188084 39.761993 48.077297
41.024914 39.200638 48.043686
41.090527 38.910492 48.019825
41.509708 32.534267 47.597008
41.221142 39.24942 48.047829
41.057129 39.036602 47.913143
41.677727 38.327236 47.993141
41.214581 37.661194 47.956341
41.002586 37.712452 47.88567
40.996243 38.825264 47.784271
40.998272 39.855465 48.137997
41.307175 37.883881 47.935097
41.579502 40.572212 48.1078
41.104233 39.832245 48.126659
41.007961 40.953537 47.894772
41.531895 40.414558 48.110847
41.198463 40.134693 48.124939
41.471855 38.000977 47.922466
41.164848 35.831123 47.44091
41.286701 40.151062 48.10878
41.48077 40.77142 48.113331
41.574741 40.3307 48.097908
41.687805 39.622719 48.014412
41.706631 39.794292 48.068844
41.578766 39.18668 48.032207
41.577454 38.811726 47.985466
41.571087 37.314945 47.893787
41.668209 36.794483 47.868919
41.301636 34.757339 47.788624
41.663986 40.210976 48.111443
41.674229 37.622036 47.913746
41.577839 40.417824 48.125004
41.579659 39.384609 48.070839
41.494129 39.066959 48.04615
41.477554 38.27409 47.965153
41.668297 37.713871 47.914707
41.48597 40.458309 48.099045
41.165207 35.709465 47.670555
41.613247 36.400963 47.808811
41.459534 36.326145 47.822079
41.512535 36.095493 47.812965
41.53978 34.95882 47.712654
41.486839 37.455814 47.897022
41.668205 40.25481 48.085403
41.680969 39.206894 48.023113
41.387291 39.119926 48.022842
41.465191 34.737427 47.730927
41.604778 38.281937 47.946274
41.585251 37.618523 47.923603
41.469086 36.388817 47.842918
41.480667 40.234425 48.112217
41.409248 39.884708 48.113064
41.468765 37.68309 47.920025
41.404034 36.605095 47.847343
41.238247 34.961349 47.767738
41.185284 35.749031 47.876228
41.190811 37.436825 47.951206
41.11845 40.297958 48.193844
41.233685 34.724094 47.808975
41.30957 40.108604 48.143459
41.393234 39.065979 48.066895
41.572517 38.881969 48.012978
41.392338 40.45771 48.11694
41.508373 34.780094 47.763752
41.589821 34.773716 47.756718
41.583633 34.703259 47.738487
41.490391 34.476494 47.738277
41.471802 34.205673 47.719749
41.600208 34.601276 47.722439
41.58379 34.494202 47.73148
41.386356 34.472965 47.772877
41.332165 34.255753 47.768375
41.322392 34.186543 47.749207
41.104176 39.731995 48.128807
40.895386 39.014893 47.881336
41.392776 39.196991 48.039566
41.318924 37.062065 47.877266
41.585506 40.037827 48.093689
41.70705 38.75248 47.58601
41.959366 39.772205 48.051411
41.19381 38.887844 48.055733
41.28537 39.723778 48.095322
41.189888 33.829353 47.683739
40.78751 35.857811 47.95993
41.199814 40.857132 47.967487
41.765842 34.61055 47.723915
42.019299 38.991104 47.982426
40.99144 39.41032 47.897724
41.301571 40.847687 47.9473
41.395134 36.021194 47.633942
41.855808 34.557838 47.688923
41.729378 35.698593 47.813915
41.389 34.689289 47.401711
41.506416 34.694782 47.751923
41.589931 35.599094 47.440742
41.800297 38.87088 47.998928
41.388374 39.938313 48.080814
41.011242 40.836987 48.182369
41.673923 34.967712 47.754971
41.679749 36.749966 47.879566
41.593094 36.814323 47.548599
41.717491 38.905849 48.049492
41.277409 34.986485 47.44463
41.201393 39.48201 47.869404
40.847481 40.763054 48.310722
40.815964 39.193707 48.18148
41.926292 38.925755 47.987267
41.289845 40.715248 48.229908
41.505909 35.010658 47.780266
41.260406 33.857403 47.647041
41.087025 39.164478 47.973423
41.101917 33.593071 47.457855
41.378834 39.839764 47.943401
41.184582 40.773537 47.948021
40.893734 39.720753 48.204941
40.644894 39.112713 48.156345
41.463799 34.802589 47.465614
41.422886 37.184582 47.575253
41.313454 33.547268 47.471001
40.892075 39.958092 48.2146
41.103153 38.484333 47.795311
41.014282 33.901848 47.755482
41.581493 37.79863 47.584431
42.133926 38.965149 47.948803
40.884026 33.552765 47.551231
41.277058 40.36552 47.885708
41.395496 37.216843 47.64164
41.907356 32.925732 47.550579
41.675774 39.445305 47.648518
41.390873 39.758293 47.843334
41.571579 36.857845 47.508705
41.18137 39.803841 47.907722
41.19162 34.370346 47.403141
41.399506 33.694359 47.667801
41.279167 40.580555 47.872856
41.479378 37.224052 47.900127
40.913017 40.020275 48.235516
40.682186 37.234913 48.037983
40.719429 36.654728 47.874031
41.287651 34.608734 47.767899
40.851208 35.442337 47.790981
41.300312 36.08358 47.837486
41.099495 33.515598 47.64856
41.679272 35.579716 47.398613
41.474396 36.802952 47.890682
41.076122 38.967846 47.877499
41.206833 40.329933 47.944904
41.29409 40.455063 48.129711
41.27792 33.910706 47.675522
41.182121 37.229485 47.690739
41.271729 36.78281 47.688461
41.296265 37.096931 47.935459
41.287773 36.608089 47.619034
41.208664 40.465908 48.142315
40.99889 39.932453 47.937382
40.874836 33.890915 47.768578
40.778973 33.466679 47.556232
41.382309 39.590179 47.865158
40.715439 36.946659 47.687958
41.969379 40.037731 48.042664
42.104099 39.617638 47.958012
41.303307 33.98962 47.713558
41.099514 40.768513 47.973316
40.610649 36.816853 47.702991
42.082634 39.147491 47.972507
41.754581 38.835857 47.960781
41.287788 39.202461 48.057369
41.000801 33.985317 47.764187
40.993214 38.049915 47.808739
41.013725 37.564945 47.735817
41.29084 38.977299 48.055347
41.188782 33.983524 47.718987
41.39846 40.378868 47.937122
41.293144 37.221859 47.924183
41.285683 40.591141 48.117241
41.728226 40.192131 47.714314
41.212677 37.391102 47.607975
41.773247 39.751915 48.065338
40.673927 35.978752 47.722958
40.999966 40.839855 48.264374
40.987431 39.704048 48.173378
41.250408 33.040737 47.60479
41.488689 39.813515 48.090214
41.804134 38.936337 48.021461
41.191059 35.253555 47.549076
41.1917 39.448925 47.821156
41.502781 36.237179 47.581776
40.881725 39.500355 48.207874
40.918015 34.605366 47.828423
41.764225 40.186234 47.684448
40.933365 40.462963 47.931419
40.689625 40.429104 48.323193
40.795624 35.624279 47.626148
41.03503 34.931847 47.709888
41.281403 37.663296 47.933834
41.195206 37.534054 47.962196
42.125664 39.743839 47.99036
41.491634 34.611465 47.736313
40.957756 37.18219 47.683784
40.784435 38.362518 47.892067
40.704971 36.877071 47.687679
40.614777 35.997726 47.842781
41.772942 35.872669 47.746574
40.791645 39.11338 47.931305
41.20335 39.812923 48.138519
41.709583 34.734798 47.677616
40.661293 33.61161 47.497967
41.290623 38.612431 47.716053
41.386604 39.352615 47.737587
41.490738 37.983646 47.61517
41.126366 40.814587 48.159332
41.395882 39.717915 48.078083
40.904434 34.725227 47.601147
41.28857 38.272938 47.983654
40.997311 40.279922 47.902
40.800556 34.609848 47.625134
41.678558 35.685558 47.418709
40.900505 40.209934 47.877304
41.585522 35.691269 47.462543
40.711021 39.167507 47.866863
40.777447 39.742065 47.917038
40.615284 34.896397 47.950226
40.983448 37.866638 47.968914
41.091297 36.08334 47.641472
40.858677 33.997883 47.814087
41.473267 38.124996 47.711243
41.462959 33.332638 47.283859
40.649883 37.067001 47.686062
41.176636 34.06599 47.744934
41.591049 35.117016 47.762543
41.604702 35.05497 47.729706
41.494698 39.368965 47.707897
41.50967 37.632744 47.55373
41.791367 34.901226 47.710659
41.002556 33.05772 47.456436
41.088512 36.390984 47.661343
41.068302 37.472118 48.023209
40.76952 39.010387 47.918507
41.477737 36.675552 47.519096
41.000885 34.373684 47.819332
40.771687 37.241661 48.078701
41.392273 34.548603 47.779785
40.777603 35.197319 47.683922
41.092194 37.567356 47.713242
41.328804 39.477802 48.015263
41.492344 35.997448 47.509975
41.484257 34.857101 47.415264
41.108791 33.765072 47.486969
41.89431 33.762177 47.637577
41.093475 36.17654 47.652416
41.680866 39.899738 48.077057
41.161781 35.21497 47.457027
40.898376 35.83239 47.589935
41.38147 38.955784 47.977894
41.884281 38.645802 47.943039
40.973381 34.383278 47.58337
41.643692 35.015209 47.721779
41.790363 36.659481 47.838318
40.906231 33.09539 47.734287
41.079739 34.6082 47.565689
41.71151 38.101933 47.980003
41.690735 36.568649 47.855495
40.710941 34.108097 47.604267
41.487812 33.938995 47.33791
41.194965 40.016724 48.131123
41.858822 34.929684 47.700134
40.691887 33.482311 47.516426
40.812386 37.507156 47.711281
40.739731 39.468601 48.100346
41.79073 36.563705 47.803928
40.901691 37.747692 47.795731
40.992012 38.74091 47.881557
40.989716 39.374084 47.825863
40.902214 36.176647 47.706772
41.382542 33.588295 47.359787
40.698994 36.184479 47.765316
40.989746 36.796043 47.971786
40.595566 34.721146 47.909927
41.085697 35.248657 47.584759
41.105648 34.313175 47.767887
40.921635 34.302544 47.81963
40.991879 37.529461 47.775127
40.791279 37.53746 47.812393
41.136623 40.761444 48.247559
41.001621 39.173943 48.135838
41.006157 34.29863 47.787979
41.599373 36.787899 47.873478
41.389606 39.01207 47.75399
41.105606 37.227009 47.977104
41.128227 36.637585 47.735886
40.803535 34.299984 47.605259
41.850559 38.810181 47.989521
40.899311 37.216778 48.010048
41.387165 40.068848 48.063328
41.401657 38.237797 48.00547
41.70517 38.756138 48.003361
41.579388 35.602192 47.806992
41.79789 33.754463 47.649422
40.620098 40.281029 48.293724
40.770794 40.642513 48.295898
41.387409 34.610455 47.749588
41.606506 34.880844 47.778858
41.095032 34.767883 47.48991
40.683788 36.178371 47.999428
41.012924 34.766308 47.508732
41.461037 39.823132 47.77475
41.186218 34.76543 47.459736
41.287727 39.94257 48.09642
41.404346 34.393536 47.747471
41.078079 40.199604 48.050117
40.887859 39.099697 47.89967
41.684998 36.878124 47.877327
41.39764 34.989571 47.791393
41.080254 39.587345 47.944923
41.090706 38.664841 47.837528
41.369911 40.289257 47.803181
41.480377 37.698975 47.604412
41.585636 33.521587 47.290051
40.985477 38.663437 47.870457
41.304218 39.109905 47.74604
41.186207 39.317303 47.836433
40.54398 34.35825 47.635933
41.288219 39.010494 47.718044
41.142967 39.392281 48.020298
41.29163 33.58847 47.400867
41.278404 40.033741 48.115742
40.709202 40.316315 48.296646
41.387482 39.362629 48.114059
41.477051 40.002007 48.110474
41.502029 36.315956 47.526028
41.480274 38.624504 47.672512
41.193287 38.185974 47.988426
40.986534 37.248989 47.696781
41.406693 33.175995 47.632557
41.005852 34.957859 47.809589
41.492958 34.909294 47.75721
41.099144 37.358208 47.828716
41.385948 36.486923 47.869129
41.287319 37.352547 47.6436
41.183472 33.677567 47.447788
41.000698 34.718513 47.571945
40.708508 37.251404 47.750732
41.380978 40.02829 48.103027
41.588726 36.085762 47.501575
41.280041 34.982464 47.757504
40.685871 34.278732 47.638378
41.52124 38.085361 47.501919
42.18158 39.553822 47.959156
40.695732 33.44117 47.477497
41.319126 34.99868 47.799843
41.068539 34.954151 47.785896
41.578793 34.6604 47.387581
41.214695 34.507576 47.765133
40.686325 34.514462 47.910118
41.590923 36.349495 47.84478
41.083374 34.00676 47.73933
40.689804 37.99728 47.983501
41.008533 38.624832 47.795765
41.205036 37.768219 47.683422
40.66497 35.825314 47.655922
40.995628 37.865082 48.050461
41.397648 40.362286 47.845875
40.795155 36.486259 47.76685
40.794411 37.406818 48.088932
41.301807 33.404747 47.335651
41.500935 34.022491 47.72987
40.9883 40.355766 48.162769
40.890728 40.61496 48.276993
40.805729 33.568661 47.814011
41.196613 37.262123 47.657932
41.481789 36.114357 47.487274
41.495232 38.644699 48.049664
41.085674 40.441685 48.218193
41.701218 37.258392 47.930336
41.644894 36.56691 47.523785
41.180763 37.312294 47.726871
41.087639 33.457294 47.466537
40.998875 32.986027 47.440483
40.892239 39.615551 47.934845
41.470631 39.935276 48.083931
40.902153 38.482227 47.845253
41.20871 35.438507 47.462753
41.286098 35.404655 47.433571
40.711582 34.34473 47.598698
41.288494 39.102745 47.804913
40.493504 33.389061 47.523979
41.480995 33.419582 47.298592
41.386364 40.247478 48.101639
41.782467 34.865768 47.354622
41.483288 38.796593 47.699406
40.725533 36.285522 48.006805
41.320679 35.110195 47.640663
41.481979 38.173759 48.044144
41.587357 36.121323 47.472786
40.73687 40.383125 47.941864
40.687202 35.865314 47.737206
40.988289 37.588856 47.959152
40.898178 40.433052 48.283176
41.095615 36.60973 47.662624
41.79314 33.648323 47.628643
41.393429 38.550716 48.040691
41.298561 36.3885 47.61219
41.296291 37.477921 47.984879
41.03167 40.389423 48.235397
40.994228 37.074665 47.768078
41.282814 40.853771 48.176182
41.165627 40.793892 48.265579
41.476303 40.69902 48.190662
41.102554 38.404972 47.99651
41.884804 33.20195 47.587536
40.988457 40.632141 48.015759
41.648544 38.383308 47.937199
41.285553 39.002251 47.781448
41.208183 40.937038 47.991631
41.494205 34.952766 47.431721
40.817162 34.347225 47.897953
41.311829 36.386246 47.865379
40.696548 35.045662 47.912117
41.11256 40.662247 48.229084
40.98613 38.278027 47.812862
40.796661 34.129223 47.55117
41.795044 39.051376 47.589867
40.875694 39.276089 47.954437
41.179939 39.707211 47.883606
41.591003 36.13504 47.831188
41.364525 33.474445 47.67313
40.997734 36.733696 47.665035
41.298264 36.737682 47.599529
40.675117 39.251755 47.856613
41.383121 39.314125 47.78014
41.185432 39.985172 48.041924
41.307854 33.332664 47.316822
40.810162 36.898964 47.769173
41.292721 39.311806 47.815826
40.881844 39.354141 47.82468
41.284187 36.917145 47.642899
40.890293 36.905403 47.753292
41.091553 36.913326 47.690014
40.807709 33.176998 47.753544
41.569187 36.896145 47.570728
41.006451 36.921089 47.72237
41.299835 33.812611 47.398254
40.778236 38.871735 48.169933
40.661224 35.120117 47.577061
41.195045 33.799694 47.430977
41.191956 35.365971 47.528202
41.297482 33.725475 47.371155
41.694721 38.450737 47.982189
40.762394 35.926628 47.67654
41.402264 35.763371 47.609051
41.087811 39.045792 47.770996
41.189701 33.380024 47.420399
41.19487 38.483833 47.763855
41.289215 39.989292 48.056053
40.981789 34.043243 47.50729
41.70369 36.223122 47.461983
41.489796 35.655525 47.532097
41.189972 36.916878 47.663685
41.088509 39.630043 47.888027
40.572987 36.176277 47.691185
40.69994 37.012314 47.791462
41.492699 36.913887 47.589634
41.474098 34.118397 47.387733
41.474533 34.437469 47.367607
41.608612 38.140965 47.959129
41.589748 36.181217 47.829853
40.999393 38.756737 47.753777
41.482101 35.838009 47.847099
41.097527 34.513489 47.785503
41.803631 39.303337 47.599773
41.487419 35.217342 47.786201
41.678619 35.213188 47.759007
40.927872 40.842609 47.927208
41.190998 40.769737 48.180328
41.283367 35.140678 47.798943
41.87978 36.545757 47.809402
41.199268 37.989712 47.686306
41.390423 34.467415 47.387505
41.09687 36.299416 47.640854
40.687359 38.00798 48.169636
41.74794 36.936043 47.472733
41.098274 40.977383 47.980198
40.895741 36.390289 47.722855
41.174892 38.002037 48.043476
41.070526 40.040211 48.120861
41.21151 38.415329 47.642384
41.262398 34.31041 47.738251
41.184612 34.615013 47.553661
41.32193 38.025238 48.018093
41.496494 35.502644 47.418427
41.210995 40.073669 48.114338
41.75647 34.448212 47.309109
40.902153 36.001186 47.849434
41.28717 33.379139 47.394768
41.667149 36.472237 47.827946
40.702049 36.986576 48.109924
41.300755 38.926765 47.974838
41.368664 39.581299 47.717125
40.887711 39.925201 47.965725
40.698814 34.20171 47.596378
41.107239 37.531021 47.985252
41.7724 36.979557 47.887341
41.39296 37.620518 47.948849
41.103291 40.147572 48.150463
40.796883 34.205025 47.58601
41.64912 37.373478 47.506165
41.789627 40.683422 47.701908
41.18605 36.520996 47.87524
41.830189 39.369808 47.623718
41.397469 40.184376 47.802174
40.673096 36.846874 48.11964
41.404678 35.892742 47.511162
41.607864 35.206615 47.77232
41.585468 39.924374 48.060101
41.189552 39.007481 47.809002
40.997723 36.385387 47.932011
41.579426 34.906525 47.751049
40.700516 35.393539 47.657623
41.090256 36.253979 47.697308
40.832691 40.686077 48.112999
41.400719 36.912655 47.616524
41.196266 35.046276 47.538563
41.400509 37.998863 48.000366
40.99469 36.565636 47.755623
40.981419 37.309807 48.012444
41.663517 40.812359 48.160583
41.187569 36.395451 47.637901
41.1968 37.465023 48.001575
41.093452 39.110245 47.850899
41.210922 40.85878 48.195763
41.095139 34.854679 47.513596
41.291569 38.618427 47.952808
41.495617 36.608925 47.84087
40.985371 35.860962 47.663319
41.877892 33.413342 47.558971
41.602329 38.424221 47.995846
41.698498 37.556313 47.543346
41.601875 37.345329 47.570473
41.08416 37.005947 47.714603
41.030094 35.585255 47.459576
40.865292 40.576878 47.979515
41.66357 39.300236 47.698318
40.805481 40.441685 48.309391
40.89164 37.615215 47.824501
40.604496 38.107529 48.257469
41.282196 40.188435 47.817776
40.97646 37.792953 47.733765
41.286789 35.90834 47.536861
40.644848 36.344471 48.075527
41.309235 37.886864 47.781654
40.799995 34.957062 47.610912
41.380123 35.383816 47.477158
40.973259 35.392086 47.588779
41.269066 34.288288 47.489124
40.767143 36.058479 47.609547
40.636932 35.960869 47.79166
41.681 36.96582 47.890541
40.804543 36.161049 47.984428
41.938694 34.306561 47.644573
40.997391 37.483852 48.017395
41.08836 35.869152 47.635601
41.729877 34.511734 47.66515
40.894882 37.65295 47.785378
41.667969 37.390316 47.538685
41.391392 33.835686 47.327797
40.573723 33.009632 47.69548
40.796051 34.598862 47.888527
40.987514 40.768227 47.998051
41.796707 34.310814 47.68132
40.895306 40.760231 48.022606
41.465851 36.028355 47.476997
41.477074 37.349773 47.594547
40.707726 36.044983 47.975349
41.488865 36.393333 47.554676
41.525414 37.50169 47.943947
40.783772 35.020798 47.934353
41.279076 40.006596 47.899467
41.213821 37.614052 47.983738
41.292873 35.36956 47.501217
40.891571 34.036144 47.510536
41.290085 33.845654 47.336639
41.794201 40.429695 47.672688
40.681381 36.773323 48.076233
41.38446 34.723919 47.464554
40.779087 38.033115 48.001034
41.601433 34.447212 47.347008
41.196411 34.298702 47.503517
41.199703 40.949837 48.226032
41.501755 39.061012 47.687706
41.688637 38.019924 47.96661
41.382938 40.15234 48.088909
41.179943 40.573357 47.917934
41.307446 36.355022 47.884995
41.38409 37.228134 47.914108
40.974518 36.18195 47.932987
41.093235 38.79887 48.068382
41.09967 38.178314 47.992268
41.224228 33.86219 47.375935
41.290653 35.572121 47.550224
40.703751 36.67086 47.669861
41.113693 33.189575 47.39476
41.292728 38.359863 48.007286
41.691891 39.379631 48.045692
41.589249 39.908798 48.103294
40.893723 35.556877 47.66943
41.173267 37.000175 47.697739
41.300133 34.635258 47.454494
41.206459 35.975704 47.815067
41.008026 34.82402 47.451546
41.195789 33.240391 47.31514
41.005592 38.911999 47.824245
41.195148 35.557171 47.572266
41.298267 36.697411 47.895325
40.878605 40.317036 48.196472
41.47718 40.551323 48.118362
41.689171 35.913292 47.443012
40.899509 37.56424 47.747517
41.522793 35.703453 47.423779
41.108189 38.145401 48.041489
41.142162 38.117287 47.98122
40.766781 35.959938 48.037861
41.187935 40.71669 48.213863
41.66544 39.090752 47.980274
41.09446 39.923595 47.911564
40.748337 39.508675 48.134014
41.788456 38.538841 47.988323
41.485535 33.655159 47.690712
41.223576 40.452496 48.20274
41.302261 33.291271 47.35297
41.839447 36.297371 47.406109
41.306152 36.130016 47.533585
41.095879 34.014927 47.69622
41.800907 34.797516 47.715065
40.710335 40.111217 48.282181
41.293594 34.461994 47.411938
41.802353 36.881268 47.846439
41.703476 36.154327 47.429592
40.777302 35.734974 47.600647
40.753807 33.739014 47.541027
41.20192 36.139042 47.574627
41.286282 38.184441 47.722473
41.375523 38.016304 47.635677
41.085804 36.406487 47.76215
41.0355 40.304043 47.8339
40.898262 37.041664 47.723423
41.963684 39.158993 47.996338
41.08791 39.81361 48.180405
41.490921 38.981125 48.038296
41.205803 33.104813 47.338268
41.096897 38.357441 48.054836
41.383537 38.453091 48.019218
41.672569 40.747936 48.167957
41.199551 38.269447 48.009003
41.30043 37.456516 47.623947
41.118023 36.114029 47.567001
41.390198 34.689651 47.766308
41.181019 40.883854 47.936726
40.809265 37.663631 47.806278
41.904793 36.976944 47.873932
40.792679 39.422333 47.956604
41.689899 39.71674 48.036907
41.395695 39.150639 47.728657
41.810654 33.465179 47.603325
40.857754 34.967289 47.908436
41.082382 33.531979 47.513065
41.924911 37.072083 47.870846
41.283173 39.407906 48.065884
40.991947 40.686611 47.912281
41.960335 36.87162 47.810863
41.586052 38.836391 48.03846
41.089241 40.897068 47.953865
41.081669 33.774899 47.748562
40.894367 35.427425 47.671139
40.918968 36.859421 47.824207
40.897858 37.018536 48.013203
40.921883 37.608051 48.065083
40.701908 33.373188 47.541843
41.379368 39.631458 48.058567
41.09935 35.644897 47.628845
40.711937 36.294807 47.749493
40.657536 37.56321 48.181526
41.502548 39.43409 47.712883
41.602341 34.857018 47.393131
41.699684 37.94381 47.938732
40.7985 37.004574 47.787811
41.304974 39.801659 48.111965
40.891373 36.391464 47.950466
41.099438 39.801064 47.934402
40.908607 38.667519 47.880699
40.90733 40.36581 47.970814
41.187317 37.342625 47.680557
40.609818 36.153408 47.937862
41.190685 39.411194 47.849495
41.713776 39.101246 48.011009
41.768269 37.249287 47.86293
40.777863 36.870018 47.827927
40.804382 37.014481 48.052425
40.581898 36.042305 47.940693
40.733128 37.838337 47.739609
41.094044 35.558334 47.600552
41.190392 35.998222 47.589516
41.483078 40.570034 47.810535
41.419979 37.470016 47.584255
41.16684 33.537247 47.469292
41.103371 39.748138 48.095089
41.194885 39.351635 47.752441
41.374886 34.207066 47.435238
41.10516 38.604969 47.770424
42.050789 39.858128 48.05365
41.287075 34.851326 47.466579
41.598034 39.610607 47.740875
41.005623 40.668571 48.268494
41.600292 38.034241 47.593479
41.000656 36.084251 47.912785
40.719082 38.293068 47.87225
40.891434 36.263363 47.731087
40.807781 37.276264 48.039906
40.798878 36.567459 47.793392
41.186264 38.269653 47.765465
40.792023 33.363995 47.51651
40.997211 37.217361 47.751831
41.168968 34.370106 47.760792
40.890751 40.250492 48.223732
41.297638 40.895714 47.893318
41.191963 34.723259 47.514801
40.868851 39.576168 48.222954
41.852699 40.474907 48.096619
41.103989 34.451756 47.440281
40.570526 35.944794 47.663429
41.68895 40.584106 47.730961
40.910507 37.934841 48.076748
41.295612 35.223927 47.462326
40.984909 33.695492 47.502808
40.996685 40.89185 47.972504
40.989235 40.453117 47.985149
40.791134 38.586693 47.89378
41.0602 34.983814 47.865719
41.100632 36.700993 47.927422
40.791435 36.18684 47.723972
40.821121 36.793255 48.040668
41.511189 38.036201 47.655327
41.591152 40.815453 47.771355
41.778015 34.982662 47.677925
40.937092 35.906345 47.623711
41.437622 40.123909 47.755024
41.58242 39.291283 48.041134
41.858418 37.592323 47.87693
41.692627 38.629921 47.608913
41.399879 36.121056 47.508816
41.095654 37.964691 47.761765
41.119312 36.157879 47.88995
41.095383 37.654808 47.731022
40.896954 35.649998 47.678356
40.881504 34.225643 47.786568
40.712204 35.279099 47.59304
40.875053 35.700893 47.651215
41.10405 39.143116 48.168816
41.07019 38.757809 47.925018
40.750214 37.622368 48.1166
41.187 40.433029 47.97456
41.1894 33.326855 47.346462
41.385803 39.313789 48.022736
40.993519 36.389473 47.697639
41.667854 34.026363 47.299088
41.351784 35.092102 47.542984
41.398293 33.511272 47.336193
41.706161 39.367687 47.669525
41.216621 40.485107 47.866489
41.59161 37.741096 47.64893
41.486504 35.165722 47.437523
41.397507 38.632317 48.069592
41.007435 39.077347 47.978546
40.968319 36.699341 47.94886
41.194832 37.961018 47.745098
40.997944 35.58971 47.5774
41.477119 40.369164 47.818146
40.804218 37.765068 48.06789
40.872517 37.378769 47.635048
40.607544 39.412678 48.251163
41.207127 34.18129 47.546131
41.157047 34.037258 47.620693
41.774189 38.675007 47.977364
41.195194 40.334061 48.163887
40.984619 37.611736 48.03875
41.047707 38.543568 48.103947
41.009075 39.703346 48.002544
41.000938 37.657703 47.758942
40.89043 34.918407 47.897675
40.736374 38.299976 47.81699
41.479187 40.513477 47.800533
41.818401 35.935051 47.78233
41.002373 39.529121 47.886185
41.47134 39.331566 47.993122
41.022903 35.09726 47.531303
41.808792 38.002811 47.934925
40.768551 38.138668 47.883259
41.100048 39.2356 48.059937
40.690216 37.609489 48.143444
41.08456 35.983936 47.888084
40.802624 39.497231 48.228107
41.484581 39.890919 48.111485
41.308216 36.876331 47.931438
41.092152 38.705105 47.801456
41.077824 40.484383 47.88216
41.182228 38.516418 48.075428
40.998592 40.344646 47.988552
40.907982 37.223217 47.781193
41.497414 38.007011 47.984764
41.790569 39.056736 47.998516
40.861408 37.169445 47.689308
40.724716 39.659275 48.212841
41.114319 40.864815 48.214195
40.994385 39.872215 47.844913
41.706306 33.648167 47.654083
41.179317 36.729836 47.627934
41.363632 33.332584 47.31332
41.009583 35.162834 47.584373
41.200539 33.208412 47.361347
41.758404 40.826653 47.767521
41.38829 37.874706 47.66164
40.982666 40.235443 48.215603
40.895885 34.881657 47.633804
41.867332 33.623039 47.62355
41.009392 34.435303 47.766659
40.762062 40.564655 48.260338
40.790382 36.692432 47.998524
40.830017 35.025192 47.535553
41.946564 40.19257 47.621933
41.005882 38.443142 48.102921
40.995113 36.209343 47.633816
40.980213 34.611988 47.841915
40.739128 36.976639 48.046043
41.293663 37.83353 47.736919
41.095757 39.035774 48.118271
41.388248 35.134777 47.778564
41.08786 37.097443 47.748688
40.627079 38.278801 47.888725
40.877415 38.60416 47.82658
41.081272 36.5993 47.921181
40.79129 35.156948 47.642509
40.795341 34.691383 47.900887
41.888687 37.290066 47.849625
41.171696 36.015621 47.520096
40.715725 39.346096 48.248714
41.403828 39.884258 47.726768
40.804726 36.37011 47.993965
40.801704 37.485752 48.108082
40.787998 36.39122 47.749893
40.91301 36.704491 47.974495
40.619961 39.287392 48.258411
41.988407 36.954483 47.849117
41.924492 39.721508 47.991024
41.103012 34.123817 47.487862
41.314396 34.711788 47.781086
40.995144 40.378948 48.068218
41.175945 34.071079 47.700092
41.637123 33.725025 47.676952
41.379547 35.59832 47.480766
40.813641 37.858841 48.111572
41.589943 34.353931 47.379227
41.106178 36.048561 47.688076
41.642685 41.106499 47.7864
41.092026 39.529602 47.866875
40.99091 33.963627 47.658897
41.081696 39.749527 47.870117
41.69437 38.621655 48.014744
41.296371 35.59428 47.501057
41.193443 35.597301 47.532928
40.619312 35.777718 47.847443
41.516376 36.956299 47.922436
40.990524 36.351948 47.960159
41.195312 36.70536 47.91637
41.99662 40.015419 47.59388
40.834499 36.208488 48.043991
41.202198 36.333191 47.916733
40.816498 39.12635 48.252567
41.393387 35.063759 47.43803
40.72966 39.25806 48.243103
41.58176 33.187038 47.649242
40.804905 38.144871 48.132263
40.801102 39.601719 48.031044
41.089523 35.89579 47.578979
41.393242 37.314903 47.930882
41.190067 35.644608 47.613297
41.093334 34.729465 47.551956
41.596706 33.652489 47.664364
40.683022 39.4062 47.978649
41.369926 38.486954 47.972301
40.813885 37.58054 47.763023
40.868313 38.841694 47.804085
40.880753 38.492577 48.086151
40.987091 35.689098 47.621727
41.289227 40.058838 48.081516
41.1017 35.631355 47.854683
40.99691 35.90601 47.61198
41.582401 37.750656 47.915806
40.904541 33.893047 47.540848
40.40432 34.715801 48.010063
41.783844 39.779629 48.041882
41.378593 35.15807 47.477619
40.76664 35.0839 47.583645
41.279579 38.537334 48.0518
41.578053 34.823128 47.737637
41.185314 34.463951 47.434963
41.857483 39.179359 48.013847
41.278748 37.623734 47.969685
41.867867 38.37817 47.940323
41.678921 33.732254 47.670422
41.213367 34.305405 47.737263
41.299191 35.653645 47.565701
41.061344 35.51305 47.669827
40.877964 40.672173 48.228855
40.879669 40.107254 47.999985
41.602505 37.481613 47.932362
41.032936 40.391026 47.862854
41.498638 35.594017 47.465622
41.58651 39.454056 47.684662
41.200981 37.942127 48.020947
40.480534 35.957287 47.819088
41.393082 36.789719 47.901569
41.053204 37.295322 47.61602
41.081497 40.554451 48.203945
41.117603 33.435799 47.372734
40.669643 36.034821 47.813274
40.996571 35.989269 47.643761
41.232086 36.874306 47.600254
40.935085 37.548347 47.923454
41.481277 37.84433 47.954029
40.985989 40.850906 48.027248
41.282513 36.023956 47.797451
41.579082 38.024555 47.974281
40.790947 36.639828 47.645588
41.082436 34.934841 47.464344
41.678715 34.847351 47.763992
41.610886 33.882099 47.322445
41.286087 38.656948 47.811646
41.494411 34.738033 47.450535
41.393059 40.809048 47.842468
40.641918 34.545181 47.5961
40.800453 36.264458 47.761364
41.681137 34.791653 47.737057
41.297455 37.14325 47.898045
40.847729 39.858089 47.833935
41.470852 40.796543 47.790909
41.385052 40.541672 48.131901
41.099476 36.914997 47.975094
41.580864 34.291668 47.708153
41.233124 40.827675 47.919662
41.270264 37.91082 47.643707
40.994377 37.928921 48.084747
41.002666 40.340164 48.235485
41.096523 40.802933 47.915314
40.967468 34.704872 47.874748
41.284702 37.317909 47.944202
41.169399 36.781364 47.556183
40.892719 35.989304 47.667885
41.094589 40.585785 47.923641
41.392826 35.656704 47.555218
41.403572 33.649834 47.694775
41.026901 36.119984 47.595432
41.250107 39.344563 47.770241
40.984356 34.907227 47.611496
41.283791 40.755711 47.926571
41.307545 38.463478 48.01548
40.716751 36.40765 47.764267
41.279606 38.696953 47.752396
41.326874 33.033466 47.302177
41.093754 39.939121 48.139683
40.996204 39.839401 47.924137
41.195274 34.114059 47.461296
41.466805 39.261074 47.951763
41.373981 40.399498 48.165123
40.798897 34.644699 47.602276
41.158779 37.940376 47.809856
41.601921 34.5704 47.745907
41.678207 37.498196 47.934113
41.310677 39.662807 47.762547
41.490452 37.004372 47.892509
41.653923 37.755569 47.883766
40.990715 35.564251 47.639118
41.645027 37.857239 47.583199
41.381611 36.998905 47.90839
41.094044 39.690605 48.012543
40.886848 33.988354 47.553593
40.871609 38.134312 48.116089
40.817013 40.176746 48.210667
41.174927 38.46941 47.833874
40.985935 35.420044 47.64798
41.206261 38.149761 48.022598
41.288521 33.787697 47.467827
40.871094 35.391285 47.607738
40.683529 37.669098 47.833981
40.878071 38.269409 48.0882
40.98893 37.355305 47.730938
41.571404 35.997097 47.485397
41.580971 37.712254 47.944424
40.876209 34.492867 47.691765
41.283409 34.189465 47.529606
41.300762 38.162308 47.995399
41.135681 35.717773 47.823101
40.810684 35.546619 47.687069
41.587337 38.561165 48.008987
41.488029 36.884148 47.900257
41.391808 34.414501 47.427162
41.053082 39.910156 47.826664
41.872715 39.923355 48.003448
41.385857 37.359375 47.6245
41.113068 38.455601 48.06559
41.683342 40.022217 48.086857
41.328213 39.570408 47.879971
41.701881 39.047722 47.617821
40.693378 36.345547 47.859207
41.300335 37.008137 47.916607
41.022274 40.930664 48.224331
41.397354 40.85527 48.154358
41.00034 33.204395 47.437145
41.304077 40.40659 48.165604
41.198826 33.024086 47.314636
41.29998 40.790359 47.889595
40.990601 40.127094 48.129917
41.574661 37.635475 47.598774
41.598175 35.691223 47.844257
41.197697 33.892296 47.456696
41.66975 39.667461 47.671398
41.293732 38.181038 47.958565
41.484234 37.77425 47.924206
41.403282 37.49786 47.973286
41.384933 39.606247 48.103859
40.819748 35.275948 47.744019
41.297932 34.428814 47.729046
41.699432 37.467751 47.521957
40.720646 37.687775 47.732265
41.191025 40.365078 47.9137
41.563522 37.497612 47.571125
41.110744 34.848484 47.74295
41.106743 35.070751 47.517391
41.856285 40.142673 47.669926
40.914864 36.87579 48.009491
40.99025 34.962009 47.893639
41.19886 39.199471 48.073708
41.299351 36.17355 47.861145
40.898354 33.776421 47.543488
41.108589 40.602547 48.160351
41.081078 34.433384 47.751194
40.903305 34.645134 47.576126
40.797581 38.298084 47.789593
41.2868 40.28743 47.856945
41.892014 38.175514 47.963425
41.000164 37.008217 47.738651
41.563568 39.721336 48.075932
41.000103 36.295029 47.668427
41.094444 40.35722 47.920315
41.875206 38.741772 47.959499
41.60463 39.072544 48.042431
41.096214 34.389328 47.790958
40.913116 40.097614 48.25914
41.392151 36.885517 47.910973
41.187435 40.592159 48.138195
40.991982 38.164017 48.075504
41.093975 39.122238 47.794128
41.192616 36.603813 47.895805
41.687462 34.834 47.364311
41.668255 37.283749 47.547043
40.682636 40.230118 47.966839
40.881542 39.830727 48.229008
41.184555 40.565079 47.955811
40.905689 38.438599 48.132133
41.111664 37.92746 48.029667
41.596405 35.458687 47.437267
41.095852 34.555664 47.495415
41.474121 40.492706 47.987598
41.184086 34.555634 47.465389
40.892349 36.034134 47.736797
41.085812 35.341637 47.605438
40.898094 35.076225 47.566536
41.597145 36.488731 47.837151
40.756672 34.514599 47.903919
41.189991 35.948761 47.638706
41.578011 36.701176 47.861423
40.81345 34.338581 47.851711
41.903404 40.808632 47.676266
41.364449 36.03418 47.487072
40.789402 36.904369 48.047733
41.183899 37.035385 47.654987
41.201908 39.749146 47.847038
40.890461 39.184784 47.919285
40.877369 40.446823 48.011765
41.684902 34.911335 47.729626
41.095345 36.088844 47.885506
41.507397 40.170841 47.755154
41.79755 40.557606 48.131203
41.595825 40.080029 47.758579
41.291023 35.474419 47.521084
40.904163 38.011391 48.137306
41.601345 34.990189 47.370754
41.390831 34.551044 47.409554
40.86657 37.530636 48.052944
41.28973 37.835953 47.976067
40.992424 33.76469 47.516636
40.87925 37.093327 47.818138
41.718121 40.104851 48.086342
41.603237 41.110565 47.823635
41.870277 36.870728 47.840698
41.491474 39.034206 47.718689
40.771088 37.081757 47.818562
41.292698 38.711781 47.985958
41.581211 36.514366 47.513783
41.377296 37.955784 47.93721
41.083035 39.405979 47.872639
40.88179 37.723591 47.86681
41.294231 35.036884 47.511623
41.224407 40.682297 47.83567
41.285892 39.4095 47.826771
41.094738 35.201736 47.638092
41.194016 40.644016 48.194969
41.08773 34.935463 47.548248
41.385201 39.539131 48.03392
41.76553 39.633461 47.642818
41.468624 37.617409 47.691299
40.987457 36.877064 47.992767
41.370834 38.347195 47.776379
41.415382 35.689495 47.421116
41.596622 40.634014 47.745033
41.46962 40.604706 47.774467
40.807343 40.238556 48.244888
41.485256 35.118759 47.777073
41.253033 40.513145 48.244869
41.384136 35.256561 47.494247
40.91983 40.8675 48.295105
41.613617 35.074692 47.772461
41.401043 37.005341 47.644791
41.01947 40.627884 47.88517
41.663784 36.955635 47.530632
41.68557 36.759644 47.471901
41.182461 36.603233 47.643902
40.901711 36.299267 47.694427
41.485882 39.854397 48.025131
41.476555 36.515549 47.543751
41.280834 40.72929 47.830185
40.943966 41.002163 48.112068
41.19556 40.250145 48.142067
40.988003 33.806702 47.497742
41.786789 41.135418 47.746426
41.710136 35.983009 47.442924
41.087349 39.198963 48.097897
41.479153 38.083588 48.009247
41.187214 37.650982 47.716236
41.195095 39.079655 47.74334
40.887146 34.954056 47.604065
40.701771 36.544838 47.813942
41.831844 38.945885 47.541561
41.699257 36.962166 47.54842
41.4958 40.668407 47.771336
40.697056 39.868156 47.915253
41.504738 38.919559 47.679314
41.594292 36.225121 47.493649
40.789742 36.302723 47.718826
40.628071 34.400841 47.627472
40.894821 39.412224 47.930912
40.795929 33.718296 47.600468
41.090614 37.703884 47.68808
41.575932 34.557632 47.363228
41.279793 36.994736 47.668736
41.389198 39.42812 47.82132
41.075451 35.380424 47.558582
41.300358 37.747837 47.952747
40.933193 37.723591 47.689484
40.97419 36.615921 47.949711
41.761967 38.605808 47.946037
41.625042 40.678532 47.751583
41.189983 36.876881 47.951305
41.369312 35.840935 47.862972
40.791805 35.469368 47.662479
41.794071 40.31852 47.659161
41.196976 35.964958 47.861469
41.884792 39.283051 48.000923
40.798046 39.199207 47.931709
41.580948 38.183479 47.625015
40.890011 35.344566 47.654064
41.333782 39.464352 48.140629
41.20459 36.659382 47.595604
41.199577 37.216484 47.946415
41.423122 34.836029 47.358906
41.598186 34.999973 47.754047
40.703262 39.19696 47.970058
41.19875 38.627148 47.746311
40.891281 37.304398 48.042957
40.898388 36.585358 47.758389
40.864716 36.621979 47.974297
41.188496 35.21756 47.600548
41.290989 34.097328 47.68483
41.287022 35.439175 47.593842
41.087208 35.437927 47.617878
41.734264 39.80125 47.987133
40.684837 40.6968 47.978992
41.785461 38.757225 47.990597
41.068176 40.410217 47.864525
41.693764 39.602962 48.061127
40.716339 35.015411 47.945004
40.983219 36.032337 47.707077
40.806171 36.030285 47.775505
41.296185 36.505165 47.59573
40.686687 34.71666 47.926323
41.216667 40.210236 47.859215
41.387226 40.721508 48.189137
42.07209 39.557751 48.018654
40.768932 40.649906 47.936665
41.291321 40.249149 48.121162
41.609615 35.268032 47.4067
40.809311 36.251465 47.995384
41.192249 40.800171 48.090305
41.278774 34.953194 47.493351
41.750256 38.376202 48.004997
41.407379 39.75399 48.037704
41.002167 39.498634 48.171909
42.179222 39.70134 48.012074
41.091545 39.497597 48.143703
40.93951 36.106125 47.617081
41.495281 40.369129 48.063885
40.911156 38.2258 48.111702
40.969772 35.821434 47.584305
40.641693 36.132523 48.071701
40.700096 34.599953 47.91301
41.658642 34.654026 47.366821
41.580032 35.1679 47.419163
40.992012 39.112881 48.114132
40.914261 39.123581 48.130741
41.461048 40.76852 47.870819
40.876381 39.638145 48.199543
41.281521 35.866631 47.578201
41.730164 36.388042 47.413654
41.492546 39.197216 48.037025
41.584713 39.160385 48.058426
41.09621 36.199112 47.616497
40.765034 36.106823 47.962193
40.817291 37.995529 48.131435
41.681728 38.926235 47.627277
41.479485 36.081707 47.521675
41.473232 37.094978 47.909416
41.880474 37.029316 47.824734
41.800137 38.975872 47.97908
41.293472 40.558372 48.145947
41.292187 38.666229 48.031429
40.906216 39.455448 47.89558
41.028221 37.725101 47.674332
40.802345 34.74934 47.80246
41.102783 37.941914 47.989124
41.571617 35.36834 47.422527
41.38187 40.646988 48.160545
40.976791 36.255138 47.710922
41.288853 39.224472 48.028301
41.202446 34.996391 47.461147
41.356262 40.669411 47.945824
40.777664 37.783062 48.135162
41.46003 40.461666 47.839054
41.383034 36.295357 47.572815
41.014423 35.213902 47.64212
41.004814 40.017136 47.948803
41.0825 36.735729 47.645092
41.073711 33.951073 47.44635
41.575245 36.717579 47.536064
40.690926 34.831791 47.905769
41.083519 38.43932 47.843067
41.566597 40.682453 47.824463
41.015877 40.100174 47.990662
41.703579 37.032459 47.906338
41.289906 35.829338 47.501133
41.184307 40.461029 47.919903
41.298115 38.744598 47.81414
41.00415 34.552982 47.531078
41.492001 39.569111 48.076939
41.587044 38.486385 47.941647
41.486122 36.142136 47.862358
41.199493 40.363991 48.133106
41.452911 33.396179 47.346451
41.398388 40.717552 47.812489
40.792564 36.430847 48.04295
40.777016 32.927753 47.511635
41.389954 35.563137 47.530464
41.019283 39.062489 48.141548
40.900631 39.31424 47.912479
41.671974 37.572826 47.938217
41.680191 36.291424 47.469028
41.496548 37.472988 47.579342
40.997543 35.336376 47.621456
41.594044 40.111111 48.106853
41.189129 35.90667 47.563194
41.202457 37.012268 47.935783
41.400646 40.456062 47.867786
40.89566 32.864872 47.616238
40.783119 39.29871 47.933086
41.196434 38.919018 47.782745
41.285915 38.910484 47.754333
40.59631 34.608849 47.932495
41.479328 39.620335 48.040047
41.117794 35.532806 47.491734
41.778885 37.048813 47.895317
40.874069 35.189831 47.676697
41.410454 38.934391 47.714268
41.381397 38.734688 47.658295
40.67939 37.816174 48.149139
41.823792 36.723595 47.374474
41.199245 37.657967 47.626423
41.46772 38.737328 47.65797
41.058632 38.569981 47.970203
41.431458 35.533394 47.46962
41.196674 37.48262 47.641373
40.902317 38.82563 47.981647
41.582508 33.929916 47.310719
41.589401 35.528522 47.433868
40.791092 36.930851 47.98914
40.795361 33.674187 47.550064
41.689774 37.307426 47.898815
41.489574 37.619751 47.935474
40.990139 39.626007 48.13842
41.195324 39.844292 48.102234
41.141338 36.340939 47.919209
41.655769 34.537445 47.342621
40.617355 38.960167 47.869968
40.891304 40.898384 48.005905
41.686916 38.151691 47.955933
40.892048 39.710899 47.951057
40.853558 39.375004 48.033718
41.39822 40.777149 47.909489
40.789253 35.994846 47.68222
41.118744 35.22076 47.805332
41.08968 35.991096 47.614922
41.581757 37.003784 47.889259
40.779995 40.769932 47.962357
41.197891 35.431942 47.602283
41.39423 38.136253 47.984447
41.298035 39.631092 48.071301
41.277004 37.725033 47.859238
41.19381 37.739967 47.966015
41.004066 35.530476 47.562618
41.288513 34.549965 47.436432
41.616405 38.683483 47.597385
40.892399 37.324749 47.804283
41.389168 35.82053 47.494831
41.226948 38.526386 47.700291
40.998867 37.968235 48.038609
40.856201 37.982681 48.076946
40.99231 36.769436 47.74786
40.995102 37.131111 47.999569
41.488056 35.548229 47.490261
41.751957 38.338005 47.984283
41.590809 37.832062 47.935276
40.763504 40.400398 47.913055
40.850304 36.13023 47.939159
41.497288 33.852089 47.31662
41.000347 37.745262 47.77615
41.709965 38.566338 47.568882
40.895226 37.523746 47.79493
41.199703 37.568146 47.67955
40.689209 33.171967 47.812859
40.946785 39.289803 47.809574
41.001698 40.359783 47.956478
40.864407 36.856293 47.641972
41.809715 38.965405 47.591824
40.996334 34.938366 47.5835
40.993343 40.818619 47.917007
40.902466 38.532436 47.943111
41.600368 38.724686 47.646782
40.709812 38.372856 47.907959
41.182594 36.085182 47.609497
41.098938 36.797832 47.944988
41.500107 34.633186 47.409248
41.309582 38.349228 47.756691
40.990864 38.70126 47.830467
40.592686 38.376949 47.923817
40.905067 38.906948 47.847935
41.195259 33.726864 47.412037
40.665337 38.726658 48.268436
41.38905 38.885193 48.02243
41.002605 36.179054 47.677902
41.678833 33.504349 47.271175
41.265854 36.348537 47.691761
40.898857 38.875881 48.127052
41.011482 36.151981 47.960915
41.292522 36.335972 47.531933
40.894821 39.345345 48.150013
40.987591 37.870163 47.767879
41.804089 39.577988 47.642017
41.287846 37.450573 47.678894
41.104202 36.358379 47.889637
41.118164 39.624981 48.095352
41.676693 35.060181 47.381126
41.202412 36.394466 47.874317
41.691849 35.094173 47.765831
41.487221 37.537838 47.656853
40.811329 33.498524 47.513954
41.492863 34.774319 47.398315
41.379986 40.929409 47.802002
41.005985 34.823284 47.586739
40.790859 37.422501 47.796478
41.298889 40.090805 47.906906
40.693157 36.891094 47.798275
41.386585 36.398121 47.848911
41.482712 34.545235 47.385612
40.798363 39.616924 47.966717
40.899677 33.675629 47.524128
41.00246 40.101524 47.859322
41.005119 33.154179 47.69717
41.011688 35.499969 47.66238
41.796265 39.590973 48.049313
41.079277 40.163235 47.868008
41.481007 39.711365 48.065601
41.378601 36.619598 47.594799
41.347752 37.262501 47.973732
40.785957 35.376049 47.636669
40.901245 38.573132 47.867149
41.401295 38.343277 48.043098
41.153183 36.25148 47.673733
41.389809 33.813606 47.369595
41.185417 33.763084 47.487228
41.169937 33.756683 47.704674
41.081593 38.532215 47.739189
41.298157 36.79472 47.910736
41.089062 32.892609 47.597439
41.008217 36.726078 47.872013
40.990189 37.142982 47.948753
41.077671 38.002674 47.69149
40.683327 40.376938 47.983372
41.09201 37.905884 47.826942
40.752804 35.950916 47.871731
41.369911 38.112305 47.606983
40.684814 36.53928 47.667442
41.198566 36.777008 47.928349
41.077278 37.783001 47.694321
41.449196 35.425308 47.4006
41.800671 38.10487 47.951077
40.905289 37.776817 47.743263
41.479416 39.979652 48.13496
41.596027 38.524712 47.624664
41.403061 40.107662 48.131668
41.004173 34.079678 47.559086
41.658958 38.989132 47.622665
41.103531 33.177395 47.666977
41.200787 39.930653 48.116306
41.100342 40.095448 47.952587
41.190041 37.868912 47.721638
40.792278 39.661602 48.086548
40.778023 39.216015 47.896103
41.180595 39.626598 47.860157
40.679688 40.229992 48.32756
41.580036 37.558586 47.583702
41.286572 39.099102 48.043156
41.19548 39.104321 48.06012
41.401131 36.470608 47.630417
41.402458 37.406326 47.943737
41.683773 35.938969 47.791107
40.923656 39.276291 48.185928
40.909874 39.003689 48.084419
41.005753 33.510162 47.455688
41.377026 39.500984 48.0756
41.48399 39.491543 48.074696
40.889793 37.865135 47.790073
40.899757 35.159885 47.599186
41.097282 35.156605 47.552692
40.710892 37.875351 47.809792
41.291702 37.868065 47.691811
41.302166 34.502651 47.747643
40.679111 39.579708 48.004135
41.828354 37.311005 47.853954
41.29493 39.636166 47.831028
41.175663 33.595112 47.681995
41.506493 35.094437 47.4272
41.817539 40.269588 48.093121
40.775894 37.866764 47.808769
42.090992 39.79314 47.97543
41.909252 39.804741 48.012192
42.171967 39.76292 47.959396
41.819519 36.696377 47.397243
41.582024 35.957123 47.815437
41.479343 35.373123 47.45274
41.286411 40.666683 48.135769
41.301327 38.488831 47.743847
40.611958 36.653305 47.692841
41.392902 38.057735 47.969921
41.293957 36.262901 47.643078
41.365681 33.022736 47.28643
41.48431 35.257767 47.469639
41.188606 33.071251 47.401104
41.207031 35.570713 47.694393
41.588482 35.927128 47.467171
41.265137 35.811531 47.865532
41.572041 38.907341 47.648117
41.500076 38.547138 48.033363
41.48801 35.911259 47.486385
41.285934 34.200977 47.455769
40.892998 33.383987 47.45076
40.89925 37.450539 47.773964
40.834625 35.694386 47.579693
40.804295 37.340263 47.778214
40.896255 37.345909 47.75169
41.117661 39.587444 48.148129
40.926765 36.785988 47.983471
41.396378 37.748692 47.937111
40.718056 34.708164 47.627312
41.384548 33.411522 47.322769
40.89035 35.840614 47.969116
41.388771 36.133389 47.884014
41.488014 37.250656 47.574875
41.556564 40.473751 47.739521
41.199207 39.230362 47.812344
41.131962 35.929565 47.461548
41.564991 36.439426 47.506256
41.878269 39.573608 48.007492
41.967335 37.056885 47.873306
41.731777 39.001125 47.625
41.101025 36.036518 47.535389
41.614159 40.159473 47.717674
41.608536 33.414734 47.261993
41.077347 36.040215 47.915737
41.492912 39.369228 48.085888
41.496216 36.423504 47.507282
41.528152 36.878532 47.519791
41.092979 37.346138 47.708736
41.198872 38.460358 48.048271
41.030155 38.074333 48.046391
41.19696 38.047062 47.994408
40.689606 38.479862 47.890331
41.09325 38.062572 48.023888
41.179916 37.523804 47.723068
41.099018 37.226505 47.717953
40.983627 40.947075 48.302643
40.989784 38.70771 48.205307
41.668243 38.940166 48.008499
41.492519 35.294876 47.431591
41.738991 38.662777 47.555305
41.48658 39.105774 48.005531
41.046158 40.117855 47.853752
40.887226 39.831589 47.951221
41.301991 34.396301 47.745419
40.778763 39.037598 48.123543
41.390244 39.031422 48.007111
41.017673 39.946583 48.17318
41.386963 37.840797 47.954777
41.7061 38.863701 48.028366
40.910809 34.42506 47.844646
41.501247 34.380505 47.724743
40.6875 39.153061 48.270428
41.089584 40.237617 48.179775
41.191612 37.842468 47.988483
40.819511 40.516502 48.312931
41.598392 39.268879 47.642796
41.198704 36.070679 47.894993
41.471577 38.138817 47.973042
41.765362 37.824383 47.919605
40.577156 36.709003 47.799595
40.624504 37.200413 48.111511
41.302155 36.61544 47.876488
41.188896 38.885609 47.813206
40.991554 36.698383 47.714378
41.551048 40.281677 47.701893
40.789696 36.690735 47.781353
41.189545 39.536152 47.847698
40.854931 37.479763 47.869225
41.291092 39.531597 47.82235
41.292316 34.735363 47.487331
