# .PCD v0.7 - Point Cloud Data file format
VERSION 0.7
FIELDS x y z
SIZE 4 4 4
TYPE F F F
COUNT 1 1 1
WIDTH 698
HEIGHT 1
VIEWPOINT 0 0 0 1 0 0 0
POINTS 698
DATA ascii
47.924545 15.499828 -58.261948
48.72681 16.76494 -58.265411
47.778229 15.919051 -58.019222
48.03754 16.709126 -58.292233
47.410099 15.638865 -58.208679
48.066364 16.787771 -58.359386
47.438774 15.755219 -58.096256
47.407951 15.51805 -58.193748
47.451756 15.583764 -58.085114
47.437572 15.384129 -58.141785
47.405735 15.621295 -58.083786
47.918671 15.489189 -58.155666
47.309029 15.713513 -58.053066
47.337215 15.601285 -58.076527
47.235821 15.743402 -58.157337
47.544342 15.241698 -58.242397
48.543854 15.561728 -58.083599
47.360199 15.572578 -58.018738
47.386551 15.6996 -58.067101
49.233841 15.536112 -58.189255
48.395908 15.718389 -58.062431
49.285988 16.803764 -58.250568
49.355453 15.693309 -58.103973
49.003262 16.498297 -58.200184
48.896248 16.015299 -58.296509
47.784855 15.630265 -58.097179
48.894142 16.894386 -58.322647
48.499527 15.19218 -58.12336
48.533787 15.3893 -58.2766
48.987843 16.894375 -58.3969
47.60564 15.195429 -58.19627
48.886822 15.704063 -58.146542
48.516792 15.851624 -58.105366
47.603893 16.736845 -58.422287
47.615265 16.69586 -58.423203
48.795158 15.702794 -58.151009
48.764591 16.907814 -58.338638
48.622158 16.995943 -58.361168
48.642776 16.768015 -58.374287
47.948475 16.571184 -58.366817
49.083931 15.654718 -58.134075
49.276005 15.675849 -58.135998
48.377888 15.863148 -58.062424
48.657478 15.411304 -58.159554
48.222275 15.818125 -58.28252
48.089199 15.813085 -58.053062
47.98893 15.641775 -58.090572
47.869572 15.258989 -58.126503
47.774761 15.461452 -58.040752
47.504719 15.744876 -58.185215
47.52018 15.996138 -58.094368
47.829739 15.791318 -58.053818
48.567307 16.256254 -58.329048
48.605442 16.684208 -58.275982
47.521214 15.844657 -58.067345
47.523067 15.786964 -58.059883
48.720551 15.696106 -58.165951
47.477394 15.68523 -58.051113
47.600307 15.77723 -58.066429
48.193062 16.175968 -58.248127
48.651367 16.894241 -58.324112
47.600735 15.602607 -58.10754
47.973389 15.816119 -58.052429
47.650524 15.789675 -58.062729
47.783306 15.527135 -58.075886
47.69183 15.832677 -58.227036
47.600632 16.004955 -58.095284
47.701241 16.007919 -58.098347
48.033649 16.060526 -58.298462
48.679882 16.908487 -58.34412
48.486271 16.918961 -58.390144
47.602596 15.710158 -58.060097
47.71117 15.258634 -58.117085
47.783428 15.757129 -58.257996
48.498482 16.772305 -58.394207
48.188049 16.456978 -58.266232
47.886856 15.783293 -58.060261
48.517876 16.843245 -58.366634
47.880142 15.711094 -58.052303
48.291424 16.46344 -58.246204
48.2929 16.387131 -58.262798
48.830112 16.238581 -58.210175
48.620754 16.458113 -58.254284
48.19809 16.05265 -58.082481
48.768539 16.678175 -58.270187
48.199188 15.767811 -58.060097
49.003719 16.904427 -58.339577
48.493992 16.399658 -58.259197
48.964611 16.856882 -58.313496
47.961727 15.99568 -58.09441
48.871574 16.62005 -58.294666
48.154873 16.091913 -58.113171
49.207649 16.915821 -58.33844
48.564686 16.237974 -58.220695
49.080837 15.971407 -58.228424
49.069973 16.056206 -58.241062
48.584572 15.400866 -58.147217
48.591953 15.719943 -58.123749
49.176895 16.797722 -58.291389
49.186687 16.72002 -58.287853
48.780476 16.163902 -58.235657
48.307346 16.162849 -58.109241
48.867645 15.35948 -58.132217
49.121292 16.58045 -58.297684
49.195007 16.273479 -58.248779
49.319637 15.556201 -58.166565
48.847771 15.16155 -58.184029
48.961159 16.082836 -58.220444
48.811523 15.232158 -58.228115
49.268703 15.493246 -58.241123
49.117184 16.493139 -58.206062
48.687523 16.060823 -58.094246
48.990189 16.160212 -58.180779
48.88435 15.419163 -58.120312
49.367653 15.651839 -58.114735
49.051849 15.690905 -58.126896
49.162609 16.483179 -58.224136
48.822109 15.392456 -58.132511
48.914093 16.044954 -58.237858
49.05106 16.140589 -58.257107
49.234344 15.592919 -58.223213
48.927383 15.185574 -58.186275
49.09483 16.430546 -58.294647
48.641911 16.012068 -58.17416
48.464424 16.060421 -58.156975
48.985928 15.298916 -58.15274
49.171562 15.80022 -58.254692
49.382729 16.810465 -58.368309
48.968597 16.211412 -58.287003
49.323887 15.563593 -58.223301
49.303913 15.654057 -58.204056
48.698746 15.264567 -58.220245
48.800594 15.329566 -58.211906
48.991749 16.302448 -58.276726
48.970699 16.58057 -58.303402
48.848236 16.371756 -58.275284
49.22887 15.630255 -58.235245
49.004642 15.619053 -58.162342
48.686764 15.329403 -58.167145
49.016026 15.578956 -58.234974
48.693871 15.364139 -58.196308
49.130905 16.855352 -58.346199
48.294823 15.829309 -58.115467
48.670689 16.401815 -58.264679
47.707279 15.232762 -58.286175
48.905788 16.517628 -58.30463
48.901299 16.280331 -58.247211
48.971584 16.104967 -58.262856
48.796532 16.612982 -58.284786
48.397385 16.389526 -58.271671
48.78949 16.534718 -58.291607
47.710518 15.62913 -58.10297
48.993534 15.964264 -58.224632
48.694088 16.143967 -58.227417
48.387596 15.39397 -58.153698
48.501183 16.17177 -58.239868
47.608913 15.725792 -58.129158
47.707355 15.644345 -58.152378
48.480824 15.790033 -58.28828
48.780346 15.509507 -58.271385
47.789337 15.640556 -58.163811
48.098389 15.993823 -58.102432
48.290703 15.73602 -58.118416
48.781414 16.361673 -58.244438
48.697491 16.608725 -58.284264
48.793919 16.285309 -58.262875
48.102398 16.111778 -58.109791
48.007301 16.109135 -58.136654
47.785976 15.407931 -58.165333
48.579323 16.140165 -58.235909
48.46666 16.03953 -58.297878
47.777203 15.377789 -58.257919
48.170536 15.826553 -58.128086
48.618431 16.325777 -58.341671
48.172405 15.184429 -58.129742
47.995319 15.649163 -58.239147
47.890301 15.566561 -58.26757
47.88208 15.656726 -58.248489
47.802021 15.696185 -58.056171
47.993523 15.703732 -58.078758
47.881973 16.120127 -58.164391
48.886574 15.953427 -58.233257
48.706272 16.07996 -58.233677
48.40612 16.336668 -58.31221
47.990227 16.134319 -58.203632
47.832409 16.127092 -58.16235
48.602715 16.424231 -58.307178
47.7005 15.830381 -58.089828
48.887753 16.93042 -58.342636
48.087181 16.051725 -58.144753
48.478821 15.391958 -58.144341
48.00948 15.579923 -58.249992
47.807217 15.56031 -58.279522
47.912514 16.143303 -58.209717
48.808315 16.289547 -58.326817
48.887325 15.789469 -58.273312
48.782043 15.794405 -58.267429
48.883442 15.555122 -58.178703
48.402275 16.220232 -58.378155
48.588558 15.353172 -58.202534
48.204613 15.904472 -58.257042
48.591629 16.277464 -58.280888
48.10952 15.8341 -58.124981
47.839249 15.497118 -58.292217
48.687164 16.555584 -58.340023
48.690876 15.967286 -58.256462
48.492016 16.557646 -58.349388
48.899757 16.84388 -58.321438
48.09269 15.716825 -58.13781
48.685215 16.083273 -58.304417
48.702045 16.003288 -58.298973
48.092697 15.577653 -58.242401
48.306061 16.156496 -58.245377
48.583965 16.642288 -58.331482
48.897049 15.641179 -58.157074
48.587292 15.238236 -58.301331
48.494308 15.255441 -58.25869
48.691895 15.79071 -58.266396
48.769604 15.981988 -58.304768
48.294086 16.553751 -58.353477
48.497082 15.133981 -58.300026
47.789913 15.726147 -58.12859
48.403744 15.572759 -58.238789
48.78685 15.663111 -58.221081
48.816345 16.773794 -58.380917
48.208904 15.3531 -58.206825
47.798481 16.071354 -58.208538
47.682671 15.293724 -58.156506
47.702179 15.69303 -58.05529
47.597908 16.036825 -58.157188
48.20031 15.654989 -58.230015
48.395306 16.204037 -58.269222
48.478165 15.349716 -58.201466
48.790249 15.96 -58.240482
48.90464 15.878016 -58.254238
47.895344 15.6217 -58.104443
48.797379 16.863184 -58.363506
47.899628 15.725867 -58.130878
47.894085 15.830427 -58.113522
48.190109 15.578784 -58.244213
48.399998 15.759723 -58.225857
48.132854 16.067484 -58.298088
47.807156 15.987656 -58.247391
48.712547 16.773233 -58.38451
48.68861 15.550197 -58.178982
47.570633 15.301686 -58.176979
48.59914 15.758433 -58.226986
48.695236 15.67393 -58.222363
48.415222 15.251634 -58.25655
48.394463 15.349692 -58.205608
48.400356 16.589434 -58.294888
48.091553 16.137726 -58.215359
48.028633 15.489991 -58.154709
48.196335 15.755618 -58.211761
48.49387 16.599283 -58.304108
48.57769 16.626966 -58.300888
48.791367 15.631516 -58.162994
47.894123 16.041794 -58.150894
48.001373 15.81541 -58.114758
47.792789 15.829156 -58.100105
47.786152 16.013391 -58.095356
47.983044 16.041609 -58.145573
48.300446 16.199478 -58.266426
48.609684 16.824463 -58.333294
47.687309 15.175684 -58.123238
47.669106 15.401659 -58.15369
47.907082 15.313981 -58.170624
48.006844 15.320668 -58.172356
48.001621 15.406942 -58.152908
48.496471 16.075195 -58.248993
48.69516 16.206982 -58.286228
48.794052 15.762923 -58.219475
48.49255 15.32512 -58.157986
48.294132 15.399743 -58.150867
48.494095 15.442987 -58.199036
47.882755 16.008944 -58.262302
47.802124 15.952352 -58.166744
47.987816 15.268902 -58.105675
48.502296 15.618465 -58.172585
48.996288 15.240402 -58.248959
48.206505 15.237963 -58.265823
48.293106 15.320277 -58.16291
48.307964 16.624979 -58.345524
48.607918 15.072752 -58.122467
47.900814 15.210782 -58.177662
47.699997 16.422825 -58.33046
47.437759 15.950884 -58.231407
48.20401 15.532598 -58.200985
47.828251 16.402748 -58.346283
47.324852 15.545672 -58.208931
47.904507 15.632612 -58.165539
47.612576 15.293073 -58.274925
47.708912 16.530615 -58.387081
49.013069 15.244281 -58.151016
47.60181 15.081693 -58.138245
47.198254 16.332375 -58.34761
47.779133 16.695896 -58.292011
48.332867 15.503196 -58.274349
47.606079 15.636966 -58.182178
47.549114 15.422612 -58.180912
47.916237 16.565126 -58.380199
48.176907 16.037909 -58.147209
48.389301 15.320136 -58.159267
47.510387 16.588646 -58.316441
47.316246 15.953177 -58.175278
48.401119 16.429039 -58.314487
48.19952 15.319232 -58.170795
47.703575 15.354862 -58.258381
47.95443 15.459085 -58.313763
48.083511 15.513706 -58.13525
48.692265 15.198987 -58.164459
48.872814 16.416208 -58.329166
48.766018 15.312936 -58.153599
47.698269 15.93012 -58.098808
48.690952 15.576852 -58.242058
48.09605 15.178321 -58.128216
48.976334 16.62767 -58.346386
47.613762 15.817799 -58.100506
48.990242 15.752087 -58.203297
47.581467 16.155254 -58.24942
49.1017 15.651241 -58.228081
48.288815 16.513912 -58.3167
48.299759 15.536212 -58.205044
47.592464 15.912296 -58.103645
47.618984 15.889599 -58.20792
48.21701 16.441357 -58.313095
48.504177 15.760328 -58.225677
49.280361 16.744888 -58.315666
48.689514 15.460271 -58.198254
48.003159 15.215243 -58.179504
48.595909 15.210584 -58.161816
47.401672 15.913802 -58.104095
48.578033 15.131579 -58.192089
47.31506 16.138968 -58.227787
48.194153 15.437262 -58.202183
47.471478 15.140497 -58.232952
48.800865 15.228235 -58.173386
48.103859 15.133285 -58.178913
49.180828 15.636008 -58.163055
49.210445 16.374132 -58.343639
48.889194 16.739058 -58.315224
48.692944 16.427769 -58.304436
47.818253 15.852173 -58.187283
48.098373 15.229807 -58.173946
48.29044 15.449468 -58.206985
47.896404 15.248133 -58.293686
47.806763 15.129824 -58.205132
47.800449 15.213552 -58.19157
49.079235 16.754333 -58.346523
48.402287 15.892419 -58.252731
49.083111 15.878054 -58.235401
47.706146 15.209693 -58.201515
47.551399 16.429308 -58.303425
47.811142 16.156542 -58.213013
48.397354 15.623889 -58.182106
49.163548 16.50456 -58.318935
47.89571 15.855989 -58.181866
48.600498 15.551965 -58.178673
48.792606 15.111875 -58.169758
48.785995 16.420147 -58.312305
47.221363 15.86188 -58.125488
48.787712 15.57443 -58.24551
47.312607 15.623347 -58.18906
49.464329 16.381773 -58.288773
48.198887 15.138209 -58.18045
48.885941 15.560781 -58.233326
48.701283 15.880037 -58.251144
49.371574 16.701313 -58.336025
48.00317 15.85315 -58.188011
48.986729 15.89317 -58.250347
47.690353 15.402835 -58.236263
48.496647 15.887308 -58.2533
48.295601 15.617384 -58.189125
48.093857 15.852215 -58.205296
49.108612 15.786334 -58.277195
47.319897 16.516506 -58.277958
48.48455 15.225668 -58.168545
47.260838 15.58548 -58.278351
47.989422 15.25036 -58.277264
48.297462 15.97692 -58.248787
47.890625 15.130733 -58.192226
49.421856 16.416571 -58.281918
48.308826 16.016823 -58.139778
48.293278 16.301638 -58.369999
47.99395 15.342461 -58.223904
48.210018 16.735491 -58.329918
49.320763 16.30496 -58.287304
48.297359 15.65586 -58.23576
48.611588 15.68712 -58.323605
48.007343 15.447822 -58.203541
47.608093 15.353804 -58.272213
48.495014 15.486463 -58.265266
47.713646 16.278179 -58.248676
48.960926 16.764687 -58.3918
49.121449 15.581017 -58.176579
48.305981 15.891403 -58.256077
47.883465 15.370326 -58.213005
48.474968 16.267654 -58.26955
47.221863 16.416916 -58.284081
48.605556 16.888256 -58.277973
47.802551 15.447529 -58.216114
47.522327 15.442016 -58.193405
48.600456 15.475702 -58.278748
48.592865 15.324476 -58.166225
48.489441 16.441319 -58.314873
49.085777 15.153539 -58.186573
48.40028 16.075144 -58.241417
47.791664 15.915759 -58.103687
48.397789 15.419622 -58.300594
48.592625 15.888828 -58.251259
48.289307 16.437773 -58.309361
47.915833 15.38605 -58.311337
48.093971 15.635591 -58.180466
47.452759 16.510082 -58.274433
48.702148 15.632543 -58.160942
48.003811 15.768055 -58.205215
48.012783 16.262403 -58.229176
48.985432 15.140126 -58.301537
47.614815 15.113856 -58.227913
47.675526 15.119862 -58.193558
48.197853 15.635865 -58.188221
48.398296 15.972678 -58.247417
49.1828 16.659187 -58.333141
48.791916 15.871634 -58.253586
48.004158 15.644881 -58.169674
48.20052 16.274899 -58.277248
48.389729 15.920999 -58.097324
47.584766 16.704182 -58.366474
48.73407 15.961255 -58.073895
48.696442 15.757342 -58.226959
48.292858 16.841089 -58.333286
48.399544 16.278837 -58.268089
48.430229 15.290132 -58.317348
48.103733 15.645317 -58.232769
48.292835 16.277456 -58.280075
48.495689 15.978324 -58.252354
47.507122 15.081076 -58.135448
47.843319 16.811283 -58.36401
47.507828 15.93453 -58.091621
47.940186 16.688677 -58.320835
47.976944 16.749613 -58.297436
48.200356 15.976929 -58.248875
48.686058 16.734858 -58.335983
48.299377 15.353796 -58.214466
47.406708 15.237167 -58.186756
48.80661 16.8318 -58.3363
48.497837 16.513813 -58.310463
48.393982 16.522806 -58.31599
47.892395 15.44226 -58.208668
48.303143 15.564157 -58.246517
48.192047 15.22316 -58.17873
48.103828 15.443496 -58.201138
48.297264 15.228141 -58.169205
48.598335 15.667042 -58.225613
48.033035 15.438209 -58.391018
49.088432 15.16212 -58.274086
49.11348 15.378305 -58.301552
48.102036 15.354534 -58.209637
47.719025 15.711849 -58.136871
48.099255 15.313512 -58.169495
47.821342 16.603088 -58.344139
48.903931 16.158333 -58.2285
48.89349 15.746312 -58.220467
48.59314 15.80362 -58.275517
47.825813 16.716965 -58.316746
48.118973 16.813389 -58.320393
47.58952 16.806025 -58.309334
48.296707 15.759536 -58.222767
48.107922 15.761501 -58.205917
47.331184 15.867985 -58.222672
47.983475 15.911735 -58.091343
48.105461 15.917679 -58.095562
48.498226 15.546803 -58.196472
47.798443 16.478889 -58.265869
48.011429 16.447357 -58.320591
48.901428 15.280851 -58.258396
48.966827 16.736097 -58.320621
48.898445 15.668588 -58.214546
49.076889 16.620747 -58.321533
49.302937 16.662796 -58.329811
47.735771 16.636297 -58.352924
48.146656 15.463944 -58.31319
48.112213 16.567129 -58.359451
47.308712 15.470607 -58.19083
48.168076 16.544159 -58.37167
47.420609 15.799673 -58.133766
48.700722 16.29812 -58.26767
49.075264 15.563402 -58.244778
48.295406 16.739573 -58.34552
48.693359 16.825483 -58.330383
48.409107 16.164593 -58.238628
47.895111 16.446112 -58.292217
47.813824 16.507681 -58.320629
48.192001 15.859139 -58.20612
48.106792 15.530546 -58.20285
48.004036 15.947571 -58.171223
47.297203 15.410787 -58.1684
47.890217 15.912253 -58.102917
48.994404 15.87429 -58.193844
48.400047 15.44834 -58.196014
48.687523 15.851683 -58.216827
48.712204 15.942727 -58.178207
48.791039 15.857305 -58.211384
49.295666 16.49161 -58.281281
48.699543 16.512415 -58.292217
47.681549 16.672066 -58.302475
48.343662 16.682064 -58.291245
47.032993 15.951273 -58.118504
48.099094 15.949555 -58.169937
48.592873 15.854185 -58.220802
48.406628 15.854882 -58.219185
49.095261 15.852152 -58.199989
48.491508 15.941968 -58.192543
47.6049 15.963758 -58.178818
47.460835 15.316812 -58.172916
48.822475 15.91664 -58.200436
48.301884 15.856468 -58.212154
48.498928 15.860167 -58.217869
47.901974 16.014029 -58.088276
49.002144 15.938521 -58.182095
47.275433 16.433781 -58.269363
47.899426 15.953399 -58.166996
47.15353 16.445185 -58.281998
48.098068 16.206116 -58.281956
48.005238 16.528008 -58.31118
48.072155 16.320425 -58.279373
48.139332 16.618713 -58.343258
47.916149 16.261648 -58.269516
48.105312 16.528284 -58.306919
47.796886 16.263603 -58.265728
47.784294 16.393452 -58.303783
47.617237 16.402233 -58.293839
47.716438 16.526932 -58.308193
47.446228 16.400492 -58.258114
48.027912 16.61809 -58.367832
47.375717 16.434013 -58.333218
48.104324 16.443914 -58.335777
48.807919 15.556215 -58.18013
48.219406 15.293214 -58.097404
48.011158 16.270006 -58.272888
48.585609 15.44795 -58.208385
47.425739 16.038483 -58.154465
48.198151 15.469955 -58.309986
48.705612 15.499015 -58.272747
47.903667 15.536489 -58.208973
48.394009 15.537514 -58.201824
48.298855 16.594894 -58.304363
48.6007 16.528358 -58.344875
48.590317 16.747618 -58.334003
48.198479 16.629108 -58.350235
48.98666 16.480534 -58.302444
48.191921 15.930278 -58.089188
47.7295 16.469017 -58.261719
47.608349 16.077105 -58.229687
47.400055 15.180259 -58.150265
47.902138 16.610672 -58.318222
47.741795 15.390194 -58.331623
48.020592 15.980208 -58.249771
48.016148 16.576027 -58.307072
48.40205 16.79855 -58.331177
47.796181 16.049368 -58.155891
47.698486 16.053513 -58.147789
48.410843 16.630194 -58.336357
48.503075 16.730953 -58.335388
48.614799 15.618306 -58.164356
48.970867 15.570633 -58.188919
48.197384 16.206461 -58.280609
49.153275 15.856202 -58.340755
48.500099 16.107983 -58.292236
48.598198 15.573924 -58.239666
48.906879 15.863467 -58.208649
48.495312 16.638948 -58.335812
48.293106 15.94233 -58.183239
48.797096 16.555586 -58.361401
48.795727 16.632607 -58.330009
48.391689 16.562664 -58.365795
48.201115 16.066042 -58.24527
48.784302 16.215792 -58.28083
48.594345 16.073339 -58.244751
48.892727 16.642626 -58.325821
48.814976 15.427963 -58.189636
49.064629 16.347189 -58.294735
49.21431 16.860098 -58.384552
48.785984 16.738897 -58.334938
48.483227 15.736261 -58.150898
49.351242 15.704659 -58.177799
49.031307 16.911428 -58.309978
48.676338 16.330437 -58.315845
48.904022 15.351031 -58.21357
48.782757 16.06142 -58.237297
49.104618 15.758855 -58.2024
48.407425 15.731317 -58.142918
49.094147 16.541496 -58.31049
49.201134 15.781141 -58.202431
48.917801 16.089308 -58.278469
49.379887 15.534734 -58.185925
48.899067 16.206827 -58.265099
48.595074 15.951653 -58.175201
48.794273 16.092894 -58.290924
49.017063 16.412821 -58.289604
49.086704 16.207838 -58.277813
48.597794 16.203316 -58.27565
48.591759 16.517595 -58.310204
48.188896 15.946969 -58.179581
48.576298 15.15547 -58.295174
48.60355 16.394484 -58.25338
48.597034 16.098902 -58.289364
49.108238 16.295872 -58.279015
47.998947 16.50495 -58.256649
48.763577 16.891829 -58.320805
47.516567 16.265108 -58.272232
47.342838 16.300125 -58.265205
48.534603 16.832888 -58.331749
48.440945 15.366687 -58.332981
48.886051 15.94278 -58.194099
48.408405 16.709215 -58.327221
48.18803 16.510839 -58.308708
48.190445 16.586349 -58.303837
47.984692 16.085213 -58.203506
48.216049 16.809273 -58.328266
47.919884 16.454134 -58.27412
47.697987 16.405432 -58.277348
48.999645 15.429898 -58.190208
47.694183 15.947238 -58.16914
48.118622 16.377069 -58.264923
48.078766 16.576288 -58.302216
47.380901 16.009886 -58.109928
47.223289 15.991454 -58.108746
47.896126 16.406563 -58.285561
47.230354 16.129982 -58.226536
47.576717 16.274277 -58.261532
47.596764 16.58493 -58.296928
47.716782 15.565696 -58.204948
47.21674 16.06325 -58.186108
48.004196 15.536954 -58.197472
47.301548 16.046103 -58.103935
48.500813 15.564049 -58.241096
48.203388 16.399485 -58.268929
47.277512 16.081762 -58.113052
47.541439 16.412607 -58.337986
47.209892 15.932673 -58.106003
48.09993 16.078087 -58.239521
47.695316 16.137695 -58.164009
48.497459 16.312759 -58.333893
47.763054 16.570036 -58.291817
47.540638 16.422197 -58.303047
47.904633 15.40551 -58.151703
47.81752 15.319413 -58.174404
47.153481 15.430576 -58.158867
47.169838 15.495096 -58.175064
47.312923 15.920736 -58.117985
47.504627 15.383614 -58.178474
47.556446 15.5305 -58.189388
46.969006 16.084124 -58.075104
47.502007 16.681173 -58.29248
47.518032 16.815498 -58.310329
48.921253 15.446247 -58.195545
47.382595 16.486666 -58.290936
47.335175 16.549528 -58.314789
47.8978 15.758745 -58.205429
47.514767 15.553983 -58.183151
47.118847 16.043158 -58.145576
47.088467 16.12529 -58.136799
47.806477 15.524321 -58.217064
47.722637 16.765572 -58.338123
47.587128 16.512966 -58.315292
48.223293 16.10458 -58.298801
47.901474 16.523676 -58.30822
47.493782 15.979205 -58.153553
47.217312 15.629685 -58.195118
47.61742 15.182393 -58.121277
47.221786 16.41782 -58.175438
47.640358 15.508562 -58.056789
47.509697 16.03084 -58.130726
48.401905 15.656361 -58.225143
48.500954 15.656175 -58.22892
48.492939 16.197084 -58.276337
48.607597 16.86224 -58.363804
48.099754 15.971085 -58.260933
48.789108 15.70566 -58.307014
48.309128 16.072491 -58.251896
48.708668 16.639652 -58.345089
48.985207 15.680102 -58.216431
48.307838 16.097824 -58.294693
48.890045 16.855141 -58.363953
49.102993 15.440227 -58.200401
48.887035 16.789165 -58.37862
48.686546 16.86566 -58.358101
48.199085 15.407307 -58.156166
48.990555 15.332663 -58.196636
48.401825 15.934737 -58.188347
48.198135 15.721203 -58.169334
47.899399 16.087776 -58.211647
47.98753 15.732996 -58.141148
48.097889 15.411459 -58.158722
48.313316 15.253037 -58.246803
47.601585 16.093851 -58.139568
48.115791 16.454258 -58.261078
