# .PCD v0.7 - Point Cloud Data file format
VERSION 0.7
FIELDS x y z
SIZE 4 4 4
TYPE F F F
COUNT 1 1 1
WIDTH 1467
HEIGHT 1
VIEWPOINT 0 0 0 1 0 0 0
POINTS 1467
DATA ascii
-9.4048624 0.24581625 -3.3125963
-8.8036556 0.67652166 -3.2136259
-8.8155384 0.32135805 -3.2621858
-6.1269517 -0.49569756 -3.232039
-12.397435 -0.40271077 -3.7324853
-8.2375078 -3.7860534 -3.3228965
-8.2408533 -3.6619396 -3.3314984
-8.2186527 -3.5632951 -3.3113797
-8.0084009 -3.4379177 -3.3123062
-8.1374102 -3.3525538 -3.308408
-8.7301846 -3.0198784 -3.3579593
-8.7571363 -2.9290824 -3.3222392
-8.2305956 -2.3255458 -3.2542896
-8.1359396 -1.3259704 -3.230747
-8.0525064 -1.190465 -3.2294114
-8.1376572 -1.1116617 -3.2296271
-7.2350249 0.7248463 -3.1689918
-7.1349692 1.2312877 -3.0513954
-6.2383199 1.8037804 -3.0677834
-8.9437428 0.27079451 -3.2845428
-8.3303785 -3.7773991 -3.3325977
-8.1656456 -2.8522205 -3.2447245
-8.5394201 -2.0569205 -3.2788062
-8.1429472 -1.7424293 -3.255173
-7.3633795 1.6918207 -3.066164
-6.7470942 2.1036525 -3.0591328
-8.6365223 0.94681674 -3.3052046
-8.3387451 -3.4312706 -3.3513587
-8.3377914 -3.4262197 -3.5479701
-8.3312426 -2.4953997 -3.2891119
-8.3349056 -2.3303111 -3.2638373
-8.2366228 -1.7297646 -3.2654366
-8.717947 -1.4870439 -3.2664418
-8.1338387 -1.4240324 -3.2333257
-9.2037716 0.59800136 -3.2803686
-9.0505247 0.49386454 -3.4678831
-9.6594448 0.4972581 -3.3338039
-8.4321957 -3.7978575 -3.3450541
-8.1378689 -3.6701519 -3.32253
-8.2344131 -3.4444075 -3.3332074
-7.2397041 1.037071 -3.109031
-7.2597895 1.8343779 -3.0425906
-8.9298391 0.094987959 -3.3497369
-8.027523 -3.5632389 -3.2860568
-8.4333172 -2.4045136 -3.2873797
-8.4279718 -2.2669086 -3.2988412
-7.5898328 -2.2699184 -3.589915
-9.3701849 -3.2480195 -3.6676872
-9.231514 -3.2108798 -3.4708297
-9.2301283 -3.4305267 -3.4570723
-9.4316511 0.1081444 -3.5461457
-9.3308277 0.49252054 -3.4877841
-8.9205494 -3.5754409 -3.3625894
-8.5209465 -3.4408481 -3.3734298
-8.5350618 -2.9384482 -3.316453
-8.0237751 -1.4733163 -3.2000358
-8.026186 -0.90050727 -3.2121289
-7.1184559 1.7897006 -3.1441176
-7.1389012 1.8912592 -3.0886328
-7.1475725 2.6406839 -3.111814
-9.6500206 -3.2343609 -3.6935496
-9.5766697 -3.469981 -3.459666
-5.9546394 -4.1543365 -3.0839624
-9.0308237 -3.5942812 -3.3949318
-8.5396566 -2.6397195 -3.3017642
-8.6207933 -2.3971746 -3.3129294
-8.3307362 -1.7479146 -3.2796314
-7.4164028 -0.019923182 -3.1353831
-7.5308299 1.9848275 -3.0608995
-9.5279369 -3.2503195 -3.6637361
-9.485754 -3.1737773 -3.4973032
-9.4431362 -3.4554315 -3.4649801
-9.1339788 -3.9277971 -3.3769038
-8.8662052 -3.7435355 -3.3485742
-9.0336857 -3.3570116 -3.4034691
-8.9563799 -3.2530537 -3.3418128
-8.7922306 -3.1603842 -3.3241756
-8.6263609 -3.0133715 -3.3492873
-8.6141911 -2.8669369 -3.3013873
-9.013483 -2.8292177 -3.321012
-9.0515394 -2.4384201 -3.3201752
-8.7326841 -2.2716279 -3.3348217
-8.6228781 -2.1873012 -3.3010895
-8.4454498 -1.7650272 -3.2563753
-8.1570215 -1.4842547 -3.2276158
-7.4461322 1.7760222 -3.058152
-8.1069918 1.732087 -3.1388228
-7.5216203 1.8901595 -3.0783994
-7.6377091 1.9961354 -3.0802784
-9.4317884 -3.2218781 -3.6703067
-9.6132469 -3.4209919 -3.4734218
-6.8234019 0.55379122 -3.0083106
-9.1263952 -3.6636262 -3.4302971
-8.0449343 -3.2199259 -3.3834717
-9.1260891 -3.2694991 -3.3631532
-8.7208347 -3.1911054 -3.3334646
-8.6014252 -2.9383235 -3.3313465
-8.2252083 -1.5012044 -3.2883267
-7.5065694 -0.045217182 -3.1314032
-7.3427377 0.7252807 -3.1642015
-7.6251707 -0.6701746 -3.2369082
-8.1378012 -3.4538071 -3.3484354
-7.5332122 1.6510104 -3.0749068
-7.6356797 1.8808744 -3.1137192
-10.24037 -2.9118876 -3.7139795
-10.211948 -3.2252481 -3.7186549
-9.7945671 -3.2171493 -3.6796265
-9.8501377 -3.4016201 -3.4899065
-8.1294165 -2.8966794 -3.3300679
-8.6389036 -2.9053643 -3.3817904
-8.41576 -1.2317261 -3.2228494
-7.8306756 1.2522784 -3.120929
-7.3729615 1.5039116 -3.0844147
-7.4420457 1.696116 -3.0601056
-10.227812 -3.0231073 -3.7422829
-10.285093 -3.019392 -3.5200601
-9.9020271 -3.2136576 -3.4981382
-8.6252403 -3.7457275 -3.4015236
-7.725563 -1.5162925 -3.2840254
-8.0239325 -0.65889561 -3.2319181
-7.847611 1.7508553 -3.1038077
-7.7188377 1.7444556 -3.088161
-7.8298025 1.9678345 -3.0993688
-9.0324745 -3.7324259 -3.4589407
-8.1397619 -3.7748215 -3.3039861
-7.6328688 -3.7894299 -3.2560201
-8.828495 -3.4390943 -3.4325891
-7.7360463 -3.5768476 -3.2465787
-9.274435 -3.0404007 -3.4230473
-9.2373219 -2.8936338 -3.4479728
-8.8273602 -2.9025559 -3.4139433
-7.9346304 -3.0204535 -3.2619655
-8.8344517 -2.793849 -3.3775384
-7.8187394 -2.8878691 -3.3082452
-8.0293016 -2.3553948 -3.3321335
-8.5303307 -1.7389624 -3.3049388
-7.7227969 1.237722 -3.1106689
-10.360346 -3.0254412 -3.772094
-10.051355 -3.471451 -3.5402484
-7.8321686 -3.7872572 -3.2785378
-8.8204679 -3.5636613 -3.3870678
-8.935111 -3.4366734 -3.4408271
-7.832171 -3.5863025 -3.2709172
-8.7392597 -3.2187946 -3.4316876
-8.8495607 -3.3396735 -3.3994851
-7.9486804 -3.4417286 -3.3349304
-8.3383512 -3.2190847 -3.3955755
-8.7343607 -2.9973223 -3.4455581
-8.9314413 -3.0404563 -3.3982825
-8.9282074 -2.8986039 -3.4211793
-8.7309008 -2.9012978 -3.402004
-9.0345221 -3.2692518 -3.549197
-9.0290012 -2.6759768 -3.4348385
-8.8327236 -2.2766337 -3.3660619
-8.7239151 -1.7483964 -3.3273282
-8.6258755 -1.6406306 -3.3060081
-8.5209045 -1.5630926 -3.2709816
-8.2238712 -0.66242665 -3.2767975
-10.165697 -3.2272577 -3.7493725
-10.688791 -3.2733088 -3.7766271
-9.096899 -3.574192 -3.4147639
-8.1535616 -3.723484 -3.352092
-8.8315897 -2.9863605 -3.4588423
-8.9105787 -2.7908454 -3.3831062
-8.085887 1.2094573 -3.1350775
-10.41006 -3.2550478 -3.7679329
-7.9400349 0.0023429489 -3.2212191
-9.3302088 -3.3900425 -3.4160309
-8.730566 -3.4368596 -3.416116
-9.0337763 -3.2094655 -3.4534872
-9.2254295 -2.9914026 -3.4807506
-9.0232639 -3.0430269 -3.3978987
-8.5313377 -2.9880776 -3.4364154
-8.7860842 -2.4121084 -3.3316638
-8.9351568 -2.1868212 -3.354094
-8.3230228 -0.68133265 -3.2800813
-10.635148 -3.1486118 -3.7201247
-10.522655 -3.1368625 -3.716814
-5.3284788 0.45875603 -3.1298044
-9.9262943 -1.6550539 -3.6025259
-6.8333521 0.4691636 -3.0354037
-8.9270639 -3.659833 -3.4177539
-9.0325718 -2.9884183 -3.4635799
-8.929863 -3.3643341 -3.5758085
-8.9280987 -2.5917523 -3.4017351
-7.9326038 -0.65382844 -3.2117712
-9.4321156 -2.5005968 -3.6940184
-9.8259192 -2.9047885 -3.6590509
-9.8158169 -2.99334 -3.6826167
-7.1285381 0.46386233 -3.0579982
-8.8311987 -3.2154222 -3.439573
-7.9493246 1.215187 -3.1360109
-11.282647 -3.1635499 -3.8023901
-7.9258628 -3.5239956 -3.3973982
-8.7208118 -1.3928093 -3.3184054
-8.8213463 -1.456478 -3.3113024
-7.4161901 -3.692404 -3.2265551
-10.428162 -3.1353657 -3.7315543
-10.328762 -3.1386938 -3.7127812
-7.8439956 -1.5401998 -3.1970031
-9.0275688 -1.8278532 -3.4050949
-8.3300924 -3.5351543 -3.4302323
-7.5191598 -3.5692227 -3.2372069
-7.6387315 -3.6492655 -3.25559
-7.5352077 -3.7856016 -3.2446852
-9.9346132 -2.9166434 -3.6768675
-10.04791 -2.9197564 -3.6921916
-10.832097 -3.1385205 -3.7665799
-8.0467348 -0.9870863 -3.2931674
-8.7267189 -1.8305854 -3.387646
-9.1313267 -3.3648343 -3.5820618
-9.1365519 -2.5730407 -3.4187953
-8.1315079 -3.3065052 -3.4265709
-7.5390844 -3.0332117 -3.2234752
-7.6247072 -3.5675123 -3.2378318
-7.9402356 -3.6672993 -3.3014464
-5.0343981 -3.0533812 -3.25648
-11.771196 -3.1191416 -3.8053231
-8.3373089 -0.98047316 -3.3130066
-10.226074 -1.6613364 -3.624934
-8.6273689 -2.9945195 -3.4422066
-11.32512 1.2607594 -3.4451442
-6.4427114 0.48410258 -3.0052309
-8.4328747 -2.4488707 -3.4183927
-9.1198874 -3.3467484 -3.4358227
-10.228115 -3.1471813 -3.7083924
-7.5331669 -3.3611307 -3.2332153
-6.0256023 1.6516201 -3.1612003
-5.5384865 -3.0533311 -3.2843432
-4.9210072 1.7853309 -3.1223841
-7.3376589 -3.1189215 -3.4499924
-5.8422565 -1.6983415 -3.2092721
-8.1347685 -2.3761981 -3.3565822
-8.9276886 -3.3342717 -3.4011447
-5.2184267 -3.0611069 -3.2749081
-8.0855322 1.5095035 -3.0993836
-8.4417257 -0.89578241 -3.2951605
-10.035026 -3.1393538 -3.6804271
-11.984588 -1.557075 -3.8331356
-7.3321056 -2.7246206 -3.1808579
-7.5269728 -2.8510931 -3.2053049
-7.421062 -3.0519722 -3.2043049
-9.0209665 -3.3605525 -3.5701323
-9.0169592 -2.5890059 -3.3964152
-9.1306019 -3.026195 -3.4144061
-7.2298017 -3.1435175 -3.1818972
-7.2273674 -3.5740323 -3.1980283
-6.5299311 0.47240472 -3.0104988
-7.1248283 0.72091722 -3.1569958
-8.0576296 0.79763806 -3.3577802
-7.5239468 1.7550747 -3.0581913
-7.4008412 1.3148868 -3.0561502
-10.537131 -3.2407761 -3.7720633
-9.1305714 -3.4414914 -3.4612281
-7.1389694 -3.5701966 -3.1872892
-5.9297056 -1.3822613 -3.1826353
-5.5426702 -1.7042758 -3.1789639
-10.424777 -0.51782084 -3.5932806
-5.9383383 -0.6261248 -3.0088983
-7.2409978 -3.0335915 -3.1863945
-8.7315111 -3.3055787 -3.4682534
-7.1498599 -3.331888 -3.1950986
-11.629663 -1.330139 -3.7420602
-10.463897 1.7714534 -3.5792496
-9.8821363 -3.3082817 -3.7451637
-10.837126 -1.3409803 -3.7317016
-6.4482517 -2.8826289 -3.2314234
-9.9110584 -1.8548633 -3.6671617
-6.6360817 -1.7234583 -3.1872294
-11.61349 -2.3737826 -3.7888904
-7.1528783 -3.1402049 -3.2950771
-6.5079021 -2.8248146 -3.2210796
-6.4807496 -3.0538125 -3.2116597
-6.0381432 -0.52928936 -3.1607614
-6.7289686 -0.65767497 -3.1739604
-6.5122013 -1.7224746 -3.1878445
-11.757154 -2.3732643 -3.8044953
-7.019784 -3.109422 -3.2754047
-9.9496832 -2.0963039 -3.4673288
-9.8303633 -2.3671925 -3.6597848
-7.03333 -1.2578475 -3.2964704
-6.3181543 -1.7351514 -3.1684837
-10.122131 -2.0519214 -3.6692264
-9.7389565 1.8631043 -3.4772687
-6.3398614 1.803973 -3.0860577
-10.120304 1.8863891 -3.5114775
-10.124634 1.4349266 -3.5192394
-10.048722 0.94842058 -3.5601366
-10.041965 0.89954764 -3.5269182
-9.9253569 -1.603029 -3.6513689
-9.931838 1.9615965 -3.4776964
-10.218889 1.8758186 -3.5334606
-10.216163 1.7517492 -3.5313509
-10.135575 0.17763314 -3.5866559
-9.831748 -0.81230849 -3.5639741
-10.123473 -1.2902496 -3.6377394
-10.136114 -2.5958953 -3.6769063
-10.132507 -2.8337035 -3.6681519
-10.407352 1.8650787 -3.5377672
-10.356171 0.92356056 -3.5854495
-10.338532 0.79448086 -3.5690553
-10.332788 -0.81339836 -3.5987847
-10.342144 -1.53438 -3.6778355
-9.6351089 -2.5938041 -3.6230111
-10.32666 -2.8231192 -3.6870022
-9.1337757 -1.1924701 -3.3837528
-7.0485225 -0.98613513 -3.238034
-9.9331923 1.7467517 -3.4818003
-10.447302 1.5743198 -3.570924
-10.440872 1.129277 -3.5644729
-10.412017 0.93695492 -3.6004853
-10.441631 0.81467569 -3.5729005
-10.430658 0.57640904 -3.5681565
-10.437892 0.50335777 -3.5878382
-10.432446 0.28086799 -3.6176553
-10.419432 0.17794752 -3.6086395
-10.416174 0.094272599 -3.6237133
-10.423382 -0.03258926 -3.6193838
-10.433208 -0.36616039 -3.6326826
-10.418192 -0.44350234 -3.6445615
-10.437663 -0.6792382 -3.6493585
-10.394381 -0.7717253 -3.6699967
-10.323536 -1.6262856 -3.6989458
-10.218085 -2.057955 -3.6619503
-10.409641 0.43312916 -3.5418153
-10.419627 -1.8536271 -3.6930568
-12.514572 -1.1528139 -3.8946214
-10.346704 1.8771133 -3.5483978
-10.324986 1.7861662 -3.5449169
-10.519032 0.57555252 -3.5864427
-9.8237324 -1.5529249 -3.5744328
-10.132216 -1.7588104 -3.6398921
-8.3334818 -2.9558139 -3.4665518
-5.536418 -2.7342644 -3.2701235
-10.234271 -0.061553292 -3.5976202
-10.220919 -0.71639776 -3.5885224
-10.215545 -0.80427033 -3.6062679
-9.8396597 -1.1277559 -3.5763819
-10.030338 1.5337647 -3.4844363
-9.8169603 -1.4356883 -3.5892038
-6.9383831 -2.2547016 -3.2345574
-10.030535 1.9681376 -3.4915335
-10.027454 1.8524195 -3.4618442
-10.240605 1.2132293 -3.5219727
-9.72363 -1.2486421 -3.5432374
-10.335543 -0.99052501 -3.6671202
-9.728898 1.9626182 -3.453969
-6.2583156 -3.1257577 -3.3635387
-9.8276033 -1.7002885 -3.542239
-9.7156868 2.3094609 -3.7241535
-6.4263654 2.0253778 -3.0908954
-6.233654 -1.2925709 -3.1786275
-5.8404102 1.3113132 -3.13183
-6.2980986 -4.8833246 -3.1936886
-7.2190738 -2.0706081 -3.1463952
-10.243811 0.70466202 -3.5736508
-10.416114 1.9667157 -3.5163755
-10.36212 1.2061435 -3.5429802
-10.325966 0.67483264 -3.551069
-10.3125 0.10154223 -3.6104069
-10.246721 -1.8551713 -3.6835694
-10.348502 2.3092871 -3.8592119
-10.342963 1.9554979 -3.5175231
-9.8316698 1.85093 -3.4549615
-9.9198599 -1.5623224 -3.5801907
-10.285155 -0.24374533 -3.522207
-10.327283 -0.68197864 -3.6337538
-10.512761 0.26798499 -3.5950019
-10.432177 0.039991457 -3.5866797
-10.399905 -1.3165956 -3.6779199
-10.432816 -1.4518713 -3.6531959
-10.429625 -1.7483096 -3.6579268
-6.8159094 -4.4556847 -3.2009289
-10.115417 1.9594655 -3.5039916
-10.040201 1.7943919 -3.5235324
-10.596016 1.4819796 -3.5886817
-10.559839 1.1163222 -3.5788364
-10.531893 0.47350004 -3.5919459
-9.7537994 -2.0183384 -3.4505253
-5.5914764 -4.2170057 -3.1120138
-7.1147623 -3.2149708 -3.4667828
-8.729104 -2.6406744 -3.4814205
-9.947402 1.8666999 -3.50158
-10.335305 -1.3391942 -3.6284683
-6.655179 -4.3201799 -3.1584468
-10.32698 -3.4747038 -3.7315211
-10.035284 -3.5821574 -3.6836507
-7.5093026 -0.10587878 -3.1475191
-10.060018 2.2978024 -3.7863536
-7.2020736 -3.2071495 -3.4686155
-9.7382612 -1.022806 -3.5524476
-10.224104 -3.3592453 -3.7003622
-10.235761 -2.5974236 -3.5191815
-10.233681 -3.6657898 -3.7205906
-9.6279154 -1.2504507 -3.540447
-9.739274 2.1099253 -3.5076315
-10.539653 -3.3551648 -3.7240558
-10.49276 -2.6309826 -3.5228884
-9.5330048 2.0501094 -3.4209101
-10.230448 -3.2768471 -3.6851006
-10.215314 -2.6833212 -3.5224206
-10.332983 1.8342308 -3.4963415
-9.9392262 1.2980933 -3.4774673
-6.6228271 -0.11719884 -3.1568873
-6.9811521 -4.7578559 -3.1309705
-7.1317449 2.0200853 -3.1652694
-10.247942 0.94551915 -3.5961373
-7.2380018 0.93555993 -3.1946018
-10.226801 -3.4613476 -3.7317638
-10.540989 -3.5385129 -3.7800307
-10.544283 -3.6760466 -3.7604499
-8.9663067 -1.3181208 -3.5687518
-10.017246 2.0951276 -3.5128927
-10.538178 1.8183404 -3.5769129
-10.518053 1.5701892 -3.5582879
-10.507656 1.2091208 -3.548116
-10.441565 0.881145 -3.5578558
-10.438784 0.69754505 -3.5542586
-10.410109 0.35819879 -3.5650942
-10.432717 -0.18394034 -3.5887227
-10.233401 -2.831656 -3.6850338
-10.138748 -3.6762047 -3.71382
-6.2353611 -2.7387218 -3.3162627
-7.6316204 -2.9606521 -3.4052665
-9.7164373 2.061358 -3.4437678
-9.9277601 1.850664 -3.449913
-9.9361324 1.611622 -3.4500058
-9.240612 1.7968267 -3.3151882
-6.6450973 -4.5527797 -3.1602564
-6.5530105 1.7945089 -3.2777405
-10.230557 1.8503056 -3.4790604
-10.338972 -2.9563539 -3.6706164
-10.338031 -3.1851044 -3.6666596
-10.345266 -2.8129103 -3.5459483
-10.33095 -3.6746118 -3.725497
-10.025253 -1.5220512 -3.6414647
-9.5085201 2.6123435 -3.3894036
-10.141692 -2.4087632 -3.6405771
-10.137551 -3.1460333 -3.6820519
-10.047924 -3.4844954 -3.6667523
-6.5581708 -4.7699118 -3.1650653
-10.245869 -2.6503744 -3.6521137
-9.9282665 -2.7406945 -3.6263514
-10.313843 -3.2759879 -3.6957424
-10.310575 -2.6888046 -3.5658064
-7.7230082 1.4450136 -3.1093004
-6.5374107 1.458133 -2.9996498
-9.4190989 2.1806862 -3.4536412
-9.6429024 1.9627579 -3.4391944
-6.9319992 0.55602604 -3.0203323
-6.3422198 1.0226221 -3.2438881
-9.7283888 -2.3246899 -3.5779305
-10.324224 -3.0480289 -3.6827886
-10.226886 -3.4791384 -3.6773479
-9.9318676 2.0504014 -3.4674411
-10.029271 1.3037903 -3.4884336
-5.9310179 -3.9220955 -3.2784908
-7.7251697 0.20067251 -3.1305892
-9.9308233 -2.820349 -3.6434314
-10.228209 -1.9758139 -3.6576672
-10.024308 0.98811072 -3.4976883
-10.035917 -2.4168601 -3.6168051
-9.7387104 -3.4513247 -3.6709158
-9.7330818 -2.4893014 -3.4539368
-10.116915 2.0851061 -3.481081
-10.033854 1.605409 -3.4618311
-9.946785 -3.4779131 -3.6563799
-9.8502655 -2.2407317 -3.6873879
-7.5242176 -5.1453719 -3.2854712
-4.7019649 -1.1437453 -3.1626928
-8.9205437 0.72338569 -3.3143132
-6.3385544 -2.4581702 -3.2483828
-9.7206974 -2.546386 -3.5733454
-9.7271738 -3.0176535 -3.5210104
-9.9428663 1.381109 -3.4246349
-9.8710032 0.66393501 -3.417763
-7.1315699 -3.0388432 -3.3891299
-6.9502039 -5.0353308 -3.238322
-10.107307 1.0609931 -3.4475589
-9.7368555 1.939131 -3.4122674
-6.4308376 2.3390379 -3.0782034
-10.128543 -3.4157016 -3.6302402
-9.0379753 -0.12783846 -3.3559046
-10.019403 -1.8275298 -3.6707287
-6.5464492 0.7095269 -3.2638776
-9.9269924 1.3312892 -3.5119276
-6.149826 2.411902 -3.1687748
-4.6016846 1.5305752 -3.0960248
-7.1209755 -5.0931225 -3.2188604
-10.628504 0.11484696 -3.5503809
-4.378314 0.084633902 -3.1020725
-7.2124076 -1.9651443 -3.3779035
-6.8450584 2.3369472 -3.1110187
-6.3504753 -5.793294 -3.2179723
-8.537159 -2.9037428 -3.3574073
-6.3273258 0.9199124 -2.9844551
-6.2277269 1.7043412 -3.1019745
-6.2525759 -4.3267899 -3.0959995
-9.3397713 -0.81288517 -3.5116353
-6.3436151 0.58399802 -3.2117083
-5.5266027 2.6935463 -3.0659673
-10.747812 -3.5750692 -3.7641914
-6.3407888 -5.8273854 -3.1387534
-5.9295425 -2.6360099 -3.2662225
-4.7202539 -1.8862524 -3.2560036
-11.022239 -1.7423785 -3.7311497
-6.4354339 1.5661091 -3.0723147
-10.715153 -1.8483223 -3.7213814
-4.4505501 -1.5610467 -3.1765492
-6.1307034 0.57777458 -3.1992888
-10.261702 0.01333933 -3.449764
-9.827734 2.2808273 -3.6763854
-9.8419456 2.1330879 -3.4513552
-5.9362545 -2.7240853 -3.2943873
-7.9329419 -2.9618924 -3.4335046
-9.9315815 -1.2518429 -3.5702133
-9.9188547 2.1146245 -3.4989645
-8.7227659 -1.9522803 -3.3271415
-9.9283161 -1.4756808 -3.5672255
-6.0430737 2.0176287 -3.0798776
-10.66099 -3.6492994 -3.6786392
-9.931735 -2.6280403 -3.6163785
-6.5417256 -0.44277757 -3.1829093
-6.5172 1.4456091 -3.3164523
-9.7362261 -3.4065027 -3.6097596
-7.1359768 -3.0022135 -3.3349276
-9.6359396 -1.4763273 -3.5391848
-9.7558203 -3.3165033 -3.5837181
-8.7943172 1.4672956 -3.2001843
-6.7223063 0.23648164 -3.0115509
-7.2279325 -2.9951129 -3.3346384
-6.8379803 0.81546354 -3.0672193
-8.4191027 -3.0984671 -3.2626038
-7.1305799 -1.5414292 -3.2614865
-9.4227571 -3.6173708 -3.5550036
-10.989482 -0.23207237 -3.5905557
-4.9105549 -0.44638842 -3.1964157
-11.32076 -0.19719332 -3.6334226
-7.1203499 -4.8634424 -3.2435706
-9.2309008 -1.963475 -3.4064758
-9.7336521 1.3381613 -3.495609
-10.000072 1.4640235 -3.5562563
-7.8988862 0.092416152 -3.1913481
-5.4388914 1.3004872 -3.0997992
-5.9531169 -2.9274356 -3.2140081
-6.9184041 0.99826741 -3.0313747
-9.829915 -3.6037259 -3.6023686
-9.8464298 -1.1629053 -3.5335224
-9.9282799 -0.38994989 -3.5251322
-7.3312607 -1.8760202 -3.3512359
-11.216136 -2.1346457 -3.7556005
-4.5676365 -2.0294173 -3.2203639
-5.9455853 0.36972091 -3.0017924
-7.6193285 -5.0818777 -3.2474959
-6.8348193 -1.0643129 -3.243468
-6.4303331 -5.0094991 -3.1157317
-7.9220619 -2.9098744 -3.3014035
-7.3424454 0.89764518 -3.0966825
-8.2292643 -0.46292868 -3.2238145
-6.6328697 -4.4496012 -3.1398511
-6.9660306 -4.5796108 -3.1497247
-10.224843 -2.2990322 -3.6629615
-10.235658 -2.4280348 -3.6439168
-10.34054 -1.7548103 -3.664042
-9.849596 -1.5218955 -3.6052318
-8.0553789 -2.8943005 -3.3445148
-10.233152 -1.5595133 -3.612046
-10.127705 1.2944034 -3.4941888
-5.953125 -5.1167903 -3.2541213
-7.2678943 -5.1223412 -3.2717297
-10.750003 -0.16358037 -3.5980933
-4.4202414 -0.48968101 -3.2072284
-10.137045 -1.7134103 -3.5659878
-6.3194079 -0.67465949 -3.1619937
-6.2445011 -0.40862617 -3.1514022
-6.9204402 -5.0621257 -3.2142973
-5.3231349 -0.42448038 -3.0614028
-11.65686 -0.57336026 -3.5988748
-9.1406689 1.0333872 -3.3155775
-9.0426683 2.0333312 -3.4813559
-9.5025177 2.0108476 -3.4953954
-8.1953278 0.49744761 -3.3842578
-6.3179269 -1.7388222 -3.3049192
-10.047243 2.1596355 -3.5113573
-7.5199561 -5.0730205 -3.2576013
-5.6329913 -2.9567859 -3.2005136
-7.1525831 -2.8887138 -3.299722
-9.7291555 2.137265 -3.4117451
-9.8221836 1.9308765 -3.4273405
-9.9383707 -3.3633726 -3.6690238
-9.9142151 -2.5675254 -3.4612749
-10.243603 -2.601203 -3.6812613
-10.219353 -3.0392241 -3.6830266
-10.455438 1.3530116 -3.5599554
-5.9471312 0.71396035 -3.0904453
-6.6322932 2.1155014 -3.0863419
-10.347242 -0.21673511 -3.6524262
-9.8572588 -2.1689448 -3.6675351
-9.8386555 -2.6837506 -3.6873162
-10.034836 -2.7676136 -3.7457528
-10.003891 -3.103024 -3.7476883
-9.9278049 -3.5381069 -3.7350111
-6.462472 -5.0822001 -3.179534
-5.7180815 2.2002954 -2.9132006
-9.8303299 2.107461 -3.5125711
-9.9153328 -2.5876601 -3.6448274
-10.414393 -2.7005563 -3.744945
-10.339059 -2.7314467 -3.6665795
-8.1212463 0.35121182 -3.1591256
-7.1317973 0.80728525 -3.0695996
-10.120304 2.2462378 -3.7254767
-7.0309401 -1.1966839 -3.2284663
-6.4327393 -2.8097854 -3.2151766
-6.9029598 -2.8996937 -3.2795417
-5.7770295 1.9696583 -3.0180686
-7.5232854 0.55942625 -3.1111493
-6.930068 0.13058938 -3.2407589
-7.3413005 2.6512384 -3.1441133
-5.9625378 0.093299873 -3.025444
-6.4325461 0.49675959 -3.0671139
-7.5333247 -2.9086733 -3.3182673
-10.20314 2.2532825 -3.7999895
-9.7291927 2.2766781 -3.6616335
-9.4372797 2.8059881 -3.399724
-8.3063555 -1.4373028 -3.4597147
-7.3579068 -5.161871 -3.2637215
-6.4631701 -4.3429766 -3.1365058
-6.846693 2.6508141 -3.0894523
-6.550488 -5.0679398 -3.2259865
-9.0384216 -2.2742753 -3.3809295
-6.5117784 -5.7577658 -3.1617589
-5.5326958 -0.40022781 -3.1850071
-6.9392757 2.1279595 -3.109447
-9.8190737 -1.3203701 -3.6264524
-10.328346 -2.1523013 -3.7112639
-10.122925 -2.6856718 -3.6976109
-6.9749322 -4.7949944 -3.3064361
-6.6549721 0.97061425 -3.0024588
-10.118219 2.090781 -3.5189314
-10.343514 0.61922002 -3.6080599
-10.214292 -0.24027811 -3.6473463
-10.530343 -1.103206 -3.7010036
-10.500924 -1.2965003 -3.7008598
-10.347852 -2.4746547 -3.725261
-10.316568 -2.6940773 -3.7224617
-10.282052 -2.7741113 -3.7494581
-6.9303718 2.0180082 -3.1443498
-6.4421711 -2.3697283 -3.2231808
-9.8171988 2.0593541 -3.4446325
-8.3301792 -2.9049039 -3.3668308
-10.238475 2.2391777 -3.7056503
-10.35041 -0.41811126 -3.5919814
-8.4340038 -0.65594351 -3.3160834
-10.932692 -3.5428588 -3.796638
-8.330677 -1.5178862 -3.3069644
-10.236219 2.1020112 -3.5244653
-10.161053 -1.5801268 -3.6866255
-10.55302 -2.1835165 -3.7568946
-10.536568 -2.3876359 -3.7100813
-10.492535 -2.6778688 -3.7416492
-10.432661 -2.780561 -3.7624686
-10.40501 -3.310421 -3.7826724
-10.348876 -3.5386302 -3.7690713
-10.122089 -3.5515141 -3.7386386
-7.2212615 1.4461546 -3.065058
-10.020823 -2.9508553 -3.6358297
-7.6211362 -5.1386633 -3.2793133
-7.7350307 -2.7181587 -3.2277062
-10.580644 -1.6564598 -3.7185748
-10.530899 -0.37681597 -3.6401725
-10.495453 -0.44927207 -3.6619523
-10.429188 -0.82452077 -3.6361415
-10.506222 -3.3375103 -3.7947044
-10.47987 -3.5648627 -3.7795587
-8.8353834 -0.085623629 -3.3956099
-7.7425771 -5.058795 -3.2501783
-10.341154 2.1181421 -3.5307555
-10.30058 2.0223529 -3.5569911
-10.438458 -0.21199457 -3.6509631
-10.138412 -0.78149474 -3.6491222
-10.348163 -0.88277483 -3.6302333
-7.8888664 0.47385436 -3.3843541
-10.724601 -1.5074087 -3.723413
-6.3174152 2.0284677 -3.0894289
-4.2306919 -0.49006736 -3.1811073
-10.43248 -3.6627657 -3.7446942
-10.321477 -2.1009982 -3.6415172
-6.3370366 0.49172771 -3.0534163
-10.959756 -1.5528882 -3.7228382
-8.9279356 2.825279 -3.3493056
-9.952075 2.3232987 -3.7453988
-9.9297838 2.2605538 -3.6822925
-9.027153 -1.6979628 -3.4505403
-7.0323262 1.172423 -3.1886508
-11.890818 0.10240643 -3.5979526
-5.6293049 0.23420927 -3.0356441
-10.240609 -1.7722254 -3.616713
-6.8467607 -4.7083983 -3.154444
-10.324209 -1.8762506 -3.6363978
-6.4603381 -1.7545117 -3.1890526
-9.417345 -3.3310938 -3.7212582
-9.7206697 2.1903515 -3.4834905
-7.4523277 -4.6640124 -3.2454629
-9.3112659 -0.12540826 -3.3766539
-6.532515 -2.9932911 -3.2824185
-9.9131594 2.1963544 -3.5130684
-6.8297176 1.5709713 -2.9955678
-6.5347633 -4.9753151 -3.1540337
-9.6289339 -1.7254975 -3.4134262
-10.025162 -1.6843084 -3.4590325
-8.2991047 1.4874024 -3.1568587
-8.9217644 -3.2100835 -3.4452147
-6.1904507 -0.35810617 -2.9833748
-9.1381969 -1.7932794 -3.490778
-7.1173153 0.71415526 -3.3281555
-7.5191855 2.4987798 -3.2534103
-10.207683 2.1391454 -3.5030053
-10.334466 -2.4011612 -3.6527464
-5.1276917 -1.9749709 -3.2433062
-11.6012 -2.0267708 -3.8169672
-8.7440376 2.2789154 -3.5614407
-7.5278053 -2.7184417 -3.207418
-8.4310389 -3.0800819 -3.45632
-8.4341917 -2.8618605 -3.4641054
-10.094032 -2.1586978 -3.6778238
-6.5428877 -4.536499 -3.150938
-11.342255 -2.7327642 -3.7562892
-5.0356932 -2.8314273 -3.2679763
-6.3231115 -5.0545297 -3.197962
-9.6368341 2.1528015 -3.3976195
-6.239964 -0.12981781 -3.1416843
-6.3111191 -4.6506257 -3.1296341
-7.3340864 -1.1697694 -3.1110554
-10.321512 -2.0628898 -3.6738605
-10.026658 2.1494408 -3.6342795
-5.9302063 0.58009142 -3.1837287
-4.6731911 2.7351842 -2.9875398
-6.6209979 1.0303996 -3.2636931
-10.239434 -2.391382 -3.6953633
-6.5449147 -4.9570599 -3.1847618
-6.0139256 0.063465111 -2.9756331
-5.668354 1.4646666 -3.0267317
-9.0138264 0.49339187 -3.2884545
-9.5290089 -2.0694723 -3.6003654
-7.4971271 -2.0763369 -3.4347975
-6.3086715 2.4309871 -3.0394664
-6.5062346 -5.8302941 -3.1804807
-10.332056 -3.582406 -3.7061915
-6.6248689 2.5051658 -3.1760354
-5.9222202 -4.0063772 -3.3219137
-6.3320704 0.54358727 -3.1514821
-8.9268141 -0.67532384 -3.5008464
-10.03032 0.67663532 -3.5125871
-9.6371078 -1.3474693 -3.5569062
-7.1388211 -1.4333364 -3.1341178
-5.4457812 -0.35732171 -3.2069652
-6.9958673 -4.7155552 -3.2104266
-7.250926 -1.507846 -3.2530134
-7.929718 0.76523441 -3.2902088
-9.9407969 -1.1631203 -3.549108
-7.0321755 -3.4947145 -3.3750832
-10.581622 0.25588375 -3.533057
-6.6019654 0.72167128 -3.2570164
-6.8494163 0.73149073 -3.2726564
-10.025152 -2.0656292 -3.6511223
-6.0365868 -4.8604436 -3.1303804
-6.4311409 -3.926584 -3.3128543
-4.8364515 -2.273747 -3.2300904
-11.554888 -2.1761427 -3.7677455
-8.0465527 -3.7465746 -3.3308957
-6.2368102 -2.3739388 -3.219799
-10.133862 -2.5121343 -3.6543708
-8.633503 2.3619514 -3.5283108
-10.031827 1.3634845 -3.4372356
-6.661602 -4.7289696 -3.0629313
-8.6363077 -3.1748395 -3.4917235
-8.6380386 -2.7717621 -3.4582667
-8.4343472 -1.7856584 -3.4276943
-9.8171463 0.32581881 -3.4543085
-6.8332715 0.40989032 -3.1341197
-6.165647 -5.3670268 -3.1409676
-10.233748 -2.530055 -3.667804
-6.1419973 1.7834579 -3.0771494
-6.2713895 -5.537364 -3.1173728
-9.1281176 1.3455077 -3.4330938
-8.8316021 -0.34803423 -3.4612098
-6.2337842 -5.7356453 -3.1617765
-7.3334002 2.367645 -3.1955931
-6.6306229 0.0054921494 -3.1981544
-7.0309124 0.22838347 -3.0444324
-6.4255381 -1.2843206 -3.1970429
-6.8441706 -4.2265186 -3.1602731
-6.0662394 -5.7120638 -3.1894817
-11.275778 -0.98656607 -3.5079014
-9.2410841 -2.0500708 -3.565603
-8.3388777 -3.7422454 -3.3797612
-7.7627735 -0.79725856 -3.4596605
-6.8915825 -4.3235092 -3.1640668
-6.0960703 -5.6475477 -3.1963272
-5.4476995 -2.0273058 -3.2173684
-7.3167658 -1.4142387 -3.1783073
-5.7315168 -2.3623586 -3.3061059
-12.036104 -2.2904992 -3.8447459
-7.1352787 -4.7885847 -3.1884754
-7.4871469 -3.85901 -3.3957586
-11.571588 -2.1274166 -3.7977383
-5.0222597 -2.0539494 -3.2426188
-7.1204653 -4.5401816 -3.1660943
-8.1266861 1.1684581 -3.27513
-6.3125772 -4.3213782 -3.0910089
-8.8290606 -3.7448602 -3.4495726
-9.8110065 2.3291883 -3.7332304
-7.2311254 -4.3164992 -3.1706424
-6.5782461 -4.591651 -3.1060913
-6.1399469 2.2057655 -2.9460132
-5.3323126 -4.0197492 -3.2915521
-5.8602638 -2.861434 -3.1890669
-6.318006 -4.5504632 -3.1137884
-9.448925 -0.56095839 -3.3347132
-9.2901611 2.6495411 -3.2895541
-4.9412723 1.3235679 -3.1231005
-5.7370186 0.67393684 -3.1633515
-6.1174517 -1.8242458 -3.1895628
-7.0249414 -4.2880049 -3.1769347
-9.7579117 0.27829108 -3.3635907
-6.8276711 1.2225765 -3.0263672
-11.207784 -2.4746103 -3.762033
-7.2463408 -4.9664044 -3.231262
-5.5132608 2.0238361 -3.0193837
-10.359966 1.6578685 -3.4196303
-8.4265575 -1.3440596 -3.4318726
-9.8129835 2.1807973 -3.4788315
-7.9914622 1.8715354 -3.3548632
-10.034472 -2.828665 -3.6658053
-6.7395782 2.0216544 -3.1235707
-7.8378978 -2.67765 -3.5152624
-6.4845438 -5.3343139 -3.2224779
-4.931283 2.0560174 -3.0771055
-10.151367 0.38515592 -3.4549956
-5.5691967 0.11640576 -3.0893822
-9.7361212 2.3459816 -3.6989615
-8.9284105 -2.2696512 -3.3654885
-7.2356448 0.0091554765 -3.2543392
-4.472755 0.7168805 -3.1253288
-9.3358622 1.6685114 -3.5254195
-9.885004 2.0220239 -3.5143173
-9.0318546 1.8120242 -3.4284258
-9.825242 1.7791579 -3.5358102
-10.056147 0.11898483 -3.610738
-6.6774793 0.19531015 -3.2755125
-6.6269417 1.4562594 -3.0168571
-5.838398 0.91911054 -2.9282124
-5.0190163 2.0673702 -3.0667951
-4.4675412 1.4579208 -3.0274208
-10.841602 1.3137467 -3.5901184
-10.335885 -0.73019296 -3.5793383
-10.520886 -1.8721927 -3.6534734
-10.514318 -2.0674381 -3.6960487
-6.9478693 -0.48775405 -3.0685668
-10.430698 -1.8710473 -3.6424766
-7.0257678 -2.9197907 -3.2862651
-7.1289501 1.2716386 -3.337872
-4.746026 -2.2643619 -3.239886
-10.817557 -2.1871927 -3.6888285
-6.5433116 -5.3517509 -3.191309
-10.321558 -3.3637307 -3.713213
-10.30541 -2.5708811 -3.5271323
-7.6242647 1.5518321 -3.0818837
-11.634365 -0.35206559 -3.7244091
-10.036735 -0.3592636 -3.5983257
-10.22624 0.74035364 -3.513726
-10.327961 -2.6390548 -3.6437497
-6.5438766 -4.6246085 -3.1593685
-10.828511 0.21648487 -3.5444238
-7.0025892 -4.7374182 -3.1830251
-12.081905 -3.0148063 -3.8695214
-5.7365837 -2.9554482 -3.2890136
-4.8542943 2.1086969 -3.1229682
-6.5323963 -4.8608713 -3.1751356
-4.6976318 1.1735998 -3.134376
-9.1336632 2.3507667 -3.5885422
-8.8135834 -1.1955295 -3.4931328
-8.3550797 -3.1154604 -3.5139327
-6.7280726 1.2356457 -3.0218649
-6.5598588 -5.0554438 -3.1792319
-8.2502546 1.2558999 -3.397665
-7.2353773 -1.6278759 -3.4487731
-8.2276716 -3.3932865 -3.4571271
-10.647926 -0.48386222 -3.6162088
-7.7341924 2.4887519 -3.2910047
-9.6505766 1.7902625 -3.502388
-10.127359 0.96425194 -3.5685394
-9.8240385 0.91749299 -3.5440755
-6.5206571 -0.11627917 -3.148258
-8.8380241 -1.9604422 -3.3446352
-8.3332024 -1.787798 -3.4185972
-7.6458807 2.4075413 -3.3048351
-7.9187384 2.1083241 -3.2008154
-8.2285624 2.0192633 -3.387176
-8.5200205 1.8704764 -3.4034281
-7.6611509 1.8530328 -3.3172522
-8.7213764 1.7860438 -3.4396663
-8.2183695 -1.2169015 -3.447763
-9.2779398 -1.291044 -3.5808618
-10.063767 -1.4114466 -3.6828282
-10.380113 -2.8422749 -3.7688046
-7.2202005 -4.6483951 -3.2323551
-7.5331736 -0.72051924 -3.3194952
-10.435776 -2.6053598 -3.6316512
-7.4297338 -4.9886851 -3.2598379
-6.9519024 -4.6596985 -3.2098444
-8.038085 0.23974523 -3.1282706
-10.209332 -2.1723871 -3.6926517
-5.8107805 -5.5933447 -3.3904204
-10.028149 1.7109147 -3.5517519
-10.185131 0.62844419 -3.5970254
-10.372265 -3.0760174 -3.760035
-4.9565473 -0.92092049 -3.1481614
-9.8319616 -0.369681 -3.5635211
-7.7068996 -5.2139935 -3.2699292
-6.9379978 -4.8128386 -3.0887456
-8.8257942 2.0223 -3.2854638
-11.006786 -3.2847674 -3.7336352
-10.128018 -3.2910805 -3.5553298
-8.3116274 1.9065148 -3.3406279
-6.4238348 1.5674286 -3.220526
-5.4434671 -0.93217057 -3.1810837
-10.325803 1.5580167 -3.558531
-4.7671289 0.73331767 -3.1616192
-8.4250336 0.50108856 -3.2445269
-5.3271532 -1.0754594 -3.1422081
-5.1389637 -1.0224606 -3.1726141
-9.6220636 -0.85398197 -3.465194
-5.2155342 -0.94023991 -3.1657324
-12.304657 -0.17136389 -3.6885996
-7.0368972 1.2224323 -3.0366182
-5.9013643 -4.0963788 -3.3313446
-6.9401855 -1.9653474 -3.3487985
-7.0130587 -1.5098302 -3.4038489
-8.277483 0.54904222 -3.1867745
-9.0405426 -2.3059561 -3.6753931
-10.31658 -2.3986149 -3.7023778
-10.711926 -2.2007496 -3.7082472
-11.851096 0.4572176 -3.6815186
-6.1286683 -0.22118261 -3.158958
-8.8406973 -1.5073171 -3.3830867
-6.9119668 -4.4646211 -3.1634583
-7.1319327 2.2826755 -3.2073839
-4.8708172 0.94653505 -3.1404827
-4.9563093 1.0559783 -3.0465264
-5.2622132 2.3924868 -3.068248
-5.9152865 -1.0297747 -3.2964413
-4.488451 1.5321512 -3.12639
-4.8167553 -2.0334413 -3.182138
-5.5393043 1.210443 -3.1287138
-4.9394054 2.5953486 -3.0539205
-5.8703609 0.28452545 -3.0446992
-5.6354756 2.458513 -3.0704982
-7.2360392 1.2199495 -3.0679574
-6.132473 -4.0106945 -3.3266864
-6.9217167 -4.8457208 -3.1953623
-5.3448296 2.6964588 -3.0497396
-11.031546 1.0244383 -3.623111
-4.7400537 0.92266095 -3.1706173
-5.6235161 1.6147487 -3.0992434
-5.7259436 -3.9790816 -3.3648779
-9.9309063 -2.5077238 -3.6357095
-5.5280142 -3.1247039 -3.2966702
-11.834975 -3.205121 -3.8562524
-5.343636 2.1672673 -3.0616124
-5.7677336 1.7099496 -2.8663876
-5.2450008 1.7499925 -3.1115046
-5.429667 0.80496067 -3.1659522
-9.3254652 -1.5179563 -3.4117661
-8.0338583 1.1667441 -3.2677286
-5.1114225 2.5999322 -3.0655406
-5.441927 1.5294684 -3.1064975
-5.4420953 1.6291255 -3.086159
-5.7327566 -2.8772182 -3.261291
-5.7267575 -3.0830178 -3.2419214
-5.2110758 -0.81629729 -3.1131613
-6.8298006 2.3707478 -2.9996259
-9.1363983 1.527114 -3.3914833
-5.1320181 2.2884684 -3.0710378
-5.3396358 1.5109578 -3.1156867
-5.2155418 -1.0259652 -3.1943488
-6.573462 -5.1269941 -3.2179656
-5.7323751 1.8403512 -3.1181753
-7.5925937 1.2332733 -3.0995831
-4.9390888 1.8685997 -3.1042731
-4.9304099 1.9633985 -3.107523
-5.0086126 1.7551084 -3.0913341
-5.0300016 -0.90911329 -3.2063034
-11.451304 -1.0704666 -3.7755599
-5.1258631 -0.99298823 -3.2390523
-5.9288683 -1.8818088 -3.2596667
-5.198597 -3.8579805 -3.3751276
-5.1568184 -3.7717013 -3.347837
-11.240771 -3.4828095 -3.7135665
-11.545444 -3.8394406 -3.828743
-5.2445278 -3.9745772 -3.3302701
-9.4327297 0.73410136 -3.5130236
-10.656451 -2.0004182 -3.5891609
-10.729189 -1.6583927 -3.675667
-5.533762 2.4122896 -3.1333294
-5.5458956 -5.6812429 -3.231838
-4.9507699 1.1065359 -3.1155062
-4.9504833 1.2120537 -3.0989807
-10.70101 1.3053321 -3.5575278
-5.019352 2.3266237 -3.1260102
-7.723484 2.3222778 -3.3643117
-7.2760129 0.71001714 -3.320092
-9.4304953 -2.2308288 -3.505434
-6.6238194 -3.3653488 -3.5418193
-5.6110311 -5.689127 -3.226455
-5.304316 1.0794172 -3.0981019
-5.2355609 -0.27294043 -3.1866159
-5.2614613 -0.52847433 -3.2443669
-11.650575 -3.4662778 -3.8287897
-5.3187685 -3.5358007 -3.3373313
-9.7366467 -0.37566373 -3.5581622
-9.9226246 1.1614436 -3.4098516
-7.1310968 -2.1804662 -3.1487238
-5.6457968 -5.4788861 -3.1410418
-5.5382576 -1.0255307 -3.2122545
-11.831678 -0.88783389 -3.6901274
-5.2634563 -2.5915148 -3.2855556
-11.924532 -2.9131618 -3.8578672
-5.3267603 -2.7075553 -3.3118901
-5.5149527 -3.7634425 -3.3582008
-6.8501306 -0.47622129 -3.0697331
-6.7322369 -2.1433637 -3.2569742
-9.5214891 -1.2871915 -3.4354098
-5.3277845 -1.8630607 -3.2796435
-11.662735 -1.7518834 -3.7771807
-5.443327 -2.3786173 -3.2992382
-11.928789 -2.3256421 -3.8198328
-5.4292846 -2.1425068 -3.2964113
-5.5433979 -2.6871681 -3.3164785
-7.6809773 1.3060318 -3.0945442
-10.023847 -2.5115259 -3.6422627
-8.0305815 -3.130904 -3.2913783
-7.7311521 2.281503 -3.2766075
-6.6615973 -5.1292253 -3.2255144
-5.4387398 0.57554454 -3.1606607
-5.4196057 -1.5362469 -3.2795513
-5.4279389 -0.13811085 -3.2070251
-9.430768 1.1652035 -3.3682537
-10.515253 -2.5042324 -3.7074311
-5.9230175 1.4910831 -3.0703588
-5.8144588 -4.8074293 -3.1529512
-5.6923189 2.3378823 -3.1825514
-5.7256994 -5.5171733 -3.1522973
-5.0429783 1.9668366 -3.078351
-5.2377176 -3.9050617 -3.3194261
-5.2399492 -2.6469688 -3.255343
-6.6090879 2.322871 -2.9984276
-5.5262637 -3.6765511 -3.3189125
-7.3219566 -2.8021383 -3.1983547
-7.320765 2.1880114 -3.0400231
-10.047393 1.1405815 -3.4517601
-5.5452042 -2.9221287 -3.1635013
-11.233087 -3.3330927 -3.8295732
-5.254961 -3.2295659 -3.3169672
-5.2490845 0.038453154 -3.1725266
-11.327657 0.1365564 -3.6337752
-5.2513556 2.3390052 -3.1466699
-5.2450895 0.078771755 -3.2129827
-5.2239342 0.18011512 -3.1888709
-5.232769 -2.3637898 -3.2901947
-11.746922 -2.2817299 -3.8119993
-5.2185001 -2.1724594 -3.2950966
-5.2438765 -3.6737061 -3.3065798
-5.3840981 -5.6317024 -3.1906216
-5.0334096 2.5034769 -3.0713427
-5.0576501 0.10275365 -3.2034576
-5.2920747 -0.55059636 -3.2532864
-5.1456375 0.083221003 -3.2015851
-5.4416218 -3.269886 -3.284807
-5.4513421 -2.6858909 -3.1354151
-11.195814 -2.2018692 -3.7213781
-5.1398745 -2.2861319 -3.2633398
-5.1342683 -2.1772366 -3.2958097
-8.8244467 2.5078545 -3.3949361
-5.3276644 -0.44558334 -3.2307978
-11.432847 -0.20195355 -3.6421926
-11.449478 -3.203845 -3.9179206
-5.3413954 -2.9077456 -3.3025589
-9.119029 -2.8121977 -3.4142542
-6.3490944 -4.4331055 -3.177371
-12.138782 -0.23385708 -3.8119197
-5.2287502 -0.90947723 -3.2377028
-5.3249545 -3.4578001 -3.3117235
-5.2351122 -3.3636937 -3.2847095
-8.5285025 -3.3975794 -3.4766932
-6.4013901 1.4302844 -2.9841461
-10.727766 -2.6102498 -3.7112789
-5.5456834 -0.32039243 -3.1534557
-5.5358791 -4.6211987 -3.13656
-5.8107109 -2.8957477 -3.3127453
-5.218801 -3.3063657 -3.3381498
-9.1239882 1.1761647 -3.3492243
-7.645936 0.50355202 -3.3305905
-7.4354305 1.1692923 -3.2210355
-7.8329782 2.2881808 -3.2855616
-6.2324295 -2.8631303 -3.2849832
-6.2406411 -3.0802531 -3.2792106
-7.7423329 -0.1324223 -3.2527747
-6.6254096 1.2410861 -3.0162072
-11.383339 -0.81332433 -3.6667092
-4.7801514 -0.66543585 -3.1504314
-5.6467576 -5.5632634 -3.1695611
-5.1079507 -3.9061017 -3.2808821
-5.1481609 -1.5904436 -3.2772465
-9.071806 0.7911669 -3.3083613
-5.0471077 1.0328455 -3.1556134
-5.5668745 0.51674283 -2.9986119
-6.1330233 -0.81692982 -3.2517164
-5.3621593 -5.3396087 -3.1889482
-5.2416534 -3.5395734 -3.3432429
-11.766377 -3.440681 -3.8385103
-5.1279106 -3.1348417 -3.2913368
-5.1076608 -3.0035527 -3.3164306
-5.13764 -2.9048948 -3.3039441
-8.8481884 -0.032391947 -3.3137715
-12.110461 -0.37806642 -3.7761464
-9.6392193 -1.217151 -3.3817539
-5.3354492 -3.243459 -3.3257015
-11.162781 -3.3209069 -3.8359721
-6.2360182 -5.0707684 -3.2040167
-5.195179 -2.9417109 -3.2977581
-6.2493968 -4.9811549 -3.1723409
-5.1324596 -0.78790456 -3.2418311
-5.5338135 0.89583033 -3.155793
-6.1277366 1.3923954 -3.1096153
-5.3927975 -4.9957166 -3.1688755
-5.0525684 -3.7475753 -3.3339133
-11.283146 -3.4631693 -3.7645109
-5.0424833 -3.6668966 -3.2853839
-5.0201416 -3.5668507 -3.3259201
-11.52584 -3.4659624 -3.8219974
-5.2327557 -1.8527226 -3.2785759
-5.7609401 -0.12741007 -3.2205188
-5.3236003 1.5915691 -3.0733438
-5.3426423 -4.7790804 -3.2927172
-5.1424894 -3.6721203 -3.2957983
-11.183465 -3.5159676 -3.8228941
-5.121232 -3.6387007 -3.3854101
-11.408222 -3.435565 -3.8331769
-5.1297154 -3.5520351 -3.3292212
-5.1526556 0.72752303 -3.1643157
-11.83444 -2.4544706 -3.8782196
-12.007639 -2.4717045 -3.8853753
-10.672062 -3.697228 -3.7138436
-8.5305872 0.13295689 -3.3737464
-5.6380763 -2.1563485 -3.1401975
-5.3468156 -2.5937788 -3.2966511
-5.3359475 -0.044685639 -3.1827347
-5.4359217 2.69115 -3.0600669
-9.1326141 -0.49812979 -3.4772308
-5.3704867 -1.6317791 -3.2833796
-8.3204336 2.3751709 -3.2919865
-11.519536 -2.5241797 -3.7355862
-5.0633488 -2.76103 -3.3070261
-5.0485783 -2.7012122 -3.3043845
-11.465485 -1.6388713 -3.8420269
-5.1338263 -1.517312 -3.2588787
-6.8338127 -2.4203248 -3.3285718
-6.0361094 -2.4171369 -3.2793081
-5.1413221 -3.8833852 -3.3687725
-5.161149 -0.89616102 -3.2048569
-7.631794 1.1698462 -3.2365737
-5.3618555 -2.1391253 -3.2809577
-11.714776 -1.6074146 -3.8294692
-5.2067218 -1.531911 -3.2776253
-5.1490355 -1.0809051 -3.2612362
-5.542098 -2.4448135 -3.1812134
-9.0237617 2.6215839 -3.3736141
-6.9333973 -2.9938691 -3.3135815
-5.6387386 -0.44077629 -3.2515805
-11.887892 -0.17681299 -3.6682162
-5.0782695 -0.78111488 -3.2584932
-10.883711 -0.84695858 -3.6189828
-7.3379121 1.4826095 -3.1885173
-6.1566086 -4.9566903 -3.2029018
-6.1721539 -5.0195193 -3.193743
-5.368413 -4.4558592 -3.1254463
-5.3312521 -1.0658364 -3.2578323
-7.2549901 1.5766959 -3.1286523
-5.2321634 -3.5771191 -3.2890496
-7.0380607 -3.3129442 -3.1485019
-5.4489112 -4.0541859 -3.337393
-5.3493109 -0.89378804 -3.2144449
-5.2396545 -0.49385837 -3.1873815
-11.738028 -0.42546988 -3.7038391
-12.5737 -0.39518708 -3.8173013
-7.231647 -3.0783806 -3.3644271
-7.2345166 -2.8611002 -3.3629279
-5.4275284 -2.9138875 -3.3043828
-5.3294382 0.26502797 -3.1654642
-11.80242 0.18803643 -3.7067225
-8.2205276 -0.69501454 -3.2060335
-6.9317651 1.0845087 -3.1988003
-7.4330912 -2.8628783 -3.3776572
-7.4307656 -3.0805318 -3.3816028
-9.6758518 0.91961485 -3.5309122
-5.4983673 -1.0115845 -3.2599332
-6.3756886 -1.4153216 -3.1236784
-6.8304176 1.6607339 -3.0288172
-6.4015307 -4.9457741 -3.149435
-5.7372007 -2.0094748 -3.2338288
-5.2385244 -0.045697998 -3.186841
-11.546937 0.07833837 -3.677515
-11.961742 0.16961335 -3.7575896
-5.2226601 0.26815566 -3.1731679
-9.0166874 2.8570242 -3.2719593
-5.4218898 1.7930723 -3.1574023
-7.8378148 -3.4956226 -3.4419158
-5.3489275 0.89037281 -3.1405358
-5.7340956 -5.4042864 -3.2158053
-5.5360909 2.3145657 -3.1564033
-5.4376373 -1.0241457 -3.2119925
-11.882539 -0.89250273 -3.7155621
-6.2197876 -4.7071238 -3.1865988
-5.1523294 -0.064816974 -3.1661499
-11.630827 0.05864704 -3.6903255
-7.4269161 -0.47692001 -3.1237514
-8.0301399 2.2764692 -3.3123353
-5.6391268 0.89880186 -3.150527
-8.1290188 2.2823379 -3.3220315
-8.945179 -1.1358511 -3.6387815
-5.0315523 1.4319271 -3.1021719
-10.958654 0.52028865 -3.6090653
-5.2424221 1.9967847 -3.1682365
-9.0384169 -0.8061977 -3.4759374
-9.1381245 0.416574 -3.3447006
-6.9484644 0.49755988 -3.2844715
-7.5239611 1.3465445 -3.1096332
-9.5962391 -1.1041107 -3.6319182
-5.8533435 -4.6360579 -3.1356575
-5.8853064 -4.6920309 -3.1904984
-5.3503642 -3.9704278 -3.3488195
-8.8377552 -3.5296545 -3.4533517
-6.5283618 0.40703097 -3.1029251
-5.7035332 -2.6867778 -3.3280351
-9.63515 -1.4368449 -3.5734656
-5.6011724 -5.0822835 -3.15221
-11.213787 0.24676843 -3.5676863
-7.134408 -4.3480411 -3.1744926
-5.2356501 -1.9772148 -3.2356658
-11.514243 -2.0730121 -3.7971153
-5.3392038 -2.438442 -3.3127382
-5.8185949 -2.6016343 -3.3056254
-10.431367 -0.5649274 -3.6332753
-7.0159407 2.1306415 -3.2727492
-8.929451 -3.6164534 -3.5013587
-6.2118368 -4.6569304 -3.1738846
-6.3109665 -5.1326785 -3.2129691
-9.3882341 2.8354204 -3.294544
-5.7325516 -0.62485671 -3.1885786
-6.4519529 -4.5407887 -3.1458843
-9.2247229 1.170864 -3.3455703
-4.6177158 2.3111591 -3.0472295
-9.5077457 1.8145916 -3.3433473
-7.5353646 1.4289221 -3.090539
-7.2330599 2.7803669 -2.9697859
-10.048685 -3.4979637 -3.5431936
-5.5365615 -1.2456988 -3.2158267
-8.2334156 -2.861197 -3.4388154
-8.2338858 -3.0817418 -3.4416077
-10.199768 -3.5637336 -3.5304289
-5.6528034 -3.6406975 -3.2535021
-9.2342768 0.49487165 -3.4776647
-5.6553316 1.4452792 -3.2032182
-6.242445 1.0799867 -3.1455238
-6.0294371 -0.75693673 -3.1633437
-8.0326118 -3.0820961 -3.426759
-8.0325565 -2.854542 -3.4252179
-5.7863803 -4.7406192 -3.1773612
-7.3290157 -0.48668751 -3.1205277
-5.7047396 -4.9725432 -3.2132778
-5.8494244 -2.4695375 -3.1949909
-5.8309493 -5.6405916 -3.1223412
-9.5359907 -0.49101126 -3.5131199
-6.2616544 -1.4469452 -3.1681576
-7.0316219 -2.4527237 -3.3093181
-6.6444159 -1.4181809 -3.160033
-8.1356716 -0.79874682 -3.3862889
-8.2316799 -1.9606336 -3.4645288
-11.236338 1.8764483 -3.6224415
-4.7619071 2.0180154 -3.0724664
-7.1396294 -0.48370031 -3.0964735
-6.0293665 1.5302083 -3.1480358
-9.6158533 1.9943033 -3.3663402
-8.9347925 2.0264518 -3.2978947
-7.032752 -3.2253513 -3.3145647
-9.7506132 -3.5497603 -3.5342581
-6.0226326 -3.1217673 -3.324472
-7.1318426 0.13674872 -3.2565598
-6.5151911 1.231908 -3.0075591
-9.6768169 -0.87972009 -3.6497691
-5.4412861 1.4023119 -3.0700755
-7.3286209 -2.1975846 -3.1661756
-6.4788713 -4.5179925 -3.2170441
-8.1295738 -2.6413326 -3.4335177
-6.1371717 -2.145452 -3.0795519
-5.9281178 -2.8617153 -3.258646
-5.929163 -3.0759776 -3.2508693
-5.8317966 -4.3727126 -3.0782006
-6.9182863 1.244285 -3.0395212
-5.7422571 -2.2463021 -3.213655
-11.950857 -2.6837325 -3.8946354
-10.135805 -0.89626253 -3.61834
-9.5546837 -2.6692238 -3.6540465
-5.3352766 -0.94620359 -3.18571
-5.4328041 -3.6995163 -3.2741604
-6.7334404 -2.9936092 -3.3023734
-9.428916 2.1544402 -3.5808797
-8.9125395 1.4681463 -3.2338395
-5.1147146 2.0535994 -3.081331
-5.6261191 -0.28900996 -3.1432817
-11.37379 -1.4219568 -3.7716513
-5.0542846 -1.3578124 -3.2104685
-11.137642 -1.1503277 -3.5857978
-5.0480242 -1.4258749 -3.2263076
-5.5458317 -2.5594275 -3.2319949
-11.83441 -2.8002453 -3.7979829
-5.2340012 -3.6131279 -3.197222
-9.2143021 -2.1553264 -3.6196053
-7.7358971 2.3716929 -3.2298498
-5.0286927 -0.09290199 -3.1148911
-6.1490564 2.5608721 -2.874089
-5.5357924 1.6152179 -3.0991421
-5.337162 -2.3264954 -3.2252719
-11.632081 -2.3644617 -3.772265
-5.1337609 -3.2465105 -3.2640836
-5.0221052 -3.3612082 -3.2770681
-11.317265 -3.2397432 -3.7689846
-11.057204 -3.340832 -3.7853112
-5.0257931 -3.4578705 -3.2910872
-5.0266609 -3.4837008 -3.2663403
-11.508457 -3.6102161 -3.8057258
-5.038496 -3.5762053 -3.2714293
-7.326088 -1.5450485 -3.1438034
-7.0316458 -0.46218029 -3.0996144
-6.9560089 0.80744761 -3.3918092
-5.8466644 -0.85801452 -3.1714442
-7.7282858 1.1710172 -3.2438519
-5.9052763 2.6029007 -2.8551595
-5.5333157 -2.2517245 -3.1749015
-12.119305 -2.6831365 -3.8789818
-6.8313384 1.1691823 -3.169631
-9.0988417 -0.45579353 -3.278625
-9.2255125 -3.5123599 -3.4931028
-6.2376766 0.72639883 -3.2292037
-9.7254534 1.9973545 -3.3896782
-5.7544432 -1.9298408 -3.1597385
-5.6589422 -5.2105227 -3.0633395
-6.2356071 1.1651335 -3.1266668
-11.491588 -0.89598298 -3.7527387
-5.2319021 -0.80644274 -3.1933246
-8.234292 -0.80089533 -3.3948171
-5.6324043 -5.7343073 -3.1648226
-7.4270105 1.2605047 -3.0697305
-5.7662749 -2.1373022 -3.1668534
-5.6471434 -5.7669311 -3.1714644
-10.537716 -3.5130532 -3.6978784
-4.8197985 -2.8140841 -3.192862
-4.7888403 -3.0365503 -3.1299858
-10.405069 -0.82328773 -3.4869406
-5.6216016 -5.6404891 -3.0986223
-5.8283515 -2.8628795 -3.2567549
-5.8457298 -3.0829756 -3.2373283
-9.2321053 0.13992386 -3.4376771
-5.535985 -4.3551722 -3.1022985
-9.1242228 -3.2129674 -3.464612
-10.036065 -3.6262715 -3.616869
-7.5272036 1.4251364 -3.2724056
-9.3265915 -0.44212863 -3.5424557
-7.0264902 -2.9958456 -3.3246834
-10.062617 0.63266879 -3.5857172
-6.0279198 -2.3572462 -3.2035272
-5.9901299 -5.6100702 -3.1611032
-6.1711464 2.6416411 -3.0430074
-6.0288897 -3.4001369 -3.282253
-5.6442537 -3.6783688 -3.3200712
-7.3179717 1.218891 -3.0806348
-9.1128893 -2.2677088 -3.3917696
-10.030214 -3.7953656 -3.6630242
-10.049867 2.0503342 -3.4518847
-7.5298643 -2.9599872 -3.3986833
-6.3293452 -2.736181 -3.3154054
-6.2471409 -5.3758297 -3.0757906
-6.2259936 -0.33051887 -3.1262038
-6.7258906 -1.7388302 -3.3520377
-5.0340643 -2.0174508 -3.1949618
-10.754009 0.51007092 -3.554687
-6.1379571 -3.0774879 -3.2724485
-6.1414452 -2.8698983 -3.2747612
-7.439106 -2.7349949 -3.1934786
-11.720254 -1.9433519 -3.7899692
-5.8610506 0.084413588 -3.1281018
-10.845671 -1.0284868 -3.6377025
-11.418007 -1.3267865 -3.7294738
-6.3741927 -5.87217 -3.2227426
-10.036814 1.7484241 -3.4902604
-7.628201 1.3942508 -3.2390211
-10.721781 -1.8717285 -3.654768
-10.602959 -2.2684035 -3.6600747
-6.1299949 -3.5836005 -3.3311174
-4.8256559 1.441655 -3.0387225
-8.9832478 -2.4625409 -3.3833549
-8.9965181 -3.4525886 -3.6300642
-10.856906 0.78485918 -3.5829363
-6.4867043 -5.2945018 -3.2424223
-8.1336508 -2.7172694 -3.2767723
-11.153111 -0.92099714 -3.6543021
-4.6701131 -1.0583106 -3.1629601
-7.5261831 -3.221802 -3.3553836
-6.5404968 1.1680275 -3.137841
-7.6379905 -2.2688308 -3.208744
-6.5450807 -2.3683507 -3.2292516
-11.049993 -0.7967875 -3.6568089
-4.3201499 -0.70384336 -3.1056349
-12.536242 -1.0439138 -3.800261
-7.031014 -4.5526876 -3.1758785
-5.9483008 -3.8551488 -3.2632368
-10.623838 -0.2543253 -3.6033773
-12.371016 -1.0615624 -3.7725008
-9.740221 -2.9086163 -3.6598015
-10.406843 -0.55380344 -3.5413117
-6.7341881 1.1751388 -3.155015
-7.1344585 1.1700813 -3.1966944
-7.6166 1.4652839 -3.0878539
-10.422142 -0.89209253 -3.6418242
-10.930557 -1.2266897 -3.6564059
-10.532215 -1.2312945 -3.6112609
-10.928832 -1.3309765 -3.6634269
-4.6995525 -1.6157142 -3.2337871
-10.128671 2.1891043 -3.5152903
-11.236372 -0.42721355 -3.6652074
-4.9319153 -0.49402434 -3.1679378
-11.219404 -0.50308019 -3.6574814
-10.439095 -0.71827441 -3.6090143
-7.627532 -2.8962817 -3.3166568
-7.5493717 1.0824552 -3.1006093
-8.1315546 0.47982734 -3.2215602
-8.0217743 -1.5194297 -3.2902195
-10.543856 -2.2590017 -3.7043686
-10.835925 -1.4399728 -3.6837859
-11.207902 -1.4697779 -3.6475945
-4.638001 -1.6485167 -3.1444972
-11.174583 -1.5765527 -3.693538
-10.732274 -1.8027738 -3.6512542
-10.881058 1.5249653 -3.5986333
-7.3344684 1.1685388 -3.2123973
-10.403724 -2.3932326 -3.705776
-8.3323755 -3.0821226 -3.4473522
-8.337532 -2.8568819 -3.4538326
-7.8787723 1.3749526 -3.4095008
-8.4061422 -0.79576033 -3.2462416
-7.3370295 -3.0364668 -3.4013364
-7.6364112 -3.8397875 -3.4070761
-6.3807721 -5.7654901 -3.3370507
-7.2057776 1.6488345 -3.0130999
-8.4286757 0.7174294 -3.2719326
-10.311162 -0.85202622 -3.5660641
