# .PCD v0.7 - Point Cloud Data file format
VERSION 0.7
FIELDS x y z
SIZE 4 4 4
TYPE F F F
COUNT 1 1 1
WIDTH 1612
HEIGHT 1
VIEWPOINT 0 0 0 1 0 0 0
POINTS 1612
DATA ascii
21.59687 4.0188351 2.4635983
21.697899 13.106061 2.3931212
22.115698 13.513725 2.3006628
22.70446 22.431046 2.9477241
20.802368 33.712715 1.8972734
22.207199 14.358929 2.3311276
21.310574 22.610735 3.0668135
21.70573 41.206436 2.9328008
21.110437 41.47979 3.0717826
23.106554 42.758526 2.7484577
21.99851 46.671837 2.8754058
21.116865 23.341972 3.2157292
23.603584 19.316833 2.750783
22.902372 35.670036 2.8250644
22.926989 20.015684 2.1533084
22.65892 38.1264 2.0526266
22.418613 15.734435 2.9752851
21.301298 14.967281 3.1583474
21.45896 28.136126 2.9389775
21.403374 32.863014 1.8158889
21.030973 17.964766 2.5817432
21.092091 22.732601 1.8899231
21.906881 21.695175 3.1087439
22.547192 11.073533 2.2872486
22.314995 29.468369 3.0218678
22.118921 32.777824 2.1442151
23.110369 23.678555 2.7642055
23.49181 27.320356 2.7623944
23.098909 25.670271 2.7783148
20.404633 34.95525 1.9874108
19.708092 38.447289 2.0035427
19.711533 39.323807 1.9895622
22.204557 45.46199 1.5993737
23.113073 46.972713 1.3922094
19.900629 47.056358 1.9302118
22.320675 47.271374 1.5315405
20.702671 47.458263 1.8283814
22.404762 48.306232 1.5663426
22.60466 23.925659 2.0968668
21.804386 35.314884 2.2517002
21.808458 36.060982 2.2599363
24.395298 37.166409 2.545027
21.99489 17.4874 2.3677359
24.824671 31.059706 2.5615389
20.956861 23.248981 2.5200467
21.063314 19.888937 2.5291321
23.90192 46.737892 1.2801682
21.174765 13.611582 2.5360656
22.785271 19.321196 2.053283
20.645979 6.1056147 2.1141016
21.924711 8.615612 1.6788647
22.700022 32.819496 2.8690541
23.004393 45.063858 2.7569761
21.799603 45.462719 1.661685
23.397404 46.091423 1.3951004
20.299604 46.268585 1.9471692
21.106958 46.307678 1.7700893
22.58267 47.464756 2.7047017
24.273863 31.370325 2.5338373
20.592394 45.302143 1.7966719
21.823015 27.703907 2.4408867
21.814703 28.193937 2.4324334
22.695761 39.901379 2.0623527
21.905045 17.064638 3.0899734
23.928009 5.9547052 2.9171171
22.112856 40.051834 1.986244
21.008562 17.874174 2.4567964
21.706469 40.039841 2.9101579
21.111937 15.290139 3.0863926
21.382643 14.550559 2.505029
21.813166 28.266838 2.3921623
21.417614 19.031517 2.4330261
19.663197 28.545591 2.1197369
23.379465 8.9218702 1.4498075
23.529024 13.028563 2.8666451
20.106077 32.490768 1.9025865
20.894978 29.926046 1.8798054
20.508192 32.552479 1.9425308
20.30743 22.830868 2.0256178
23.40023 45.601151 1.3593669
21.302004 17.375639 3.2042105
22.841755 12.054542 3.0210176
21.192434 42.713123 1.7766368
21.025963 3.6689606 2.702538
22.796761 33.881073 2.833812
19.725725 28.666576 2.015105
21.816137 3.6422737 2.5691035
21.391151 8.1871538 1.8165823
22.979649 8.6010494 1.5261985
22.857996 12.052912 2.9038448
23.782003 16.396339 2.8363595
23.099398 22.431314 2.8918965
20.808146 27.090931 1.8977762
20.804041 29.705811 1.9023205
22.509068 32.11657 2.2021825
20.702518 22.82888 1.960127
24.012737 16.526011 2.7377701
21.185143 36.296375 2.3193603
22.852001 20.929892 2.7921212
21.916889 26.923313 2.3210855
22.695938 38.376076 2.1010644
21.10887 27.630415 2.5092247
20.903816 27.154306 2.5204842
22.599159 35.737976 2.7449026
22.306936 31.352663 2.9118795
21.204315 17.162281 3.2385759
21.426159 22.633053 2.3451693
22.175434 28.298822 2.2932897
20.266415 5.9900994 2.1113605
22.086765 36.367619 2.7784383
21.708969 45.970074 2.987134
23.10095 11.833923 2.8888571
20.725546 23.511581 3.1859968
23.634445 29.694836 2.6137664
23.201218 42.983662 2.7170415
23.224731 43.086269 2.6668184
22.909409 45.589184 1.4371903
21.805731 15.104105 3.0507739
21.294935 35.309071 2.9967976
21.809795 34.800659 2.25228
20.871225 30.188749 2.0713165
24.589052 17.879168 2.5731802
21.068144 17.948723 2.5923762
20.406635 34.198338 1.8848989
23.88908 12.467236 2.8160701
23.694763 13.235711 2.8512173
24.208435 23.734592 2.66537
20.593931 38.711494 1.8650827
22.602549 22.253607 2.9353025
20.216717 22.826241 2.0377989
20.011984 22.831612 2.0700092
23.174856 36.459122 2.8961058
21.802246 44.101254 1.6728777
21.804869 44.397339 1.676199
22.600967 45.905422 1.4917048
22.800241 48.428471 1.4561249
22.647043 34.80547 2.6668777
22.895454 19.763744 2.2563376
21.909286 36.154884 2.2269766
20.301973 22.508177 3.2108638
20.987225 38.052261 3.0005679
20.896027 26.140291 2.5105109
23.0912 8.2074175 1.5575749
21.789898 8.2231445 1.7677284
21.883204 3.7002878 2.601254
21.502914 8.1695795 1.8023179
22.434893 8.2586889 1.6651211
22.414331 8.4851665 1.6660976
23.859779 42.430889 1.8300287
21.271183 42.666046 2.4913709
22.286366 12.274261 3.1049044
23.507881 12.787004 2.8940156
21.177576 12.901255 3.3006496
23.124626 14.491374 2.9515297
23.224892 16.7857 2.9779909
21.930063 30.790535 3.1576307
21.708572 27.203629 3.0893056
21.232985 17.182693 2.4925568
20.502874 37.960751 1.8974855
20.208002 38.678013 1.957538
23.112103 39.593445 2.741904
20.100046 39.33168 1.9577583
22.710657 44.841125 1.4979328
22.697927 45.152332 1.5108798
22.202126 48.304207 1.601142
20.920155 38.15564 3.2198963
22.912436 38.286549 2.053251
22.912985 18.185699 2.2255528
24.712507 29.453903 2.5813639
21.092682 29.61215 2.4627106
19.904215 38.025902 2.0578191
21.644789 31.805021 2.297498
23.636871 7.6451111 2.9401994
19.191545 33.302898 2.223242
22.205381 25.636385 2.9666295
19.727684 29.14249 1.9617704
20.913618 25.622257 3.1821005
21.106735 27.040255 3.0947289
22.304432 10.675608 2.9959011
22.841715 14.856343 2.126987
23.419662 15.631354 2.78194
22.103628 25.624573 2.983731
21.385939 45.297932 1.9255257
22.293015 45.710892 1.739457
20.703056 25.030916 2.0397909
20.327993 25.223143 2.0317724
20.411886 26.391375 2.0511646
20.223093 26.69273 2.0801811
20.415678 28.312016 2.0136256
20.490881 28.582914 2.0311656
20.698261 28.812609 1.9782048
20.497135 29.129953 2.0109639
20.602829 30.505672 1.9945726
20.493616 30.517536 2.0075264
20.411875 30.797724 2.0156651
21.213593 31.625214 3.1602528
20.799925 33.267479 1.9390321
20.41206 33.573807 2.0003204
23.662851 26.535654 2.6123295
20.603666 36.996563 1.9048553
22.701042 42.010353 2.818532
20.396681 31.382309 3.1248839
20.923338 16.742035 3.2279124
22.225462 36.290283 2.1725855
21.826397 29.114368 2.4131877
21.781773 24.761477 2.514545
21.505548 42.632183 3.0300019
23.20557 37.056671 1.9526277
20.89488 28.99262 1.8662241
20.98064 28.143507 2.9772174
21.093002 14.457156 3.0547574
19.913467 33.677177 1.9549562
22.825161 20.092873 2.8704925
23.818748 11.362349 2.8349006
22.300362 32.769909 2.8193772
22.003963 32.866638 3.057503
22.129814 24.552912 2.1933181
20.996038 29.261713 1.8876326
20.605188 27.750675 2.0024047
20.799334 29.898422 1.9363816
20.807999 30.332771 1.9043019
20.803734 33.803032 1.9261359
20.806877 35.708351 1.895178
20.004663 35.934383 2.0047219
20.802895 36.5895 1.8581526
19.821386 37.306751 2.0171988
20.308516 37.396 1.9802213
20.405945 38.459675 1.9400202
20.704317 38.581345 1.8766218
20.701418 38.996136 1.8879299
20.691956 39.209312 1.8814061
22.103893 39.522907 2.8657172
23.50005 32.498779 1.9474955
22.184029 40.582531 2.8257108
20.808891 25.147573 1.9418033
21.812204 22.946154 2.3453484
22.736858 39.446583 2.0331867
23.42565 45.18367 1.0621735
21.733427 39.757988 2.2424877
20.900806 25.958269 2.5412982
21.300489 24.858322 2.4092352
21.007589 24.848591 2.5407343
22.291641 32.881355 3.0452969
20.20528 15.524303 3.2803164
20.422073 10.879607 2.1447065
21.483894 32.144386 3.0883305
18.937786 24.679983 2.2401543
22.709526 25.631149 2.8843009
23.876867 17.028919 2.691349
20.115515 34.867828 2.0100689
23.005934 37.919506 2.758956
20.507738 37.837193 1.918716
22.716007 48.046154 1.5969876
23.005608 38.22683 2.7666359
20.802807 38.05175 1.8647666
21.100965 38.719826 3.1014392
23.217899 39.203354 2.6889708
21.709707 40.359631 2.9292941
21.908052 40.663353 2.9114735
22.904549 41.957111 2.6988177
22.69466 37.987858 2.0745926
23.593277 38.019733 2.669503
22.502369 44.837326 1.5308377
20.870016 28.930923 2.5105357
22.506584 48.300533 1.55053
21.209131 24.82152 2.4332705
21.705118 24.783749 2.4426153
21.395817 24.858059 2.3953562
21.396841 24.783722 2.495343
20.842888 15.5467 3.2864561
20.802912 25.096354 3.2151954
22.702305 42.610462 2.934922
21.890516 32.161972 3.0296233
22.804888 25.629435 2.8707905
23.207384 32.818336 2.7930813
23.742594 30.860964 2.6438925
23.307507 37.561169 2.7426496
21.711338 38.230118 2.9668188
22.700241 38.233555 2.8136423
22.806335 22.249821 2.9032946
21.808338 40.136276 2.9303274
21.805702 40.669098 2.923465
20.803581 44.05732 1.8724771
22.723761 34.773232 2.1027384
22.697485 37.564659 2.0364738
23.489527 38.500076 2.8558924
22.524961 41.452053 2.1119907
22.887636 16.074015 2.1441362
21.697575 36.538826 2.3131363
21.950495 13.796084 2.3265588
20.91526 26.923666 2.4918225
21.700058 28.17852 2.2303452
24.533806 39.890644 2.4678984
20.716993 5.3370585 3.3523726
22.306751 33.388004 2.8437796
24.965471 46.627281 1.128163
21.808594 9.8594952 1.6138582
22.510679 8.5959911 1.4226253
22.191914 26.614397 2.2880666
19.997713 25.454075 2.0856228
20.209087 25.752775 2.0548947
20.839348 25.182045 2.4746273
20.920296 28.761524 3.1928787
20.120712 29.683804 2.062216
20.313128 32.730789 2.0235994
23.309134 37.702038 2.718297
23.591923 38.095535 2.675096
20.215712 37.931221 1.9908998
20.112051 39.426445 1.9611751
22.400562 41.477436 2.8660924
20.24465 38.106888 1.903998
22.597342 40.431751 2.9937282
23.079304 19.048979 2.1673629
23.086691 15.937482 2.1120265
19.980955 29.539928 2.1254957
22.702938 44.855412 2.8146706
22.39926 23.936214 2.9481831
20.797754 10.825282 3.2792442
22.200451 39.544842 2.176882
23.00408 16.851299 2.9312196
23.519417 9.0890379 1.2382801
22.193501 24.660418 2.2079663
20.20282 11.073218 2.1379907
22.640528 9.7576361 1.4140446
23.811272 10.383159 2.7208781
22.421501 12.265162 2.9469359
22.144264 12.552069 2.9821835
22.08725 12.895117 3.0068939
20.481283 15.501736 3.2875521
21.002247 22.922792 1.9203975
20.420288 27.748758 2.0159962
20.215141 28.306435 2.0515964
20.881035 28.669205 3.0835164
19.995066 33.252228 2.0539839
20.114157 33.792713 2.024641
19.715673 37.226898 2.0223289
19.792637 38.687256 2.029094
19.778679 39.068142 2.0385876
21.410866 41.605408 3.0090976
21.010889 45.339508 1.8047323
20.815653 38.091969 1.8015213
20.931385 16.227098 3.0552981
23.711481 16.776827 2.73595
23.052486 37.43808 1.6524001
23.115875 19.759972 2.2087712
23.043007 20.02763 2.2032712
23.705656 47.377438 1.3226987
21.603567 5.3063331 3.2662146
23.686348 9.9077463 1.5806209
20.985249 27.286787 3.249444
21.829378 11.084511 2.4100134
24.057999 31.831848 2.7135355
21.308184 17.930861 2.6641111
20.082285 38.083012 1.9156675
23.434338 32.242794 2.6764667
22.107061 3.642308 2.5234423
21.937048 4.8935566 3.3416741
21.68432 8.6055593 1.7353734
21.693966 8.9286947 1.7284356
23.162085 9.5307026 1.4973091
21.324982 9.7811289 1.8971933
22.350283 47.037766 1.4148219
23.105846 44.999393 1.3319042
21.627905 10.660404 3.2254446
24.36344 11.388383 2.758441
22.814804 25.917593 2.1284025
21.99651 21.899803 2.288929
22.101561 30.865387 2.8589311
20.11018 24.429296 2.0234592
19.715557 27.177565 2.0615182
20.409948 25.762644 2.0200648
20.301331 28.300564 2.0521295
19.829159 33.828911 2.0746791
20.500935 34.242928 1.9385632
20.022894 37.304104 2.0011644
20.40848 37.927887 1.9560978
21.892664 15.212713 2.4858706
23.394716 40.452137 2.6764176
23.198704 32.757111 2.0955338
21.704319 40.662785 2.9401183
21.802794 41.205547 2.9165442
20.701521 44.086414 1.8410826
22.006887 28.188059 2.1750884
24.430502 37.112179 1.6894524
22.460041 39.461094 2.0948291
20.828876 30.847347 2.5038626
23.465166 26.864048 2.8360643
20.727814 20.250383 3.2278142
21.017876 6.804965 3.2828782
22.558043 42.150875 2.1662774
23.194426 15.748421 2.1770983
22.016747 39.205414 3.0277941
21.305513 32.375919 3.1044669
22.190388 8.3897123 1.6681107
21.412594 19.859659 2.4333994
23.136869 24.691692 2.0137489
23.202711 24.897331 2.0661733
22.479544 9.8240776 3.1159508
22.716068 12.812286 3.0186186
24.092726 13.272911 2.7990482
24.069817 13.374498 2.7997251
23.372335 13.667839 2.9085689
21.389593 14.283308 3.2836192
23.814068 16.501156 2.0262489
24.008381 16.943201 2.780849
21.630428 33.3181 2.2867775
24.206434 12.043745 1.9704466
24.317076 13.163997 2.7060065
19.294935 32.670872 2.0963418
20.805418 28.774502 1.8825331
20.007038 36.913605 1.9809997
19.545416 38.888939 2.0582962
20.006573 39.225834 1.9720057
19.996546 39.440556 1.9741032
21.91073 14.373737 2.478544
21.706026 41.289417 2.945991
20.305258 43.336128 1.9151574
19.649252 43.35799 2.006418
20.396523 38.098732 1.8642657
19.702108 33.088718 2.0501702
22.500458 37.775681 2.0992169
22.570536 38.28923 2.0752363
21.50771 28.184017 2.2583964
23.640427 46.726315 1.4951813
23.110296 15.565601 2.1965029
21.985403 18.258915 2.3434098
20.807554 30.621214 2.4312274
20.913616 27.595095 2.4717469
21.902945 29.037909 2.9702187
21.051943 17.854038 2.6677513
20.83493 32.415344 2.3350329
19.349106 36.134315 2.0005748
23.112 9.4498529 1.4936621
23.106222 12.244571 2.9648335
24.160709 14.408735 2.7473481
23.904789 16.933113 2.8099971
23.791351 19.472591 2.8173325
23.494467 38.219944 2.6785862
21.800007 48.055004 1.7401198
23.293873 38.752968 2.7024837
21.595551 39.5093 2.9479158
21.116899 40.133991 3.0436881
21.470423 17.543375 3.0363131
21.604084 41.291672 2.9596288
21.20912 44.075176 1.8225513
21.20425 44.100307 1.7653283
24.111311 24.062847 1.9522754
21.264336 28.287144 2.4159427
22.483732 37.888981 2.0932796
22.208279 41.597919 2.2146263
22.797083 19.70072 2.7696078
24.484751 14.18499 2.6041219
23.080503 17.455957 2.1559205
22.899275 38.690323 1.9974337
21.560452 23.752844 2.4450781
20.703003 36.447987 3.0822325
23.012163 38.607937 2.10028
24.419512 32.295124 2.5376449
21.499365 32.290733 3.051393
21.393919 24.336048 1.9663395
20.932753 15.259127 3.30269
22.405901 26.381556 2.9186399
22.621073 31.400032 2.1192224
20.003637 36.151566 1.994313
21.010572 37.389702 3.0732167
22.007065 38.756294 2.913985
24.393847 32.101162 2.5592821
21.307739 40.35323 2.9989939
22.104143 40.445435 2.8930316
21.609137 40.667515 2.9544671
21.601416 43.10355 2.9365473
23.017977 19.132788 2.1986184
21.512104 37.950401 2.251529
21.508673 39.114735 2.2372453
20.829081 27.335402 2.5124111
19.917017 33.167385 2.0487216
21.008099 15.254906 3.270869
23.589991 43.027527 1.8992512
22.804096 9.7582369 3.040781
21.713448 32.241695 3.0787923
24.13905 18.347046 2.7687712
23.315384 27.264469 2.7274528
20.3909 26.476128 1.9415395
24.391422 30.856112 2.543376
19.997101 35.968796 1.9655581
22.408215 38.422169 2.8803916
24.012218 34.75481 2.5603089
19.649269 38.909035 2.0249505
19.621223 39.021023 2.0003574
21.707006 39.52314 2.9317772
21.5014 43.43383 2.9521022
21.528358 44.251667 2.9481647
21.109509 44.10289 1.7789365
22.907949 44.704376 2.8242381
23.489841 36.673672 2.7831373
21.102985 29.756565 3.1289015
25.092302 47.662052 1.1052852
21.190193 25.611292 1.7441521
20.851391 26.450171 2.5404315
21.242487 20.143642 2.4914057
21.701565 25.803167 1.7905624
19.997297 28.856298 3.1941931
20.704826 32.313332 3.1354268
22.400747 24.395214 3.0804136
20.297993 15.134238 3.3062813
22.705751 21.898197 2.9675567
21.239985 18.395241 2.4865832
23.11891 48.518188 1.6201164
23.28248 15.340878 2.9274583
23.637592 17.038387 2.8712687
20.244598 32.301495 3.1835363
23.908197 18.426987 2.8288102
22.858339 37.314087 2.909894
22.30501 26.380966 2.934227
20.981501 19.664661 2.460192
21.599268 17.8381 2.3004029
22.006411 37.912716 2.9183609
21.514648 38.137192 2.9771042
23.409334 38.537865 2.7020252
20.306078 38.36459 1.9443741
19.815174 39.161995 1.9910524
22.821976 41.931355 2.7182226
22.208399 41.915001 2.8764608
22.905273 42.656719 2.7565489
22.30328 42.669441 2.8598261
21.513004 28.142067 2.3332651
22.5926 36.844997 2.0796258
23.406843 44.085617 2.5561342
23.204601 46.653011 1.1315129
20.855276 30.810181 2.4659679
20.206514 30.103325 2.0115557
20.172033 45.288998 1.8589754
22.504276 15.847201 2.3203824
22.103453 32.196121 2.9456186
19.913603 24.430754 2.0490174
20.515219 25.231272 2.0083892
20.401903 29.143373 2.023442
20.308969 29.662582 2.0218565
20.927935 29.801542 2.4287677
21.102781 29.922611 3.1599724
20.390757 30.278233 2.0410185
20.194277 30.824268 2.0379179
20.801653 34.24268 1.8914341
20.315065 36.018532 1.9899954
20.60537 37.20871 1.9006951
19.728003 37.736927 2.0027471
20.101892 38.146938 1.9858173
20.303612 38.558533 1.9848754
20.299114 39.075909 1.9759426
21.400097 44.448692 1.8100966
20.278404 38.120129 1.8888261
20.237385 37.80743 3.1976719
22.959175 19.732944 2.1940484
22.982901 18.398615 2.1832685
22.510944 39.755466 2.058877
23.084148 16.093565 2.1617727
23.020998 16.55337 2.1927915
21.904362 22.748896 2.2963951
23.415501 8.2855406 1.4175917
20.906483 48.441818 1.7655982
22.196457 47.134682 2.8543921
19.525057 25.794777 2.1156759
20.907225 26.216667 2.5081038
22.093906 28.637346 2.1721632
23.11241 34.375694 2.0800261
22.170237 22.529276 3.0709774
22.491108 20.481977 2.2769413
21.79911 9.7451401 3.1848314
21.258287 14.648804 2.4649172
21.869093 21.881012 2.3184428
21.090214 24.387642 1.9162925
22.698917 36.917942 2.8911829
22.509228 31.422453 2.9837568
20.502251 25.766748 1.9994851
21.117058 27.17358 3.1746745
20.306492 27.132864 2.0276144
22.504469 36.44577 2.8169937
23.397633 36.538509 2.6891305
21.302855 37.59853 3.0046971
20.109701 37.956776 1.9635143
20.601198 38.052422 1.8969671
21.803097 38.453751 2.9368532
20.403275 38.635033 3.1714461
21.173477 48.280334 1.6179336
23.988295 24.37187 2.6645544
23.723158 17.941811 2.0557344
19.241276 29.178797 2.1423287
23.217527 36.979248 1.9267638
21.825569 27.933599 2.391252
22.644043 35.971813 2.0741372
21.500254 37.068661 2.2178171
21.551073 38.334763 2.2402875
21.616295 39.452618 2.2218602
20.900393 46.274021 1.839396
23.048233 47.823292 1.5862652
20.626341 39.310238 2.0676045
19.820255 34.146969 1.9326372
20.913067 25.988914 2.021868
20.000532 11.937105 2.1609101
20.519739 33.451286 3.2050176
22.606218 16.625158 3.0001693
23.496117 34.5942 2.7470648
22.784348 8.1926384 1.6043167
24.102337 13.105188 2.8146379
22.381962 13.126025 3.0800824
21.614021 13.964537 3.2091093
23.419106 7.2228155 2.9540384
22.901941 24.063965 2.8451207
23.7787 18.331223 2.8248448
20.615446 29.887091 1.9554324
24.049273 30.829674 2.8110635
21.605356 36.448647 2.9563236
22.399097 22.785746 2.954829
22.901041 22.788149 2.8845468
23.704676 37.571232 2.6742699
22.204544 42.758549 2.8916776
21.087097 38.069557 1.7406952
20.803659 39.323338 2.4066088
19.144672 29.388514 2.0683162
22.692318 36.37114 2.1022165
22.97237 15.540186 2.2259784
21.295757 28.34086 2.3399456
23.489141 35.826359 2.6229055
23.909752 32.913601 2.6875792
23.701389 9.6957951 2.7725785
20.879993 28.912619 2.0919373
23.199322 48.40123 1.4481838
21.093702 34.353432 1.8282264
19.525644 47.998669 1.9787664
23.813082 48.34343 1.269477
23.397717 34.633759 2.7067971
19.728405 8.1321115 1.7282202
22.742018 45.244587 2.9468718
21.374153 24.636164 2.365181
22.921919 30.512213 2.1337466
21.997913 32.157173 3.0104537
22.614311 36.9025 2.9009335
21.814377 32.156731 3.0362494
23.911713 32.202011 2.6463335
21.811314 32.289497 3.0037873
19.189497 26.133186 2.1567435
22.232178 32.151348 2.18084
22.104378 31.236202 2.0930374
23.707405 17.595701 2.7953138
20.402306 36.023468 1.9730082
20.406599 36.150318 1.9364468
23.005671 22.253876 2.8728065
20.212532 38.271584 1.9475017
21.49877 38.696964 2.2269697
20.063944 39.820324 3.2849002
20.923143 41.181301 3.0893133
21.503792 42.126099 2.9907091
20.414314 44.621624 1.8686386
21.669436 39.555725 2.263696
23.508358 10.975378 2.810425
22.792892 31.501244 2.126476
22.88192 8.5291729 1.3637034
21.861462 18.77844 2.3026118
22.594084 39.503147 2.0809741
23.330175 45.462181 1.1264622
20.215027 48.432987 1.8699859
21.640678 15.149086 2.3951693
20.409485 9.6924477 1.7690915
19.917328 38.246185 2.0476203
21.631224 28.771515 2.3476298
20.989567 45.299053 1.7262448
18.405157 36.663685 2.2500114
22.199505 9.751791 1.481949
21.905176 11.531179 3.0287287
21.104345 11.568744 3.1914852
22.813587 24.825827 2.8423841
21.40247 15.101745 2.4784346
21.896683 32.158981 2.2281275
23.172657 14.850686 3.005466
20.935125 28.368002 2.5235248
20.217077 29.145439 2.0483093
20.813766 30.428366 1.9250424
20.199209 34.642612 2.0167408
20.029266 36.021648 2.0401869
23.102783 22.254053 2.8507497
20.106119 37.395378 2.0109792
20.211464 38.371506 1.9614979
19.704914 38.467735 2.0587077
22.698462 39.477093 2.8316684
23.512924 39.517288 2.6527338
19.73991 37.303326 2.0379536
23.592842 44.068352 2.5165079
23.202583 44.808777 1.4601088
23.302691 45.247051 1.4209393
21.101933 45.652302 1.7911041
21.51977 35.322144 3.137362
20.308733 47.737694 1.9656607
21.805073 37.477379 2.9646506
21.910906 48.485718 1.6621386
21.793615 26.202 2.3953521
22.934229 9.7248201 1.3761693
21.50666 25.249781 2.2309525
22.590258 18.713455 3.0355816
22.605486 34.808361 2.11377
21.711603 30.129244 2.2890162
24.109406 9.0955534 2.7090452
23.032009 47.125286 1.184901
23.397755 32.910339 2.7687957
22.717499 45.280396 1.6047698
20.797499 33.179844 1.9095778
20.611193 47.966644 1.8915155
22.451473 46.000999 1.4422981
19.579781 37.845428 1.8391027
23.514002 6.820188 2.949898
19.419573 48.427895 1.9757549
21.625628 34.67944 2.9135292
21.873228 23.031399 2.4024773
22.104681 10.663828 3.0207279
22.027184 11.488211 3.0080512
21.919395 8.004653 3.2583158
22.40729 13.420034 2.9327967
24.444454 14.270153 2.757663
20.247902 26.153315 1.9454533
21.021156 25.942133 3.1737533
23.31185 27.31996 2.7912328
21.948513 26.096769 3.0498676
20.701366 33.400539 1.9108512
20.211845 38.589199 1.9551036
23.604687 38.753555 2.650713
21.100731 39.518211 3.0236185
22.906534 46.400955 1.4901705
23.404568 36.725964 2.7265024
20.414478 25.232319 3.1588874
22.974157 16.974964 2.2327044
21.302267 31.528954 3.0979817
23.707607 34.635048 2.6684446
21.697315 29.403025 2.2818336
22.468525 36.453484 2.6854031
22.53727 36.276203 2.0735705
21.238464 15.317546 3.0121796
22.343742 38.627129 2.2147598
22.452374 39.59343 2.0832796
21.429174 39.744232 2.2825875
20.912291 24.930641 2.4985063
20.829519 26.692348 2.5411198
20.807985 27.711533 2.4982467
21.30028 8.7382135 1.7279279
21.596449 8.137948 1.7792771
23.395042 8.9973211 1.4760358
23.061117 9.8252726 3.0263956
22.425453 10.167788 3.1384997
23.80953 10.665982 2.8830433
22.952841 10.708493 3.0374515
23.713627 12.815601 2.8835578
23.703564 45.240143 1.3418261
22.985931 14.278649 3.002058
20.64138 15.072503 2.585566
24.260601 15.706032 2.6738489
24.109264 32.701706 1.7807535
20.400784 24.335724 1.9736413
24.022076 32.726692 1.8151542
21.826569 24.973562 2.2931809
21.056295 21.865166 2.4659708
20.912741 26.694096 3.3049586
20.793468 28.469023 1.8821344
22.220022 31.436085 2.2631977
22.510998 32.46677 2.9326205
20.801201 32.950573 3.1292574
20.000011 37.211197 1.9850394
19.71516 37.43539 1.9947796
19.912603 38.271362 1.9771059
19.792778 38.896519 1.9993837
20.50535 38.898663 1.9070597
22.920515 40.345078 2.7421575
21.313129 40.44614 3.0210562
23.199018 40.534622 2.7292371
22.993364 40.976463 2.7409656
21.006224 42.632751 3.1083665
20.990248 36.467796 1.8522445
22.217594 36.902279 2.9549115
22.575693 32.154404 2.7619081
21.394148 25.30032 2.4493656
23.065212 38.149139 1.6572477
21.384056 8.459527 1.8325341
21.192364 17.912498 2.5845203
21.305147 29.666739 2.3032482
20.828474 26.162853 2.5635331
23.03949 45.393505 2.596524
19.916531 38.051033 1.9999902
19.888199 38.097298 1.9277043
19.990475 37.065571 2.0047736
23.223316 44.679226 2.7052393
25.224091 46.835789 1.0696001
20.798786 9.524085 1.8855896
21.900066 10.986866 3.1992357
21.895809 11.218529 3.1982923
23.000401 12.913306 3.0232842
22.999744 24.065016 2.8245683
22.403799 24.062006 2.9214199
20.710987 32.512177 3.1619594
22.050535 32.27956 2.0922837
20.916189 19.652473 2.4714012
21.116875 32.293987 3.1240499
19.803715 35.534298 2.0175459
19.904974 36.271282 1.9744258
21.020884 37.072014 3.0618281
19.905378 38.172466 1.9760402
20.313965 38.904911 1.9336326
23.403252 38.621651 2.7289622
23.48723 38.747253 2.6744144
20.003098 39.342106 1.9630712
23.304359 39.082336 2.7071483
21.003851 42.97171 3.0624499
21.406029 44.476894 2.9570897
21.312845 47.061275 1.7118192
21.686289 48.437431 1.6429936
23.018459 16.856457 2.2088652
22.901571 16.973597 2.8209872
21.830976 25.058947 2.4304895
21.890987 26.565399 2.2482533
21.959066 17.48134 2.4029562
21.300158 13.137783 3.2933924
21.411345 25.23947 2.2563298
21.90521 18.716566 3.1566238
20.666656 39.013023 2.0454884
21.803455 4.7740335 2.4825006
23.102736 46.930656 1.4501776
21.303043 46.402744 1.7476901
22.014227 8.7987127 1.4837974
21.355967 7.7934389 3.3881354
21.331125 9.1916904 3.3514628
21.319059 9.5090857 3.29476
23.704233 9.6386518 2.9526236
23.669687 9.847477 2.9580231
23.566965 10.483445 2.9664907
23.535105 10.678478 2.9698889
22.965525 10.737851 3.0617456
22.384739 11.013777 3.1531477
21.809025 11.218184 3.2047756
23.721201 11.222005 2.9329166
21.300303 11.259447 3.3138812
21.31517 11.442492 3.2672474
23.397501 12.047128 2.2160523
22.827524 11.883965 3.0718482
21.279001 12.884454 3.3021624
22.416592 13.198746 3.1082556
22.184092 13.497467 3.1437602
22.191713 13.646095 3.1045694
21.913107 13.647216 3.1673706
21.898796 13.761291 3.1818836
21.488018 14.268955 3.247627
21.298952 14.276386 3.2918539
20.840952 14.67296 3.352546
21.876434 14.815538 3.1784155
20.82939 14.809394 3.358506
21.293978 25.813429 1.8536795
21.218824 16.278061 3.2979443
21.822947 16.567137 3.191534
21.232388 22.771984 2.4087327
22.567942 17.121016 3.0730636
21.649729 18.001566 3.2269223
20.902443 26.430346 1.9016342
22.897251 15.281317 2.2512836
20.10701 34.994125 1.9854919
20.107264 35.309418 1.9837114
20.112112 37.206062 1.9770536
20.111778 37.424541 1.9674512
20.098717 37.647293 1.9571091
20.196148 38.709156 1.9255282
21.589487 38.918728 2.207293
21.704653 38.675339 2.9301386
20.913975 41.617123 3.0824907
21.402147 41.943142 2.3806224
20.904007 44.923946 3.0686917
20.402248 48.399414 1.8846244
21.107838 6.9917812 3.3137584
23.070778 15.209236 2.1899624
21.07819 29.320002 2.3694465
23.013416 11.722637 2.262429
22.401901 31.213858 2.784481
22.604145 36.384029 2.1065795
22.532984 39.906975 2.0455699
20.925968 27.171087 3.0149615
21.510798 41.49971 2.2043293
21.745605 22.726711 2.4549289
20.876398 26.319326 2.5042422
20.914066 46.692482 1.8997861
20.580511 27.314596 3.2187696
20.782091 28.163631 2.6626048
21.228487 17.275717 2.4328384
21.205019 32.856052 3.0410035
20.928711 33.698036 2.36994
20.72274 38.06572 1.7748388
22.104134 36.802589 2.1313829
23.223125 7.7468047 2.9627142
22.732319 9.5346031 3.0433705
20.613184 36.948315 1.9732164
22.708775 14.710121 3.0014706
21.899904 24.95413 2.2748318
20.40843 25.899008 1.9935929
21.209038 44.533627 1.7263281
22.311804 23.884817 2.2146921
20.203758 37.742401 1.9550601
19.710115 38.183121 1.9790424
20.403053 38.187954 1.8982986
20.31078 38.689018 1.9438601
20.09643 39.218147 1.9684631
21.896338 39.755581 2.8883879
23.592752 40.44455 2.6391957
21.405731 42.758732 3.0220466
20.220592 45.951729 1.9439455
22.610966 35.28286 2.7865419
24.505213 36.103268 2.512181
22.865084 28.757944 2.1453125
22.804752 29.595945 2.1530762
22.797308 30.356241 2.102459
21.831171 30.720385 2.2764537
22.699995 42.102829 2.0499265
22.206411 41.389099 2.8759415
21.815514 36.820152 2.2013292
20.09663 23.132429 3.3447607
19.807762 10.977596 2.1673436
20.908339 27.474503 2.5193846
22.798029 8.0609007 3.1701782
21.97916 25.993835 2.3027217
22.231928 10.370203 3.1331167
22.155882 11.016609 3.1786938
22.518539 36.91246 2.9289539
21.617989 11.832862 3.2348661
22.358397 11.815266 3.1462789
22.393002 14.266497 3.1047225
21.316893 14.573862 3.2766907
21.520912 14.782523 3.211751
21.695402 26.200964 3.0046511
21.40361 34.769569 2.9846392
22.205618 33.482014 2.9013515
23.620525 34.752438 2.5205922
20.697599 34.813183 1.8580198
20.308971 35.125793 1.9273571
22.495434 39.353733 2.1519361
19.814213 36.588734 1.9991525
20.208872 36.773129 1.980749
20.607182 37.300926 1.9153765
21.202059 38.220268 3.0469179
20.501513 38.994541 1.9166703
20.501764 39.215824 1.9067334
20.021961 39.295052 2.0033517
23.303242 39.135044 2.631619
21.312502 41.602833 3.0220444
22.089336 45.392933 2.8784409
22.389906 46.967506 1.5136765
23.790182 46.891735 2.5906672
20.806566 13.035548 3.2998805
20.990337 37.435123 1.8333207
22.588135 8.1709185 1.6208419
21.495762 41.739143 2.9587357
22.906195 29.15975 2.0406044
21.906094 26.432577 2.2778635
20.950817 16.413754 2.5351243
22.834904 30.114035 2.0966322
19.019644 46.87294 2.0166388
21.918236 28.559668 2.2619376
20.70587 14.957924 2.4828417
20.956797 24.61771 2.4612403
22.886086 37.977482 2.0556884
20.955299 26.555887 2.4861648
20.969427 27.950083 2.4545031
20.994328 37.749001 2.3603315
21.599432 24.136053 1.8094562
23.60527 40.697613 2.7328873
21.201962 47.901836 1.7281003
21.923553 9.6814165 1.7712798
22.299406 9.4926882 3.2261069
21.997343 9.6876287 3.2811713
22.237761 10.516814 3.2071826
22.785673 10.532145 3.121938
22.204163 10.692329 3.1636558
21.678434 10.851961 3.3130939
22.212919 10.901394 3.2192674
22.200163 11.108747 3.2194819
22.706831 11.10175 3.1153831
22.395306 11.313448 3.1568794
22.476847 12.011881 2.3521175
22.601896 12.444127 3.1433103
22.310051 12.592318 3.1408548
21.633818 12.643073 3.2870624
22.572783 12.74173 3.157186
21.629911 12.808661 3.283834
22.099943 12.761858 3.2254279
22.318357 12.906768 3.1611211
22.525663 13.261076 3.1429667
20.933928 13.297029 3.4353268
21.996197 14.06536 3.2024102
22.226042 14.211158 3.1962299
21.799528 14.346132 3.2635996
19.004951 27.347736 2.2390115
21.416965 15.134713 3.2607193
21.572721 15.229568 3.2734482
21.506805 16.294994 3.2478986
21.607241 29.274496 1.8017679
20.406582 23.004505 2.0340912
21.371603 22.826654 3.1854365
20.423689 23.852959 2.0344539
20.73208 33.55389 2.4448769
24.000212 32.267002 2.5872123
21.600021 25.526119 2.4206915
22.500059 33.38047 2.8144965
23.602625 33.595703 2.6145735
20.210609 37.186146 2.0127289
22.10269 38.76078 2.902416
22.71744 41.505989 1.9974077
21.405531 41.291992 2.985744
22.226484 45.515022 2.8758171
20.202538 36.498993 1.9208604
21.744036 42.614418 2.3762038
22.708374 23.898211 2.0878744
20.008701 24.217066 2.0431821
22.982018 8.2987127 1.2591705
22.625513 11.948171 2.1287944
21.997108 24.209717 2.2739604
22.910362 27.921255 2.0821798
22.093784 12.516159 2.2542667
21.184788 9.7295399 1.6527435
21.201048 12.977386 2.057034
21.919889 26.337366 2.2620862
21.708475 26.840559 2.4309573
21.433142 24.09774 2.990283
21.820494 29.147305 2.3300364
23.204788 46.897884 1.505368
22.71929 11.698771 2.3137951
21.226036 6.4667177 3.3230662
20.984726 26.278032 2.4842186
20.929523 27.620867 2.545558
21.493961 28.757092 2.3368781
21.712809 42.268333 2.9123802
21.419855 9.7456064 1.5757604
21.718004 9.7423382 1.5676751
22.21413 9.6131964 3.0194063
22.131226 10.5949 2.9787586
22.632633 11.231294 2.897867
22.102295 11.226175 2.9926851
22.307989 11.436707 2.9507947
21.948853 15.025039 2.9948375
19.806767 33.477585 2.0721362
23.145407 33.338223 2.0180466
20.804388 34.36422 1.8701271
22.848095 8.9333315 1.5376953
21.240662 25.377886 3.2163599
21.33606 25.373175 3.2086418
21.307981 26.744677 3.1973522
21.048767 27.809248 3.208333
20.293859 37.287624 2.056654
20.70466 38.241844 1.9198145
20.205381 38.23885 1.9926064
22.499573 39.569843 2.874357
23.804232 41.187668 2.5926318
20.904163 41.255051 3.127548
22.897018 28.091852 1.9994256
22.863253 28.961319 2.0852497
23.568012 9.8757515 1.7904786
21.863724 26.19492 2.373076
22.772202 19.586779 2.1094851
21.93429 26.414881 2.3468864
20.715015 14.410664 3.3246787
22.812836 36.377628 2.066257
22.006929 17.064299 3.0766795
19.890333 12.042779 2.157269
22.411098 46.896008 1.628366
20.861126 28.200964 2.5361714
21.91287 20.3808 3.1257794
23.038424 9.4374619 1.3604138
22.469742 39.550514 2.0214462
20.728416 19.620205 2.4853716
23.773397 35.216217 2.5341403
21.600912 41.507732 2.9576523
23.814972 45.645634 2.5781388
22.401035 45.801929 2.8381298
22.90897 27.507595 2.0836623
23.472904 18.077078 2.7505484
21.000437 36.188293 1.803352
21.525402 25.318226 2.4265437
21.883078 28.527382 2.317915
21.7964 29.348557 2.3188624
22.712158 39.122181 2.0774212
20.280931 27.099047 3.2749152
20.800627 29.624796 1.8977079
22.125999 32.797771 3.0302024
20.116625 23.988358 2.0468478
20.865221 26.7272 2.6198528
20.816751 31.127817 2.4139955
19.796223 45.293015 1.9124178
24.389435 45.551327 1.2409726
19.502991 26.929281 2.1820292
22.308247 32.821835 2.9236257
23.286406 17.560539 2.9129796
21.49062 41.918339 2.3456044
25.058252 31.777216 2.4753313
20.502943 22.927044 2.0070515
19.664051 22.868301 2.1055291
22.297455 45.061981 1.5448432
21.609035 26.859076 3.0815494
21.893579 27.180305 3.0628877
21.192886 28.34057 3.1908593
22.104048 39.069881 2.9064667
22.20248 39.253075 2.9107785
20.001045 32.817757 1.93759
22.863487 27.571247 2.0472248
21.932312 24.067877 2.4291644
21.52899 14.892661 2.2682104
21.014124 13.575931 2.4651983
22.043674 26.92837 2.331666
22.825012 30.244041 2.0852182
21.903341 26.684364 2.2665732
22.898754 14.939055 2.9488659
21.203215 24.957323 1.8685137
22.595812 18.519655 2.8035951
23.310377 39.285004 2.6837041
23.314137 44.995716 2.595289
21.712502 36.691406 2.2587686
22.959856 31.398201 2.9943464
23.612209 31.002895 2.75
20.907742 25.921072 2.4852951
19.599016 45.264683 1.930336
22.792858 11.484936 2.2009294
21.944996 39.522919 2.2278652
20.457176 14.870412 2.4827869
20.601812 14.876761 2.4750838
23.438025 26.309349 2.667388
22.539841 47.526634 2.7570233
25.087534 48.146812 1.0256838
22.339773 10.378329 2.9771128
22.302603 11.217805 2.9730644
22.793875 11.435376 2.892616
20.802053 11.590075 3.2428143
22.000088 12.237859 3.0022337
21.309072 12.05296 3.1433082
21.805157 14.579881 3.0650735
21.207884 23.89864 3.1955273
21.423943 25.603037 3.1698711
20.09976 36.490429 1.9385519
22.177786 25.687738 3.1293614
22.78908 27.166428 2.7460628
21.303392 26.648336 3.1587849
21.300631 27.184284 3.1493123
20.994698 30.266737 3.2151248
22.82255 15.321863 2.2673416
20.008873 24.522682 2.0510616
24.534504 43.921619 2.5241516
20.111 24.213524 2.0380454
22.473101 8.3379478 1.4264523
22.1898 37.76749 2.1468391
21.581194 25.322168 2.3984201
21.897081 27.446901 2.313211
24.450886 32.215126 2.4894831
21.999866 25.549767 2.3187191
21.807844 29.91906 2.310158
22.410492 39.654324 2.9176176
20.937893 24.842398 2.4475999
20.690804 38.002724 1.7661694
20.014441 36.056862 1.9843538
22.124613 10.247615 2.9302664
21.803316 10.659987 3.0121469
22.110992 10.904332 2.9720793
21.848307 11.134521 2.9732764
22.632349 11.115086 2.8692288
22.244358 13.412647 2.1244001
22.581896 11.508615 2.8918095
21.844645 11.554591 2.9724751
22.273478 13.075538 2.9241157
22.306425 13.400587 2.9424906
22.184959 14.997384 2.9462247
21.396969 26.952784 3.1675901
21.013348 27.419018 3.1939662
21.905704 41.066219 2.9357846
21.306204 41.030811 3.0772772
23.105085 41.911804 2.7373469
23.041328 8.2692146 1.3143317
22.505726 14.977584 2.1351693
21.411293 14.933325 2.3065226
21.127937 16.158878 3.1221185
22.712839 28.185228 2.0611997
20.826944 34.176949 1.8095056
22.478035 33.916615 2.9921563
24.654863 26.112125 2.5040464
23.92046 23.714823 2.7369554
21.593582 25.262865 2.3930812
21.794153 26.580313 2.2654028
21.794966 26.920036 2.3378258
21.628113 17.522692 2.4539869
22.614502 45.313995 1.641184
21.63076 31.728891 2.2986922
22.082064 31.699718 2.2308297
20.917425 25.050793 2.4672875
20.499426 34.186234 1.8389975
22.502592 6.8641582 2.9171426
22.403654 9.1057577 2.9149127
22.400845 10.131824 2.9604292
22.6989 22.782753 2.910867
22.335495 10.566285 2.9050777
21.554411 10.589863 3.0601845
22.073271 10.792766 2.9755802
21.561247 11.216127 3.0617666
21.787121 11.437551 3.0252371
21.315886 11.391055 3.1122172
20.515287 27.918711 2.4948819
21.124184 26.668039 3.2002566
23.502562 40.108471 2.7068713
23.585417 40.332687 2.6773903
23.109499 41.600315 2.7297411
21.907001 41.915661 2.9306796
22.862688 27.063875 2.1523478
22.207561 38.366173 2.8444505
21.721561 32.3531 2.2874293
21.804544 25.580214 2.3727109
23.813139 32.239456 2.6193681
19.588366 23.619476 2.0239398
23.371861 24.466103 2.1920338
21.804678 28.542437 2.3387022
21.347744 45.197849 2.0540705
20.89558 24.692989 2.4344547
20.908054 25.160566 2.4725971
21.185387 23.684921 3.0592184
21.831915 39.549114 2.197098
22.190624 32.252552 3.0233655
22.495392 10.672279 3.0953479
22.697552 11.19882 3.0617762
20.73098 11.411749 3.356797
21.022539 12.552656 3.3184865
22.311083 13.658877 3.0998335
21.510271 33.397293 2.9794705
22.200193 40.410774 2.9150202
20.593571 19.451944 2.5204897
24.329767 31.654003 2.662771
22.403999 14.983237 2.314533
21.114973 32.353546 2.3734052
21.858208 26.476948 2.3622804
21.802832 27.594681 2.3911111
24.091732 25.496965 2.7108467
23.919903 26.900967 2.6627419
20.550892 39.739834 3.2175405
20.835703 30.112106 2.0873606
25.331697 32.666157 2.2528424
21.120268 27.311556 3.2905743
21.489792 36.139942 2.9760418
20.5256 37.896454 3.1339989
20.967546 33.534523 1.9946134
21.930174 10.679033 3.1826134
22.688482 10.969964 3.0826743
21.899357 11.523876 3.1971748
22.402559 12.380603 3.1359103
21.713932 12.295711 3.2029665
21.672247 12.659894 3.2199032
21.897623 14.292968 3.1831021
20.505424 34.549641 1.9453051
20.402025 37.833954 1.939494
20.102654 38.896828 1.9682463
23.799904 17.409319 2.7406988
21.888613 24.657585 2.2827806
22.728064 23.331282 2.7938542
23.177456 37.987125 1.6554416
20.662832 40.038429 2.3254156
20.968306 26.642775 3.0293651
21.508572 18.626396 3.1990676
21.80497 4.7704573 2.4084723
22.205132 22.783833 2.9924378
19.791651 38.460598 2.0327647
20.307543 38.80579 1.9301244
21.702467 42.852829 2.9773786
21.404705 44.857208 3.0276396
22.186197 14.976827 2.3436282
21.091021 14.337219 3.3410707
21.818186 32.576786 2.2571893
20.734352 6.0360742 3.3518488
23.222742 38.048546 1.606335
21.751348 27.551519 2.3796818
22.509758 27.845127 2.9195867
18.844215 33.466007 2.203594
22.504133 33.57032 2.882864
23.307295 15.386784 2.8746724
21.697863 31.732079 2.2823455
20.754322 29.669024 2.527261
23.68837 9.1650534 1.4020706
21.349592 6.086606 3.4260011
22.232222 9.3079205 3.1500595
22.157557 24.560383 2.1937652
22.324127 13.108675 3.1055846
20.702461 14.495616 3.3467844
22.205334 14.71757 3.0776861
21.998711 34.756886 2.8919096
21.093136 25.393618 3.2525721
22.11585 36.904438 2.9835186
22.201176 13.966007 3.1178164
19.112738 24.011263 2.1864796
24.113089 32.849255 2.5654016
21.207724 34.863518 3.0547512
20.106607 38.185062 1.9415849
20.000042 38.585426 1.9804378
19.900784 39.288815 1.9940423
22.405846 42.754398 2.8582423
21.108904 19.228874 3.1299517
23.030607 8.2145996 1.5824137
22.704361 12.00492 2.3242013
22.402464 8.3854961 1.6606212
22.223597 13.447371 2.3824747
21.382196 14.97577 2.4685788
20.694435 8.1853867 1.9826213
22.670122 7.0876303 3.0977767
21.797136 27.462978 2.3498976
23.40464 43.762886 2.5612979
21.70957 26.383343 3.0343833
23.55817 27.408554 2.6406674
23.724932 17.635752 2.7413707
21.600899 33.922825 2.9584439
23.90414 33.9254 2.5890992
20.901457 38.228905 2.5514481
23.465677 9.241291 2.9556229
22.837984 9.967948 3.1121337
22.557528 10.200806 3.1356955
22.314104 10.689572 3.136035
22.77817 10.710782 3.101593
22.292259 10.920094 3.1259158
21.760042 11.083264 3.2473249
22.245136 11.314279 3.1643748
22.208893 11.502501 3.1619978
21.755587 11.485547 3.2469995
21.971834 12.338731 3.1867836
22.18265 12.6593 3.1622865
21.485039 14.985824 2.4597917
21.713028 14.983675 2.4230742
22.126902 32.117397 2.2641935
21.716745 14.282248 3.1993489
22.08709 14.26085 3.1501703
21.080538 16.290625 3.3199253
21.894623 16.508648 3.1902909
23.667332 34.817944 2.5570281
24.12043 32.590839 2.6046205
23.909277 32.858513 2.6102371
22.704363 33.70269 2.8052959
20.505266 37.213352 1.9118935
20.407379 38.896362 1.9207584
19.904377 38.998604 2.0065775
21.979572 44.461399 2.8449287
22.872755 12.217029 3.1203437
22.736553 8.2970552 1.6715438
22.405128 12.016647 2.3587863
22.371805 13.422367 2.3594239
21.956341 13.406161 2.4229414
22.898203 28.178728 2.0250859
23.905741 46.713547 1.3296411
21.09901 11.995772 2.5861053
21.099361 13.072013 3.386322
22.815586 30.18008 2.090477
23.612488 33.922749 2.6506619
21.825785 25.984846 2.4165125
24.132975 33.914005 2.5517447
21.901615 27.681643 2.3068824
23.517435 41.48019 1.8658546
20.953449 45.840542 2.9693055
21.706892 26.475397 3.0455618
20.909929 24.623209 2.4827571
22.000853 46.751896 1.7639524
20.307117 18.00008 3.3535972
22.162632 39.320061 2.1739197
23.392643 40.413548 2.750911
22.207951 32.288673 2.9432149
21.519247 10.371241 3.2834048
22.536068 10.443393 3.1617248
22.019735 10.367525 3.2604425
21.506491 10.584883 3.3255899
22.012899 10.605603 3.2566769
21.998592 10.983295 3.196028
22.116682 13.418359 2.388135
21.717541 13.412087 2.4777842
21.090414 12.83479 3.3676474
20.881796 12.966103 3.4034741
22.138327 14.896737 3.152184
22.433716 15.154871 3.10217
22.062651 15.41866 3.1535568
20.173042 33.841724 3.1464977
21.401901 15.42375 3.2695279
21.705799 5.3041639 3.2390053
22.501978 25.756359 2.8978839
20.293129 35.802448 2.4621949
24.003098 31.835941 2.6996343
22.692083 24.719566 2.8216727
23.103483 37.383308 2.738131
23.784492 33.833157 2.5609801
22.29216 34.76709 2.8531609
21.303898 42.977005 3.0213625
21.71755 46.353851 2.92116
21.912682 24.278362 2.4291346
22.88336 27.854567 2.053647
23.50709 6.9563413 2.8616881
20.584536 7.7500634 3.4961491
22.895363 29.004564 2.0482161
23.205795 10.14514 1.80221
21.985748 14.809427 3.1784575
21.924139 26.699831 2.3705461
21.590408 26.917356 2.3583229
20.744259 18.153053 3.3641653
20.905828 30.714172 2.4327509
19.536283 38.13863 2.0433762
22.598608 17.555182 3.0292368
21.993237 40.430798 3.0778742
21.396383 24.100849 2.8660486
22.436644 34.298695 2.0260448
20.606619 29.273918 1.9477
20.587008 41.607998 3.1299036
21.490376 36.478477 1.7732528
20.950409 29.930176 2.4626567
24.230537 30.339632 2.5770943
24.163338 30.874643 2.5867453
20.805565 38.460529 1.8919814
20.299065 38.457767 1.9572368
20.80706 38.767418 1.8856024
21.907976 44.983608 2.9242013
22.801184 37.291233 2.7510419
21.117695 17.932959 3.1465437
21.891766 24.844915 2.3030131
19.988352 45.28767 1.8604429
22.611115 32.068256 2.8926101
22.799019 30.881115 2.0839014
20.105938 23.820753 1.8964298
21.831774 26.760328 2.3756864
21.877666 27.060461 2.296689
21.89043 27.200274 2.329659
21.81649 27.687 2.3257446
22.667765 39.565258 2.0846677
20.87612 18.352985 3.1347051
20.915592 18.716473 2.5016391
19.914127 28.508497 2.0881245
22.494425 11.427433 2.2539952
21.598398 17.557932 3.1919324
20.702381 18.11599 3.2636266
22.725271 12.032091 2.9114761
21.110617 17.161547 3.2415338
24.087259 30.289034 2.615623
21.71179 30.460478 3.0548646
20.797533 35.483032 1.92725
20.303314 36.554386 1.9837704
20.192713 37.487694 2.0286357
20.154598 37.802616 2.0316572
20.036007 38.921867 2.0414183
23.4958 9.0634584 2.7132449
21.790812 19.309134 2.2543612
21.904989 25.598949 2.2868659
21.799702 27.76078 2.3609231
22.509104 42.213436 2.1052241
19.420797 23.804054 1.9831254
20.820648 29.597546 2.4449029
21.666048 28.04707 2.9497859
21.719097 39.314919 2.2773628
22.289652 36.175262 2.1672328
22.40947 8.70397 2.9623435
22.392565 8.9801922 2.9432647
22.328417 10.876671 2.9388835
21.803452 15.015159 3.0229561
19.911797 33.477036 2.068378
22.229837 15.108188 2.9792078
20.902124 22.959839 1.9022661
21.012928 26.666452 3.2209628
22.703005 29.772797 2.992696
23.300098 30.692518 2.7982974
19.912111 37.691929 2.0518909
23.593733 34.19495 2.6980338
21.699221 34.123878 2.1422794
21.585325 24.763056 1.8278903
23.077229 37.535793 1.5027537
21.700083 26.553974 2.3361986
20.602139 28.863195 1.9329817
19.794621 37.253582 1.9724486
20.5243 31.826509 3.208899
20.99581 25.080683 1.8536185
20.912348 18.391451 3.3129196
21.816196 24.54657 2.3170712
20.119944 36.326366 2.031369
19.71343 37.962067 2.0667706
20.706169 35.134609 3.1688027
23.408136 8.2470379 1.3641447
23.122913 37.709053 1.4780369
21.746578 26.600922 2.3558798
20.907663 28.863171 1.8849871
20.828094 46.261776 3.0429821
19.927265 11.908094 2.1746492
21.078564 18.349573 3.3376811
23.72467 27.377796 2.58903
21.132141 36.243301 2.378576
23.107107 22.783281 2.8494289
22.09605 24.745256 2.9288654
20.340216 35.152279 3.2483368
23.601135 35.265324 2.6876371
20.909967 45.290768 3.110554
20.599041 48.526989 1.8253232
21.803131 24.359201 2.2990675
21.617685 22.495312 3.1577735
21.809473 41.538174 2.241425
20.864416 28.83617 2.4554436
20.81431 29.055119 2.467334
20.901878 12.090517 3.2630298
20.325613 18.38802 3.3682239
20.171427 18.419725 3.4485412
22.70553 10.977576 2.9343266
21.93153 13.442853 3.0408115
22.596439 32.730282 2.1873033
19.724621 38.590282 2.0967519
20.844069 13.696626 3.3294652
20.18782 13.429676 3.3441894
21.694199 26.917789 2.4023671
21.713625 29.170523 2.2966988
21.38537 21.98 3.0500038
21.914907 15.094722 3.0205393
19.687311 45.259861 1.9347621
22.268793 39.282482 2.1832433
23.394987 45.004002 2.58881
21.800068 39.494701 2.2610629
21.202307 27.169239 1.8499011
22.413677 32.453773 2.1597259
20.701712 35.932781 1.9067848
22.316025 7.4113688 3.1557963
21.840626 23.648611 2.4093416
20.901934 15.852407 2.5501068
20.98844 13.646886 3.2980781
22.814867 29.515705 2.1173034
22.89797 23.370888 2.9507651
21.480076 20.233191 2.4123724
23.186119 15.885127 2.1498573
23.20311 16.488176 2.1219995
20.907103 32.237988 2.3856888
25.023838 32.423126 2.4286382
22.019882 30.967131 2.8247895
23.96423 30.846754 2.7336786
21.617847 36.562386 2.2565811
21.827364 13.33213 2.4041953
20.603401 12.10629 3.3099251
20.80616 29.273628 1.9165791
21.591778 23.674255 3.1814756
21.528553 26.117487 3.0062282
23.739977 15.031353 2.8438764
23.62631 27.971121 1.976794
20.930876 13.161992 3.4302094
20.700951 13.389206 3.2951531
20.805717 23.80509 1.9295875
23.081532 39.533455 2.9722159
23.016422 39.220524 2.8988504
21.717052 28.535139 2.3204024
21.792887 29.708658 2.3312442
21.293152 33.597954 1.8925163
22.304712 47.196362 2.7477944
19.698086 9.3117628 1.9330529
20.693815 41.491173 3.0953393
22.203581 24.559429 2.2685483
23.969687 32.02771 2.5127943
20.701206 29.276461 1.9370505
21.909407 17.836098 2.2407205
22.315262 30.417868 2.8981023
21.339861 13.326558 3.3140571
19.908962 29.180496 2.0371175
22.817812 36.670822 2.9045935
20.673513 12.021268 3.2228823
20.298492 13.095912 3.3870652
21.428907 29.37298 2.3649263
19.609571 23.808002 2.0905778
19.006136 27.675987 2.2402256
20.708113 27.67128 1.9650363
20.825907 17.101816 3.2054892
21.601555 25.560532 2.2514935
21.988714 10.298819 3.1526268
21.718105 44.709255 3.0034881
21.021868 10.93224 3.2592833
21.106045 11.132086 3.27336
22.839165 32.262192 2.005595
19.631599 10.14419 2.2141232
23.612049 27.734148 1.9544902
22.607031 19.01819 2.8999345
21.195097 14.607622 2.4744675
21.295012 13.025055 3.2477491
20.209131 33.519005 1.9613622
20.740559 13.351253 3.1893156
23.445843 17.884127 2.1657202
21.873646 24.347359 2.4197693
23.854101 15.422249 2.0134711
23.015553 37.949966 1.512272
21.715977 27.708609 2.302985
20.901972 22.921892 2.5087485
20.236111 22.942671 3.2981036
20.804205 39.585098 2.3766026
20.421566 11.787885 3.2698619
21.12615 27.757633 1.7955562
23.523453 15.382295 2.1238809
20.209204 13.188295 3.4534981
20.815056 13.16371 3.2758257
21.90942 10.067636 3.1673367
21.385519 10.273031 3.2498834
21.008068 10.67395 3.345005
21.222198 10.909184 3.2916288
21.61668 26.115828 2.975075
22.516031 27.486347 2.8276539
24.143143 29.509279 2.6333098
21.329191 47.503624 2.99563
23.591404 27.579805 1.9708067
23.797979 6.7488737 2.9399254
21.626127 12.964628 3.2823801
21.711227 24.729141 1.7966561
19.693457 32.401291 2.1077783
23.802572 46.732853 1.2891194
21.106707 23.637369 2.3137698
20.465748 5.6460848 3.4070652
22.664938 28.025436 2.7769208
22.607006 30.524538 2.1810038
19.714691 32.122429 1.9566158
22.51932 32.64716 2.7393034
22.935541 37.725887 1.5292513
22.044271 26.79854 2.8059423
20.506723 38.148682 1.9256003
19.516121 37.234192 1.9876746
19.091215 27.033947 2.2981308
21.301966 26.85433 2.3359301
